0.11402881145477295 -0.20036011934280396 0.15519385039806366 255.0 0.0 0.0
0.2510532736778259 -0.18268351256847382 0.15373969078063965 255.0 0.0 0.0
-0.24023838341236115 -0.3503918945789337 -0.08982444554567337 255.0 0.0 0.0
-0.26928624510765076 0.2617007791996002 -0.337671160697937 255.0 0.0 0.0
-0.2229456603527069 0.4704223573207855 0.09961018711328506 255.0 0.0 0.0
0.28859901428222656 -0.2366507202386856 -0.1345694214105606 255.0 0.0 0.0
0.2851962447166443 0.23080240190029144 -0.0048441337421536446 255.0 0.0 0.0
-0.14897732436656952 -0.24543355405330658 0.15454983711242676 255.0 0.0 0.0
-0.23204903304576874 -0.2543759047985077 0.03746230527758598 255.0 0.0 0.0
-0.26927855610847473 -0.095624640583992 -0.24325336515903473 255.0 0.0 0.0
-0.1664809286594391 0.32504022121429443 -0.3307211399078369 255.0 0.0 0.0
-0.25665000081062317 0.08010794967412949 -0.3033806085586548 255.0 0.0 0.0
0.16049060225486755 -0.24804191291332245 -0.1347716897726059 255.0 0.0 0.0
-0.25514596700668335 0.1201525330543518 -0.31250038743019104 255.0 0.0 0.0
0.26036500930786133 -0.4439229667186737 -0.06299786269664764 255.0 0.0 0.0
-0.046232759952545166 0.21755164861679077 0.15630581974983215 255.0 0.0 0.0
0.06044348329305649 0.12378863245248795 -0.17639033496379852 255.0 0.0 0.0
-0.014261199161410332 0.17021870613098145 -0.13200430572032928 255.0 0.0 0.0
0.06506412476301193 -0.18806374073028564 0.15710486471652985 255.0 0.0 0.0
-0.23039257526397705 0.005578184500336647 0.1543879359960556 255.0 0.0 0.0
-0.0346204973757267 0.18327248096466064 -0.16226638853549957 255.0 0.0 0.0
0.05713868886232376 0.20844389498233795 -0.19539374113082886 255.0 0.0 0.0
-0.10794328898191452 0.15858276188373566 0.16808338463306427 255.0 0.0 0.0
0.282982736825943 -0.41925346851348877 0.19116780161857605 255.0 0.0 0.0
0.27098652720451355 -0.44030341506004333 -0.052066147327423096 255.0 0.0 0.0
-0.037310656160116196 0.1855822056531906 -0.17533159255981445 255.0 0.0 0.0
0.29318714141845703 0.2213154435157776 -0.123996801674366 255.0 0.0 0.0
0.16511285305023193 0.166309654712677 0.15810754895210266 255.0 0.0 0.0
0.25411316752433777 -0.2519329786300659 0.021750904619693756 255.0 0.0 0.0
0.19235490262508392 0.16783049702644348 0.15612061321735382 255.0 0.0 0.0
-0.3265465795993805 -0.33375805616378784 0.16055560111999512 255.0 0.0 0.0
-0.22028258442878723 -0.11865858733654022 0.16487781703472137 255.0 0.0 0.0
0.2668001651763916 -0.31920626759529114 0.08739300817251205 255.0 0.0 0.0
0.25425902009010315 0.4893076717853546 0.1159968227148056 255.0 0.0 0.0
0.254177451133728 0.26452934741973877 0.0383327417075634 255.0 0.0 0.0
-0.25842157006263733 -0.22923296689987183 -0.13506805896759033 255.0 0.0 0.0
0.09607585519552231 -0.24901321530342102 -0.12620152533054352 255.0 0.0 0.0
-0.2750425338745117 0.23129774630069733 -0.32035645842552185 255.0 0.0 0.0
0.21206504106521606 0.4982350766658783 -0.01848701946437359 255.0 0.0 0.0
-0.22843776643276215 -0.00942573044449091 0.15054048597812653 255.0 0.0 0.0
-0.028712252154946327 0.24892735481262207 -0.21995288133621216 255.0 0.0 0.0
0.25838565826416016 -0.4439917504787445 -0.08138356357812881 255.0 0.0 0.0
0.0797387883067131 0.21226395666599274 0.15803830325603485 255.0 0.0 0.0
-0.019716771319508553 0.16350708901882172 -0.21795153617858887 255.0 0.0 0.0
-0.07474268972873688 0.22785410284996033 -0.12496097385883331 255.0 0.0 0.0
0.27588993310928345 0.46065792441368103 0.12152592092752457 255.0 0.0 0.0
-0.26571962237358093 0.13141758739948273 -0.29024237394332886 255.0 0.0 0.0
0.2905646860599518 0.026509195566177368 0.15361979603767395 255.0 0.0 0.0
0.2647224962711334 0.32448044419288635 0.06932888925075531 255.0 0.0 0.0
0.2556701600551605 0.5174371004104614 0.02735115773975849 255.0 0.0 0.0
-0.17459897696971893 -0.2652958929538727 0.06012044474482536 255.0 0.0 0.0
0.2969074249267578 -0.1665634959936142 -0.13447797298431396 255.0 0.0 0.0
-0.23241786658763885 0.282564640045166 -0.3328995704650879 255.0 0.0 0.0
-0.03169070929288864 0.22105732560157776 0.15632209181785583 255.0 0.0 0.0
-0.030412165448069572 0.2438882440328598 -0.22018900513648987 255.0 0.0 0.0
-0.2439790666103363 -0.29337605834007263 0.08353441208600998 255.0 0.0 0.0
-0.20822244882583618 -0.24529042840003967 0.1568235456943512 255.0 0.0 0.0
-0.22240853309631348 -0.4392975866794586 0.16672389209270477 255.0 0.0 0.0
-0.3348539471626282 -0.39367175102233887 0.026746397837996483 255.0 0.0 0.0
-0.27134841680526733 -0.24265040457248688 -0.047164976596832275 255.0 0.0 0.0
0.2909862697124481 -0.09956351667642593 0.1557324379682541 255.0 0.0 0.0
-0.07030148804187775 -0.23576125502586365 -0.13670313358306885 255.0 0.0 0.0
-0.2661796510219574 -0.2483849823474884 -0.0293562151491642 255.0 0.0 0.0
-0.19494934380054474 0.49978768825531006 0.0907740369439125 255.0 0.0 0.0
0.280854195356369 0.21790334582328796 -0.1349238008260727 255.0 0.0 0.0
0.23693890869617462 0.22881902754306793 -0.044554416090250015 255.0 0.0 0.0
0.0076661016792058945 0.28818145394325256 -0.2755499482154846 255.0 0.0 0.0
-0.27880972623825073 0.12550796568393707 -0.3136521875858307 255.0 0.0 0.0
0.2043994665145874 0.15035519003868103 0.1689225137233734 255.0 0.0 0.0
-0.10433284938335419 -0.24588114023208618 -0.13273808360099792 255.0 0.0 0.0
0.29878881573677063 0.14205217361450195 0.1446305513381958 255.0 0.0 0.0
-0.21418941020965576 -0.2901391386985779 -0.06621995568275452 255.0 0.0 0.0
-0.2017485499382019 0.3334614336490631 -0.32786232233047485 255.0 0.0 0.0
0.0936279222369194 0.21529589593410492 0.1556140035390854 255.0 0.0 0.0
0.173052579164505 -0.2510824501514435 -0.12350520491600037 255.0 0.0 0.0
0.21748563647270203 0.47079694271087646 0.10388600081205368 255.0 0.0 0.0
0.28308260440826416 -0.24637432396411896 -0.12423594295978546 255.0 0.0 0.0
0.28816521167755127 0.2257792204618454 -0.049330513924360275 255.0 0.0 0.0
-0.2606514096260071 0.06252924352884293 -0.2688307762145996 255.0 0.0 0.0
0.2523616850376129 -0.08874320983886719 0.1471184492111206 255.0 0.0 0.0
-0.16069497168064117 0.31227976083755493 -0.34558069705963135 255.0 0.0 0.0
0.05103118717670441 0.17790602147579193 -0.21060015261173248 255.0 0.0 0.0
0.06346745043992996 0.15067961812019348 -0.1438423991203308 255.0 0.0 0.0
0.2502075433731079 0.25456684827804565 -0.021976778283715248 255.0 0.0 0.0
0.29646801948547363 -0.14767788350582123 -0.13819116353988647 255.0 0.0 0.0
0.2383863776922226 -0.1850467026233673 0.16542769968509674 255.0 0.0 0.0
-0.2662656903266907 -0.09886152297258377 -0.24617671966552734 255.0 0.0 0.0
-0.025775223970413208 0.27476373314857483 -0.27585089206695557 255.0 0.0 0.0
0.28759095072746277 -0.4262616038322449 0.13964472711086273 255.0 0.0 0.0
-0.2516864538192749 0.41654667258262634 0.11796247214078903 255.0 0.0 0.0
-0.23065383732318878 0.348237007856369 0.10162028670310974 255.0 0.0 0.0
0.19914406538009644 -0.44603845477104187 0.1888362020254135 255.0 0.0 0.0
0.2688273787498474 0.3446867763996124 -0.06704095005989075 255.0 0.0 0.0
0.2824270725250244 -0.25006669759750366 0.11328621208667755 255.0 0.0 0.0
0.22727058827877045 -0.35496559739112854 -0.08824558556079865 255.0 0.0 0.0
-0.21024960279464722 -0.008887631818652153 0.170430526137352 255.0 0.0 0.0
0.2869912385940552 -0.4361587166786194 0.18357127904891968 255.0 0.0 0.0
-0.22870340943336487 -0.2382666915655136 0.15861506760120392 255.0 0.0 0.0
-0.27411824464797974 0.05548574775457382 0.14386220276355743 255.0 0.0 0.0
0.22727902233600616 -0.16737990081310272 0.16934683918952942 255.0 0.0 0.0
-0.2476305514574051 0.22389288246631622 -0.34271010756492615 255.0 0.0 0.0
-0.2564355134963989 0.06389375776052475 -0.27606335282325745 255.0 0.0 0.0
0.26830512285232544 0.33872634172439575 0.0894690677523613 255.0 0.0 0.0
0.25597718358039856 -0.030355704948306084 0.15068842470645905 255.0 0.0 0.0
0.20565688610076904 -0.4435996115207672 -0.07581552863121033 255.0 0.0 0.0
0.23111747205257416 -0.4457404613494873 0.19824852049350739 255.0 0.0 0.0
-0.09913162142038345 0.3145780563354492 -0.3305720388889313 255.0 0.0 0.0
-0.1788381189107895 0.3143174946308136 0.01137362327426672 255.0 0.0 0.0
-0.25114569067955017 -0.024472985416650772 -0.23015229403972626 255.0 0.0 0.0
0.21565520763397217 0.46719905734062195 0.10297707468271255 255.0 0.0 0.0
-0.18116708099842072 0.30918368697166443 0.004760838113725185 255.0 0.0 0.0
-0.16136027872562408 0.3477835953235626 0.03166382759809494 255.0 0.0 0.0
0.011538205668330193 0.28828975558280945 -0.2699016034603119 255.0 0.0 0.0
-0.2691431939601898 -0.22225230932235718 0.14213712513446808 255.0 0.0 0.0
-0.01112779974937439 0.2903927266597748 -0.23974967002868652 255.0 0.0 0.0
0.17643854022026062 0.18492229282855988 0.15591537952423096 255.0 0.0 0.0
-0.236277773976326 -0.2550232410430908 -0.015377631410956383 255.0 0.0 0.0
0.2579648196697235 -0.35136550664901733 0.14521664381027222 255.0 0.0 0.0
0.25496813654899597 -0.2914997637271881 -0.056063007563352585 255.0 0.0 0.0
0.0077424137853085995 0.29045090079307556 -0.28092247247695923 255.0 0.0 0.0
0.2847971022129059 -0.4401496946811676 -0.015887780115008354 255.0 0.0 0.0
-0.16347534954547882 -0.24777404963970184 -0.13721472024917603 255.0 0.0 0.0
0.03655606880784035 0.19231221079826355 -0.13499203324317932 255.0 0.0 0.0
0.1149863451719284 -0.24474270641803741 -0.13686445355415344 255.0 0.0 0.0
0.24252933263778687 -0.3390589952468872 0.13012363016605377 255.0 0.0 0.0
-0.2607695162296295 0.44236883521080017 0.1188802495598793 255.0 0.0 0.0
0.2687443196773529 0.2175072729587555 0.15671952068805695 255.0 0.0 0.0
-0.2587258219718933 0.18512052297592163 -0.32113295793533325 255.0 0.0 0.0
-0.2607428729534149 -0.030225688591599464 -0.3036171495914459 255.0 0.0 0.0
0.271068811416626 -0.3483423590660095 0.136270210146904 255.0 0.0 0.0
-0.18962928652763367 0.4868882894515991 -0.03258666768670082 255.0 0.0 0.0
0.24389605224132538 -0.2645699977874756 0.061912182718515396 255.0 0.0 0.0
-0.3373250961303711 -0.3888527452945709 0.044449690729379654 255.0 0.0 0.0
-0.16683736443519592 -0.25652387738227844 -0.03487830236554146 255.0 0.0 0.0
0.1665336936712265 -0.3998100459575653 0.1725546419620514 255.0 0.0 0.0
0.056335002183914185 0.22123736143112183 -0.13497640192508698 255.0 0.0 0.0
0.2831368148326874 0.21008093655109406 0.15632209181785583 255.0 0.0 0.0
0.05602474883198738 0.1612808257341385 -0.20049305260181427 255.0 0.0 0.0
-0.20199662446975708 0.30320340394973755 -0.34576866030693054 255.0 0.0 0.0
-0.2624399960041046 -0.04481257498264313 -0.13506805896759033 255.0 0.0 0.0
0.2972424626350403 0.15995129942893982 0.14266468584537506 255.0 0.0 0.0
0.2625569701194763 -0.3175652027130127 0.09883655607700348 255.0 0.0 0.0
0.23434887826442719 0.5092402100563049 0.11260049045085907 255.0 0.0 0.0
0.167342871427536 -0.2709866762161255 0.0047648814506828785 255.0 0.0 0.0
-0.23922379314899445 0.22491709887981415 0.15170377492904663 255.0 0.0 0.0
0.05436056852340698 0.20290835201740265 -0.1987975388765335 255.0 0.0 0.0
0.2715248763561249 -0.3520543873310089 0.14115852117538452 255.0 0.0 0.0
-0.04874137416481972 0.16527321934700012 0.15961484611034393 255.0 0.0 0.0
-0.06911050528287888 0.216717928647995 -0.13506805896759033 255.0 0.0 0.0
0.2972581684589386 -0.23679524660110474 0.07322341948747635 255.0 0.0 0.0
0.2596817910671234 0.2860136926174164 -0.01431224588304758 255.0 0.0 0.0
0.23804019391536713 0.22754321992397308 0.15119902789592743 255.0 0.0 0.0
-0.02025013603270054 0.10665097832679749 -0.16938412189483643 255.0 0.0 0.0
0.20484113693237305 0.24091194570064545 -0.005201789550483227 255.0 0.0 0.0
-0.23995928466320038 -0.26144707202911377 0.01594081148505211 255.0 0.0 0.0
-0.03886010870337486 0.22626684606075287 -0.11887583881616592 255.0 0.0 0.0
0.1976688951253891 0.4818728268146515 0.11819916218519211 255.0 0.0 0.0
0.2520711123943329 0.3404289484024048 -0.06614691764116287 255.0 0.0 0.0
0.2981833219528198 -0.012813047505915165 -0.13002492487430573 255.0 0.0 0.0
-0.22241374850273132 -0.40332236886024475 0.1827961951494217 255.0 0.0 0.0
0.19732479751110077 0.49313563108444214 0.0990559533238411 255.0 0.0 0.0
-0.20344990491867065 0.047824691981077194 0.16933706402778625 255.0 0.0 0.0
0.2568618655204773 0.07040579617023468 0.15451955795288086 255.0 0.0 0.0
-0.020200449973344803 0.21096831560134888 -0.2312111258506775 255.0 0.0 0.0
-0.15712220966815948 0.36119043827056885 0.03847045823931694 255.0 0.0 0.0
-0.2121671885251999 0.2670227587223053 -0.020830605179071426 255.0 0.0 0.0
-0.17947928607463837 0.31745365262031555 0.009066448546946049 255.0 0.0 0.0
-0.2707524597644806 0.22113151848316193 -0.0954630896449089 255.0 0.0 0.0
-0.26965510845184326 -0.2243034541606903 0.15550948679447174 255.0 0.0 0.0
-0.07413184642791748 -0.18726924061775208 0.16501487791538239 255.0 0.0 0.0
0.053009964525699615 -0.2356141209602356 -0.1337530016899109 255.0 0.0 0.0
-0.2732376754283905 -0.0819850042462349 -0.23577240109443665 255.0 0.0 0.0
0.181021586060524 0.210911363363266 -0.13532496988773346 255.0 0.0 0.0
-0.21774186193943024 -0.13515450060367584 0.17157137393951416 255.0 0.0 0.0
-0.20584268867969513 -0.028413543477654457 0.16932809352874756 255.0 0.0 0.0
-0.23763783276081085 -0.2556306719779968 -0.02041931077837944 255.0 0.0 0.0
0.1488785445690155 0.21782858669757843 0.15632209181785583 255.0 0.0 0.0
-0.2643887400627136 0.35297396779060364 0.05051637440919876 255.0 0.0 0.0
-0.11327414214611053 0.2187623828649521 0.15834727883338928 255.0 0.0 0.0
-0.011993318796157837 -0.23538701236248016 -0.1319112479686737 255.0 0.0 0.0
0.2821708619594574 -0.25058045983314514 0.039756253361701965 255.0 0.0 0.0
0.13727796077728271 0.15858839452266693 0.1662672609090805 255.0 0.0 0.0
-0.24802042543888092 0.23418238759040833 -0.010819445364177227 255.0 0.0 0.0
0.2816351652145386 -0.36337634921073914 0.12035869061946869 255.0 0.0 0.0
0.19931285083293915 0.33516669273376465 -0.03613583743572235 255.0 0.0 0.0
0.18896709382534027 0.34903064370155334 0.07727132737636566 255.0 0.0 0.0
0.24545297026634216 0.31830593943595886 -0.03355814516544342 255.0 0.0 0.0
0.2904920279979706 -0.4259878098964691 0.05079023167490959 255.0 0.0 0.0
0.23212097585201263 0.0593949556350708 0.1683148592710495 255.0 0.0 0.0
0.266252726316452 0.24637803435325623 -0.013008875772356987 255.0 0.0 0.0
-0.2381686121225357 0.4582880735397339 -0.06285403668880463 255.0 0.0 0.0
-0.03321130946278572 0.2671073079109192 -0.2514260709285736 255.0 0.0 0.0
-0.2609943747520447 0.12849289178848267 -0.29654356837272644 255.0 0.0 0.0
0.010250210762023926 0.12551628053188324 -0.21257217228412628 255.0 0.0 0.0
-0.22560065984725952 -0.2568998336791992 0.0564253069460392 255.0 0.0 0.0
-0.2410925030708313 0.3284197449684143 -0.02346489578485489 255.0 0.0 0.0
-0.19636934995651245 0.2291446477174759 0.15335622429847717 255.0 0.0 0.0
0.29649344086647034 0.029268460348248482 0.15376274287700653 255.0 0.0 0.0
-0.2728857100009918 0.13506074249744415 -0.28859519958496094 255.0 0.0 0.0
-0.2515695095062256 0.34872865676879883 -0.04342128336429596 255.0 0.0 0.0
-0.27112478017807007 -0.17074814438819885 -0.128493994474411 255.0 0.0 0.0
-0.17681504786014557 -0.26479700207710266 0.061859507113695145 255.0 0.0 0.0
-0.18385052680969238 0.2884262502193451 0.012814880348742008 255.0 0.0 0.0
-0.22148147225379944 0.38000383973121643 0.10982553660869598 255.0 0.0 0.0
-0.23915794491767883 -0.26979294419288635 -0.002010767348110676 255.0 0.0 0.0
0.28429722785949707 -0.37616226077079773 0.13118305802345276 255.0 0.0 0.0
-0.2933560013771057 0.053608641028404236 -0.2592882215976715 255.0 0.0 0.0
-0.2371796816587448 0.3672081232070923 0.11458822339773178 255.0 0.0 0.0
-0.22427576780319214 -0.17394199967384338 0.16064132750034332 255.0 0.0 0.0
0.28934603929519653 -0.43930235505104065 0.13129837810993195 255.0 0.0 0.0
0.19279295206069946 0.344830721616745 -0.05038703978061676 255.0 0.0 0.0
0.25054240226745605 0.3191976547241211 -0.029951466247439384 255.0 0.0 0.0
0.19977590441703796 -0.44262659549713135 0.2007697969675064 255.0 0.0 0.0
-0.18554741144180298 0.4033460021018982 0.08956687897443771 255.0 0.0 0.0
0.26054051518440247 -0.2537802457809448 -0.028547653928399086 255.0 0.0 0.0
-0.2887519896030426 0.06030098721385002 -0.26941215991973877 255.0 0.0 0.0
0.23137414455413818 0.22661109268665314 0.15761405229568481 255.0 0.0 0.0
-0.022146353498101234 0.23266007006168365 -0.19320571422576904 255.0 0.0 0.0
-0.21263815462589264 0.30462154746055603 -0.36322370171546936 255.0 0.0 0.0
-0.15463414788246155 0.229561910033226 0.14289426803588867 255.0 0.0 0.0
0.01782301813364029 0.08771275728940964 -0.13261926174163818 255.0 0.0 0.0
-0.2683202922344208 0.1533111333847046 0.15468928217887878 255.0 0.0 0.0
-0.03930993378162384 0.22515422105789185 0.1559108942747116 255.0 0.0 0.0
0.28509870171546936 -0.44638049602508545 0.14937622845172882 255.0 0.0 0.0
0.1674385815858841 -0.3990497291088104 0.17724105715751648 255.0 0.0 0.0
-0.16597628593444824 -0.24109317362308502 -0.13506805896759033 255.0 0.0 0.0
-0.049385540187358856 0.21868325769901276 -0.1323605179786682 255.0 0.0 0.0
0.21299423277378082 0.28805023431777954 0.02674144320189953 255.0 0.0 0.0
-0.244219571352005 0.2533245384693146 -0.3348611295223236 255.0 0.0 0.0
-0.20904549956321716 0.451189786195755 0.08776162564754486 255.0 0.0 0.0
-0.18596209585666656 0.27117353677749634 0.007659132592380047 255.0 0.0 0.0
0.08037551492452621 0.21661829948425293 -0.13665255904197693 255.0 0.0 0.0
0.047368038445711136 0.1935557723045349 -0.22388195991516113 255.0 0.0 0.0
0.2726260721683502 0.23451679944992065 -0.0012572999112308025 255.0 0.0 0.0
-0.19723840057849884 0.2259017527103424 -0.11822040379047394 255.0 0.0 0.0
-0.3003089725971222 -0.32853904366493225 0.1814708113670349 255.0 0.0 0.0
-0.16512072086334229 0.2254706174135208 -0.01464337669312954 255.0 0.0 0.0
-0.2237377017736435 0.3214603662490845 0.05139143019914627 255.0 0.0 0.0
-0.0783437192440033 -0.23520901799201965 0.15466724336147308 255.0 0.0 0.0
0.12762384116649628 0.22746087610721588 -0.12968488037586212 255.0 0.0 0.0
-0.2624249756336212 0.14403261244297028 -0.29786792397499084 255.0 0.0 0.0
0.06797852367162704 0.16039298474788666 -0.13385315239429474 255.0 0.0 0.0
-0.030376238748431206 0.23422743380069733 -0.21570181846618652 255.0 0.0 0.0
0.046194568276405334 0.12009397149085999 -0.19538289308547974 255.0 0.0 0.0
-0.2230103313922882 -0.2528362274169922 -0.061123255640268326 255.0 0.0 0.0
-0.17427845299243927 -0.2568684220314026 0.06362784653902054 255.0 0.0 0.0
-0.024221189320087433 0.19580183923244476 -0.15857984125614166 255.0 0.0 0.0
0.23673966526985168 0.38523006439208984 -0.09168081730604172 255.0 0.0 0.0
-0.03940194472670555 0.13414764404296875 -0.14933757483959198 255.0 0.0 0.0
0.04415789619088173 -0.2452511489391327 -0.13425706326961517 255.0 0.0 0.0
-0.2820809483528137 -0.39531925320625305 -0.09063265472650528 255.0 0.0 0.0
-0.06370249390602112 0.3092018961906433 -0.2765656113624573 255.0 0.0 0.0
0.28477421402931213 -0.018163328990340233 0.15545134246349335 255.0 0.0 0.0
0.26355257630348206 -0.3195297122001648 -0.05899539962410927 255.0 0.0 0.0
-0.20832547545433044 -0.4187665283679962 0.15736959874629974 255.0 0.0 0.0
-0.22451381385326385 0.2995415925979614 -0.01938805542886257 255.0 0.0 0.0
-0.14541716873645782 -0.25537651777267456 -0.0037134180311113596 255.0 0.0 0.0
-0.11741694062948227 0.33849674463272095 -0.3132738173007965 255.0 0.0 0.0
0.2971797585487366 0.16155296564102173 0.16028162837028503 255.0 0.0 0.0
-0.20749585330486298 0.3318890631198883 -0.3413817584514618 255.0 0.0 0.0
0.28653982281684875 -0.44214126467704773 0.07178211957216263 255.0 0.0 0.0
0.2072559893131256 0.29234373569488525 -0.0049156672321259975 255.0 0.0 0.0
0.2962614893913269 0.19132095575332642 0.15519466996192932 255.0 0.0 0.0
-0.22354234755039215 -0.47124016284942627 0.0564102940261364 255.0 0.0 0.0
0.2075347602367401 0.22841671109199524 0.15030552446842194 255.0 0.0 0.0
0.04310683161020279 0.2222028523683548 -0.13732314109802246 255.0 0.0 0.0
0.03495897725224495 -0.25023412704467773 0.136162668466568 255.0 0.0 0.0
0.2563202381134033 -0.3528677523136139 0.14531157910823822 255.0 0.0 0.0
-0.07456723600625992 0.22807691991329193 -0.1290484219789505 255.0 0.0 0.0
0.28411632776260376 -0.4222249388694763 0.19083113968372345 255.0 0.0 0.0
-0.21805790066719055 -0.4349882900714874 0.15994267165660858 255.0 0.0 0.0
0.2891108989715576 0.12971697747707367 -0.13750727474689484 255.0 0.0 0.0
-0.19036471843719482 -0.2049955278635025 0.1549454629421234 255.0 0.0 0.0
-0.27859312295913696 0.16420583426952362 -0.3376210331916809 255.0 0.0 0.0
0.2542584240436554 0.4780668616294861 0.10973892360925674 255.0 0.0 0.0
-0.2684410810470581 0.07729136943817139 -0.26117393374443054 255.0 0.0 0.0
-0.2506673038005829 0.22861364483833313 -0.35376906394958496 255.0 0.0 0.0
0.28022485971450806 -0.25054651498794556 0.06243380531668663 255.0 0.0 0.0
0.2819269299507141 -0.22338703274726868 0.15632209181785583 255.0 0.0 0.0
0.23758026957511902 0.3254223167896271 -0.04292843118309975 255.0 0.0 0.0
-0.26422977447509766 0.0714661031961441 -0.3175916075706482 255.0 0.0 0.0
0.053997449576854706 0.11899241805076599 -0.1361396461725235 255.0 0.0 0.0
-0.2752937376499176 0.09322277456521988 -0.12674054503440857 255.0 0.0 0.0
-0.20846115052700043 0.4840240180492401 -0.05237429961562157 255.0 0.0 0.0
-0.1928015649318695 0.29901260137557983 -0.01293965894728899 255.0 0.0 0.0
0.26382696628570557 0.2530512511730194 -0.0027133594267070293 255.0 0.0 0.0
-0.3086264133453369 -0.40444013476371765 -0.0828455463051796 255.0 0.0 0.0
0.013338823802769184 -0.25118690729141235 0.15282012522220612 255.0 0.0 0.0
-0.2298283576965332 -0.44971200823783875 0.13358066976070404 255.0 0.0 0.0
-0.23529985547065735 0.3511020243167877 0.1020464301109314 255.0 0.0 0.0
-0.025213021785020828 0.10431379079818726 -0.13810810446739197 255.0 0.0 0.0
-0.2566118538379669 -0.037514980882406235 -0.22311235964298248 255.0 0.0 0.0
-0.26657673716545105 0.02565225586295128 -0.13506805896759033 255.0 0.0 0.0
-0.002341310493648052 0.22728854417800903 -0.13423672318458557 255.0 0.0 0.0
0.23420162498950958 -0.14880231022834778 0.16940195858478546 255.0 0.0 0.0
0.2833617627620697 -0.2499055415391922 0.11906829476356506 255.0 0.0 0.0
-0.2552436590194702 -0.06440317630767822 0.15552861988544464 255.0 0.0 0.0
-0.26699256896972656 0.1175016388297081 -0.13488918542861938 255.0 0.0 0.0
0.2970980703830719 -0.22846370935440063 0.15191736817359924 255.0 0.0 0.0
-0.16367408633232117 0.3435761630535126 0.03652358427643776 255.0 0.0 0.0
0.09907419234514236 0.1717882752418518 0.15021392703056335 255.0 0.0 0.0
-0.2509925365447998 0.019104130566120148 -0.30965477228164673 255.0 0.0 0.0
0.2206609696149826 0.31513479351997375 0.049854129552841187 255.0 0.0 0.0
-0.0403565876185894 0.17900647222995758 0.15229840576648712 255.0 0.0 0.0
0.2972428798675537 -0.23824690282344818 0.1298390030860901 255.0 0.0 0.0
-0.25874418020248413 0.2977270185947418 -0.3462415635585785 255.0 0.0 0.0
0.22911399602890015 0.2931147813796997 0.03803488612174988 255.0 0.0 0.0
0.13275374472141266 0.21938610076904297 0.15632209181785583 255.0 0.0 0.0
0.022552594542503357 0.1637946516275406 0.15939873456954956 255.0 0.0 0.0
-0.2707524597644806 -0.2388811707496643 -0.021613819524645805 255.0 0.0 0.0
-0.20429614186286926 0.2669029235839844 0.03869279846549034 255.0 0.0 0.0
0.2906402349472046 -0.103305883705616 0.15632209181785583 255.0 0.0 0.0
-0.22291430830955505 -0.16215215623378754 0.15837129950523376 255.0 0.0 0.0
-0.23885005712509155 -0.254334956407547 -0.0036601871252059937 255.0 0.0 0.0
0.1961991935968399 0.4602292478084564 0.11499856412410736 255.0 0.0 0.0
-0.12999612092971802 -0.24269463121891022 -0.13225893676280975 255.0 0.0 0.0
0.1689671277999878 -0.1701575517654419 0.17127563059329987 255.0 0.0 0.0
0.05632011219859123 0.11996548622846603 -0.17841322720050812 255.0 0.0 0.0
-0.2758054733276367 0.1898353099822998 -0.34681352972984314 255.0 0.0 0.0
0.2609463036060333 0.04869120940566063 0.15349610149860382 255.0 0.0 0.0
0.2262456715106964 0.3650059998035431 0.12427505850791931 255.0 0.0 0.0
0.2335008978843689 0.29239988327026367 -0.020594323053956032 255.0 0.0 0.0
-0.20589767396450043 0.32689541578292847 0.05338294804096222 255.0 0.0 0.0
0.2242807000875473 0.36649084091186523 -0.08390036970376968 255.0 0.0 0.0
-0.22034528851509094 0.24748410284519196 -0.026999058201909065 255.0 0.0 0.0
0.2717810571193695 0.3177313506603241 -0.019183645024895668 255.0 0.0 0.0
0.2942061126232147 0.4342001676559448 0.12253537029027939 255.0 0.0 0.0
-0.1519184112548828 -0.24469603598117828 0.15739235281944275 255.0 0.0 0.0
0.2965664863586426 0.1491232067346573 -0.11908788979053497 255.0 0.0 0.0
-0.20740163326263428 0.007536388002336025 0.16884474456310272 255.0 0.0 0.0
0.28761935234069824 -0.13275666534900665 -0.13506805896759033 255.0 0.0 0.0
0.25134041905403137 0.22840964794158936 -0.12814444303512573 255.0 0.0 0.0
-0.2471604198217392 0.40768659114837646 -0.06964728981256485 255.0 0.0 0.0
0.23609840869903564 0.5102119445800781 -0.017949406057596207 255.0 0.0 0.0
-0.24768969416618347 -0.041158247739076614 -0.23380909860134125 255.0 0.0 0.0
-0.22243447601795197 0.3021644651889801 -0.3352107107639313 255.0 0.0 0.0
0.2401052564382553 -0.38448095321655273 -0.09110736846923828 255.0 0.0 0.0
-0.17197881639003754 0.24344834685325623 0.007140539586544037 255.0 0.0 0.0
0.27506232261657715 -0.44388914108276367 0.1365729719400406 255.0 0.0 0.0
-0.19781944155693054 0.17100968956947327 0.153813436627388 255.0 0.0 0.0
0.0606209933757782 0.20352059602737427 -0.18774454295635223 255.0 0.0 0.0
-0.26637446880340576 -0.25308188796043396 0.08490131795406342 255.0 0.0 0.0
-0.26908230781555176 0.09653246402740479 -0.13291271030902863 255.0 0.0 0.0
-0.26315173506736755 -0.010198873467743397 -0.3067556321620941 255.0 0.0 0.0
0.19622249901294708 0.488118976354599 -0.023235153406858444 255.0 0.0 0.0
-0.20099188387393951 0.31957754492759705 -0.025876589119434357 255.0 0.0 0.0
-0.2135828584432602 0.4994910657405853 -0.027722062543034554 255.0 0.0 0.0
0.21991169452667236 0.4166593849658966 0.0986822098493576 255.0 0.0 0.0
0.055814534425735474 -0.20037275552749634 0.15648585557937622 255.0 0.0 0.0
-0.1839292198419571 0.3271799683570862 -0.3290461599826813 255.0 0.0 0.0
-0.03294120356440544 0.2738676369190216 -0.24405251443386078 255.0 0.0 0.0
0.27964991331100464 0.35598427057266235 -0.06488998234272003 255.0 0.0 0.0
-0.18209311366081238 0.17190906405448914 0.15293923020362854 255.0 0.0 0.0
0.25148966908454895 -0.16047303378582 0.164747416973114 255.0 0.0 0.0
0.22424396872520447 0.32956305146217346 0.06254907697439194 255.0 0.0 0.0
-0.25809818506240845 0.029507022351026535 -0.31277376413345337 255.0 0.0 0.0
-0.2606239318847656 -0.06043874844908714 -0.29283738136291504 255.0 0.0 0.0
-0.19597215950489044 0.49149808287620544 -0.028773242607712746 255.0 0.0 0.0
-0.21546298265457153 0.3554738163948059 0.1142183467745781 255.0 0.0 0.0
0.24325832724571228 -0.06594814360141754 0.16809867322444916 255.0 0.0 0.0
0.20589415729045868 0.22802451252937317 -0.11849386245012283 255.0 0.0 0.0
-0.21398182213306427 -0.19219115376472473 0.14992983639240265 255.0 0.0 0.0
-0.26073718070983887 -0.2476034164428711 0.11507342755794525 255.0 0.0 0.0
0.25339075922966003 -0.16054175794124603 0.14971129596233368 255.0 0.0 0.0
-0.2217523604631424 0.21583427488803864 -0.13294866681098938 255.0 0.0 0.0
-0.2462613731622696 0.43561413884162903 -0.05605184659361839 255.0 0.0 0.0
-0.197204127907753 0.33732059597969055 -0.3410082757472992 255.0 0.0 0.0
-0.28161343932151794 0.12452274560928345 -0.31657615303993225 255.0 0.0 0.0
-0.33707115054130554 -0.3801996409893036 0.03120187111198902 255.0 0.0 0.0
0.2302582710981369 0.5137745141983032 0.002026504371315241 255.0 0.0 0.0
0.2951751947402954 0.015176992863416672 0.1575908213853836 255.0 0.0 0.0
-0.17710399627685547 -0.1971452385187149 0.14726002514362335 255.0 0.0 0.0
-0.01342249009758234 0.10115698724985123 -0.13506805896759033 255.0 0.0 0.0
-0.16483955085277557 0.22936926782131195 0.020969126373529434 255.0 0.0 0.0
-0.06992611289024353 0.1749066710472107 0.15186016261577606 255.0 0.0 0.0
-0.02253778651356697 0.23413269221782684 -0.24485494196414948 255.0 0.0 0.0
0.2879202961921692 -0.25418683886528015 -0.016509484499692917 255.0 0.0 0.0
-0.16838876903057098 0.37228208780288696 0.08944281190633774 255.0 0.0 0.0
0.22586296498775482 0.33280283212661743 0.079377181828022 255.0 0.0 0.0
0.1917906254529953 -0.2589638829231262 0.05481930449604988 255.0 0.0 0.0
0.2985869348049164 0.033279698342084885 0.14360585808753967 255.0 0.0 0.0
-0.03242010250687599 0.1877766251564026 -0.1527959704399109 255.0 0.0 0.0
0.2630501389503479 0.38748112320899963 0.11574085056781769 255.0 0.0 0.0
-0.20757734775543213 0.3776492774486542 0.10565948486328125 255.0 0.0 0.0
0.13521762192249298 -0.18634110689163208 0.16222459077835083 255.0 0.0 0.0
0.056658219546079636 0.1379249393939972 -0.193976029753685 255.0 0.0 0.0
0.2480515092611313 -0.4352743923664093 0.20151199400424957 255.0 0.0 0.0
-0.26126840710639954 0.11896322667598724 -0.3188686966896057 255.0 0.0 0.0
-0.022345904260873795 0.3107853829860687 -0.28249916434288025 255.0 0.0 0.0
-0.24343538284301758 0.4891442358493805 0.004517321474850178 255.0 0.0 0.0
-0.06703002005815506 0.30398932099342346 -0.3079919219017029 255.0 0.0 0.0
-0.23690447211265564 0.39633452892303467 0.10501080006361008 255.0 0.0 0.0
0.2729506194591522 -0.44259902834892273 -0.015119768679141998 255.0 0.0 0.0
-0.2158779799938202 0.4999220073223114 -0.010824873112142086 255.0 0.0 0.0
0.047152064740657806 0.24170616269111633 -0.22989681363105774 255.0 0.0 0.0
0.05011964589357376 0.18091778457164764 -0.1392216980457306 255.0 0.0 0.0
0.2726457118988037 -0.374215692281723 0.1635243445634842 255.0 0.0 0.0
-0.2449687272310257 0.4808865189552307 0.11161684989929199 255.0 0.0 0.0
0.2698761522769928 -0.3814522922039032 0.16975180804729462 255.0 0.0 0.0
0.23072132468223572 0.2851496934890747 0.040687233209609985 255.0 0.0 0.0
0.09701455384492874 -0.1970532387495041 0.1511390209197998 255.0 0.0 0.0
-0.2663053274154663 0.25651243329048157 -0.35801392793655396 255.0 0.0 0.0
0.225795716047287 -0.2509709894657135 0.08071828633546829 255.0 0.0 0.0
0.1496579498052597 -0.42987143993377686 -0.024659598246216774 255.0 0.0 0.0
0.014467206783592701 0.2114509791135788 0.1563115119934082 255.0 0.0 0.0
0.2391396015882492 -0.31900161504745483 0.1128460019826889 255.0 0.0 0.0
0.054549094289541245 0.1684732288122177 -0.2077593207359314 255.0 0.0 0.0
-0.2689090967178345 -0.1318223625421524 -0.12220698595046997 255.0 0.0 0.0
-0.1601075828075409 0.35089120268821716 0.03886431083083153 255.0 0.0 0.0
0.2630036771297455 -0.23410572111606598 0.15326817333698273 255.0 0.0 0.0
0.1833929568529129 0.16642341017723083 0.15794213116168976 255.0 0.0 0.0
-0.22860929369926453 -0.27921590209007263 0.07898659259080887 255.0 0.0 0.0
0.1367018222808838 -0.1784505844116211 0.16735601425170898 255.0 0.0 0.0
-0.2697276473045349 0.14931553602218628 -0.29412052035331726 255.0 0.0 0.0
0.21728265285491943 -0.2582862675189972 0.06532338261604309 255.0 0.0 0.0
0.20137812197208405 0.2289651334285736 0.04561197757720947 255.0 0.0 0.0
-0.23637156188488007 -0.261220246553421 -0.01739904284477234 255.0 0.0 0.0
0.23821981251239777 0.3707757890224457 0.11569064855575562 255.0 0.0 0.0
-0.3006953299045563 -0.43850451707839966 -0.08703295141458511 255.0 0.0 0.0
0.1903446465730667 -0.44439172744750977 -0.06000063195824623 255.0 0.0 0.0
0.2265038788318634 -0.16981640458106995 0.1676797866821289 255.0 0.0 0.0
-0.20458059012889862 0.040942735970020294 0.17206722497940063 255.0 0.0 0.0
-0.23233389854431152 0.27644670009613037 -0.013922902755439281 255.0 0.0 0.0
0.05470741540193558 0.11140282452106476 -0.15260526537895203 255.0 0.0 0.0
0.2759256660938263 0.22329717874526978 0.15670712292194366 255.0 0.0 0.0
0.0031191494781523943 0.09216438978910446 -0.13569436967372894 255.0 0.0 0.0
-0.11646980047225952 0.32157066464424133 -0.31304314732551575 255.0 0.0 0.0
0.26406392455101013 0.20865564048290253 0.15285420417785645 255.0 0.0 0.0
-0.258597731590271 0.2720417082309723 -0.3637353777885437 255.0 0.0 0.0
0.2860480844974518 -0.24726293981075287 -0.1203550472855568 255.0 0.0 0.0
0.29068705439567566 0.22492727637290955 -0.13132891058921814 255.0 0.0 0.0
-0.23584617674350739 -0.47186991572380066 0.0449959896504879 255.0 0.0 0.0
0.04723111167550087 -0.18050271272659302 0.16863101720809937 255.0 0.0 0.0
0.2974017262458801 0.19193363189697266 0.14845581352710724 255.0 0.0 0.0
-0.2611117362976074 0.07530473172664642 -0.27374476194381714 255.0 0.0 0.0
-0.14849896728992462 -0.24672694504261017 0.15250031650066376 255.0 0.0 0.0
-0.14893166720867157 -0.27034980058670044 0.015368564985692501 255.0 0.0 0.0
-0.2129964530467987 0.11835072189569473 0.16929645836353302 255.0 0.0 0.0
0.2988283634185791 0.1362469345331192 0.14649313688278198 255.0 0.0 0.0
0.07826940715312958 -0.1839398592710495 0.16472454369068146 255.0 0.0 0.0
-0.2726840078830719 -0.22608795762062073 0.1462472528219223 255.0 0.0 0.0
-0.0003474358527455479 0.10203442722558975 -0.1779630333185196 255.0 0.0 0.0
-0.2593570947647095 -0.15060453116893768 -0.13459983468055725 255.0 0.0 0.0
-0.23331062495708466 0.30986425280570984 -0.017429791390895844 255.0 0.0 0.0
-0.26609838008880615 0.27504613995552063 -0.34436747431755066 255.0 0.0 0.0
-0.12777668237686157 0.31738024950027466 -0.34197917580604553 255.0 0.0 0.0
-0.2620956599712372 0.020634790882468224 -0.2356344312429428 255.0 0.0 0.0
0.2848207652568817 0.15826278924942017 -0.13242973387241364 255.0 0.0 0.0
-0.2458914965391159 0.30934232473373413 0.02077481895685196 255.0 0.0 0.0
0.2807028591632843 0.22755098342895508 0.13896393775939941 255.0 0.0 0.0
-0.03491736948490143 0.18791620433330536 -0.19916248321533203 255.0 0.0 0.0
-0.23560796678066254 -0.2541179060935974 0.015633122995495796 255.0 0.0 0.0
-0.02637905441224575 0.19121496379375458 -0.15441006422042847 255.0 0.0 0.0
0.08528538793325424 0.22793830931186676 -0.12176553905010223 255.0 0.0 0.0
0.184696227312088 -0.24713966250419617 -0.13434793055057526 255.0 0.0 0.0
0.2672901749610901 -0.3611855208873749 -0.07367447018623352 255.0 0.0 0.0
0.16833919286727905 -0.26796966791152954 0.03252791613340378 255.0 0.0 0.0
0.21066027879714966 0.30985695123672485 -0.017381155863404274 255.0 0.0 0.0
0.21885347366333008 0.3260990381240845 0.06153200939297676 255.0 0.0 0.0
-0.1687169224023819 0.22879450023174286 0.019306259229779243 255.0 0.0 0.0
-0.2517985701560974 0.0055265966802835464 -0.2406652867794037 255.0 0.0 0.0
-0.29289257526397705 -0.4488264322280884 -0.08378662168979645 255.0 0.0 0.0
0.11393309384584427 0.17160029709339142 0.15416394174098969 255.0 0.0 0.0
0.14724336564540863 -0.44380781054496765 0.025698550045490265 255.0 0.0 0.0
0.22056585550308228 0.34744471311569214 -0.07355426996946335 255.0 0.0 0.0
-0.2713719308376312 0.2179848849773407 0.08876009285449982 255.0 0.0 0.0
-0.2655029296875 -0.31132158637046814 0.12126155197620392 255.0 0.0 0.0
-0.23311631381511688 -0.20349423587322235 0.15410232543945312 255.0 0.0 0.0
-0.2714795768260956 -0.11969476193189621 0.153911292552948 255.0 0.0 0.0
-0.33538779616355896 -0.3727181553840637 0.03483540937304497 255.0 0.0 0.0
-0.23662640154361725 0.23540447652339935 -0.024036888033151627 255.0 0.0 0.0
0.0011040638200938702 -0.19065971672534943 0.1528184413909912 255.0 0.0 0.0
-0.2726159989833832 -0.3756990134716034 0.20260101556777954 255.0 0.0 0.0
-0.2427496761083603 0.3406447768211365 0.06740628927946091 255.0 0.0 0.0
-0.020151415839791298 0.13544240593910217 -0.20698678493499756 255.0 0.0 0.0
-0.0019386403728276491 0.10601045191287994 -0.19320710003376007 255.0 0.0 0.0
-0.03397082909941673 -0.23093873262405396 0.1559092253446579 255.0 0.0 0.0
1.194437027152162e-05 0.11272972077131271 -0.19762185215950012 255.0 0.0 0.0
-0.21813100576400757 0.33168280124664307 0.05892739072442055 255.0 0.0 0.0
-0.2516266703605652 0.24792040884494781 -0.36078521609306335 255.0 0.0 0.0
-0.2842215299606323 0.1010793000459671 -0.2834198474884033 255.0 0.0 0.0
-0.22629991173744202 0.4773803949356079 -0.0546705462038517 255.0 0.0 0.0
-0.24062702059745789 0.4744708240032196 0.10980479419231415 255.0 0.0 0.0
-0.0408761166036129 0.14023005962371826 -0.14665928483009338 255.0 0.0 0.0
-0.2707228660583496 0.18375079333782196 -0.1263076364994049 255.0 0.0 0.0
0.28253650665283203 -0.18731342256069183 0.15908080339431763 255.0 0.0 0.0
-0.01145160011947155 0.20136722922325134 -0.15658336877822876 255.0 0.0 0.0
0.22134825587272644 0.48000290989875793 -0.06313882023096085 255.0 0.0 0.0
-0.24155722558498383 0.26074737310409546 -0.0033631990663707256 255.0 0.0 0.0
-0.2792588770389557 -0.006315738428384066 -0.30878832936286926 255.0 0.0 0.0
0.2965761721134186 0.2147427648305893 -0.1064165011048317 255.0 0.0 0.0
0.25788334012031555 0.12777267396450043 0.1514199823141098 255.0 0.0 0.0
-0.2613162100315094 0.11045433580875397 -0.3150171637535095 255.0 0.0 0.0
0.21146978437900543 -0.24847552180290222 0.1467883288860321 255.0 0.0 0.0
0.2635299265384674 -0.42749446630477905 0.20067721605300903 255.0 0.0 0.0
0.020765108987689018 -0.19068771600723267 0.15844933688640594 255.0 0.0 0.0
0.1559305042028427 -0.44498321413993835 0.01758456416428089 255.0 0.0 0.0
-0.15764690935611725 0.22784534096717834 -0.125294029712677 255.0 0.0 0.0
0.2985188961029053 0.17343586683273315 0.13482776284217834 255.0 0.0 0.0
-0.2640761733055115 -0.3086857497692108 0.11221905052661896 255.0 0.0 0.0
0.22234049439430237 0.3259086012840271 -0.041443176567554474 255.0 0.0 0.0
0.28945809602737427 0.2251693159341812 -0.03498145565390587 255.0 0.0 0.0
-0.013685500249266624 0.21036064624786377 0.15420934557914734 255.0 0.0 0.0
0.07222617417573929 0.17632734775543213 0.1561167687177658 255.0 0.0 0.0
0.29662734270095825 0.14961010217666626 -0.11798165738582611 255.0 0.0 0.0
0.061686743050813675 -0.19812197983264923 0.15448246896266937 255.0 0.0 0.0
-0.26708757877349854 0.08062802255153656 -0.31828832626342773 255.0 0.0 0.0
-0.2559788227081299 -0.2968814969062805 0.0829429104924202 255.0 0.0 0.0
0.14184531569480896 0.16303546726703644 0.16286924481391907 255.0 0.0 0.0
0.21567745506763458 0.27888354659080505 0.03324722498655319 255.0 0.0 0.0
-0.26749512553215027 -0.4694671034812927 -0.028117863461375237 255.0 0.0 0.0
0.17372336983680725 0.4205017685890198 -0.0036650875117629766 255.0 0.0 0.0
0.27470311522483826 -0.2448887676000595 -0.006546021439135075 255.0 0.0 0.0
-0.26630687713623047 0.4000319540500641 0.09071775525808334 255.0 0.0 0.0
-0.132418692111969 -0.10659807920455933 0.16978894174098969 255.0 0.0 0.0
0.24167394638061523 -0.17719312012195587 -0.1352914273738861 255.0 0.0 0.0
0.016468949615955353 -0.2504301369190216 -0.1074608564376831 255.0 0.0 0.0
0.17050132155418396 0.18851418793201447 0.15457546710968018 255.0 0.0 0.0
0.023851606994867325 -0.1673959344625473 0.16934674978256226 255.0 0.0 0.0
0.17204931378364563 0.07723558694124222 0.16940195858478546 255.0 0.0 0.0
-0.09448462724685669 0.06112372502684593 -0.13609854876995087 255.0 0.0 0.0
0.016836240887641907 -0.07010053098201752 -0.13558265566825867 255.0 0.0 0.0
-0.042305685579776764 -0.10707242041826248 -0.13506805896759033 255.0 0.0 0.0
-0.189059779047966 -0.0850476399064064 -0.13336195051670074 255.0 0.0 0.0
0.08296026289463043 0.1099153533577919 0.16905786097049713 255.0 0.0 0.0
-0.2693404257297516 0.015381432138383389 -0.076296865940094 255.0 0.0 0.0
0.20771878957748413 -0.06980977952480316 -0.13357140123844147 255.0 0.0 0.0
-0.2715369462966919 -0.19100220501422882 -0.039567604660987854 255.0 0.0 0.0
-0.27247145771980286 0.10540494322776794 -0.04133540391921997 255.0 0.0 0.0
0.25770023465156555 0.22887437045574188 0.12043614685535431 255.0 0.0 0.0
-0.12954702973365784 -0.2508637011051178 -0.10385993123054504 255.0 0.0 0.0
0.2957281768321991 -0.04212700203061104 0.04610443115234375 255.0 0.0 0.0
0.2790934443473816 -0.41317424178123474 -0.040923841297626495 255.0 0.0 0.0
-0.0005253778072074056 0.239895761013031 -0.1880737543106079 255.0 0.0 0.0
-0.2693520486354828 -0.01600191555917263 -0.026319216936826706 255.0 0.0 0.0
-0.18877415359020233 0.22767244279384613 -0.08731766790151596 255.0 0.0 0.0
0.21669523417949677 0.5075615048408508 0.0874115452170372 255.0 0.0 0.0
-0.2695385813713074 -0.22183042764663696 0.049566417932510376 255.0 0.0 0.0
-0.2660753130912781 0.3846374750137329 0.06980842351913452 255.0 0.0 0.0
-0.16784098744392395 0.41901522874832153 -0.04965585470199585 255.0 0.0 0.0
0.012758111581206322 -0.25070351362228394 -0.07346189022064209 255.0 0.0 0.0
-0.2707524597644806 0.189716637134552 -0.04140261933207512 255.0 0.0 0.0
0.2789880931377411 -0.3404318392276764 0.08328790217638016 255.0 0.0 0.0
0.2865128815174103 0.45985668897628784 -0.03936683014035225 255.0 0.0 0.0
0.2972581684589386 -0.2175939530134201 -0.0590503066778183 255.0 0.0 0.0
-0.10213956236839294 -0.2512708604335785 -0.03494255617260933 255.0 0.0 0.0
-0.2836756706237793 -0.3321753144264221 -0.038336630910634995 255.0 0.0 0.0
0.23537293076515198 -0.018235724419355392 -0.1330878883600235 255.0 0.0 0.0
-0.190596342086792 0.2268235832452774 -0.09519323706626892 255.0 0.0 0.0
-0.0794072225689888 -0.06351127475500107 0.16773687303066254 255.0 0.0 0.0
0.26910722255706787 -0.2503819763660431 -0.04480881616473198 255.0 0.0 0.0
-0.07194784283638 0.0164813119918108 0.16940195858478546 255.0 0.0 0.0
-0.19213108718395233 -0.3513265550136566 -0.06106817349791527 255.0 0.0 0.0
0.16202539205551147 -0.2848684787750244 0.020735520869493484 255.0 0.0 0.0
0.07904750853776932 0.01731165312230587 -0.13695067167282104 255.0 0.0 0.0
0.21157753467559814 0.010768345557153225 0.16940195858478546 255.0 0.0 0.0
0.02243029698729515 -0.2228737622499466 -0.13699235022068024 255.0 0.0 0.0
-0.23073889315128326 0.49795055389404297 0.08876893669366837 255.0 0.0 0.0
-0.03366977721452713 0.22654429078102112 0.012307888828217983 255.0 0.0 0.0
0.1701650321483612 -0.228667214512825 0.1563054472208023 255.0 0.0 0.0
0.20692121982574463 -0.381991982460022 0.17802603542804718 255.0 0.0 0.0
-0.06500446796417236 -0.2505591809749603 0.06448662281036377 255.0 0.0 0.0
-0.2707524597644806 -0.06980980932712555 -0.08175940811634064 255.0 0.0 0.0
0.20761215686798096 -0.251203328371048 0.09012439846992493 255.0 0.0 0.0
0.2165166586637497 0.22448872029781342 0.11569854617118835 255.0 0.0 0.0
-0.15424282848834991 -0.19331075251102448 -0.13808704912662506 255.0 0.0 0.0
-0.0029705052729696035 -0.09521592408418655 -0.13571660220623016 255.0 0.0 0.0
0.16014273464679718 0.07235626131296158 -0.13311384618282318 255.0 0.0 0.0
0.21625147759914398 0.47203564643859863 -0.06063072010874748 255.0 0.0 0.0
0.036923978477716446 0.1355520635843277 -0.21164993941783905 255.0 0.0 0.0
0.08847144991159439 -0.1705917865037918 -0.13506805896759033 255.0 0.0 0.0
-0.2707524597644806 -0.1660134196281433 -0.08214186877012253 255.0 0.0 0.0
0.1748969703912735 0.4231967031955719 0.04227985814213753 255.0 0.0 0.0
-0.22273845970630646 0.22808349132537842 -0.08770722150802612 255.0 0.0 0.0
-0.15515071153640747 0.12763075530529022 0.16940195858478546 255.0 0.0 0.0
-0.19562393426895142 0.2280799150466919 -0.1056881695985794 255.0 0.0 0.0
-0.11686597764492035 0.17854537069797516 -0.13506805896759033 255.0 0.0 0.0
-0.036020174622535706 -0.2514744699001312 -0.11131158471107483 255.0 0.0 0.0
0.07304970920085907 -0.2540833353996277 -0.04552753269672394 255.0 0.0 0.0
-0.2700328528881073 0.4200085699558258 0.07322053611278534 255.0 0.0 0.0
0.1860196739435196 0.00721542164683342 -0.14109362661838531 255.0 0.0 0.0
-0.26275357604026794 0.4235815703868866 -0.031234150752425194 255.0 0.0 0.0
0.15576064586639404 0.1356140673160553 -0.1340356320142746 255.0 0.0 0.0
-0.18370164930820465 0.009908088482916355 -0.1360369771718979 255.0 0.0 0.0
-0.2707524597644806 0.0005385219701565802 -0.0446941964328289 255.0 0.0 0.0
-0.03286042436957359 -0.06453239172697067 -0.13506805896759033 255.0 0.0 0.0
0.169411763548851 -0.4439127743244171 0.12992005050182343 255.0 0.0 0.0
0.29867449402809143 0.4375021755695343 0.03342267498373985 255.0 0.0 0.0
-0.22693978250026703 -0.2142626792192459 -0.13651564717292786 255.0 0.0 0.0
0.2599020302295685 0.5129828453063965 0.06753849983215332 255.0 0.0 0.0
-0.1319991797208786 0.22631846368312836 -0.10948704928159714 255.0 0.0 0.0
-0.29503926634788513 0.03773100674152374 -0.28959399461746216 255.0 0.0 0.0
-0.07428240776062012 -0.08782056719064713 -0.1351107805967331 255.0 0.0 0.0
0.18241392076015472 -0.10482047498226166 -0.13506805896759033 255.0 0.0 0.0
0.135698139667511 -0.24992388486862183 0.08994735777378082 255.0 0.0 0.0
0.15844769775867462 0.22885769605636597 -0.07278415560722351 255.0 0.0 0.0
0.07005788385868073 -0.2536173164844513 -0.006828092038631439 255.0 0.0 0.0
0.07221915572881699 0.06577083468437195 -0.13458774983882904 255.0 0.0 0.0
0.23493467271327972 0.09400444477796555 -0.1380048245191574 255.0 0.0 0.0
0.17471957206726074 0.38792622089385986 0.006667738780379295 255.0 0.0 0.0
-0.12621378898620605 -0.004605211783200502 -0.13506805896759033 255.0 0.0 0.0
0.055546194314956665 0.22531093657016754 -0.017446907237172127 255.0 0.0 0.0
-0.15097033977508545 0.22812457382678986 0.08239774405956268 255.0 0.0 0.0
-0.20348796248435974 0.1038493737578392 0.17090466618537903 255.0 0.0 0.0
-0.1376667469739914 -0.2524479627609253 0.05468526855111122 255.0 0.0 0.0
0.19401073455810547 -0.44574102759361267 -0.03847678750753403 255.0 0.0 0.0
0.2607056796550751 -0.4448564648628235 -0.042908500880002975 255.0 0.0 0.0
0.15106448531150818 -0.329399436712265 -0.0068418849259614944 255.0 0.0 0.0
0.2972581684589386 0.1459013968706131 0.05961209163069725 255.0 0.0 0.0
0.20545944571495056 0.08117717504501343 0.16940195858478546 255.0 0.0 0.0
-0.1675902158021927 0.12195274978876114 -0.13099944591522217 255.0 0.0 0.0
-0.27106109261512756 -0.1569877713918686 0.0259671900421381 255.0 0.0 0.0
-0.18555064499378204 0.14892299473285675 0.16933737695217133 255.0 0.0 0.0
0.18701402842998505 0.4677731692790985 -0.03360404074192047 255.0 0.0 0.0
-0.15786606073379517 0.12368403375148773 0.1702609360218048 255.0 0.0 0.0
-0.07626212388277054 0.11532887071371078 -0.13506805896759033 255.0 0.0 0.0
-0.3227064311504364 -0.3403855860233307 0.12352024763822556 255.0 0.0 0.0
0.17192597687244415 -0.2509519159793854 0.0890871211886406 255.0 0.0 0.0
-0.17147625982761383 0.00908075924962759 -0.13173379004001617 255.0 0.0 0.0
-0.19154921174049377 0.22807790338993073 -0.10959722846746445 255.0 0.0 0.0
0.15844599902629852 -0.25034916400909424 -0.020899327471852303 255.0 0.0 0.0
0.20556247234344482 0.19894973933696747 -0.13506805896759033 255.0 0.0 0.0
0.26860177516937256 -0.014911141246557236 0.15427224338054657 255.0 0.0 0.0
0.17496031522750854 0.22812457382678986 0.03576395660638809 255.0 0.0 0.0
-0.26757746934890747 -0.1261574625968933 0.03736099973320961 255.0 0.0 0.0
-0.1791110634803772 -0.3392118215560913 -0.04619679972529411 255.0 0.0 0.0
-0.27138954401016235 0.10842210054397583 0.1259622871875763 255.0 0.0 0.0
0.29526960849761963 -0.19394488632678986 -0.07307320833206177 255.0 0.0 0.0
0.24449582397937775 0.23009034991264343 -0.10747992247343063 255.0 0.0 0.0
0.07465846091508865 -0.250731885433197 0.047386493533849716 255.0 0.0 0.0
0.2972581684589386 0.08295503258705139 0.03937721997499466 255.0 0.0 0.0
0.1151338443160057 0.22616955637931824 0.011656302027404308 255.0 0.0 0.0
0.20358455181121826 0.22776952385902405 0.11111634969711304 255.0 0.0 0.0
0.049127113074064255 -0.21853579580783844 -0.1335214227437973 255.0 0.0 0.0
0.27380120754241943 0.10385093837976456 -0.13450096547603607 255.0 0.0 0.0
0.1391201615333557 0.190214604139328 -0.13205257058143616 255.0 0.0 0.0
0.19180092215538025 -0.140591099858284 -0.13484959304332733 255.0 0.0 0.0
-0.0021126302890479565 0.177976593375206 -0.13280975818634033 255.0 0.0 0.0
-0.156724750995636 0.3818320631980896 0.03038710542023182 255.0 0.0 0.0
-0.1408558338880539 0.22270378470420837 -0.11869001388549805 255.0 0.0 0.0
0.11892563849687576 0.10857884585857391 0.16988423466682434 255.0 0.0 0.0
0.26841339468955994 -0.10555746406316757 0.15616002678871155 255.0 0.0 0.0
