0.25528258085250854 -0.2543409466743469 0.05637584999203682 255.0 0.0 0.0
-0.021636784076690674 0.21261624991893768 -0.17294909060001373 255.0 0.0 0.0
-0.25672170519828796 -0.07239896804094315 -0.22180840373039246 255.0 0.0 0.0
-0.25130876898765564 0.2273632436990738 -0.3350132703781128 255.0 0.0 0.0
0.26844796538352966 0.3653881549835205 -0.07982773333787918 255.0 0.0 0.0
-0.24291810393333435 -0.0018457950791344047 -0.24879920482635498 255.0 0.0 0.0
0.2568775415420532 -0.08148165792226791 0.14941486716270447 255.0 0.0 0.0
-0.13854670524597168 0.1534164994955063 0.17118029296398163 255.0 0.0 0.0
0.21227553486824036 0.2825678586959839 0.026519428938627243 255.0 0.0 0.0
-0.02779066003859043 0.11571026593446732 -0.18666133284568787 255.0 0.0 0.0
-0.20589511096477509 0.22759157419204712 0.15067481994628906 255.0 0.0 0.0
-0.13936007022857666 0.22615796327590942 0.14830678701400757 255.0 0.0 0.0
-0.2015811800956726 0.39231938123703003 0.08899710327386856 255.0 0.0 0.0
-0.2542337477207184 0.3632047772407532 0.09818145632743835 255.0 0.0 0.0
0.18082007765769958 0.40637847781181335 0.09862571954727173 255.0 0.0 0.0
0.291637122631073 0.22598306834697723 0.14540502429008484 255.0 0.0 0.0
0.2989300787448883 0.14542584121227264 0.1508367359638214 255.0 0.0 0.0
0.2965866029262543 -0.03984496742486954 0.1398448795080185 255.0 0.0 0.0
0.24290288984775543 0.3399427533149719 -0.07104199379682541 255.0 0.0 0.0
0.2511676847934723 -0.03672897070646286 0.1530383825302124 255.0 0.0 0.0
0.2674388587474823 0.27613145112991333 0.006369482260197401 255.0 0.0 0.0
-0.01749078929424286 0.21299652755260468 -0.23099882900714874 255.0 0.0 0.0
-0.2629059851169586 0.13980501890182495 0.15632209181785583 255.0 0.0 0.0
-0.0025340199936181307 0.29624202847480774 -0.2879560589790344 255.0 0.0 0.0
-0.23130358755588531 0.08537891507148743 0.1550355851650238 255.0 0.0 0.0
-0.18846406042575836 0.2730501890182495 0.03551354259252548 255.0 0.0 0.0
0.23812153935432434 -0.09543237835168839 0.16776227951049805 255.0 0.0 0.0
-0.25504276156425476 0.46706074476242065 0.10441700369119644 255.0 0.0 0.0
0.041656795889139175 0.18793094158172607 -0.2259313464164734 255.0 0.0 0.0
0.24701203405857086 0.3083391785621643 0.05146240070462227 255.0 0.0 0.0
-0.181895449757576 -0.18627329170703888 0.16375349462032318 255.0 0.0 0.0
0.21933697164058685 0.27634644508361816 0.02782765030860901 255.0 0.0 0.0
-0.27332037687301636 -0.45032235980033875 -0.07600252330303192 255.0 0.0 0.0
-0.03200677037239075 0.3124626874923706 -0.29746538400650024 255.0 0.0 0.0
-0.18354199826717377 0.47833502292633057 -0.03728082403540611 255.0 0.0 0.0
-0.22032693028450012 0.0773828849196434 0.1655684858560562 255.0 0.0 0.0
-0.014399641193449497 0.21325473487377167 -0.23193085193634033 255.0 0.0 0.0
-0.274201363325119 0.037258367985486984 -0.31916090846061707 255.0 0.0 0.0
0.2813466489315033 -0.44100192189216614 0.18317434191703796 255.0 0.0 0.0
-0.17237554490566254 0.22575654089450836 0.1510010063648224 255.0 0.0 0.0
-0.23638392984867096 0.48215141892433167 0.11587104946374893 255.0 0.0 0.0
0.29847288131713867 0.008548824116587639 -0.1194998174905777 255.0 0.0 0.0
0.2387705147266388 0.387447714805603 0.10255622118711472 255.0 0.0 0.0
-0.0007468992844223976 -0.24440515041351318 0.15408141911029816 255.0 0.0 0.0
0.2608860433101654 -0.2666296660900116 -0.0007016886956989765 255.0 0.0 0.0
-0.3004549443721771 -0.38730791211128235 -0.08639542013406754 255.0 0.0 0.0
-0.22406938672065735 -0.2427700012922287 -0.13571326434612274 255.0 0.0 0.0
-0.02174406312406063 0.2500852346420288 -0.20804260671138763 255.0 0.0 0.0
-0.22502082586288452 -0.010712471790611744 0.15122611820697784 255.0 0.0 0.0
-0.06110137701034546 0.30167528986930847 -0.2994738519191742 255.0 0.0 0.0
0.18643154203891754 -0.23436106741428375 0.15632209181785583 255.0 0.0 0.0
0.29816776514053345 0.15195080637931824 -0.12230868637561798 255.0 0.0 0.0
0.22910748422145844 0.23515966534614563 -0.028771288692951202 255.0 0.0 0.0
0.09112275391817093 -0.2394246608018875 -0.13506805896759033 255.0 0.0 0.0
0.2869751453399658 -0.2449263334274292 -0.12382172048091888 255.0 0.0 0.0
-0.24678397178649902 -0.0415375716984272 -0.23585273325443268 255.0 0.0 0.0
-0.2877495586872101 -0.38536208868026733 0.19581899046897888 255.0 0.0 0.0
-0.07474268972873688 0.22785410284996033 -0.12496097385883331 255.0 0.0 0.0
0.2620304524898529 0.2542400360107422 -0.011870235204696655 255.0 0.0 0.0
0.19057407975196838 -0.24749496579170227 -0.12621736526489258 255.0 0.0 0.0
0.15896916389465332 -0.44291797280311584 -0.032316889613866806 255.0 0.0 0.0
0.23956409096717834 0.3020692467689514 0.04776308685541153 255.0 0.0 0.0
0.24596676230430603 0.33385127782821655 -0.05351574346423149 255.0 0.0 0.0
-0.15973204374313354 0.4063999056816101 0.10158637166023254 255.0 0.0 0.0
0.19744844734668732 -0.4429258108139038 -0.07189713418483734 255.0 0.0 0.0
0.13241612911224365 -0.23689480125904083 -0.13549748063087463 255.0 0.0 0.0
-0.22889532148838043 0.45305517315864563 0.09430498629808426 255.0 0.0 0.0
-0.2273692637681961 0.22927001118659973 -0.12101902067661285 255.0 0.0 0.0
-0.3378528654575348 -0.40277212858200073 -0.041824061423540115 255.0 0.0 0.0
-0.2442840188741684 -0.251725971698761 0.049606744199991226 255.0 0.0 0.0
-0.34217458963394165 -0.3944840431213379 -0.006817176938056946 255.0 0.0 0.0
-0.26448822021484375 0.22423283755779266 -0.13564065098762512 255.0 0.0 0.0
0.23366856575012207 0.36485257744789124 0.1202918142080307 255.0 0.0 0.0
-0.336017370223999 -0.36291778087615967 0.12426451593637466 255.0 0.0 0.0
0.252962201833725 -0.2794986963272095 0.06987560540437698 255.0 0.0 0.0
-0.24274636805057526 0.47953781485557556 -0.030271613970398903 255.0 0.0 0.0
-0.038700882345438004 0.15339171886444092 -0.1933593451976776 255.0 0.0 0.0
0.24093139171600342 0.08392022550106049 0.1671181470155716 255.0 0.0 0.0
0.2656427025794983 0.229191392660141 -0.03146687150001526 255.0 0.0 0.0
-0.2610478103160858 0.3568780720233917 0.05831588804721832 255.0 0.0 0.0
-0.24545668065547943 0.3461695611476898 0.08705002069473267 255.0 0.0 0.0
-0.25679293274879456 -0.06167564541101456 -0.28382113575935364 255.0 0.0 0.0
-0.17176586389541626 0.3246300518512726 -0.3272697329521179 255.0 0.0 0.0
0.20181630551815033 0.40993034839630127 0.10334448516368866 255.0 0.0 0.0
-0.03499816358089447 0.18045997619628906 -0.17746399343013763 255.0 0.0 0.0
-0.013779804110527039 0.20061354339122772 -0.16161513328552246 255.0 0.0 0.0
-0.33867329359054565 -0.3939250409603119 -0.01804959401488304 255.0 0.0 0.0
0.22172950208187103 0.3075498640537262 0.04555078595876694 255.0 0.0 0.0
0.06188936159014702 0.13322478532791138 -0.13506805896759033 255.0 0.0 0.0
0.28649649024009705 0.4847929775714874 0.1033945232629776 255.0 0.0 0.0
0.03941971808671951 0.16864876449108124 0.16338707506656647 255.0 0.0 0.0
0.27917471528053284 -0.446397989988327 0.10864893347024918 255.0 0.0 0.0
0.24258817732334137 -0.020610537379980087 0.17015963792800903 255.0 0.0 0.0
-0.04052891209721565 0.31144264340400696 -0.2607139050960541 255.0 0.0 0.0
-0.26288995146751404 0.09857875853776932 -0.31229841709136963 255.0 0.0 0.0
0.013826973736286163 0.2292124181985855 0.1392570585012436 255.0 0.0 0.0
0.24935853481292725 -0.3454029858112335 0.1384745091199875 255.0 0.0 0.0
-0.1266106516122818 -0.23479758203029633 -0.13353689014911652 255.0 0.0 0.0
-0.22711887955665588 -0.15639379620552063 0.1495008021593094 255.0 0.0 0.0
-0.23029915988445282 0.14918428659439087 0.15528525412082672 255.0 0.0 0.0
0.2089492529630661 0.3330811858177185 -0.04699654132127762 255.0 0.0 0.0
-0.031937483698129654 0.18623125553131104 -0.15793584287166595 255.0 0.0 0.0
-0.039779845625162125 0.29676803946495056 -0.30457550287246704 255.0 0.0 0.0
0.20588083565235138 0.47400960326194763 0.11231865733861923 255.0 0.0 0.0
-0.24832282960414886 0.2467358559370041 -0.353835791349411 255.0 0.0 0.0
-0.28502514958381653 -0.03646128624677658 -0.2875606119632721 255.0 0.0 0.0
-0.2967103123664856 -0.4409492611885071 -0.08562374860048294 255.0 0.0 0.0
0.03467639163136482 0.15392135083675385 0.1712033599615097 255.0 0.0 0.0
-0.23523205518722534 0.43497753143310547 -0.07333478331565857 255.0 0.0 0.0
0.2671070992946625 0.5064733028411865 0.09552294760942459 255.0 0.0 0.0
-0.0891743078827858 0.1761261224746704 0.15417860448360443 255.0 0.0 0.0
0.2378377914428711 -0.3254605829715729 0.11738535761833191 255.0 0.0 0.0
-0.25989073514938354 0.16155599057674408 -0.3285779058933258 255.0 0.0 0.0
-0.17493382096290588 0.46511125564575195 0.10628407448530197 255.0 0.0 0.0
-0.2707524597644806 0.21195799112319946 -0.07497794926166534 255.0 0.0 0.0
-0.20826444029808044 -0.05830125883221626 0.1687258630990982 255.0 0.0 0.0
-0.14832636713981628 -0.20655344426631927 0.15586084127426147 255.0 0.0 0.0
-0.2100391387939453 -0.19928377866744995 0.1510533094406128 255.0 0.0 0.0
-0.07668273895978928 0.32779160141944885 -0.3132416009902954 255.0 0.0 0.0
0.2743772566318512 0.360835999250412 0.12231560796499252 255.0 0.0 0.0
-0.25138145685195923 -0.0843956246972084 -0.23264241218566895 255.0 0.0 0.0
0.29673686623573303 0.09055174142122269 -0.12620855867862701 255.0 0.0 0.0
-0.05393865332007408 0.3201354146003723 -0.3065708875656128 255.0 0.0 0.0
-0.3299885392189026 -0.4150940775871277 -0.03280683606863022 255.0 0.0 0.0
-0.21424600481987 0.005621808581054211 0.1709543913602829 255.0 0.0 0.0
-0.24931319057941437 0.4597705900669098 -0.04349628463387489 255.0 0.0 0.0
-0.21859034895896912 0.48386937379837036 -0.05338497459888458 255.0 0.0 0.0
0.2339303195476532 0.47283387184143066 0.1044803112745285 255.0 0.0 0.0
-0.22219093143939972 -0.11230391263961792 0.15823766589164734 255.0 0.0 0.0
-0.24906884133815765 0.4153699278831482 0.11573590338230133 255.0 0.0 0.0
0.23391978442668915 -0.3543073534965515 -0.08608310669660568 255.0 0.0 0.0
0.026340890675783157 0.26856517791748047 -0.2617778480052948 255.0 0.0 0.0
-0.22809000313282013 0.12305102497339249 0.15220490097999573 255.0 0.0 0.0
-0.23106497526168823 -0.2897317707538605 -0.06331004202365875 255.0 0.0 0.0
0.2961627244949341 0.21818765997886658 0.11877014487981796 255.0 0.0 0.0
0.29711177945137024 0.3442397117614746 0.05469980090856552 255.0 0.0 0.0
0.29148682951927185 -0.43779030442237854 0.09120076894760132 255.0 0.0 0.0
0.17611323297023773 0.2061120718717575 0.15415097773075104 255.0 0.0 0.0
-0.17081157863140106 0.23858484625816345 0.02122720144689083 255.0 0.0 0.0
-0.009555617347359657 0.18949022889137268 -0.13249507546424866 255.0 0.0 0.0
-0.2550622820854187 0.08739013969898224 -0.29708659648895264 255.0 0.0 0.0
0.2728424072265625 0.48488470911979675 0.13041210174560547 255.0 0.0 0.0
0.14449623227119446 0.17327190935611725 0.14941412210464478 255.0 0.0 0.0
0.2827734053134918 0.4077148735523224 0.13160660862922668 255.0 0.0 0.0
-0.26945337653160095 -0.23836937546730042 -0.008175615221261978 255.0 0.0 0.0
0.20586727559566498 0.3505183458328247 -0.06340853869915009 255.0 0.0 0.0
-0.018075203523039818 0.2737940549850464 -0.2786761522293091 255.0 0.0 0.0
-0.2204424887895584 0.33025869727134705 -0.0420670285820961 255.0 0.0 0.0
0.19901485741138458 0.32797661423683167 0.0467383973300457 255.0 0.0 0.0
-0.1612994223833084 0.22301900386810303 -0.00014969342737458646 255.0 0.0 0.0
0.2787705659866333 0.4867779314517975 0.11698228120803833 255.0 0.0 0.0
0.29900041222572327 -0.2437681257724762 -0.10955442488193512 255.0 0.0 0.0
0.27101919054985046 -0.24831253290176392 0.14483502507209778 255.0 0.0 0.0
0.0008620473672635853 0.28598758578300476 -0.23480750620365143 255.0 0.0 0.0
-0.2683411240577698 -0.1311880648136139 -0.12245992571115494 255.0 0.0 0.0
0.2937387228012085 0.06652899831533432 0.15630710124969482 255.0 0.0 0.0
-0.2685106694698334 0.22230063378810883 -0.0862509235739708 255.0 0.0 0.0
-0.23648889362812042 0.3194332420825958 -0.3445901870727539 255.0 0.0 0.0
-0.1850777417421341 0.2402970939874649 0.036132361739873886 255.0 0.0 0.0
-0.27499228715896606 0.09743324667215347 -0.276185005903244 255.0 0.0 0.0
0.24379724264144897 -0.10322372615337372 0.1672316938638687 255.0 0.0 0.0
-0.21615318953990936 0.2552492916584015 0.045952070504426956 255.0 0.0 0.0
-0.3002064824104309 -0.3124924302101135 0.14257235825061798 255.0 0.0 0.0
0.18030351400375366 0.4153251349925995 0.10338348895311356 255.0 0.0 0.0
-0.22444236278533936 -0.3337174355983734 -0.08226793259382248 255.0 0.0 0.0
-0.24435174465179443 -0.24986152350902557 0.014048034325242043 255.0 0.0 0.0
0.25813624262809753 0.2777227759361267 -0.006264209281653166 255.0 0.0 0.0
0.29780569672584534 -0.03493458032608032 0.15413625538349152 255.0 0.0 0.0
-0.2730365991592407 -0.007999815046787262 -0.306549996137619 255.0 0.0 0.0
-0.24528883397579193 0.2421443909406662 -0.015460208989679813 255.0 0.0 0.0
-0.27975916862487793 0.20798976719379425 -0.34598878026008606 255.0 0.0 0.0
-0.029174139723181725 0.11393783986568451 -0.13506805896759033 255.0 0.0 0.0
-0.2117534875869751 -0.41798198223114014 0.1661897897720337 255.0 0.0 0.0
0.0740247368812561 -0.25072482228279114 0.14761535823345184 255.0 0.0 0.0
0.29724618792533875 -0.040644824504852295 -0.12002634257078171 255.0 0.0 0.0
0.2160915732383728 -0.24225953221321106 -0.13506805896759033 255.0 0.0 0.0
-0.23751217126846313 -0.019051870331168175 0.1559440642595291 255.0 0.0 0.0
0.24247996509075165 0.50101238489151 0.12027117609977722 255.0 0.0 0.0
0.2810991704463959 0.024822097271680832 0.1563149392604828 255.0 0.0 0.0
0.28281742334365845 0.22750666737556458 -0.11405593156814575 255.0 0.0 0.0
-0.25792956352233887 0.09717853367328644 -0.29062554240226746 255.0 0.0 0.0
-0.2654891610145569 0.10778982192277908 -0.1358918398618698 255.0 0.0 0.0
0.19931285083293915 0.33516669273376465 -0.03613583743572235 255.0 0.0 0.0
0.015646297484636307 0.2633562982082367 -0.2682124972343445 255.0 0.0 0.0
-0.23655948042869568 -0.29850518703460693 0.08529441058635712 255.0 0.0 0.0
0.21867616474628448 0.47821372747421265 0.11046217381954193 255.0 0.0 0.0
0.281395822763443 0.13955813646316528 -0.1324290782213211 255.0 0.0 0.0
-0.27101272344589233 0.21173834800720215 -0.05001971498131752 255.0 0.0 0.0
0.026490265503525734 0.2614282965660095 -0.2662730813026428 255.0 0.0 0.0
0.1552756428718567 -0.25263506174087524 -0.12143094837665558 255.0 0.0 0.0
-0.34104296565055847 -0.36454612016677856 0.12345100939273834 255.0 0.0 0.0
0.1843026727437973 0.33957839012145996 0.0008234804845415056 255.0 0.0 0.0
-0.2756522595882416 -0.46210387349128723 -0.07063469290733337 255.0 0.0 0.0
-0.2694341838359833 0.2212904542684555 -0.0005384086980484426 255.0 0.0 0.0
-0.2152046412229538 0.14774253964424133 0.16929100453853607 255.0 0.0 0.0
0.22546246647834778 0.2915501892566681 -0.01926092430949211 255.0 0.0 0.0
-0.24661995470523834 -0.33942848443984985 -0.08689311146736145 255.0 0.0 0.0
-0.2175879329442978 -0.46952784061431885 0.04928649961948395 255.0 0.0 0.0
0.17834432423114777 -0.24931517243385315 0.14668110013008118 255.0 0.0 0.0
-0.23287370800971985 -0.2404564470052719 0.1540626734495163 255.0 0.0 0.0
0.012782426550984383 0.11285132169723511 -0.20580188930034637 255.0 0.0 0.0
-0.17806148529052734 -0.24077564477920532 0.15632209181785583 255.0 0.0 0.0
0.2538871467113495 0.24484072625637054 0.044739678502082825 255.0 0.0 0.0
-0.21485784649848938 -0.46653181314468384 0.03795677050948143 255.0 0.0 0.0
0.2897256910800934 0.3441886901855469 0.0657980740070343 255.0 0.0 0.0
0.2959382236003876 0.03453661873936653 -0.11761881411075592 255.0 0.0 0.0
-0.24433065950870514 0.21270202100276947 -0.1345510184764862 255.0 0.0 0.0
-0.2139853537082672 0.3077692687511444 -0.3699796497821808 255.0 0.0 0.0
-0.0839657187461853 -0.253059446811676 -0.12124070525169373 255.0 0.0 0.0
0.2854473292827606 -0.1592283993959427 0.15632209181785583 255.0 0.0 0.0
-0.2846270501613617 0.18917180597782135 -0.3276071548461914 255.0 0.0 0.0
0.03685684874653816 -0.17807193100452423 0.17210061848163605 255.0 0.0 0.0
-0.05369948223233223 -0.25045046210289 -0.12946189939975739 255.0 0.0 0.0
-0.17462439835071564 0.2401282638311386 0.00460045225918293 255.0 0.0 0.0
-0.1473180651664734 -0.2660403847694397 0.005491436459124088 255.0 0.0 0.0
0.24805672466754913 0.10572325438261032 0.15930548310279846 255.0 0.0 0.0
0.1652192324399948 -0.18766069412231445 0.15981532633304596 255.0 0.0 0.0
-0.3220386207103729 -0.3357735574245453 0.18386337161064148 255.0 0.0 0.0
-0.21694286167621613 -0.17700901627540588 0.1660626083612442 255.0 0.0 0.0
-0.23617851734161377 0.22939951717853546 0.144478902220726 255.0 0.0 0.0
0.15632782876491547 -0.3898736238479614 0.1576281487941742 255.0 0.0 0.0
0.2832231819629669 -0.44688066840171814 0.08975912630558014 255.0 0.0 0.0
-0.3371400237083435 -0.3637632429599762 0.07318567484617233 255.0 0.0 0.0
-0.22863812744617462 0.2266215831041336 -0.13302385807037354 255.0 0.0 0.0
-0.22334109246730804 -0.23968727886676788 -0.13648508489131927 255.0 0.0 0.0
0.28309929370880127 0.00037593740853480995 -0.13506805896759033 255.0 0.0 0.0
0.07043436169624329 -0.23920542001724243 0.1564587503671646 255.0 0.0 0.0
-0.061945874243974686 -0.24858342111110687 -0.1305851936340332 255.0 0.0 0.0
0.24130676686763763 0.28842273354530334 -0.022322269156575203 255.0 0.0 0.0
-0.01788588985800743 0.2548900544643402 -0.20983421802520752 255.0 0.0 0.0
-0.2707394063472748 -0.0728091150522232 0.1413826197385788 255.0 0.0 0.0
0.23228776454925537 -0.0016874577850103378 0.16940195858478546 255.0 0.0 0.0
0.296503484249115 0.03703384846448898 0.15298330783843994 255.0 0.0 0.0
0.23607207834720612 0.34071773290634155 -0.06802353262901306 255.0 0.0 0.0
0.007086607161909342 0.28564584255218506 -0.2788742184638977 255.0 0.0 0.0
0.02197546325623989 0.26872122287750244 -0.2679674029350281 255.0 0.0 0.0
0.25502416491508484 0.4960220754146576 -0.04608485475182533 255.0 0.0 0.0
0.21092449128627777 0.27233532071113586 0.004200331401079893 255.0 0.0 0.0
-0.27186307311058044 -0.0187813900411129 -0.22427421808242798 255.0 0.0 0.0
0.2614400088787079 0.3832471966743469 0.11559689044952393 255.0 0.0 0.0
-0.24294613301753998 -0.32689234614372253 -0.08182572573423386 255.0 0.0 0.0
-0.3211061954498291 -0.42535915970802307 -0.0786805972456932 255.0 0.0 0.0
-0.17685136198997498 -0.24345873296260834 -0.1345902532339096 255.0 0.0 0.0
-0.2705809473991394 0.05899914354085922 0.15497145056724548 255.0 0.0 0.0
-0.22132927179336548 0.16401830315589905 0.1560983955860138 255.0 0.0 0.0
-0.2707524597644806 0.21598447859287262 0.06028612330555916 255.0 0.0 0.0
-0.2696487307548523 -0.24045749008655548 -0.0021618397440761328 255.0 0.0 0.0
-0.22066135704517365 0.2738773226737976 0.040620043873786926 255.0 0.0 0.0
0.11532086879014969 -0.19596968591213226 0.1505724936723709 255.0 0.0 0.0
-0.2707524597644806 0.22051119804382324 0.03298461437225342 255.0 0.0 0.0
0.08364889025688171 -0.23693566024303436 -0.13599474728107452 255.0 0.0 0.0
-0.07864498347043991 0.30942273139953613 -0.3055286407470703 255.0 0.0 0.0
0.25405776500701904 -0.1380617767572403 0.14917193353176117 255.0 0.0 0.0
-0.030359063297510147 -0.17713159322738647 0.16882893443107605 255.0 0.0 0.0
0.14738741517066956 -0.42896756529808044 0.15138481557369232 255.0 0.0 0.0
0.2861505448818207 0.12558160722255707 -0.13506805896759033 255.0 0.0 0.0
-0.26073718070983887 -0.2476034164428711 0.11507342755794525 255.0 0.0 0.0
-0.2481147050857544 0.235284224152565 -0.0006423963932320476 255.0 0.0 0.0
-0.27241694927215576 -0.0029650344513356686 0.14754250645637512 255.0 0.0 0.0
0.24320316314697266 0.4965856075286865 -0.05563166365027428 255.0 0.0 0.0
0.2825293242931366 0.4882794916629791 0.0610487274825573 255.0 0.0 0.0
-0.2078147977590561 0.4576980769634247 0.08903283625841141 255.0 0.0 0.0
-0.05204974487423897 0.13737741112709045 -0.13642017543315887 255.0 0.0 0.0
0.27061304450035095 -0.25155991315841675 0.014556230045855045 255.0 0.0 0.0
-0.2753136456012726 -0.2326187789440155 0.11423204839229584 255.0 0.0 0.0
-0.21938128769397736 0.23839068412780762 -0.031770166009664536 255.0 0.0 0.0
-0.1322961300611496 -0.20331446826457977 0.1552482545375824 255.0 0.0 0.0
-0.28058940172195435 -0.06005031242966652 -0.28000739216804504 255.0 0.0 0.0
-0.04766758158802986 -0.25087520480155945 -0.13278739154338837 255.0 0.0 0.0
0.05268794670701027 0.12270453572273254 -0.16535530984401703 255.0 0.0 0.0
-0.24061742424964905 -0.26924827694892883 -0.024865558370947838 255.0 0.0 0.0
0.19177527725696564 0.40063977241516113 0.1163000836968422 255.0 0.0 0.0
-0.2707156240940094 -0.17972755432128906 -0.1290162205696106 255.0 0.0 0.0
-0.30140992999076843 -0.39476779103279114 -0.08469145745038986 255.0 0.0 0.0
0.05241071805357933 0.1480410397052765 -0.20571529865264893 255.0 0.0 0.0
-0.2066204696893692 0.2998512387275696 -0.34870409965515137 255.0 0.0 0.0
-0.24253122508525848 -0.18136966228485107 0.15426446497440338 255.0 0.0 0.0
0.2559677064418793 -0.2679024934768677 0.03991106525063515 255.0 0.0 0.0
0.22079426050186157 -0.2449982762336731 -0.1353730857372284 255.0 0.0 0.0
0.29891273379325867 -0.0922752171754837 -0.12320621311664581 255.0 0.0 0.0
0.2238435447216034 0.22885261476039886 0.061387334018945694 255.0 0.0 0.0
-0.048106446862220764 0.3154198229312897 -0.2702934741973877 255.0 0.0 0.0
0.28209540247917175 0.2213580459356308 -0.13465192914009094 255.0 0.0 0.0
-0.25907525420188904 0.01136517059057951 -0.13506805896759033 255.0 0.0 0.0
-0.03452420234680176 0.11983226239681244 -0.13824348151683807 255.0 0.0 0.0
-0.2799321711063385 -0.05233849585056305 -0.29155945777893066 255.0 0.0 0.0
0.23768770694732666 0.12722791731357574 0.16451014578342438 255.0 0.0 0.0
0.2919411361217499 0.45937380194664 0.1182427853345871 255.0 0.0 0.0
0.13709864020347595 -0.4281677305698395 0.10359176993370056 255.0 0.0 0.0
-0.22213347256183624 0.1622137427330017 0.1589522808790207 255.0 0.0 0.0
-0.2712336778640747 -0.03206336498260498 -0.1328556388616562 255.0 0.0 0.0
-0.28506729006767273 0.05067339166998863 -0.2519608736038208 255.0 0.0 0.0
0.21606756746768951 0.2809842824935913 -0.013502045534551144 255.0 0.0 0.0
0.24817949533462524 0.2485232651233673 0.046491630375385284 255.0 0.0 0.0
0.23788125813007355 -0.4456477463245392 0.20003031194210052 255.0 0.0 0.0
0.20526476204395294 0.22631394863128662 0.018334850668907166 255.0 0.0 0.0
-0.20293542742729187 0.3325693905353546 -0.031086096540093422 255.0 0.0 0.0
0.29690805077552795 0.2116934359073639 -0.05829181522130966 255.0 0.0 0.0
0.09067139774560928 0.15051713585853577 0.1668868213891983 255.0 0.0 0.0
0.08984620869159698 -0.2426391839981079 0.1546006202697754 255.0 0.0 0.0
-0.23185332119464874 0.27026718854904175 -0.35437682271003723 255.0 0.0 0.0
0.08647721260786057 0.21736697852611542 -0.13716326653957367 255.0 0.0 0.0
0.05411972105503082 0.22719751298427582 0.1534133404493332 255.0 0.0 0.0
0.2823053002357483 0.47579506039619446 0.1258012354373932 255.0 0.0 0.0
-0.23859983682632446 -0.2532457113265991 -0.048441872000694275 255.0 0.0 0.0
0.09997012466192245 -0.1824413686990738 0.16707758605480194 255.0 0.0 0.0
0.29109230637550354 0.036981504410505295 -0.13504701852798462 255.0 0.0 0.0
0.24878430366516113 -0.09734740108251572 0.15797565877437592 255.0 0.0 0.0
-0.22800123691558838 -0.4743455648422241 -0.009554757736623287 255.0 0.0 0.0
-0.2616019546985626 0.18510784208774567 0.15771834552288055 255.0 0.0 0.0
-0.19006766378879547 0.1521623134613037 0.16859033703804016 255.0 0.0 0.0
-0.2719895839691162 0.19477081298828125 -0.130141943693161 255.0 0.0 0.0
0.20751212537288666 0.228595569729805 0.15776023268699646 255.0 0.0 0.0
0.02628539875149727 0.24134933948516846 -0.25320085883140564 255.0 0.0 0.0
-0.25705260038375854 -0.24782203137874603 0.13307005167007446 255.0 0.0 0.0
-0.1794758141040802 0.3389453589916229 0.050396133214235306 255.0 0.0 0.0
0.16702239215373993 -0.20726925134658813 0.15578800439834595 255.0 0.0 0.0
-0.28246235847473145 -0.027217814698815346 -0.30120882391929626 255.0 0.0 0.0
0.289865106344223 0.22545140981674194 -0.00629816111177206 255.0 0.0 0.0
-0.26298460364341736 -0.4755113124847412 -0.043044816702604294 255.0 0.0 0.0
-0.23168230056762695 -0.25362351536750793 0.05669185146689415 255.0 0.0 0.0
0.2206295281648636 0.3631172776222229 -0.08321297913789749 255.0 0.0 0.0
-0.22352392971515656 -0.07730783522129059 0.15144503116607666 255.0 0.0 0.0
-0.2155618667602539 0.47781267762184143 -0.05990660935640335 255.0 0.0 0.0
0.0279484074562788 0.18123525381088257 -0.13554085791110992 255.0 0.0 0.0
0.22690662741661072 0.2794801592826843 0.039873022586107254 255.0 0.0 0.0
-0.028436612337827682 0.1974051147699356 -0.16315266489982605 255.0 0.0 0.0
0.007235020864754915 0.17201770842075348 0.1556728333234787 255.0 0.0 0.0
0.2974427044391632 0.19716908037662506 -0.12591047585010529 255.0 0.0 0.0
-0.21123073995113373 -0.0684262365102768 0.17494647204875946 255.0 0.0 0.0
-0.17888420820236206 0.25414320826530457 0.0026767489034682512 255.0 0.0 0.0
-0.1757146716117859 -0.1968093067407608 0.15255102515220642 255.0 0.0 0.0
-0.08022870123386383 0.22930382192134857 -0.126127228140831 255.0 0.0 0.0
-0.22150827944278717 0.37238338589668274 -0.0776437371969223 255.0 0.0 0.0
-0.036756426095962524 0.2978397309780121 -0.2994837164878845 255.0 0.0 0.0
-0.10380735248327255 0.17951682209968567 0.1545783430337906 255.0 0.0 0.0
-0.2912876307964325 -0.4467654526233673 -0.0858660414814949 255.0 0.0 0.0
-0.09750996530056 -0.251624196767807 0.1384129673242569 255.0 0.0 0.0
-0.26772263646125793 0.22976337373256683 0.056605614721775055 255.0 0.0 0.0
-0.1913783997297287 0.4972054064273834 0.08984352648258209 255.0 0.0 0.0
0.29355156421661377 0.34980374574661255 0.04660601168870926 255.0 0.0 0.0
0.04092741385102272 0.18934081494808197 -0.15289270877838135 255.0 0.0 0.0
-0.16559499502182007 0.3183184266090393 -0.333059698343277 255.0 0.0 0.0
0.16535939276218414 -0.25007349252700806 0.14151979982852936 255.0 0.0 0.0
-0.2750478684902191 0.05717572197318077 -0.2498812973499298 255.0 0.0 0.0
-0.2429097592830658 0.23078422248363495 -0.02860000543296337 255.0 0.0 0.0
-0.29155802726745605 0.015745244920253754 -0.29803505539894104 255.0 0.0 0.0
0.14553935825824738 -0.4440692961215973 0.0770503506064415 255.0 0.0 0.0
0.2460252046585083 0.13815578818321228 0.1624196618795395 255.0 0.0 0.0
-0.2890980541706085 0.08784456551074982 -0.27896738052368164 255.0 0.0 0.0
0.18364913761615753 0.34076380729675293 0.00015289385919459164 255.0 0.0 0.0
-0.24128326773643494 -0.31964585185050964 0.11310636252164841 255.0 0.0 0.0
0.012074217200279236 -0.18832899630069733 0.15884344279766083 255.0 0.0 0.0
0.2385074943304062 0.2326798290014267 -0.03301435708999634 255.0 0.0 0.0
-0.274031400680542 -0.07599400728940964 -0.27676522731781006 255.0 0.0 0.0
-0.10011281818151474 0.22868648171424866 0.14819680154323578 255.0 0.0 0.0
-0.16870121657848358 -0.2546428442001343 -0.037308305501937866 255.0 0.0 0.0
0.2799059748649597 0.48396846652030945 0.11941377818584442 255.0 0.0 0.0
-0.23289667069911957 -0.44351544976234436 0.1527540534734726 255.0 0.0 0.0
0.05191357433795929 0.2283836156129837 0.1514592319726944 255.0 0.0 0.0
-0.2691759169101715 0.09388064593076706 -0.12571118772029877 255.0 0.0 0.0
0.22838029265403748 -0.3631526231765747 -0.0922388806939125 255.0 0.0 0.0
-0.2559044659137726 0.22778551280498505 -0.027828259393572807 255.0 0.0 0.0
-0.11280976980924606 0.33445337414741516 -0.3027894198894501 255.0 0.0 0.0
-0.2414398491382599 0.3633188009262085 0.11032720655202866 255.0 0.0 0.0
-0.2679855227470398 0.06267603486776352 -0.12769193947315216 255.0 0.0 0.0
-0.3136483430862427 -0.43730610609054565 -0.06868371367454529 255.0 0.0 0.0
-0.24515129625797272 -0.06033710762858391 -0.23487615585327148 255.0 0.0 0.0
-0.001307651400566101 0.20262621343135834 -0.13370884954929352 255.0 0.0 0.0
0.2609379291534424 -0.4449235498905182 0.19569572806358337 255.0 0.0 0.0
-0.23103345930576324 0.3329698443412781 0.06289809942245483 255.0 0.0 0.0
-0.21141189336776733 0.357687383890152 -0.07631734758615494 255.0 0.0 0.0
0.25654900074005127 0.03999830782413483 0.15673598647117615 255.0 0.0 0.0
0.2616102397441864 0.3991909325122833 -0.09323681890964508 255.0 0.0 0.0
-0.1650429219007492 -0.255626380443573 -0.05383429303765297 255.0 0.0 0.0
-0.33065342903137207 -0.3540973663330078 0.09381847083568573 255.0 0.0 0.0
-0.268892377614975 -0.07559309899806976 -0.13494807481765747 255.0 0.0 0.0
-0.18299975991249084 -0.2731306254863739 0.06645425409078598 255.0 0.0 0.0
-0.22820435464382172 0.31765201687812805 0.046465128660202026 255.0 0.0 0.0
-0.28018686175346375 -0.31072235107421875 0.123819999396801 255.0 0.0 0.0
-0.2715323865413666 -0.0930275097489357 -0.24497143924236298 255.0 0.0 0.0
-0.21570533514022827 0.381380170583725 -0.07817470282316208 255.0 0.0 0.0
0.2532881498336792 0.14055676758289337 0.14985793828964233 255.0 0.0 0.0
0.2748924195766449 0.3539641499519348 0.11589542031288147 255.0 0.0 0.0
-0.23335544764995575 0.43098485469818115 -0.07805315405130386 255.0 0.0 0.0
0.29529839754104614 -0.25136834383010864 0.09958234429359436 255.0 0.0 0.0
0.14974749088287354 0.20956780016422272 -0.13506805896759033 255.0 0.0 0.0
-0.26173388957977295 0.01535136066377163 -0.237747922539711 255.0 0.0 0.0
0.26694172620773315 -0.05150487273931503 0.15401268005371094 255.0 0.0 0.0
-0.26854050159454346 0.12418391555547714 0.1587560921907425 255.0 0.0 0.0
0.15519721806049347 0.22653090953826904 -0.12427502870559692 255.0 0.0 0.0
0.16440610587596893 -0.32322731614112854 0.07239356637001038 255.0 0.0 0.0
-0.3081665635108948 -0.333974689245224 0.18987347185611725 255.0 0.0 0.0
-0.23919138312339783 0.35530105233192444 0.10387615114450455 255.0 0.0 0.0
-0.16302308440208435 -0.26562175154685974 -0.03398783504962921 255.0 0.0 0.0
0.027882473543286324 -0.2514995336532593 0.1374087631702423 255.0 0.0 0.0
0.2924778461456299 -0.2494148313999176 -0.12052185088396072 255.0 0.0 0.0
0.28677868843078613 0.16559888422489166 0.15486890077590942 255.0 0.0 0.0
-0.2864855229854584 0.10059352964162827 -0.3060334622859955 255.0 0.0 0.0
-0.05497964844107628 -0.18177229166030884 0.1650654375553131 255.0 0.0 0.0
0.18027693033218384 -0.25363194942474365 0.055174052715301514 255.0 0.0 0.0
-0.004010620526969433 0.21044640243053436 -0.24023549258708954 255.0 0.0 0.0
0.25833219289779663 -0.2530610263347626 0.02672765776515007 255.0 0.0 0.0
-0.026981908828020096 0.19150760769844055 -0.15197201073169708 255.0 0.0 0.0
-0.2025306075811386 0.157541885972023 0.1690402626991272 255.0 0.0 0.0
-0.26364025473594666 0.08553918451070786 -0.3199376165866852 255.0 0.0 0.0
-0.0015804825816303492 0.17967072129249573 -0.1324722021818161 255.0 0.0 0.0
-0.19316691160202026 0.39843428134918213 0.08883204311132431 255.0 0.0 0.0
0.2642435133457184 0.3081320524215698 0.03943299502134323 255.0 0.0 0.0
0.21561209857463837 0.2236260622739792 0.1444953829050064 255.0 0.0 0.0
0.24681046605110168 0.3564226031303406 -0.08342067897319794 255.0 0.0 0.0
-0.08447834849357605 0.22608742117881775 0.15209992229938507 255.0 0.0 0.0
0.2447051703929901 -0.14628209173679352 0.16732579469680786 255.0 0.0 0.0
-0.23334883153438568 -0.2537793815135956 0.04944264143705368 255.0 0.0 0.0
0.2647726237773895 0.17099975049495697 0.1570352166891098 255.0 0.0 0.0
0.2681822180747986 -0.353649377822876 0.1399773359298706 255.0 0.0 0.0
-0.015161520801484585 -0.23394204676151276 -0.13187013566493988 255.0 0.0 0.0
-0.044266071170568466 0.3113814890384674 -0.26598799228668213 255.0 0.0 0.0
0.2979316711425781 0.1416914165019989 0.14818547666072845 255.0 0.0 0.0
0.29831209778785706 -0.041234035044908524 0.14165855944156647 255.0 0.0 0.0
-0.059406738728284836 -0.23295706510543823 -0.13390228152275085 255.0 0.0 0.0
0.037478093057870865 0.22946307063102722 -0.24417786300182343 255.0 0.0 0.0
0.2034073770046234 0.22602207958698273 -0.010902519337832928 255.0 0.0 0.0
-0.006040460895746946 0.22628948092460632 -0.13487356901168823 255.0 0.0 0.0
0.2165113091468811 0.2191324383020401 -0.1364477276802063 255.0 0.0 0.0
-0.25329098105430603 0.3483326733112335 -0.04217907413840294 255.0 0.0 0.0
-0.15866553783416748 0.31522756814956665 -0.3412960171699524 255.0 0.0 0.0
-0.32660195231437683 -0.3463633358478546 0.19751304388046265 255.0 0.0 0.0
-0.2704301178455353 -0.1385943740606308 -0.12753671407699585 255.0 0.0 0.0
-0.15718694031238556 -0.19981789588928223 0.1568536013364792 255.0 0.0 0.0
0.023172549903392792 0.22806212306022644 0.13879573345184326 255.0 0.0 0.0
-0.3395564556121826 -0.3830028474330902 0.0397002138197422 255.0 0.0 0.0
0.27614495158195496 0.4908349812030792 0.11560085415840149 255.0 0.0 0.0
-0.06988301873207092 0.22756090760231018 0.15100742876529694 255.0 0.0 0.0
-0.16054823994636536 -0.19951288402080536 0.1509982943534851 255.0 0.0 0.0
-0.22446560859680176 -0.2639084458351135 0.06719113886356354 255.0 0.0 0.0
-0.029013581573963165 0.2129829227924347 -0.13271138072013855 255.0 0.0 0.0
0.2912903428077698 -0.25145193934440613 0.05117607116699219 255.0 0.0 0.0
-0.27225300669670105 -0.07112792879343033 -0.12811271846294403 255.0 0.0 0.0
0.24302823841571808 -0.30912086367607117 0.09967409074306488 255.0 0.0 0.0
-0.020604737102985382 0.27343228459358215 -0.22664564847946167 255.0 0.0 0.0
0.21831855177879333 0.3424413800239563 -0.06779743731021881 255.0 0.0 0.0
0.008423401974141598 0.1027253121137619 -0.19104978442192078 255.0 0.0 0.0
0.2972424328327179 0.14267456531524658 -0.12142230570316315 255.0 0.0 0.0
-0.22608304023742676 -0.14945758879184723 0.15102693438529968 255.0 0.0 0.0
0.2553699016571045 0.163166344165802 0.15155036747455597 255.0 0.0 0.0
0.27069661021232605 -0.44550496339797974 0.17663218080997467 255.0 0.0 0.0
-0.19616113603115082 0.4621254801750183 -0.06263714283704758 255.0 0.0 0.0
0.14978419244289398 -0.446252703666687 -0.006467691157013178 255.0 0.0 0.0
-0.27936306595802307 0.23366574943065643 -0.3416362404823303 255.0 0.0 0.0
0.2965565025806427 -0.21987588703632355 -0.13428610563278198 255.0 0.0 0.0
0.05229814350605011 0.22622792422771454 0.15074725449085236 255.0 0.0 0.0
-0.2228369563817978 0.45961830019950867 -0.06980513781309128 255.0 0.0 0.0
-0.213271364569664 0.16694225370883942 0.15711650252342224 255.0 0.0 0.0
-0.23153311014175415 -0.2551153004169464 0.06948980689048767 255.0 0.0 0.0
0.05175235494971275 0.19175657629966736 -0.21616040170192719 255.0 0.0 0.0
-0.2974095046520233 -0.3888086676597595 -0.08556665480136871 255.0 0.0 0.0
0.24341177940368652 0.5015515685081482 0.12385386228561401 255.0 0.0 0.0
0.20909692347049713 -0.2508488595485687 -0.05423898249864578 255.0 0.0 0.0
0.1813998818397522 0.4337069094181061 0.10780981928110123 255.0 0.0 0.0
-0.19019809365272522 -0.2584109604358673 0.07212737202644348 255.0 0.0 0.0
-0.2784680426120758 0.02714570425450802 -0.32133617997169495 255.0 0.0 0.0
0.09907419234514236 0.1717882752418518 0.15021392703056335 255.0 0.0 0.0
0.014036459848284721 0.16604599356651306 0.15849100053310394 255.0 0.0 0.0
-0.27990999817848206 -0.06013556942343712 -0.28100305795669556 255.0 0.0 0.0
-0.26662662625312805 0.05205683782696724 -0.13614369928836823 255.0 0.0 0.0
-0.26509732007980347 0.027722995728254318 -0.13345791399478912 255.0 0.0 0.0
-0.3331157863140106 -0.3533356487751007 0.09859414398670197 255.0 0.0 0.0
0.14825871586799622 0.22709737718105316 0.1560605764389038 255.0 0.0 0.0
0.29633334279060364 -0.13158327341079712 -0.13608592748641968 255.0 0.0 0.0
0.21964938938617706 0.21420876681804657 -0.13506805896759033 255.0 0.0 0.0
-0.21651704609394073 0.43578511476516724 -0.08121149986982346 255.0 0.0 0.0
0.25894904136657715 0.21831704676151276 0.15632209181785583 255.0 0.0 0.0
0.26046237349510193 0.2683870196342468 -0.004977519623935223 255.0 0.0 0.0
0.29822373390197754 -0.23616306483745575 0.1108894944190979 255.0 0.0 0.0
-0.27260059118270874 0.22480231523513794 -0.31545376777648926 255.0 0.0 0.0
-0.2890844941139221 0.003947875462472439 -0.24611783027648926 255.0 0.0 0.0
-0.2679765224456787 0.08003584295511246 -0.31890732049942017 255.0 0.0 0.0
0.2676457464694977 0.2876189947128296 0.004543856251984835 255.0 0.0 0.0
-0.16923370957374573 0.31885454058647156 -0.33260324597358704 255.0 0.0 0.0
0.18250936269760132 -0.2495444118976593 -0.12104833126068115 255.0 0.0 0.0
-0.21545375883579254 0.16213591396808624 0.1637536883354187 255.0 0.0 0.0
-0.26267319917678833 0.4399796426296234 0.10192848742008209 255.0 0.0 0.0
0.23744404315948486 0.24353590607643127 -0.02789490297436714 255.0 0.0 0.0
0.02442575991153717 0.18146342039108276 -0.13750353455543518 255.0 0.0 0.0
0.21298180520534515 0.4975177049636841 0.11663464456796646 255.0 0.0 0.0
-0.05665036290884018 0.30059346556663513 -0.28928783535957336 255.0 0.0 0.0
0.29722264409065247 -0.026596082374453545 0.142661914229393 255.0 0.0 0.0
0.22949041426181793 0.24772875010967255 0.04579409211874008 255.0 0.0 0.0
0.22784970700740814 -0.2485884428024292 0.1460229605436325 255.0 0.0 0.0
-0.2608453333377838 0.13454364240169525 -0.3071340024471283 255.0 0.0 0.0
0.2905464768409729 -0.39942029118537903 0.15965069830417633 255.0 0.0 0.0
-0.31818827986717224 -0.3485879600048065 0.20060046017169952 255.0 0.0 0.0
0.024847418069839478 0.2762052118778229 -0.26806172728538513 255.0 0.0 0.0
-0.2460079789161682 -0.007734157610684633 -0.2855099141597748 255.0 0.0 0.0
-0.19261036813259125 0.4979728162288666 0.09520638734102249 255.0 0.0 0.0
0.21579520404338837 0.45482251048088074 -0.07680238038301468 255.0 0.0 0.0
-0.22907163202762604 -0.2624944746494293 0.05145440250635147 255.0 0.0 0.0
-0.27064454555511475 -0.18603810667991638 -0.13109232485294342 255.0 0.0 0.0
-0.33320069313049316 -0.35231325030326843 0.1702594757080078 255.0 0.0 0.0
-0.2533944845199585 -0.046171389520168304 -0.22824791073799133 255.0 0.0 0.0
-0.030021723359823227 0.20360888540744781 -0.1764354258775711 255.0 0.0 0.0
0.023608027026057243 -0.18162555992603302 0.16022101044654846 255.0 0.0 0.0
0.14893627166748047 -0.4464390277862549 0.1104341447353363 255.0 0.0 0.0
-0.22827737033367157 0.029855599626898766 0.14972564578056335 255.0 0.0 0.0
0.06260574609041214 0.19595617055892944 -0.18418985605239868 255.0 0.0 0.0
0.2291596531867981 0.5086240768432617 -0.012533632107079029 255.0 0.0 0.0
0.24627763032913208 -0.4106551706790924 -0.09099918603897095 255.0 0.0 0.0
-0.2674819827079773 0.023344680666923523 0.15550777316093445 255.0 0.0 0.0
-0.17204374074935913 0.21938881278038025 -0.13510499894618988 255.0 0.0 0.0
0.24581317603588104 -0.42291173338890076 -0.09299590438604355 255.0 0.0 0.0
0.0011604041792452335 0.14718464016914368 0.1660866141319275 255.0 0.0 0.0
0.2672775387763977 0.316024512052536 -0.02541222609579563 255.0 0.0 0.0
0.28507018089294434 0.2277996689081192 -0.13165274262428284 255.0 0.0 0.0
-0.23376131057739258 -0.2496660202741623 0.1427600234746933 255.0 0.0 0.0
-0.24482400715351105 0.39673081040382385 0.11367159336805344 255.0 0.0 0.0
0.2827664315700531 -0.24941781163215637 0.12349086999893188 255.0 0.0 0.0
0.0644076019525528 0.22534188628196716 0.15206539630889893 255.0 0.0 0.0
0.22774222493171692 0.27108436822891235 -0.021150046959519386 255.0 0.0 0.0
-0.16480079293251038 -0.26834774017333984 0.056499969214200974 255.0 0.0 0.0
-0.2355770617723465 -0.12868033349514008 0.1574822962284088 255.0 0.0 0.0
-0.14167295396327972 0.22863207757472992 0.15176479518413544 255.0 0.0 0.0
-0.2276540845632553 -0.4153984487056732 0.18846926093101501 255.0 0.0 0.0
-0.16279330849647522 0.22525618970394135 -0.01594008505344391 255.0 0.0 0.0
0.031772539019584656 0.24881938099861145 -0.2573396563529968 255.0 0.0 0.0
-0.22655783593654633 0.21817649900913239 0.15632209181785583 255.0 0.0 0.0
-0.2213868796825409 -0.08836116641759872 0.15294784307479858 255.0 0.0 0.0
-0.27047792077064514 -0.30352115631103516 0.10644741356372833 255.0 0.0 0.0
0.21768076717853546 0.4450031816959381 0.10212965309619904 255.0 0.0 0.0
0.06203746050596237 0.15912611782550812 -0.1518646627664566 255.0 0.0 0.0
-0.24389328062534332 -0.02066962420940399 -0.27716153860092163 255.0 0.0 0.0
-0.2683720588684082 0.07582569122314453 0.1562807708978653 255.0 0.0 0.0
-0.24882526695728302 -0.24466602504253387 0.16240866482257843 255.0 0.0 0.0
-0.2794082462787628 -0.028131091967225075 -0.29802605509757996 255.0 0.0 0.0
-0.15414243936538696 -0.27170321345329285 -0.013923817314207554 255.0 0.0 0.0
-0.18634207546710968 0.382545530796051 0.09796774387359619 255.0 0.0 0.0
0.020580055192112923 0.09361241012811661 -0.13525806367397308 255.0 0.0 0.0
-0.1766090989112854 0.35402944684028625 -0.0465383380651474 255.0 0.0 0.0
-0.1630018651485443 -0.2387896180152893 -0.13506805896759033 255.0 0.0 0.0
0.08553653955459595 -0.22926698625087738 0.15786413848400116 255.0 0.0 0.0
-0.02994176372885704 0.26114407181739807 -0.22712653875350952 255.0 0.0 0.0
-0.15256713330745697 -0.2534933388233185 -0.02779703587293625 255.0 0.0 0.0
-0.2206447422504425 0.47568705677986145 0.10308248549699783 255.0 0.0 0.0
-0.26659655570983887 -0.14234167337417603 -0.13506805896759033 255.0 0.0 0.0
-0.21060706675052643 0.09399750083684921 0.17171066999435425 255.0 0.0 0.0
0.05210527032613754 0.1748386174440384 -0.21069487929344177 255.0 0.0 0.0
0.048411477357149124 -0.2485254853963852 0.15230809152126312 255.0 0.0 0.0
-0.21057623624801636 0.12476889789104462 0.16923275589942932 255.0 0.0 0.0
-0.24811847507953644 -0.3708947002887726 -0.09387975931167603 255.0 0.0 0.0
-0.15113840997219086 0.17833212018013 0.15499842166900635 255.0 0.0 0.0
0.2832757830619812 -0.424397736787796 0.1917121857404709 255.0 0.0 0.0
-0.2506192922592163 0.29499098658561707 -0.3594556748867035 255.0 0.0 0.0
-0.19804251194000244 0.30868515372276306 0.042886797338724136 255.0 0.0 0.0
-0.2972511053085327 -0.43082934617996216 -0.08946472406387329 255.0 0.0 0.0
-0.21931439638137817 -0.47904765605926514 0.028814613819122314 255.0 0.0 0.0
-0.18991807103157043 0.1729949563741684 0.14978261291980743 255.0 0.0 0.0
0.2974807620048523 -0.19569237530231476 0.14575763046741486 255.0 0.0 0.0
-0.24911968410015106 -0.009740483947098255 -0.23827648162841797 255.0 0.0 0.0
-0.311781644821167 -0.32496190071105957 0.1146557629108429 255.0 0.0 0.0
0.19713915884494781 0.22678561508655548 0.01588485948741436 255.0 0.0 0.0
0.14605501294136047 0.2115996927022934 -0.1346377581357956 255.0 0.0 0.0
-0.2662871181964874 -0.04008634015917778 0.160540372133255 255.0 0.0 0.0
0.28653547167778015 -0.22519752383232117 0.15624715387821198 255.0 0.0 0.0
0.024381790310144424 0.1824263483285904 -0.13538771867752075 255.0 0.0 0.0
-0.26751869916915894 0.2185061275959015 -0.13074088096618652 255.0 0.0 0.0
-0.23976141214370728 0.2783030569553375 0.016339797526597977 255.0 0.0 0.0
0.010237595066428185 -0.17893168330192566 0.16737675666809082 255.0 0.0 0.0
-0.22275425493717194 -0.11172889173030853 0.1532307267189026 255.0 0.0 0.0
0.07303599268198013 0.17946556210517883 0.16177025437355042 255.0 0.0 0.0
0.14581027626991272 0.17022638022899628 0.15342918038368225 255.0 0.0 0.0
-0.14426420629024506 -0.1703435778617859 0.16463729739189148 255.0 0.0 0.0
0.26284536719322205 -0.31714871525764465 -0.06579579412937164 255.0 0.0 0.0
-0.2193293422460556 0.024088241159915924 0.1596069633960724 255.0 0.0 0.0
-0.29719042778015137 -0.3154056668281555 0.14213471114635468 255.0 0.0 0.0
-0.2651325762271881 0.1604042500257492 -0.3050122857093811 255.0 0.0 0.0
0.28787410259246826 -0.39403632283210754 0.15765829384326935 255.0 0.0 0.0
0.07613566517829895 0.1604965329170227 0.16694170236587524 255.0 0.0 0.0
-0.11009377986192703 0.18017524480819702 0.1551879346370697 255.0 0.0 0.0
0.2961611747741699 -0.24398206174373627 0.11810167133808136 255.0 0.0 0.0
0.2875320017337799 -0.038235221058130264 -0.13609051704406738 255.0 0.0 0.0
0.26542118191719055 0.22414501011371613 0.15813277661800385 255.0 0.0 0.0
0.2094210386276245 -0.2800152003765106 -0.05780869722366333 255.0 0.0 0.0
0.14377012848854065 -0.24542632699012756 0.15464428067207336 255.0 0.0 0.0
-0.2338215708732605 0.3856784701347351 -0.07797274738550186 255.0 0.0 0.0
-0.07566531747579575 0.21441644430160522 -0.13367600739002228 255.0 0.0 0.0
-0.2054210901260376 0.16775812208652496 0.15737320482730865 255.0 0.0 0.0
-0.2537608742713928 0.22619393467903137 0.14108464121818542 255.0 0.0 0.0
-0.10107622295618057 -0.2385287582874298 -0.13588832318782806 255.0 0.0 0.0
-0.26003432273864746 0.14734859764575958 -0.3136960566043854 255.0 0.0 0.0
-0.262786865234375 0.013001572340726852 -0.3133915662765503 255.0 0.0 0.0
0.24410493671894073 0.00513363815844059 0.1708802729845047 255.0 0.0 0.0
0.26762422919273376 0.2990555763244629 0.03759318217635155 255.0 0.0 0.0
0.11402881145477295 -0.20036011934280396 0.15519385039806366 255.0 0.0 0.0
-0.25056758522987366 0.478911817073822 -0.009030289016664028 255.0 0.0 0.0
-0.26989057660102844 0.17957356572151184 0.15605534613132477 255.0 0.0 0.0
-0.2819369435310364 -0.318673312664032 0.14883345365524292 255.0 0.0 0.0
-0.26963335275650024 0.09149689227342606 0.15686294436454773 255.0 0.0 0.0
-0.266934871673584 0.08333421498537064 -0.31687813997268677 255.0 0.0 0.0
-0.07212623208761215 0.3103169798851013 -0.29277169704437256 255.0 0.0 0.0
0.29155293107032776 -0.428031325340271 0.13414090871810913 255.0 0.0 0.0
-0.1673843264579773 0.1562189757823944 0.17208106815814972 255.0 0.0 0.0
-0.2910339832305908 -0.027754366397857666 -0.24089941382408142 255.0 0.0 0.0
0.18291452527046204 0.21835745871067047 0.15632209181785583 255.0 0.0 0.0
-0.21360158920288086 0.32474222779273987 -0.34708067774772644 255.0 0.0 0.0
-0.24889235198497772 0.2452402412891388 0.020512880757451057 255.0 0.0 0.0
-0.18825961649417877 0.1711168736219406 0.1589687466621399 255.0 0.0 0.0
-0.2599247694015503 0.11456679552793503 -0.28779739141464233 255.0 0.0 0.0
-0.25267156958580017 0.05816345661878586 -0.2764964997768402 255.0 0.0 0.0
-0.27741533517837524 0.0014349393313750625 -0.23253607749938965 255.0 0.0 0.0
0.15599916875362396 -0.3387463688850403 0.07531389594078064 255.0 0.0 0.0
-0.1402183473110199 0.2171541154384613 0.15632209181785583 255.0 0.0 0.0
0.24648769199848175 0.04863544926047325 0.1599966585636139 255.0 0.0 0.0
0.20960119366645813 0.4208582937717438 -0.08441806584596634 255.0 0.0 0.0
-0.18750225007534027 0.3402019143104553 -0.04905746132135391 255.0 0.0 0.0
-0.280879408121109 0.09053124487400055 -0.31792059540748596 255.0 0.0 0.0
-0.2600083649158478 0.2665504813194275 -0.36241957545280457 255.0 0.0 0.0
0.18643653392791748 -0.2653302848339081 -0.031516458839178085 255.0 0.0 0.0
-0.2727482318878174 0.21616508066654205 0.032171573489904404 255.0 0.0 0.0
-0.20690979063510895 -0.235365092754364 0.1522860825061798 255.0 0.0 0.0
-0.2557487487792969 0.28709983825683594 -0.32881054282188416 255.0 0.0 0.0
0.2805587351322174 0.22798402607440948 -0.06227302923798561 255.0 0.0 0.0
-0.20031967759132385 0.3006652295589447 -0.3495086431503296 255.0 0.0 0.0
-0.2244524508714676 0.1609003096818924 0.15697813034057617 255.0 0.0 0.0
-0.15130405128002167 -0.2501866817474365 0.1410117894411087 255.0 0.0 0.0
-0.036366548389196396 0.2014710009098053 -0.19505929946899414 255.0 0.0 0.0
0.2959860563278198 -0.23320768773555756 -0.10424520075321198 255.0 0.0 0.0
0.25062042474746704 -0.2618005573749542 -0.026123186573386192 255.0 0.0 0.0
0.08510087430477142 0.22253268957138062 -0.13481329381465912 255.0 0.0 0.0
-0.23642580211162567 0.22924494743347168 0.05083813518285751 255.0 0.0 0.0
-0.007783959619700909 0.2621808648109436 -0.27170881628990173 255.0 0.0 0.0
-0.2305120825767517 -0.33131226897239685 -0.0830320194363594 255.0 0.0 0.0
0.05957464128732681 0.1961326003074646 -0.1752723604440689 255.0 0.0 0.0
0.2660585939884186 -0.23323968052864075 0.15632209181785583 255.0 0.0 0.0
0.285410076379776 -0.4453377425670624 0.10150326788425446 255.0 0.0 0.0
0.24032026529312134 0.21676862239837646 -0.13735264539718628 255.0 0.0 0.0
-0.2496853619813919 0.28268060088157654 -0.32747143507003784 255.0 0.0 0.0
0.21672087907791138 -0.4466715157032013 0.19821403920650482 255.0 0.0 0.0
0.23216773569583893 0.16947951912879944 0.15549825131893158 255.0 0.0 0.0
-0.09677692502737045 0.16488036513328552 0.16018615663051605 255.0 0.0 0.0
-0.21913836896419525 0.14153538644313812 0.16221550107002258 255.0 0.0 0.0
0.24534253776073456 0.3804126977920532 0.11144652217626572 255.0 0.0 0.0
-0.2849312424659729 0.07149142026901245 -0.3109780251979828 255.0 0.0 0.0
