0.2667800486087799 0.43901878595352173 0.11349969357252121 255.0 0.0 0.0
-0.22800123691558838 -0.4743455648422241 -0.009554757736623287 255.0 0.0 0.0
0.07709784060716629 -0.24439169466495514 0.15465396642684937 255.0 0.0 0.0
0.2525673508644104 -0.23675791919231415 -0.13307984173297882 255.0 0.0 0.0
0.24217815697193146 -0.04847817122936249 0.1673997938632965 255.0 0.0 0.0
0.05147170275449753 0.22662320733070374 0.14573934674263 255.0 0.0 0.0
0.24209649860858917 -0.15394103527069092 0.16847699880599976 255.0 0.0 0.0
0.2516329288482666 -0.186697855591774 0.15264035761356354 255.0 0.0 0.0
-0.2885073125362396 0.04384191706776619 -0.2526133060455322 255.0 0.0 0.0
0.01533963531255722 -0.24541813135147095 0.15436555445194244 255.0 0.0 0.0
-0.15392427146434784 -0.24947169423103333 -0.02824040874838829 255.0 0.0 0.0
-0.21060706675052643 0.09399750083684921 0.17171066999435425 255.0 0.0 0.0
0.24887296557426453 0.39251869916915894 0.1075102686882019 255.0 0.0 0.0
0.06281276792287827 0.14810556173324585 -0.13585135340690613 255.0 0.0 0.0
-0.23319105803966522 0.30338844656944275 0.036662839353084564 255.0 0.0 0.0
-0.28572022914886475 0.11575006693601608 -0.3086816072463989 255.0 0.0 0.0
0.263904333114624 -0.33906275033950806 -0.06892607361078262 255.0 0.0 0.0
0.29020312428474426 0.23001104593276978 0.05038416013121605 255.0 0.0 0.0
-0.2627423107624054 0.1853749305009842 -0.3089691698551178 255.0 0.0 0.0
-0.20995309948921204 -0.18705955147743225 0.16058018803596497 255.0 0.0 0.0
-0.27474287152290344 0.19159908592700958 0.14645807445049286 255.0 0.0 0.0
-0.19919908046722412 0.30184605717658997 -0.3552638590335846 255.0 0.0 0.0
-0.27071839570999146 0.11306212842464447 -0.12797696888446808 255.0 0.0 0.0
-0.15883956849575043 -0.2524358332157135 -0.04979535937309265 255.0 0.0 0.0
0.19787083566188812 0.32920390367507935 0.045604199171066284 255.0 0.0 0.0
0.2167741358280182 -0.24464331567287445 -0.13506805896759033 255.0 0.0 0.0
0.18134337663650513 -0.23311439156532288 0.15632209181785583 255.0 0.0 0.0
-0.26855385303497314 0.09623895585536957 -0.1323196440935135 255.0 0.0 0.0
0.11227893829345703 0.16372954845428467 0.16185982525348663 255.0 0.0 0.0
-0.27157822251319885 0.10959014296531677 0.14331285655498505 255.0 0.0 0.0
0.2860356271266937 -0.39978253841400146 0.17248165607452393 255.0 0.0 0.0
-0.032062120735645294 0.28064417839050293 -0.2828305661678314 255.0 0.0 0.0
0.27432894706726074 0.36737948656082153 0.1239655390381813 255.0 0.0 0.0
-0.156729593873024 0.41153833270072937 0.09312039613723755 255.0 0.0 0.0
0.23088479042053223 0.5016252398490906 -0.03990614786744118 255.0 0.0 0.0
0.22867056727409363 0.2874608337879181 0.04108326509594917 255.0 0.0 0.0
-0.17069855332374573 -0.27227160334587097 -0.03868578374385834 255.0 0.0 0.0
0.06389224529266357 0.1367889791727066 -0.14147904515266418 255.0 0.0 0.0
0.2516171932220459 -0.3078295588493347 -0.068926602602005 255.0 0.0 0.0
-0.13457360863685608 0.230902299284935 0.1499931514263153 255.0 0.0 0.0
-0.23946134746074677 -0.2785029709339142 0.0669783353805542 255.0 0.0 0.0
0.19677698612213135 0.34556448459625244 -0.056168314069509506 255.0 0.0 0.0
-0.301586389541626 -0.3723241686820984 0.20041391253471375 255.0 0.0 0.0
0.2042224258184433 0.387830913066864 0.11310918629169464 255.0 0.0 0.0
-0.03495945781469345 -0.24966703355312347 0.14581507444381714 255.0 0.0 0.0
-0.2614781856536865 0.10559023171663284 -0.3172111213207245 255.0 0.0 0.0
-0.23825013637542725 0.4795801639556885 -0.03958814963698387 255.0 0.0 0.0
0.20175442099571228 0.40086984634399414 0.1062692180275917 255.0 0.0 0.0
0.2036813646554947 0.22680754959583282 0.02751966379582882 255.0 0.0 0.0
0.2236022651195526 -0.2482728660106659 0.1508949249982834 255.0 0.0 0.0
-0.23885005712509155 -0.254334956407547 -0.0036601871252059937 255.0 0.0 0.0
0.05229814350605011 0.22622792422771454 0.15074725449085236 255.0 0.0 0.0
0.2522331774234772 0.32712358236312866 -0.040692079812288284 255.0 0.0 0.0
0.21877016127109528 -0.18205523490905762 0.16665567457675934 255.0 0.0 0.0
-0.3048824071884155 -0.39649486541748047 -0.0845416784286499 255.0 0.0 0.0
0.1488785445690155 0.21782858669757843 0.15632209181785583 255.0 0.0 0.0
0.23445501923561096 0.35551732778549194 0.11844393610954285 255.0 0.0 0.0
0.21012286841869354 -0.24310776591300964 -0.13516201078891754 255.0 0.0 0.0
0.2779698967933655 0.4527113735675812 0.1279386430978775 255.0 0.0 0.0
-0.23025837540626526 0.1531405746936798 0.15444865822792053 255.0 0.0 0.0
0.23393428325653076 0.3513583838939667 0.12057884782552719 255.0 0.0 0.0
0.23727478086948395 -0.4522246718406677 0.1905013918876648 255.0 0.0 0.0
0.25423458218574524 0.264737993478775 0.038323260843753815 255.0 0.0 0.0
0.14063483476638794 -0.44094255566596985 0.04300782084465027 255.0 0.0 0.0
0.2603010833263397 -0.44647279381752014 -0.05078863725066185 255.0 0.0 0.0
-0.14832636713981628 -0.20655344426631927 0.15586084127426147 255.0 0.0 0.0
0.09409204870462418 -0.18140828609466553 0.16803735494613647 255.0 0.0 0.0
0.2055434137582779 0.38981321454048157 0.10931458324193954 255.0 0.0 0.0
0.2873510420322418 0.006877729203552008 0.1565449833869934 255.0 0.0 0.0
-0.25941741466522217 -0.13726511597633362 0.1574607640504837 255.0 0.0 0.0
0.27409183979034424 0.3215239644050598 0.0532078817486763 255.0 0.0 0.0
0.2896767556667328 0.33587580919265747 0.07014676928520203 255.0 0.0 0.0
-0.05605991929769516 0.3211352229118347 -0.30484697222709656 255.0 0.0 0.0
0.23840868473052979 0.4695253074169159 0.1024390161037445 255.0 0.0 0.0
0.2413228154182434 0.4755454659461975 -0.07035765051841736 255.0 0.0 0.0
-0.2605704665184021 -0.08002067357301712 -0.13451027870178223 255.0 0.0 0.0
0.2938162386417389 -0.19974109530448914 -0.13506805896759033 255.0 0.0 0.0
-0.20856790244579315 0.4404994249343872 -0.07708222419023514 255.0 0.0 0.0
0.29845860600471497 -0.10707174986600876 -0.13400505483150482 255.0 0.0 0.0
-0.014388118870556355 0.18618978559970856 -0.141917884349823 255.0 0.0 0.0
0.19527076184749603 0.44777676463127136 0.10603372752666473 255.0 0.0 0.0
0.16064637899398804 -0.44416749477386475 0.17808100581169128 255.0 0.0 0.0
-0.003208970185369253 0.1951383352279663 -0.14303524792194366 255.0 0.0 0.0
-0.1594664454460144 0.4075736999511719 0.0913417786359787 255.0 0.0 0.0
-0.07784805446863174 0.15331080555915833 0.16927437484264374 255.0 0.0 0.0
-0.027713505551218987 0.30916672945022583 -0.2957092523574829 255.0 0.0 0.0
-0.26998865604400635 -0.07732696086168289 -0.13469336926937103 255.0 0.0 0.0
-0.19978450238704681 0.227410688996315 -0.04608902707695961 255.0 0.0 0.0
-0.16191649436950684 -0.2537630498409271 0.05730891227722168 255.0 0.0 0.0
0.29330360889434814 -0.15216952562332153 -0.11838385462760925 255.0 0.0 0.0
0.19873814284801483 0.38454166054725647 0.11747480183839798 255.0 0.0 0.0
0.27500396966934204 0.3694356083869934 0.12626750767230988 255.0 0.0 0.0
0.24639198184013367 -0.4180673360824585 -0.09000644087791443 255.0 0.0 0.0
-0.2815540134906769 -0.056709107011556625 -0.2320743054151535 255.0 0.0 0.0
0.29082316160202026 -0.2511751651763916 0.04529454559087753 255.0 0.0 0.0
-0.26344409584999084 0.009608855471014977 -0.23182988166809082 255.0 0.0 0.0
0.024849755689501762 0.25180405378341675 -0.2590688467025757 255.0 0.0 0.0
-0.2160736322402954 0.4225882887840271 -0.08050496131181717 255.0 0.0 0.0
0.2573951780796051 -0.41978883743286133 0.20171058177947998 255.0 0.0 0.0
0.2467462569475174 -0.2703348398208618 0.07051045447587967 255.0 0.0 0.0
-0.03534434363245964 0.12092854082584381 -0.15702448785305023 255.0 0.0 0.0
0.23516565561294556 0.31855475902557373 -0.03675711527466774 255.0 0.0 0.0
0.23887084424495697 0.3772740662097931 -0.09235598891973495 255.0 0.0 0.0
-0.33478859066963196 -0.3651260435581207 0.12065636366605759 255.0 0.0 0.0
0.2576846480369568 0.13706497848033905 0.15165501832962036 255.0 0.0 0.0
0.1824459284543991 0.2280511111021042 -0.11673546582460403 255.0 0.0 0.0
-0.2759532332420349 0.11791038513183594 -0.3223743140697479 255.0 0.0 0.0
0.19832764565944672 0.4508071839809418 0.11200392991304398 255.0 0.0 0.0
-0.28381308913230896 0.01882728934288025 -0.24413318932056427 255.0 0.0 0.0
-0.27708688378334045 0.10235360264778137 -0.27727439999580383 255.0 0.0 0.0
-0.21819929778575897 0.38116300106048584 0.10324698686599731 255.0 0.0 0.0
0.24339060485363007 0.2313898503780365 -0.03359290957450867 255.0 0.0 0.0
-0.15595313906669617 -0.2560768723487854 0.04217814654111862 255.0 0.0 0.0
0.2561033368110657 0.1694549024105072 0.15294040739536285 255.0 0.0 0.0
-0.24220597743988037 -0.2956729233264923 -0.061418287456035614 255.0 0.0 0.0
0.2970540523529053 0.12712623178958893 -0.13075955212116241 255.0 0.0 0.0
-0.28924936056137085 0.06899749487638474 -0.2681277394294739 255.0 0.0 0.0
-0.22958903014659882 0.46801212430000305 -0.05522223189473152 255.0 0.0 0.0
-0.18228735029697418 0.4870780110359192 0.09874052554368973 255.0 0.0 0.0
0.25991493463516235 0.481655091047287 0.12116942554712296 255.0 0.0 0.0
0.09866688400506973 0.22804595530033112 0.13959945738315582 255.0 0.0 0.0
-0.0699700340628624 0.17551377415657043 0.1531015783548355 255.0 0.0 0.0
0.03712192550301552 -0.24180519580841064 -0.1358453631401062 255.0 0.0 0.0
-0.03537565842270851 -0.2501350939273834 0.14160503447055817 255.0 0.0 0.0
-0.1759313941001892 0.3482300639152527 0.07232339680194855 255.0 0.0 0.0
0.007637170609086752 -0.23569932579994202 0.1565382480621338 255.0 0.0 0.0
-0.2514019012451172 0.2296239584684372 -0.34508857131004333 255.0 0.0 0.0
-0.1974140703678131 0.379474014043808 0.10384831577539444 255.0 0.0 0.0
-0.03451469540596008 0.18451225757598877 -0.13739000260829926 255.0 0.0 0.0
-0.243036687374115 -0.30548790097236633 -0.06851131469011307 255.0 0.0 0.0
-0.2643524706363678 -0.008658934384584427 -0.22848312556743622 255.0 0.0 0.0
-0.2724756598472595 0.16594670712947845 0.15062129497528076 255.0 0.0 0.0
0.2549932301044464 0.12991441786289215 0.1500328928232193 255.0 0.0 0.0
0.05463851988315582 0.1821216493844986 0.1556960791349411 255.0 0.0 0.0
0.0034528751857578754 0.2894544005393982 -0.23546352982521057 255.0 0.0 0.0
-0.2553806006908417 -0.02371726557612419 -0.22626760601997375 255.0 0.0 0.0
0.2958385646343231 -0.25199630856513977 0.08186040818691254 255.0 0.0 0.0
-0.26048439741134644 0.12522642314434052 -0.3228403329849243 255.0 0.0 0.0
-0.12324760109186172 0.15298861265182495 0.16928815841674805 255.0 0.0 0.0
0.2500968277454376 0.36075541377067566 -0.08459562808275223 255.0 0.0 0.0
0.15573306381702423 0.22689753770828247 -0.13223013281822205 255.0 0.0 0.0
-0.22655509412288666 -0.2832139730453491 -0.05977732315659523 255.0 0.0 0.0
0.0591987781226635 0.1541772037744522 -0.19902482628822327 255.0 0.0 0.0
-0.33320069313049316 -0.35231325030326843 0.1702594757080078 255.0 0.0 0.0
0.14555777609348297 -0.36339789628982544 0.077084481716156 255.0 0.0 0.0
0.22234049439430237 0.3259086012840271 -0.041443176567554474 255.0 0.0 0.0
-0.26326289772987366 0.15391431748867035 -0.29964175820350647 255.0 0.0 0.0
-0.04234810546040535 0.1451077163219452 -0.13506805896759033 255.0 0.0 0.0
-0.19322998821735382 0.339322030544281 -0.04232218489050865 255.0 0.0 0.0
0.25989601016044617 -0.31053248047828674 0.08988672494888306 255.0 0.0 0.0
-0.2404422163963318 0.45477423071861267 -0.060801997780799866 255.0 0.0 0.0
0.09336689859628677 -0.24791131913661957 0.15619415044784546 255.0 0.0 0.0
0.22178742289543152 0.4747176468372345 -0.07371360808610916 255.0 0.0 0.0
0.2776120603084564 -0.3516424894332886 0.12321843206882477 255.0 0.0 0.0
-0.029582813382148743 0.2171725034713745 -0.1889001578092575 255.0 0.0 0.0
-0.23040546476840973 0.4015677273273468 -0.08016981184482574 255.0 0.0 0.0
0.27940940856933594 -0.24686788022518158 -0.13446307182312012 255.0 0.0 0.0
0.005584789905697107 0.22259356081485748 -0.13542020320892334 255.0 0.0 0.0
0.28135666251182556 -0.42760124802589417 0.19174231588840485 255.0 0.0 0.0
-0.158902108669281 -0.2507404088973999 -0.04052728787064552 255.0 0.0 0.0
-0.19774825870990753 0.31580933928489685 0.039185333997011185 255.0 0.0 0.0
-0.2593153119087219 -0.0008523637079633772 -0.2332124412059784 255.0 0.0 0.0
-0.0069154007360339165 -0.19792000949382782 0.1528548151254654 255.0 0.0 0.0
0.16155225038528442 -0.23507581651210785 0.15632209181785583 255.0 0.0 0.0
-0.26702651381492615 -0.09132515639066696 -0.26800885796546936 255.0 0.0 0.0
-0.07518371194601059 0.2289375513792038 -0.12813368439674377 255.0 0.0 0.0
0.07498474419116974 0.23188389837741852 0.1444404125213623 255.0 0.0 0.0
-0.035849347710609436 0.16895224153995514 -0.13506805896759033 255.0 0.0 0.0
-0.17124256491661072 0.22956673800945282 0.14820009469985962 255.0 0.0 0.0
-0.27052992582321167 -0.16392026841640472 0.1532880961894989 255.0 0.0 0.0
-0.13769643008708954 0.22829855978488922 0.13738416135311127 255.0 0.0 0.0
0.24973012506961823 0.36488887667655945 -0.09012408554553986 255.0 0.0 0.0
-0.019738564267754555 0.21944034099578857 -0.1751551777124405 255.0 0.0 0.0
0.28369659185409546 -0.44352248311042786 0.1682693213224411 255.0 0.0 0.0
0.035604026168584824 0.16763947904109955 0.1525837630033493 255.0 0.0 0.0
0.15324924886226654 -0.39720281958580017 0.1560191810131073 255.0 0.0 0.0
0.29333674907684326 0.3973489999771118 0.1196552962064743 255.0 0.0 0.0
-0.23937056958675385 0.4439656734466553 -0.06352195888757706 255.0 0.0 0.0
0.2972448170185089 -0.2299630492925644 -0.11767012625932693 255.0 0.0 0.0
0.2830413281917572 0.030620597302913666 0.15632209181785583 255.0 0.0 0.0
-0.2122698426246643 0.29887837171554565 -0.3469426929950714 255.0 0.0 0.0
0.2530285120010376 -0.2395433634519577 0.15867911279201508 255.0 0.0 0.0
0.23465177416801453 -0.049525417387485504 0.16940195858478546 255.0 0.0 0.0
0.057609446346759796 0.19987431168556213 -0.18044732511043549 255.0 0.0 0.0
0.2980155348777771 0.13524121046066284 0.15335533022880554 255.0 0.0 0.0
-0.25380706787109375 -0.0371384359896183 -0.13861416280269623 255.0 0.0 0.0
0.2953619062900543 -0.04771527275443077 0.15431815385818481 255.0 0.0 0.0
-0.26288995146751404 0.09857875853776932 -0.31229841709136963 255.0 0.0 0.0
-0.2735232412815094 0.16446150839328766 0.14967620372772217 255.0 0.0 0.0
-0.2397022396326065 0.31885960698127747 0.03335168957710266 255.0 0.0 0.0
0.140266552567482 -0.2066948562860489 0.15373574197292328 255.0 0.0 0.0
-0.3330215513706207 -0.39076802134513855 0.055234022438526154 255.0 0.0 0.0
0.29047533869743347 -0.4326501786708832 0.0639585331082344 255.0 0.0 0.0
0.045992977917194366 0.2255353033542633 -0.23417742550373077 255.0 0.0 0.0
0.2785603106021881 0.36433544754981995 0.12101593613624573 255.0 0.0 0.0
-0.1886632889509201 -0.25424498319625854 -0.04869106784462929 255.0 0.0 0.0
0.13864220678806305 -0.24568530917167664 0.14937274158000946 255.0 0.0 0.0
-0.18448393046855927 0.29586485028266907 0.020594317466020584 255.0 0.0 0.0
0.140605166554451 -0.44394779205322266 0.008778496645390987 255.0 0.0 0.0
-0.10987143963575363 0.1633927971124649 0.1671445369720459 255.0 0.0 0.0
0.25338393449783325 -0.07509475201368332 0.16117534041404724 255.0 0.0 0.0
0.258833646774292 -0.42057034373283386 -0.08184182643890381 255.0 0.0 0.0
0.19387559592723846 0.49195021390914917 0.08827479928731918 255.0 0.0 0.0
0.05338079109787941 0.12776656448841095 -0.19196662306785583 255.0 0.0 0.0
0.25060129165649414 0.16025128960609436 0.15720364451408386 255.0 0.0 0.0
0.15207107365131378 0.22291405498981476 0.15357224643230438 255.0 0.0 0.0
-0.19407255947589874 -0.25001150369644165 0.15305198729038239 255.0 0.0 0.0
0.17840372025966644 -0.4435811936855316 -0.05259448662400246 255.0 0.0 0.0
0.02305476926267147 0.24369052052497864 -0.25376096367836 255.0 0.0 0.0
-0.17966772615909576 0.33931756019592285 -0.030546097084879875 255.0 0.0 0.0
0.22892679274082184 0.2174980640411377 0.15632209181785583 255.0 0.0 0.0
-0.2700657844543457 0.09923022985458374 0.14511248469352722 255.0 0.0 0.0
0.2807842791080475 0.008792529813945293 -0.12866438925266266 255.0 0.0 0.0
-0.27415934205055237 0.16696664690971375 -0.34486502408981323 255.0 0.0 0.0
0.21568149328231812 0.4519253671169281 -0.07504084706306458 255.0 0.0 0.0
0.08033265173435211 0.16978155076503754 0.15378740429878235 255.0 0.0 0.0
-0.25640666484832764 0.01924070157110691 0.1552218794822693 255.0 0.0 0.0
0.16755534708499908 -0.4455660879611969 0.17559191584587097 255.0 0.0 0.0
-0.2059813290834427 -0.30393025279045105 -0.06916571408510208 255.0 0.0 0.0
-0.22959786653518677 -0.3301716148853302 -0.08375407755374908 255.0 0.0 0.0
-0.23690831661224365 0.26506686210632324 -0.34814217686653137 255.0 0.0 0.0
0.2540132403373718 0.4741859436035156 0.11509522795677185 255.0 0.0 0.0
-0.23601455986499786 0.37606871128082275 -0.07408317923545837 255.0 0.0 0.0
-0.2401505410671234 -0.47832363843917847 0.010342475026845932 255.0 0.0 0.0
-0.06351392716169357 0.3248001039028168 -0.3094923198223114 255.0 0.0 0.0
0.281423956155777 0.42470163106918335 0.1276971846818924 255.0 0.0 0.0
-0.24672245979309082 0.36687171459198 -0.06318462640047073 255.0 0.0 0.0
0.24808014929294586 -0.26645955443382263 0.0670861005783081 255.0 0.0 0.0
0.2690228819847107 0.30053484439849854 -0.0031533006113022566 255.0 0.0 0.0
0.2920409142971039 0.05301181599497795 0.15632209181785583 255.0 0.0 0.0
-0.16299542784690857 0.3968682885169983 0.09782266616821289 255.0 0.0 0.0
0.25109902024269104 -0.4231526851654053 0.2013382762670517 255.0 0.0 0.0
-0.19791360199451447 0.2895525097846985 0.03722081333398819 255.0 0.0 0.0
0.254707008600235 -0.06949397921562195 0.14887751638889313 255.0 0.0 0.0
0.19423019886016846 0.35529249906539917 -0.05552196875214577 255.0 0.0 0.0
0.23415341973304749 0.3862507939338684 0.10577419400215149 255.0 0.0 0.0
-0.2563181221485138 -0.3986837863922119 0.20785312354564667 255.0 0.0 0.0
-0.2605886161327362 0.022995851933956146 -0.3177403509616852 255.0 0.0 0.0
0.05136058107018471 0.20940949022769928 -0.17806729674339294 255.0 0.0 0.0
0.2334796041250229 0.4916437566280365 0.11917524039745331 255.0 0.0 0.0
-0.0612906813621521 0.3253197968006134 -0.3051494359970093 255.0 0.0 0.0
0.22078250348567963 -0.2482900470495224 -0.13020633161067963 255.0 0.0 0.0
-0.006700118537992239 0.10252086818218231 -0.18063348531723022 255.0 0.0 0.0
-0.2102394998073578 -0.4141235053539276 0.1642352193593979 255.0 0.0 0.0
0.2473927140235901 0.2689230740070343 -0.018583523109555244 255.0 0.0 0.0
0.2769753038883209 0.22852729260921478 0.04557272419333458 255.0 0.0 0.0
-0.2932608425617218 0.03414968028664589 -0.2975896894931793 255.0 0.0 0.0
-0.20646099746227264 0.34515249729156494 -0.06390737742185593 255.0 0.0 0.0
0.2972581684589386 0.22427450120449066 -0.07597611844539642 255.0 0.0 0.0
0.20869113504886627 0.5050492286682129 0.09184151142835617 255.0 0.0 0.0
-0.3369411826133728 -0.34393465518951416 0.1781015545129776 255.0 0.0 0.0
-0.275831937789917 -0.36664268374443054 -0.08870961517095566 255.0 0.0 0.0
0.05787140876054764 0.13738395273685455 -0.19197902083396912 255.0 0.0 0.0
-0.25994786620140076 0.08302044123411179 -0.26783400774002075 255.0 0.0 0.0
-0.23327308893203735 0.32257723808288574 -0.023468326777219772 255.0 0.0 0.0
-0.26855653524398804 -0.19444748759269714 0.15371984243392944 255.0 0.0 0.0
0.24951259791851044 0.240338996052742 0.04934924095869064 255.0 0.0 0.0
0.2102125734090805 0.25257325172424316 -0.004966350272297859 255.0 0.0 0.0
0.28689345717430115 -0.10264719277620316 0.156012624502182 255.0 0.0 0.0
0.08037551492452621 0.21661829948425293 -0.13665255904197693 255.0 0.0 0.0
-0.041756171733140945 0.14684399962425232 -0.13420814275741577 255.0 0.0 0.0
0.2486870139837265 0.16455629467964172 0.16045807301998138 255.0 0.0 0.0
-0.14440996944904327 0.3218963146209717 -0.3460027277469635 255.0 0.0 0.0
-0.191752627491951 -0.2519577145576477 -0.06518467515707016 255.0 0.0 0.0
0.28669607639312744 -0.25066882371902466 0.0509030744433403 255.0 0.0 0.0
-0.2115345001220703 0.1684488207101822 0.16115015745162964 255.0 0.0 0.0
-0.24064676463603973 0.2741040587425232 -0.0032188650220632553 255.0 0.0 0.0
-0.2598780393600464 0.06493209302425385 -0.2609193027019501 255.0 0.0 0.0
0.27540022134780884 0.23296402394771576 0.0024193802382797003 255.0 0.0 0.0
-0.24065563082695007 0.28996679186820984 -0.32878604531288147 255.0 0.0 0.0
-0.28048136830329895 0.1495719850063324 -0.3280819058418274 255.0 0.0 0.0
0.1901688575744629 0.33767223358154297 -0.028288843110203743 255.0 0.0 0.0
-0.1840185821056366 -0.26449909806251526 -0.047851141542196274 255.0 0.0 0.0
0.13999980688095093 -0.1782819926738739 0.1682628095149994 255.0 0.0 0.0
-0.014278863556683064 0.184098020195961 -0.14343389868736267 255.0 0.0 0.0
-0.20798684656620026 0.4514152407646179 -0.0776057168841362 255.0 0.0 0.0
0.2935570478439331 -0.43018433451652527 0.07943437993526459 255.0 0.0 0.0
-0.23400245606899261 0.35319721698760986 -0.07015882432460785 255.0 0.0 0.0
-0.26513388752937317 0.22629238665103912 0.04204913228750229 255.0 0.0 0.0
-0.25911569595336914 0.23085647821426392 0.04787414148449898 255.0 0.0 0.0
-0.26965993642807007 0.22270822525024414 -0.08501473814249039 255.0 0.0 0.0
0.295930951833725 0.07283048331737518 0.14000970125198364 255.0 0.0 0.0
-0.24986545741558075 -0.045624423772096634 -0.27684471011161804 255.0 0.0 0.0
0.28327903151512146 -0.22965019941329956 -0.13506805896759033 255.0 0.0 0.0
-0.1328027844429016 0.21472594141960144 -0.13332204520702362 255.0 0.0 0.0
-0.10467567294836044 0.21781787276268005 -0.13541388511657715 255.0 0.0 0.0
0.26105937361717224 0.3805971145629883 0.12316553294658661 255.0 0.0 0.0
-0.29640641808509827 -0.32134732604026794 0.1684134304523468 255.0 0.0 0.0
0.2959832549095154 0.21712492406368256 -0.10342372208833694 255.0 0.0 0.0
-0.2827312648296356 -0.06139234080910683 -0.2745918333530426 255.0 0.0 0.0
-0.035389985889196396 0.11503934860229492 -0.13708512485027313 255.0 0.0 0.0
-0.24003948271274567 0.47049424052238464 0.11529592424631119 255.0 0.0 0.0
0.17584364116191864 -0.25362417101860046 -0.006963666062802076 255.0 0.0 0.0
-0.24015235900878906 -0.39576852321624756 0.19739995896816254 255.0 0.0 0.0
-0.2627882659435272 0.14683154225349426 -0.3277508318424225 255.0 0.0 0.0
0.16743840277194977 -0.4337392747402191 -0.05503927543759346 255.0 0.0 0.0
-0.24944660067558289 -0.40753141045570374 0.20207764208316803 255.0 0.0 0.0
-0.23255684971809387 -0.2808760404586792 -0.05560154840350151 255.0 0.0 0.0
-0.19968819618225098 0.145498588681221 0.1658208668231964 255.0 0.0 0.0
-0.2315271645784378 0.12537281215190887 0.15411581099033356 255.0 0.0 0.0
-0.2175615280866623 -0.09699568152427673 0.16315899789333344 255.0 0.0 0.0
-0.18678295612335205 0.27527230978012085 0.026976659893989563 255.0 0.0 0.0
-0.06439794600009918 0.21375104784965515 0.15385693311691284 255.0 0.0 0.0
0.042401932179927826 -0.24219034612178802 -0.13506805896759033 255.0 0.0 0.0
0.00683961808681488 0.1692093312740326 0.15389053523540497 255.0 0.0 0.0
0.08914728462696075 0.2298755645751953 0.14860646426677704 255.0 0.0 0.0
-0.16448332369327545 0.22905272245407104 0.0007304868777282536 255.0 0.0 0.0
-0.22915594279766083 0.03078327514231205 0.15399035811424255 255.0 0.0 0.0
-0.24161206185817719 -0.273933082818985 0.04776221141219139 255.0 0.0 0.0
0.23693890869617462 0.22881902754306793 -0.044554416090250015 255.0 0.0 0.0
-0.19157035648822784 0.2275889813899994 -0.12852536141872406 255.0 0.0 0.0
-0.2564363479614258 -0.257112592458725 0.10777444392442703 255.0 0.0 0.0
-0.2505137622356415 0.484946072101593 0.06114763766527176 255.0 0.0 0.0
0.2290739119052887 0.45322227478027344 -0.08481543511152267 255.0 0.0 0.0
-0.3014879524707794 -0.4509504735469818 -0.07641319930553436 255.0 0.0 0.0
0.22939760982990265 -0.2930321991443634 0.09279941767454147 255.0 0.0 0.0
-0.15563450753688812 -0.18676358461380005 0.16003412008285522 255.0 0.0 0.0
0.12396738678216934 -0.2497989386320114 0.14307235181331635 255.0 0.0 0.0
0.13848929107189178 -0.1866929829120636 0.1605362594127655 255.0 0.0 0.0
0.20968922972679138 0.2882155179977417 0.01884821243584156 255.0 0.0 0.0
0.07722797989845276 -0.24933753907680511 -0.11801981180906296 255.0 0.0 0.0
-0.2708022892475128 -0.23876219987869263 0.08512865751981735 255.0 0.0 0.0
0.2502642869949341 -0.06098245084285736 0.15533334016799927 255.0 0.0 0.0
0.194711372256279 0.4480908513069153 0.11338353902101517 255.0 0.0 0.0
0.010250210762023926 0.12551628053188324 -0.21257217228412628 255.0 0.0 0.0
-0.18902312219142914 0.31512555480003357 -0.3594546616077423 255.0 0.0 0.0
-0.25605711340904236 0.4725648760795593 0.0982501357793808 255.0 0.0 0.0
0.06845492124557495 0.12094701081514359 -0.13764631748199463 255.0 0.0 0.0
0.22171716392040253 -0.2361791729927063 -0.13471588492393494 255.0 0.0 0.0
-0.1519184112548828 -0.24469603598117828 0.15739235281944275 255.0 0.0 0.0
0.2975749671459198 -0.11998515576124191 -0.13507649302482605 255.0 0.0 0.0
-0.08239106088876724 0.3165847361087799 -0.2994849383831024 255.0 0.0 0.0
-0.1068849265575409 0.31520020961761475 -0.32202890515327454 255.0 0.0 0.0
-0.19051195681095123 0.4888440668582916 0.10468002408742905 255.0 0.0 0.0
-0.2707182765007019 0.13814415037631989 0.14927610754966736 255.0 0.0 0.0
0.29848629236221313 0.004967613611370325 -0.130143404006958 255.0 0.0 0.0
-0.2494255006313324 -0.02459227666258812 -0.2941867709159851 255.0 0.0 0.0
0.25997164845466614 -0.24945557117462158 0.15254554152488708 255.0 0.0 0.0
-0.21820208430290222 -0.25145596265792847 0.06902798265218735 255.0 0.0 0.0
0.23421846330165863 0.5048034191131592 -0.036308255046606064 255.0 0.0 0.0
-0.1506853550672531 0.22620095312595367 0.1556042730808258 255.0 0.0 0.0
-0.18866607546806335 0.2805023491382599 0.02306240238249302 255.0 0.0 0.0
-0.2315387725830078 -0.24034380912780762 -0.13236549496650696 255.0 0.0 0.0
-0.028621673583984375 0.17549698054790497 -0.140141099691391 255.0 0.0 0.0
-0.2545877993106842 0.3414729833602905 0.0459267795085907 255.0 0.0 0.0
0.2953117787837982 0.40010684728622437 0.11368179321289062 255.0 0.0 0.0
0.24354232847690582 -0.1244671419262886 0.16726109385490417 255.0 0.0 0.0
0.2676156461238861 0.5032148361206055 0.09488290548324585 255.0 0.0 0.0
0.20160453021526337 0.502194881439209 0.008701743558049202 255.0 0.0 0.0
-0.21658819913864136 0.295939564704895 -0.34791359305381775 255.0 0.0 0.0
0.2335008978843689 0.29239988327026367 -0.020594323053956032 255.0 0.0 0.0
-0.1334732323884964 -0.195139542222023 0.15578912198543549 255.0 0.0 0.0
0.05410439521074295 0.19163274765014648 -0.13581950962543488 255.0 0.0 0.0
0.1833929568529129 0.16642341017723083 0.15794213116168976 255.0 0.0 0.0
-0.03683048114180565 0.1509649157524109 -0.19830872118473053 255.0 0.0 0.0
-0.23763783276081085 -0.2556306719779968 -0.02041931077837944 255.0 0.0 0.0
-0.2425154745578766 -0.2898552715778351 -0.0595446415245533 255.0 0.0 0.0
0.2148837149143219 0.25114428997039795 0.03544643148779869 255.0 0.0 0.0
-0.23622167110443115 0.3137602210044861 -0.34997206926345825 255.0 0.0 0.0
0.24934731423854828 0.29640066623687744 0.038274072110652924 255.0 0.0 0.0
-0.2660224139690399 0.04965002089738846 -0.24636223912239075 255.0 0.0 0.0
-0.22588349878787994 0.05926097556948662 0.15139663219451904 255.0 0.0 0.0
-0.1858881711959839 -0.2647545337677002 0.06888695061206818 255.0 0.0 0.0
0.19806189835071564 0.349239706993103 -0.05619930475950241 255.0 0.0 0.0
0.2866756021976471 0.47236552834510803 0.11791986227035522 255.0 0.0 0.0
-0.20986337959766388 0.3433007597923279 -0.06377311795949936 255.0 0.0 0.0
-0.17712752521038055 0.4492945969104767 -0.059048306196928024 255.0 0.0 0.0
0.25054240226745605 0.3191976547241211 -0.029951466247439384 255.0 0.0 0.0
-0.2564994990825653 -0.0826992467045784 -0.13506805896759033 255.0 0.0 0.0
-0.1510351449251175 -0.25475040078163147 0.06740683317184448 255.0 0.0 0.0
0.23407943546772003 0.24966417253017426 -0.024125635623931885 255.0 0.0 0.0
-0.2470773458480835 -0.30351147055625916 0.09763120859861374 255.0 0.0 0.0
0.2751868665218353 0.43528398871421814 0.12155165523290634 255.0 0.0 0.0
-0.2503531873226166 0.23453104496002197 -0.3252117931842804 255.0 0.0 0.0
-0.061703961342573166 -0.24607811868190765 -0.13145996630191803 255.0 0.0 0.0
-0.2547374367713928 -0.01779721863567829 -0.13576453924179077 255.0 0.0 0.0
0.24257321655750275 0.5107713937759399 0.10175573825836182 255.0 0.0 0.0
0.2799059748649597 0.48396846652030945 0.11941377818584442 255.0 0.0 0.0
-0.07337144017219543 0.22106392681598663 0.15813840925693512 255.0 0.0 0.0
-0.2546333968639374 -0.46891430020332336 -0.055341579020023346 255.0 0.0 0.0
0.288642019033432 -0.2497233897447586 -0.06842376291751862 255.0 0.0 0.0
0.027998074889183044 0.2398778200149536 -0.25168195366859436 255.0 0.0 0.0
-0.06315254420042038 0.1601550579071045 0.16695192456245422 255.0 0.0 0.0
-0.25838974118232727 -0.04063005372881889 -0.2971969246864319 255.0 0.0 0.0
-0.3398432433605194 -0.3758869469165802 0.05176053196191788 255.0 0.0 0.0
-0.15113840997219086 0.17833212018013 0.15499842166900635 255.0 0.0 0.0
0.25782331824302673 0.5161044597625732 0.03696949779987335 255.0 0.0 0.0
-0.1749112606048584 0.24199150502681732 0.0067877150140702724 255.0 0.0 0.0
0.27520951628685 0.32314398884773254 0.04245951399207115 255.0 0.0 0.0
0.18600185215473175 0.21261882781982422 0.15717826783657074 255.0 0.0 0.0
0.19366198778152466 -0.24466916918754578 0.15942201018333435 255.0 0.0 0.0
-0.10716807097196579 0.23128177225589752 -0.12613356113433838 255.0 0.0 0.0
0.27481818199157715 -0.3707626461982727 0.15284273028373718 255.0 0.0 0.0
0.2507225573062897 0.5149549841880798 0.0883280485868454 255.0 0.0 0.0
-0.2892910838127136 -0.37399402260780334 -0.08744766563177109 255.0 0.0 0.0
-0.26604533195495605 0.22722220420837402 0.020279161632061005 255.0 0.0 0.0
0.2966958284378052 -0.20826348662376404 -0.13269728422164917 255.0 0.0 0.0
-0.273377001285553 -0.2336030900478363 -0.049275610595941544 255.0 0.0 0.0
-0.27260148525238037 0.14677296578884125 -0.1272507905960083 255.0 0.0 0.0
0.2815568447113037 0.22889123857021332 0.12464581429958344 255.0 0.0 0.0
-0.25536465644836426 0.14975103735923767 0.1553824543952942 255.0 0.0 0.0
0.04278996214270592 0.23403893411159515 -0.2372567057609558 255.0 0.0 0.0
0.16717171669006348 -0.2524280846118927 0.045079052448272705 255.0 0.0 0.0
-0.1626155823469162 0.3266410529613495 -0.3264933228492737 255.0 0.0 0.0
0.18752914667129517 0.4956071078777313 0.016188621520996094 255.0 0.0 0.0
-0.1847512274980545 0.2917076349258423 0.019960755482316017 255.0 0.0 0.0
-0.17734000086784363 0.4531865417957306 -0.05287369713187218 255.0 0.0 0.0
-0.2114592045545578 0.258262574672699 0.04345601052045822 255.0 0.0 0.0
-0.025615140795707703 0.11988329142332077 -0.13664519786834717 255.0 0.0 0.0
-0.23291891813278198 -0.12814845144748688 0.15504193305969238 255.0 0.0 0.0
-0.25890111923217773 -0.41079336404800415 0.19959428906440735 255.0 0.0 0.0
0.26263877749443054 0.10731896758079529 0.15742510557174683 255.0 0.0 0.0
0.05792741850018501 0.13579335808753967 -0.19503286480903625 255.0 0.0 0.0
0.21054072678089142 0.2267702966928482 0.036017365753650665 255.0 0.0 0.0
0.09448663145303726 -0.2467522919178009 -0.12962979078292847 255.0 0.0 0.0
-0.1840347945690155 -0.18934333324432373 0.1573682576417923 255.0 0.0 0.0
-0.2595169246196747 0.22914646565914154 -0.03747940808534622 255.0 0.0 0.0
-0.2647996246814728 -0.03034677542746067 0.15607678890228271 255.0 0.0 0.0
0.28533804416656494 -0.2503243386745453 0.0814589112997055 255.0 0.0 0.0
-0.0019477364839985967 0.16512222588062286 0.15574170649051666 255.0 0.0 0.0
-0.0099821537733078 0.2596223056316376 -0.2639731168746948 255.0 0.0 0.0
0.18444320559501648 -0.44371339678764343 -0.052504975348711014 255.0 0.0 0.0
-0.002352264476940036 0.11117047816514969 -0.20153754949569702 255.0 0.0 0.0
-0.3320378065109253 -0.349040687084198 0.1160641461610794 255.0 0.0 0.0
0.19614753127098083 0.3749205768108368 0.11752397567033768 255.0 0.0 0.0
-0.26946577429771423 -0.008780505508184433 -0.13361582159996033 255.0 0.0 0.0
0.2958877980709076 0.22699818015098572 0.041434887796640396 255.0 0.0 0.0
-0.26697856187820435 0.17702500522136688 -0.13575027883052826 255.0 0.0 0.0
-0.2754697799682617 0.0754590556025505 -0.3195067048072815 255.0 0.0 0.0
-0.20842258632183075 0.45157063007354736 -0.07518063485622406 255.0 0.0 0.0
0.008903104811906815 0.2877509295940399 -0.2684530019760132 255.0 0.0 0.0
0.06303249299526215 0.13107052445411682 -0.14253033697605133 255.0 0.0 0.0
0.29474937915802 -0.17274196445941925 -0.13525618612766266 255.0 0.0 0.0
-0.23885801434516907 -0.2643882632255554 0.0008135350071825087 255.0 0.0 0.0
0.28209540247917175 0.2213580459356308 -0.13465192914009094 255.0 0.0 0.0
0.26342806220054626 -0.32715240120887756 0.1081860288977623 255.0 0.0 0.0
0.02492046356201172 0.1939270794391632 -0.13801579177379608 255.0 0.0 0.0
-0.10380735248327255 0.17951682209968567 0.1545783430337906 255.0 0.0 0.0
0.05241071805357933 0.1480410397052765 -0.20571529865264893 255.0 0.0 0.0
0.2874382436275482 -0.3887820243835449 0.14558647572994232 255.0 0.0 0.0
0.23813919723033905 0.5116591453552246 -0.031629979610443115 255.0 0.0 0.0
-0.19585587084293365 0.27960410714149475 -0.012646032497286797 255.0 0.0 0.0
0.2227097451686859 -0.2457723170518875 -0.13375866413116455 255.0 0.0 0.0
-0.16761326789855957 -0.24969437718391418 0.14317405223846436 255.0 0.0 0.0
0.2765398621559143 -0.444588303565979 0.02637149952352047 255.0 0.0 0.0
0.23232446610927582 -0.11041580885648727 0.16865535080432892 255.0 0.0 0.0
0.06398618221282959 -0.24753089249134064 0.15509550273418427 255.0 0.0 0.0
-0.17116646468639374 0.21434246003627777 0.15632209181785583 255.0 0.0 0.0
0.004543722607195377 -0.24652855098247528 -0.13506805896759033 255.0 0.0 0.0
-0.2591361701488495 -0.05036381632089615 0.157136932015419 255.0 0.0 0.0
0.054932329803705215 0.17912109196186066 -0.1376875340938568 255.0 0.0 0.0
-0.20185068249702454 -0.267272025346756 -0.055770546197891235 255.0 0.0 0.0
0.18020278215408325 0.3472718596458435 0.052089840173721313 255.0 0.0 0.0
-0.12273605912923813 0.2124015986919403 0.15402431786060333 255.0 0.0 0.0
-0.28864163160324097 0.08877217024564743 -0.2874928116798401 255.0 0.0 0.0
-0.23395755887031555 0.2706911861896515 -0.3560980558395386 255.0 0.0 0.0
0.2988201379776001 -0.007387195713818073 -0.12106817215681076 255.0 0.0 0.0
0.23582971096038818 -0.2451837956905365 -0.13545803725719452 255.0 0.0 0.0
-0.20921510457992554 0.27557411789894104 0.04053239896893501 255.0 0.0 0.0
0.03213300183415413 0.1553688943386078 0.1732756644487381 255.0 0.0 0.0
-0.2403433471918106 -0.3968402147293091 0.1974213719367981 255.0 0.0 0.0
-0.1921117603778839 0.3171863853931427 -0.358243852853775 255.0 0.0 0.0
0.21585984528064728 0.4715205430984497 -0.07136274129152298 255.0 0.0 0.0
0.29623427987098694 0.20441758632659912 0.15566444396972656 255.0 0.0 0.0
-0.2125338912010193 -0.19055920839309692 0.15551885962486267 255.0 0.0 0.0
0.26668474078178406 0.25289231538772583 0.027187827974557877 255.0 0.0 0.0
0.1464572548866272 0.15878865122795105 0.16742390394210815 255.0 0.0 0.0
0.17922848463058472 -0.25180473923683167 0.03822842612862587 255.0 0.0 0.0
0.25911304354667664 0.3291982412338257 0.06906008720397949 255.0 0.0 0.0
0.29955074191093445 0.3495398163795471 0.04294758662581444 255.0 0.0 0.0
0.0628737211227417 0.1299373358488083 -0.14702476561069489 255.0 0.0 0.0
-0.27036452293395996 0.0780949741601944 -0.13375769555568695 255.0 0.0 0.0
-0.25839105248451233 0.036714885383844376 -0.313042014837265 255.0 0.0 0.0
-0.2500673532485962 -0.25082919001579285 -0.01948980800807476 255.0 0.0 0.0
-0.2693662643432617 -0.24221892654895782 -0.13116811215877533 255.0 0.0 0.0
0.1573600322008133 -0.18620620667934418 0.1619306057691574 255.0 0.0 0.0
-0.28273501992225647 -0.3098490238189697 0.12169457226991653 255.0 0.0 0.0
0.24562641978263855 0.50821852684021 -0.024630917236208916 255.0 0.0 0.0
-0.1913926750421524 0.5017520785331726 0.05307227745652199 255.0 0.0 0.0
0.29724693298339844 0.09763491898775101 -0.11975029855966568 255.0 0.0 0.0
-0.02486426942050457 0.30881592631340027 -0.2654425799846649 255.0 0.0 0.0
-0.18519175052642822 0.39119192957878113 0.09491701424121857 255.0 0.0 0.0
0.26143816113471985 -0.3841060996055603 -0.08340149372816086 255.0 0.0 0.0
0.28364527225494385 -0.07385518401861191 -0.1346099078655243 255.0 0.0 0.0
-0.22761760652065277 -0.1278529018163681 0.1493770182132721 255.0 0.0 0.0
-0.01887935772538185 0.18711897730827332 -0.14505888521671295 255.0 0.0 0.0
0.2843702435493469 0.0826726108789444 0.15632209181785583 255.0 0.0 0.0
0.2970251441001892 0.17549413442611694 0.14030387997627258 255.0 0.0 0.0
0.29661211371421814 0.01022438146173954 -0.1316402107477188 255.0 0.0 0.0
-0.20178207755088806 -0.4160601794719696 0.14159095287322998 255.0 0.0 0.0
-0.26805049180984497 0.17243187129497528 -0.30155447125434875 255.0 0.0 0.0
-0.21584109961986542 -0.4481229782104492 0.12316218763589859 255.0 0.0 0.0
-0.2707488536834717 -0.20218442380428314 0.1378566473722458 255.0 0.0 0.0
-0.17238885164260864 0.22241553664207458 -0.13506805896759033 255.0 0.0 0.0
0.2929648160934448 0.13382446765899658 0.15631797909736633 255.0 0.0 0.0
-0.30649861693382263 -0.36197513341903687 0.20566841959953308 255.0 0.0 0.0
0.2955808937549591 0.2250913679599762 0.027829507365822792 255.0 0.0 0.0
-0.22477586567401886 0.08780895173549652 0.1556989997625351 255.0 0.0 0.0
0.22509905695915222 0.22916825115680695 -0.11858247965574265 255.0 0.0 0.0
-0.21227587759494781 0.2585660219192505 -0.026928309351205826 255.0 0.0 0.0
-0.0034601474180817604 0.10749447345733643 -0.19500981271266937 255.0 0.0 0.0
-0.21357332170009613 -0.3032337725162506 -0.07114897668361664 255.0 0.0 0.0
0.13885453343391418 -0.4391917288303375 0.14077351987361908 255.0 0.0 0.0
0.07222617417573929 0.17632734775543213 0.1561167687177658 255.0 0.0 0.0
-0.2490350604057312 -0.017473023384809494 -0.2379601150751114 255.0 0.0 0.0
0.2428053766489029 0.04410563036799431 0.1663762331008911 255.0 0.0 0.0
-0.1755601018667221 0.18026041984558105 0.15552105009555817 255.0 0.0 0.0
-0.2540983259677887 -0.12817934155464172 -0.13506805896759033 255.0 0.0 0.0
0.06298713386058807 0.13021831214427948 -0.15240007638931274 255.0 0.0 0.0
0.1478910893201828 -0.4456092119216919 0.10249708592891693 255.0 0.0 0.0
0.26265162229537964 0.48811280727386475 0.12687724828720093 255.0 0.0 0.0
0.280874639749527 0.16543319821357727 0.15425355732440948 255.0 0.0 0.0
0.22873547673225403 0.25672051310539246 -0.020225312560796738 255.0 0.0 0.0
0.05930791795253754 0.13096128404140472 -0.1325472742319107 255.0 0.0 0.0
-0.2700047194957733 0.1930062472820282 -0.1317119598388672 255.0 0.0 0.0
0.28748819231987 0.3498707115650177 0.0825178325176239 255.0 0.0 0.0
-0.19677221775054932 -0.23843367397785187 -0.13506805896759033 255.0 0.0 0.0
-0.19301988184452057 0.17023108899593353 0.15249957144260406 255.0 0.0 0.0
-0.26954829692840576 0.22899280488491058 0.11787068843841553 255.0 0.0 0.0
-0.23328672349452972 0.02489512413740158 0.15523077547550201 255.0 0.0 0.0
0.14322496950626373 -0.24930503964424133 -0.12498655915260315 255.0 0.0 0.0
0.18617792427539825 -0.2515515685081482 -0.03650389239192009 255.0 0.0 0.0
-0.1386399120092392 0.2279137372970581 0.14545108377933502 255.0 0.0 0.0
-0.2845332622528076 0.14992205798625946 -0.32535791397094727 255.0 0.0 0.0
0.25810301303863525 -0.31166356801986694 0.08917193114757538 255.0 0.0 0.0
0.14878098666667938 -0.4459329843521118 0.056205276399850845 255.0 0.0 0.0
-0.021715128794312477 0.2188505083322525 -0.18035002052783966 255.0 0.0 0.0
-0.18976035714149475 0.4441285729408264 0.08658897131681442 255.0 0.0 0.0
0.2913212776184082 0.22653785347938538 -0.0723600834608078 255.0 0.0 0.0
-0.25829339027404785 0.023616354912519455 -0.23705041408538818 255.0 0.0 0.0
-0.17821098864078522 0.31882649660110474 0.01758100464940071 255.0 0.0 0.0
-0.02216964401304722 0.3119942843914032 -0.2835173010826111 255.0 0.0 0.0
0.2888374626636505 -0.25019383430480957 -0.06287073343992233 255.0 0.0 0.0
-0.06882981956005096 -0.16634924709796906 0.17159916460514069 255.0 0.0 0.0
-0.09797748178243637 0.33168646693229675 -0.32066887617111206 255.0 0.0 0.0
-0.0645064115524292 0.3193863034248352 -0.27807095646858215 255.0 0.0 0.0
-0.21003879606723785 0.49922212958335876 0.08050940930843353 255.0 0.0 0.0
0.2880857288837433 -0.24496719241142273 0.1557544320821762 255.0 0.0 0.0
0.29724380373954773 -0.18589171767234802 -0.12091472744941711 255.0 0.0 0.0
-0.2610912621021271 0.16461022198200226 -0.30653879046440125 255.0 0.0 0.0
-0.28743526339530945 -0.04780687019228935 -0.2880173921585083 255.0 0.0 0.0
-0.2947673797607422 -0.4286356270313263 -0.09219548851251602 255.0 0.0 0.0
-0.33060771226882935 -0.414774090051651 -0.060183051973581314 255.0 0.0 0.0
0.23306258022785187 -0.15908785164356232 0.16901369392871857 255.0 0.0 0.0
-0.09424816817045212 0.3300948143005371 -0.3116055130958557 255.0 0.0 0.0
0.23466996848583221 -0.03675495833158493 0.1699059009552002 255.0 0.0 0.0
-0.18342608213424683 0.3168621361255646 -0.3360649645328522 255.0 0.0 0.0
-0.1699099838733673 0.4446951448917389 0.10451428592205048 255.0 0.0 0.0
-0.23748284578323364 0.46037402749061584 0.10368617624044418 255.0 0.0 0.0
0.21883392333984375 -0.44137638807296753 -0.0801892951130867 255.0 0.0 0.0
0.20626911520957947 0.3859235346317291 0.11441291868686676 255.0 0.0 0.0
-0.27293476462364197 -0.004183145239949226 -0.11972279846668243 255.0 0.0 0.0
-0.24934221804141998 -0.025101618841290474 -0.23198986053466797 255.0 0.0 0.0
0.2414616048336029 0.3589753806591034 0.12493482977151871 255.0 0.0 0.0
-0.09700138866901398 -0.18591684103012085 0.1632285863161087 255.0 0.0 0.0
0.2564011812210083 0.07560712844133377 0.15337561070919037 255.0 0.0 0.0
0.2570236623287201 0.007039818912744522 0.15392066538333893 255.0 0.0 0.0
-0.16962005198001862 0.3624587655067444 -0.04950643330812454 255.0 0.0 0.0
0.05351748317480087 0.22553303837776184 -0.21736186742782593 255.0 0.0 0.0
0.1738329380750656 -0.25441524386405945 0.02238626219332218 255.0 0.0 0.0
0.2940734326839447 0.20681287348270416 -0.13566607236862183 255.0 0.0 0.0
-0.260142982006073 0.4386498034000397 0.10981366038322449 255.0 0.0 0.0
0.21100854873657227 0.2501288652420044 -0.010671830736100674 255.0 0.0 0.0
-0.16914229094982147 0.4811039865016937 0.07945211976766586 255.0 0.0 0.0
-0.12440260499715805 -0.24567073583602905 0.15557760000228882 255.0 0.0 0.0
-0.17045147716999054 0.45232680439949036 0.10662645846605301 255.0 0.0 0.0
0.1856362670660019 0.46094679832458496 0.10318643599748611 255.0 0.0 0.0
0.19202572107315063 -0.2526765763759613 0.06360875815153122 255.0 0.0 0.0
0.2891772985458374 0.3969457149505615 0.1296478658914566 255.0 0.0 0.0
0.03631599619984627 0.23364374041557312 -0.19073131680488586 255.0 0.0 0.0
-0.27073630690574646 -0.1941845715045929 -0.11933694034814835 255.0 0.0 0.0
0.1389944702386856 -0.1723671555519104 0.16932260990142822 255.0 0.0 0.0
-0.1958536058664322 0.4983537197113037 0.003843744983896613 255.0 0.0 0.0
-0.2684410810470581 0.07729136943817139 -0.26117393374443054 255.0 0.0 0.0
0.22585970163345337 0.5057814717292786 0.11918679624795914 255.0 0.0 0.0
-0.25938472151756287 0.0752377137541771 0.15791824460029602 255.0 0.0 0.0
-0.2623264193534851 -0.16262656450271606 -0.13529981672763824 255.0 0.0 0.0
-0.22300751507282257 -0.2525559067726135 -0.057182326912879944 255.0 0.0 0.0
0.2579648196697235 -0.35136550664901733 0.14521664381027222 255.0 0.0 0.0
0.19126859307289124 -0.24742160737514496 -0.05239398404955864 255.0 0.0 0.0
-0.19296957552433014 0.22234375774860382 -0.12918616831302643 255.0 0.0 0.0
-0.20071196556091309 -0.4110400080680847 0.13799914717674255 255.0 0.0 0.0
0.30002763867378235 -0.03334980085492134 -0.1295379251241684 255.0 0.0 0.0
0.2972581684589386 -0.23622049391269684 0.02645421214401722 255.0 0.0 0.0
-0.2658036947250366 0.2129480093717575 -0.3156769871711731 255.0 0.0 0.0
-0.24422816932201385 -0.00283063855022192 -0.24794340133666992 255.0 0.0 0.0
-0.024060597643256187 0.24785125255584717 -0.24682971835136414 255.0 0.0 0.0
-0.26298460364341736 -0.4755113124847412 -0.043044816702604294 255.0 0.0 0.0
-0.15610282123088837 0.4085751175880432 0.08745826035737991 255.0 0.0 0.0
0.27604708075523376 -0.4486093521118164 0.17795328795909882 255.0 0.0 0.0
-0.26192134618759155 0.10768622159957886 -0.3038409948348999 255.0 0.0 0.0
0.29309162497520447 0.10222188383340836 -0.13506805896759033 255.0 0.0 0.0
-0.04410916194319725 0.30105093121528625 -0.3114183843135834 255.0 0.0 0.0
-0.22321820259094238 -0.2576766014099121 -0.03728163242340088 255.0 0.0 0.0
-0.2701440453529358 -0.251560777425766 -0.016866181045770645 255.0 0.0 0.0
-0.2706620991230011 0.18436384201049805 0.15222741663455963 255.0 0.0 0.0
-0.26908445358276367 0.20801517367362976 0.08756805211305618 255.0 0.0 0.0
-0.21880337595939636 0.49789679050445557 0.1024627685546875 255.0 0.0 0.0
0.21245259046554565 0.2944638729095459 -0.017305618152022362 255.0 0.0 0.0
0.2872534990310669 -0.4087199568748474 0.17625296115875244 255.0 0.0 0.0
0.2629588544368744 -0.3763714134693146 -0.07984334975481033 255.0 0.0 0.0
-0.22009867429733276 -0.1274842619895935 0.16504479944705963 255.0 0.0 0.0
-0.002118569565936923 0.29431048035621643 -0.28653547167778015 255.0 0.0 0.0
-0.03041040524840355 -0.16596835851669312 0.1660921275615692 255.0 0.0 0.0
0.2235276848077774 0.48655062913894653 -0.06150609999895096 255.0 0.0 0.0
-0.25791046023368835 -0.47625523805618286 -0.04900816082954407 255.0 0.0 0.0
0.11608312278985977 0.22546519339084625 -0.13100534677505493 255.0 0.0 0.0
-0.23959989845752716 -0.24835637211799622 -0.008189385756850243 255.0 0.0 0.0
-0.1620527058839798 -0.25250244140625 -0.051665544509887695 255.0 0.0 0.0
0.2270955592393875 0.38044705986976624 0.10734392702579498 255.0 0.0 0.0
0.1912108212709427 -0.39164066314697266 0.18675313889980316 255.0 0.0 0.0
0.01725180260837078 0.2856801450252533 -0.26103127002716064 255.0 0.0 0.0
-0.22676698863506317 -0.1876954734325409 0.1500300019979477 255.0 0.0 0.0
0.0773061215877533 0.2320324033498764 0.15576264262199402 255.0 0.0 0.0
0.29216083884239197 -0.24866552650928497 -0.10318057239055634 255.0 0.0 0.0
0.21691761910915375 0.23059402406215668 0.14850036799907684 255.0 0.0 0.0
-0.2680697441101074 -0.15296043455600739 -0.13184349238872528 255.0 0.0 0.0
0.28447845578193665 -0.4222087860107422 0.1923033446073532 255.0 0.0 0.0
0.1838514357805252 0.16467192769050598 0.16048932075500488 255.0 0.0 0.0
0.19498494267463684 0.49099886417388916 -0.021635832265019417 255.0 0.0 0.0
-0.25913795828819275 0.198097363114357 -0.13506805896759033 255.0 0.0 0.0
0.2972302734851837 -0.2376285046339035 -0.12076159566640854 255.0 0.0 0.0
-0.1834680289030075 0.3721011281013489 0.1066349670290947 255.0 0.0 0.0
-0.25501593947410583 0.001167378039099276 0.1543016880750656 255.0 0.0 0.0
0.051729004830121994 -0.20144438743591309 0.15430450439453125 255.0 0.0 0.0
-0.2685866057872772 -0.2096220999956131 0.15726801753044128 255.0 0.0 0.0
0.046889882534742355 -0.2372570037841797 0.155299112200737 255.0 0.0 0.0
-0.33513006567955017 -0.3792779743671417 0.08567428588867188 255.0 0.0 0.0
0.1393829733133316 -0.43267694115638733 0.009097795002162457 255.0 0.0 0.0
0.19199155271053314 0.3556194007396698 -0.05301991105079651 255.0 0.0 0.0
-0.2639332413673401 0.1377314180135727 -0.32710251212120056 255.0 0.0 0.0
0.060625262558460236 0.15398108959197998 -0.1342487633228302 255.0 0.0 0.0
-0.18542426824569702 0.3007996380329132 -0.0036127972416579723 255.0 0.0 0.0
-0.20798467099666595 0.07048666477203369 0.17149561643600464 255.0 0.0 0.0
-0.12156576663255692 -0.24854114651679993 0.15081650018692017 255.0 0.0 0.0
-0.23775236308574677 0.31183096766471863 -0.01068838406354189 255.0 0.0 0.0
0.28333961963653564 -0.2480044811964035 0.15027159452438354 255.0 0.0 0.0
-0.020958799868822098 0.3042600452899933 -0.25725609064102173 255.0 0.0 0.0
0.06670822948217392 0.17628754675388336 -0.13447487354278564 255.0 0.0 0.0
0.2440289855003357 0.04504607617855072 0.1614043414592743 255.0 0.0 0.0
-0.2721613943576813 -0.06953905522823334 -0.12440579384565353 255.0 0.0 0.0
-0.16924776136875153 0.15823282301425934 0.16892637312412262 255.0 0.0 0.0
-0.024893753230571747 0.2219773530960083 -0.18682239949703217 255.0 0.0 0.0
