-0.27525022625923157 -0.3944566547870636 0.19341570138931274 255.0 0.0 0.0
0.05338079109787941 0.12776656448841095 -0.19196662306785583 255.0 0.0 0.0
0.23063676059246063 0.15869343280792236 0.16860654950141907 255.0 0.0 0.0
-0.20819929242134094 0.007558740675449371 0.1706075817346573 255.0 0.0 0.0
-0.03496401757001877 -0.24459636211395264 0.156934916973114 255.0 0.0 0.0
0.2746298313140869 0.22832699120044708 0.1426047682762146 255.0 0.0 0.0
-0.3377975821495056 -0.37217944860458374 0.08488970249891281 255.0 0.0 0.0
0.2575989365577698 -0.3704353868961334 0.1721024066209793 255.0 0.0 0.0
0.29548829793930054 0.15636464953422546 -0.12921881675720215 255.0 0.0 0.0
-0.23225557804107666 0.4048934280872345 -0.07979238033294678 255.0 0.0 0.0
0.2838969826698303 -0.4241381585597992 0.1882859319448471 255.0 0.0 0.0
-0.1756793111562729 -0.2563364803791046 0.06272872537374496 255.0 0.0 0.0
0.24467936158180237 0.22377140820026398 -0.13185597956180573 255.0 0.0 0.0
0.13727796077728271 0.15858839452266693 0.1662672609090805 255.0 0.0 0.0
-0.23051899671554565 0.16073954105377197 0.1586453765630722 255.0 0.0 0.0
0.1903628259897232 0.4960431754589081 0.07293859869241714 255.0 0.0 0.0
0.1153719425201416 0.22763434052467346 -0.1315826028585434 255.0 0.0 0.0
0.14449390769004822 -0.18161486089229584 0.1684211641550064 255.0 0.0 0.0
0.28623223304748535 -0.24976417422294617 -0.0776992067694664 255.0 0.0 0.0
-0.19552654027938843 0.33909842371940613 -0.3292102813720703 255.0 0.0 0.0
-0.23168230056762695 -0.25362351536750793 0.05669185146689415 255.0 0.0 0.0
0.2332487851381302 -0.15974703431129456 0.1693839132785797 255.0 0.0 0.0
0.27534887194633484 0.33646291494369507 -0.05361313372850418 255.0 0.0 0.0
-0.337348997592926 -0.3860114812850952 0.04333573579788208 255.0 0.0 0.0
-0.22761760652065277 -0.1278529018163681 0.1493770182132721 255.0 0.0 0.0
0.2648088335990906 -0.44408509135246277 -0.05521959066390991 255.0 0.0 0.0
-0.18067128956317902 0.3083552420139313 0.0175094585865736 255.0 0.0 0.0
-0.056643929332494736 -0.24600930511951447 -0.13506805896759033 255.0 0.0 0.0
0.21644645929336548 0.3483889102935791 0.11086130887269974 255.0 0.0 0.0
-0.29057544469833374 -0.41509297490119934 -0.09420663863420486 255.0 0.0 0.0
-0.2718810737133026 -0.24081172049045563 -0.08007202297449112 255.0 0.0 0.0
-0.1454898864030838 -0.23703090846538544 -0.13301895558834076 255.0 0.0 0.0
-0.28427931666374207 -0.0661507099866867 -0.26773184537887573 255.0 0.0 0.0
-0.25808167457580566 -0.3077695667743683 0.10431376844644547 255.0 0.0 0.0
-0.1806451380252838 0.33686891198158264 -0.3386496603488922 255.0 0.0 0.0
-0.1604122668504715 0.22689080238342285 0.02129499800503254 255.0 0.0 0.0
0.2829793691635132 0.35716938972473145 0.10397740453481674 255.0 0.0 0.0
-0.1767532229423523 0.48288244009017944 -0.015726737678050995 255.0 0.0 0.0
0.17417080700397491 -0.2594229280948639 -0.014473936520516872 255.0 0.0 0.0
-0.24810850620269775 -0.36119285225868225 -0.0935354232788086 255.0 0.0 0.0
-0.24393250048160553 -0.2529281675815582 0.003692830912768841 255.0 0.0 0.0
-0.23803484439849854 0.26769721508026123 -0.33498284220695496 255.0 0.0 0.0
-0.254110187292099 0.3555535078048706 0.08537610620260239 255.0 0.0 0.0
-0.2601669430732727 -0.07645725458860397 -0.22140198945999146 255.0 0.0 0.0
0.16802841424942017 -0.24984683096408844 0.14092004299163818 255.0 0.0 0.0
-0.23767298460006714 -0.44684454798698425 0.12540650367736816 255.0 0.0 0.0
0.25421926379203796 0.5136539340019226 0.021376831457018852 255.0 0.0 0.0
-0.21978195011615753 0.45860350131988525 -0.07171313464641571 255.0 0.0 0.0
0.26094475388526917 0.22934956848621368 -0.03297725319862366 255.0 0.0 0.0
-0.23601455986499786 0.37606871128082275 -0.07408317923545837 255.0 0.0 0.0
-0.15445250272750854 0.35339415073394775 0.02028254233300686 255.0 0.0 0.0
0.258542537689209 -0.3141081929206848 -0.06349598616361618 255.0 0.0 0.0
0.2896457314491272 0.22787107527256012 -0.015462283976376057 255.0 0.0 0.0
0.19720833003520966 0.33300864696502686 0.05102505907416344 255.0 0.0 0.0
0.29790806770324707 0.22489413619041443 0.07878492027521133 255.0 0.0 0.0
0.2012827843427658 -0.2658166289329529 -0.045738913118839264 255.0 0.0 0.0
0.23857972025871277 0.007826600223779678 0.16940195858478546 255.0 0.0 0.0
-0.2707238495349884 -0.1005503386259079 -0.12594540417194366 255.0 0.0 0.0
0.15283457934856415 -0.42901936173439026 -0.03620939701795578 255.0 0.0 0.0
-0.27265048027038574 0.2218908816576004 -0.07376396656036377 255.0 0.0 0.0
0.053519781678915024 0.12553581595420837 -0.13506805896759033 255.0 0.0 0.0
0.1464572548866272 0.15878865122795105 0.16742390394210815 255.0 0.0 0.0
-0.2754601538181305 -0.3925735056400299 0.2050154209136963 255.0 0.0 0.0
-0.23635900020599365 0.30154359340667725 -0.006525742821395397 255.0 0.0 0.0
0.03734389320015907 -0.1726282685995102 0.16821157932281494 255.0 0.0 0.0
0.05589144676923752 0.14735209941864014 -0.13677266240119934 255.0 0.0 0.0
0.01649334654211998 -0.2502056062221527 -0.11983571201562881 255.0 0.0 0.0
-0.2575381398200989 0.10213970392942429 0.15792454779148102 255.0 0.0 0.0
-0.182833731174469 0.22391696274280548 -0.1350494772195816 255.0 0.0 0.0
-0.037686482071876526 0.16084285080432892 -0.19357120990753174 255.0 0.0 0.0
0.29718947410583496 -0.21566142141819 -0.1299188882112503 255.0 0.0 0.0
-0.2433839738368988 0.3548436760902405 0.09360910952091217 255.0 0.0 0.0
0.07281207293272018 0.17837212979793549 0.14861534535884857 255.0 0.0 0.0
-0.2724202871322632 -0.011564115062355995 -0.3063879609107971 255.0 0.0 0.0
-0.23320117592811584 0.29552918672561646 -0.3319399356842041 255.0 0.0 0.0
0.2456209659576416 0.3953823447227478 -0.09335213154554367 255.0 0.0 0.0
-0.03257092088460922 0.1167755201458931 -0.15128953754901886 255.0 0.0 0.0
0.06938235461711884 0.159743532538414 0.16747893393039703 255.0 0.0 0.0
-0.13512425124645233 0.22628770768642426 0.15699101984500885 255.0 0.0 0.0
-0.28452369570732117 -0.4567585587501526 -0.07748469710350037 255.0 0.0 0.0
-0.269400417804718 -0.06159510836005211 -0.22136391699314117 255.0 0.0 0.0
-0.2006904035806656 0.29718321561813354 0.03921125829219818 255.0 0.0 0.0
-0.2146010547876358 0.3339458703994751 -0.3415302038192749 255.0 0.0 0.0
0.19133614003658295 0.3393193185329437 0.07159244269132614 255.0 0.0 0.0
0.06782981008291245 -0.24849893152713776 -0.13415905833244324 255.0 0.0 0.0
-0.15353980660438538 -0.24390770494937897 0.15557603538036346 255.0 0.0 0.0
-0.2691759169101715 0.09388064593076706 -0.12571118772029877 255.0 0.0 0.0
0.29850369691848755 -0.06867577135562897 -0.13448020815849304 255.0 0.0 0.0
0.1926989108324051 0.48078957200050354 0.10753506422042847 255.0 0.0 0.0
0.29016879200935364 -0.4366454482078552 0.09098181873559952 255.0 0.0 0.0
-0.2588956356048584 -0.1890041083097458 -0.13366824388504028 255.0 0.0 0.0
0.2972581684589386 0.2152620553970337 0.09481711685657501 255.0 0.0 0.0
0.28339430689811707 0.17767466604709625 0.15524516999721527 255.0 0.0 0.0
0.2574203610420227 0.40748679637908936 0.1052069291472435 255.0 0.0 0.0
0.05391924828290939 0.18619540333747864 -0.15721572935581207 255.0 0.0 0.0
-0.08166153728961945 0.3080369830131531 -0.30516427755355835 255.0 0.0 0.0
-0.0717906653881073 0.22632835805416107 0.14581474661827087 255.0 0.0 0.0
0.27814483642578125 0.22836075723171234 -0.026256045326590538 255.0 0.0 0.0
0.2725333571434021 -0.44532477855682373 0.18039147555828094 255.0 0.0 0.0
-0.25993919372558594 0.22913973033428192 0.011576053686439991 255.0 0.0 0.0
0.05565746873617172 0.21223482489585876 -0.20608580112457275 255.0 0.0 0.0
-0.034254059195518494 0.1421573907136917 -0.18951690196990967 255.0 0.0 0.0
-0.22631439566612244 -0.04615068435668945 0.15592451393604279 255.0 0.0 0.0
-0.23835203051567078 0.3561190366744995 0.10982147604227066 255.0 0.0 0.0
-0.03729785606265068 0.17789532244205475 0.15496015548706055 255.0 0.0 0.0
-0.26108449697494507 -0.009590712375938892 -0.13314619660377502 255.0 0.0 0.0
-0.10816090553998947 0.21538449823856354 -0.13506805896759033 255.0 0.0 0.0
0.25696951150894165 0.0793745219707489 0.15027089416980743 255.0 0.0 0.0
-0.33968138694763184 -0.3738575875759125 0.06320970505475998 255.0 0.0 0.0
-0.06405718624591827 -0.19136661291122437 0.15434591472148895 255.0 0.0 0.0
0.03647676855325699 0.24506105482578278 -0.24946145713329315 255.0 0.0 0.0
-0.23303379118442535 0.4055543541908264 -0.08060062676668167 255.0 0.0 0.0
0.030830804258584976 -0.17259874939918518 0.1676536351442337 255.0 0.0 0.0
-0.09653322398662567 -0.24796408414840698 -0.12879090011119843 255.0 0.0 0.0
0.013833310455083847 0.14512643218040466 0.17419199645519257 255.0 0.0 0.0
0.130547434091568 -0.1961359679698944 0.14977262914180756 255.0 0.0 0.0
-0.2849677503108978 0.15129385888576508 -0.30790966749191284 255.0 0.0 0.0
0.2932029068470001 -0.24988603591918945 0.0012630297569558024 255.0 0.0 0.0
-0.191681370139122 0.4907047152519226 0.11254977434873581 255.0 0.0 0.0
-0.2483186423778534 0.47417449951171875 0.09029722213745117 255.0 0.0 0.0
-0.23979251086711884 -0.3399747312068939 -0.08465485274791718 255.0 0.0 0.0
-0.2548285126686096 0.04284903034567833 -0.13506805896759033 255.0 0.0 0.0
-0.19095394015312195 -0.24889463186264038 0.14808180928230286 255.0 0.0 0.0
0.27853459119796753 0.21610167622566223 0.15620265901088715 255.0 0.0 0.0
-0.23359200358390808 0.33527207374572754 -0.0418005995452404 255.0 0.0 0.0
0.23484653234481812 -0.2856801152229309 -0.06745179742574692 255.0 0.0 0.0
0.2754141390323639 0.2266305834054947 -0.01660766266286373 255.0 0.0 0.0
0.28533804416656494 -0.2503243386745453 0.0814589112997055 255.0 0.0 0.0
0.21208685636520386 0.394799143075943 -0.08869972825050354 255.0 0.0 0.0
0.19978545606136322 0.22982271015644073 0.004287987016141415 255.0 0.0 0.0
-0.03562008962035179 0.3151404857635498 -0.28513216972351074 255.0 0.0 0.0
-0.2396872490644455 -0.4760221540927887 -0.031842589378356934 255.0 0.0 0.0
0.1953388899564743 0.33908751606941223 0.06390509009361267 255.0 0.0 0.0
-0.2222081869840622 -0.15557608008384705 0.15668903291225433 255.0 0.0 0.0
-0.2506827414035797 0.23552776873111725 -0.3356357216835022 255.0 0.0 0.0
-0.1639457792043686 0.4637458324432373 0.0868515744805336 255.0 0.0 0.0
-0.02171032875776291 0.307235985994339 -0.2644602358341217 255.0 0.0 0.0
-0.22976194322109222 -0.45804983377456665 0.11975938826799393 255.0 0.0 0.0
-0.16401028633117676 0.4600462019443512 0.0869310051202774 255.0 0.0 0.0
-0.18473650515079498 0.2849665880203247 0.0007691426435485482 255.0 0.0 0.0
-0.2410687655210495 0.0703529343008995 0.15493719279766083 255.0 0.0 0.0
-0.26093536615371704 0.2263754904270172 -0.09601221233606339 255.0 0.0 0.0
0.25748416781425476 -0.25330591201782227 0.029166841879487038 255.0 0.0 0.0
0.28523319959640503 0.2152809500694275 -0.13457107543945312 255.0 0.0 0.0
-0.1766463965177536 0.4796893000602722 -0.02109668217599392 255.0 0.0 0.0
-0.08052705973386765 0.2279530167579651 0.1437126100063324 255.0 0.0 0.0
-0.00401400588452816 -0.25357553362846375 -0.11906561255455017 255.0 0.0 0.0
-0.2077043503522873 -0.08945348858833313 0.16969241201877594 255.0 0.0 0.0
-0.21992705762386322 0.14675453305244446 0.16078916192054749 255.0 0.0 0.0
0.20819909870624542 0.22902126610279083 -0.02283226139843464 255.0 0.0 0.0
-0.25815528631210327 0.18349424004554749 -0.3279605507850647 255.0 0.0 0.0
-0.23555102944374084 0.47087791562080383 -0.05345015600323677 255.0 0.0 0.0
0.08680647611618042 -0.24910575151443481 0.14961569011211395 255.0 0.0 0.0
0.04310683161020279 0.2222028523683548 -0.13732314109802246 255.0 0.0 0.0
-0.21959400177001953 -0.14552724361419678 0.15780691802501678 255.0 0.0 0.0
0.18596354126930237 0.3659435510635376 0.09299717843532562 255.0 0.0 0.0
0.10750256478786469 0.18094894289970398 0.15826667845249176 255.0 0.0 0.0
-0.2712336778640747 -0.03206336498260498 -0.1328556388616562 255.0 0.0 0.0
0.21299536526203156 0.2719271779060364 0.024285083636641502 255.0 0.0 0.0
-0.2401573657989502 0.4674680233001709 0.10675009340047836 255.0 0.0 0.0
0.1787843555212021 0.3431314527988434 -0.010132688097655773 255.0 0.0 0.0
0.05567912384867668 0.1996995508670807 -0.16902406513690948 255.0 0.0 0.0
0.028093677014112473 0.19891896843910217 -0.14039917290210724 255.0 0.0 0.0
-0.2294960767030716 0.3236432671546936 0.04867870733141899 255.0 0.0 0.0
0.219513401389122 0.23491410911083221 0.04690071567893028 255.0 0.0 0.0
0.06088925153017044 0.12917467951774597 -0.16866256296634674 255.0 0.0 0.0
-0.009028328582644463 0.10712437331676483 -0.19137096405029297 255.0 0.0 0.0
-0.2327483892440796 -0.25346434116363525 0.0724812000989914 255.0 0.0 0.0
-0.2372932732105255 0.4446564018726349 -0.066737100481987 255.0 0.0 0.0
0.08836739510297775 0.16880430281162262 0.15447954833507538 255.0 0.0 0.0
-0.055665548890829086 0.17558124661445618 0.15400122106075287 255.0 0.0 0.0
-0.03649890050292015 0.1560903936624527 -0.202264204621315 255.0 0.0 0.0
-0.26692134141921997 -0.01261007972061634 0.15885911881923676 255.0 0.0 0.0
-0.01824839971959591 0.21544323861598969 -0.23458930850028992 255.0 0.0 0.0
0.14282363653182983 -0.24174995720386505 0.15850000083446503 255.0 0.0 0.0
0.08251503854990005 -0.24981364607810974 0.1451805680990219 255.0 0.0 0.0
-0.1930079311132431 0.3192426562309265 -0.3302913308143616 255.0 0.0 0.0
0.19466441869735718 -0.4401642382144928 -0.06000545248389244 255.0 0.0 0.0
-0.03351421281695366 0.11660481989383698 -0.15287457406520844 255.0 0.0 0.0
-0.03146864473819733 0.1503976285457611 -0.20082305371761322 255.0 0.0 0.0
-0.2400837391614914 0.4553512632846832 0.10049954801797867 255.0 0.0 0.0
0.29240769147872925 0.21846848726272583 -0.13556520640850067 255.0 0.0 0.0
0.2945314049720764 -0.19831134378910065 0.15629324316978455 255.0 0.0 0.0
0.2955373227596283 0.22796660661697388 -0.08918105065822601 255.0 0.0 0.0
-0.00662428280338645 -0.23872022330760956 0.15809576213359833 255.0 0.0 0.0
-0.18528464436531067 -0.19962701201438904 0.1520443856716156 255.0 0.0 0.0
-0.0324816033244133 0.1755937784910202 -0.2057223916053772 255.0 0.0 0.0
-0.2674906849861145 -0.12741869688034058 -0.13399526476860046 255.0 0.0 0.0
0.003037400543689728 0.2279496043920517 0.1438639760017395 255.0 0.0 0.0
0.2543819546699524 0.31172364950180054 0.05133174732327461 255.0 0.0 0.0
-0.13755998015403748 -0.24812495708465576 -0.13210941851139069 255.0 0.0 0.0
-0.2834000885486603 0.13665476441383362 -0.29856887459754944 255.0 0.0 0.0
0.2160915732383728 -0.24225953221321106 -0.13506805896759033 255.0 0.0 0.0
0.23563149571418762 -0.2966711223125458 -0.07063528150320053 255.0 0.0 0.0
0.2652091681957245 0.2694148123264313 0.0016978371422737837 255.0 0.0 0.0
-0.25577083230018616 0.10864342004060745 -0.3048800528049469 255.0 0.0 0.0
-0.09143297374248505 0.22760799527168274 0.14492936432361603 255.0 0.0 0.0
0.24537594616413116 -0.43231505155563354 0.1991330087184906 255.0 0.0 0.0
-0.007603284902870655 -0.25142744183540344 0.15271542966365814 255.0 0.0 0.0
0.18593446910381317 -0.24646776914596558 0.14000703394412994 255.0 0.0 0.0
-0.26631706953048706 -0.3313221335411072 -0.07309584319591522 255.0 0.0 0.0
0.0011815025936812162 0.2988194525241852 -0.27225419878959656 255.0 0.0 0.0
-0.06110137701034546 0.30167528986930847 -0.2994738519191742 255.0 0.0 0.0
-0.23997800052165985 -0.31419259309768677 0.10844602435827255 255.0 0.0 0.0
-0.25481730699539185 -0.2353583127260208 -0.13506805896759033 255.0 0.0 0.0
-0.24130386114120483 0.29075661301612854 0.01124616339802742 255.0 0.0 0.0
0.2914929687976837 -0.17665155231952667 0.15632209181785583 255.0 0.0 0.0
0.055301036685705185 0.10566001385450363 -0.1367087960243225 255.0 0.0 0.0
-0.2102394998073578 -0.4141235053539276 0.1642352193593979 255.0 0.0 0.0
0.03709610551595688 0.21830333769321442 -0.1780119389295578 255.0 0.0 0.0
0.2610708177089691 0.28444191813468933 0.03218154236674309 255.0 0.0 0.0
0.2994906008243561 -0.08269854635000229 0.15139713883399963 255.0 0.0 0.0
-0.023061644285917282 0.22760143876075745 -0.1307339072227478 255.0 0.0 0.0
-0.017312487587332726 0.103488989174366 -0.17360223829746246 255.0 0.0 0.0
0.2543630003929138 -0.26275762915611267 -0.002287703100591898 255.0 0.0 0.0
-0.2266330122947693 -0.07134615629911423 0.15414854884147644 255.0 0.0 0.0
0.2955540716648102 -0.2334475815296173 -0.11047419160604477 255.0 0.0 0.0
-0.21866008639335632 -0.12347187846899033 0.16477908194065094 255.0 0.0 0.0
-0.27104848623275757 -0.24581129848957062 -0.12332458049058914 255.0 0.0 0.0
-0.21783219277858734 -0.17050421237945557 0.16653867065906525 255.0 0.0 0.0
0.25704893469810486 0.09516984969377518 0.1546824723482132 255.0 0.0 0.0
-0.22095990180969238 -0.4376344084739685 0.15855620801448822 255.0 0.0 0.0
-0.27062898874282837 0.05348818004131317 -0.13151274621486664 255.0 0.0 0.0
-0.23732073605060577 0.27106890082359314 -0.34083959460258484 255.0 0.0 0.0
-0.21756336092948914 0.2426631599664688 0.04855765774846077 255.0 0.0 0.0
-0.00021793659834656864 -0.2510458528995514 0.1436433494091034 255.0 0.0 0.0
0.2978878617286682 0.039199505001306534 0.15684567391872406 255.0 0.0 0.0
-0.25253111124038696 0.04579462483525276 -0.2517932057380676 255.0 0.0 0.0
0.06480040401220322 0.14918117225170135 -0.15082822740077972 255.0 0.0 0.0
0.007061310578137636 0.22991465032100677 -0.11842532455921173 255.0 0.0 0.0
-0.15202881395816803 -0.2525177597999573 0.059489600360393524 255.0 0.0 0.0
-0.270740270614624 -0.2134823054075241 0.14094878733158112 255.0 0.0 0.0
-0.13585105538368225 -0.2499130368232727 0.1510067582130432 255.0 0.0 0.0
-0.17596952617168427 -0.23695553839206696 -0.13456255197525024 255.0 0.0 0.0
-0.2723254859447479 -0.2406429499387741 0.02388535812497139 255.0 0.0 0.0
0.25091707706451416 0.4780333638191223 -0.06969281286001205 255.0 0.0 0.0
-0.07786782085895538 0.32762494683265686 -0.3077993094921112 255.0 0.0 0.0
-0.2704070806503296 0.1801566481590271 0.15458478033542633 255.0 0.0 0.0
-0.2642393410205841 -0.4608800411224365 -0.0669524297118187 255.0 0.0 0.0
-0.18718092143535614 0.16328005492687225 0.16420254111289978 255.0 0.0 0.0
-0.23155774176120758 -0.2586849331855774 0.06459620594978333 255.0 0.0 0.0
-0.0690949335694313 0.30653804540634155 -0.3120700418949127 255.0 0.0 0.0
0.24501797556877136 -0.4041392505168915 -0.09025975316762924 255.0 0.0 0.0
0.27193161845207214 0.2321254462003708 -0.02949882298707962 255.0 0.0 0.0
0.2806357741355896 -0.426327109336853 0.19530750811100006 255.0 0.0 0.0
0.2477763593196869 -0.15728887915611267 0.16819517314434052 255.0 0.0 0.0
-0.25101688504219055 0.3558097183704376 0.08852731436491013 255.0 0.0 0.0
0.2012089490890503 0.22289444506168365 -0.13463571667671204 255.0 0.0 0.0
-0.27073726058006287 0.06814073771238327 0.14219455420970917 255.0 0.0 0.0
-0.24492765963077545 -0.3128299117088318 -0.07351337373256683 255.0 0.0 0.0
0.1556878536939621 -0.1823720932006836 0.16570065915584564 255.0 0.0 0.0
-0.21051618456840515 -0.42731231451034546 0.16264483332633972 255.0 0.0 0.0
-0.2765210270881653 -0.3674878776073456 -0.0906740128993988 255.0 0.0 0.0
0.009200369007885456 0.21834400296211243 -0.13620224595069885 255.0 0.0 0.0
0.29756689071655273 0.15329942107200623 -0.12958800792694092 255.0 0.0 0.0
-0.24946898221969604 0.24591144919395447 -0.32754260301589966 255.0 0.0 0.0
-0.26074835658073425 0.11349891126155853 0.15859930217266083 255.0 0.0 0.0
-0.2702478766441345 -0.12772274017333984 -0.11381395161151886 255.0 0.0 0.0
-0.2334199696779251 0.1271853893995285 0.15468384325504303 255.0 0.0 0.0
-0.03146761283278465 0.25904715061187744 -0.2496616691350937 255.0 0.0 0.0
-0.20922696590423584 -0.42175179719924927 0.15645304322242737 255.0 0.0 0.0
-0.09151388704776764 0.22787132859230042 -0.12430728226900101 255.0 0.0 0.0
-0.1999898999929428 0.1657320111989975 0.1617502123117447 255.0 0.0 0.0
0.2854762375354767 0.22698624432086945 -0.13269031047821045 255.0 0.0 0.0
-0.053771086037158966 -0.1852456033229828 0.15843383967876434 255.0 0.0 0.0
0.06273946911096573 0.15957064926624298 -0.14592967927455902 255.0 0.0 0.0
-0.2713048756122589 0.17767514288425446 -0.1282421052455902 255.0 0.0 0.0
0.26625144481658936 -0.40236473083496094 -0.07373841106891632 255.0 0.0 0.0
-0.25256815552711487 -0.31198257207870483 -0.06526956707239151 255.0 0.0 0.0
-0.18512952327728271 0.23387280106544495 0.04292254522442818 255.0 0.0 0.0
0.27964991331100464 0.35598427057266235 -0.06488998234272003 255.0 0.0 0.0
-0.19417910277843475 0.4066910743713379 0.08697035163640976 255.0 0.0 0.0
0.23376506567001343 -0.3431703746318817 -0.08890869468450546 255.0 0.0 0.0
-0.11685894429683685 0.16492962837219238 0.16011454164981842 255.0 0.0 0.0
-0.25720950961112976 0.0921032652258873 -0.3017185628414154 255.0 0.0 0.0
-0.25456684827804565 0.04877184331417084 -0.25597673654556274 255.0 0.0 0.0
0.1545146256685257 -0.4001040458679199 0.16154241561889648 255.0 0.0 0.0
-0.27069950103759766 -0.14989914000034332 0.15566562116146088 255.0 0.0 0.0
0.2778562903404236 0.14969879388809204 0.15629248321056366 255.0 0.0 0.0
0.12396738678216934 -0.2497989386320114 0.14307235181331635 255.0 0.0 0.0
-0.1889805942773819 0.3191227614879608 0.03960326313972473 255.0 0.0 0.0
-0.03212999552488327 0.18442241847515106 -0.16041076183319092 255.0 0.0 0.0
0.197442427277565 0.37777259945869446 0.11375386267900467 255.0 0.0 0.0
-0.12079451233148575 0.32563650608062744 -0.3104248344898224 255.0 0.0 0.0
-0.16800932586193085 0.4356120228767395 0.10583901405334473 255.0 0.0 0.0
0.2571641206741333 0.2800610661506653 0.0390857569873333 255.0 0.0 0.0
-0.2412487119436264 0.48029860854148865 -0.02709098346531391 255.0 0.0 0.0
-0.2207084447145462 0.27356845140457153 -0.019606299698352814 255.0 0.0 0.0
0.28032901883125305 0.35267966985702515 -0.05670086294412613 255.0 0.0 0.0
-0.03683048114180565 0.1509649157524109 -0.19830872118473053 255.0 0.0 0.0
-0.1912207305431366 0.37621381878852844 -0.0725182518362999 255.0 0.0 0.0
-0.23543252050876617 0.4527130126953125 -0.07042445987462997 255.0 0.0 0.0
-0.23615248501300812 -0.26125743985176086 0.002719401614740491 255.0 0.0 0.0
-0.255748450756073 0.0669417604804039 -0.29932063817977905 255.0 0.0 0.0
0.12201818078756332 0.22917711734771729 -0.1264103800058365 255.0 0.0 0.0
0.2358231544494629 0.3630441427230835 0.12342678755521774 255.0 0.0 0.0
-0.16893908381462097 0.3425264358520508 -0.023334283381700516 255.0 0.0 0.0
0.2105669528245926 0.46977317333221436 0.10495408624410629 255.0 0.0 0.0
0.275911808013916 -0.44492971897125244 0.08618216961622238 255.0 0.0 0.0
-0.26238057017326355 -0.0368746779859066 -0.22084465622901917 255.0 0.0 0.0
0.033279333263635635 -0.2345542460680008 0.1552819311618805 255.0 0.0 0.0
0.2917643189430237 -0.14760999381542206 -0.13506805896759033 255.0 0.0 0.0
0.19820359349250793 0.33135661482810974 0.05227680131793022 255.0 0.0 0.0
-0.1807602345943451 0.3193093240261078 0.025558151304721832 255.0 0.0 0.0
0.02173597924411297 -0.18539243936538696 0.16311407089233398 255.0 0.0 0.0
-0.18433146178722382 0.31727832555770874 -0.3398914039134979 255.0 0.0 0.0
0.2498747706413269 0.47757411003112793 -0.0733586922287941 255.0 0.0 0.0
0.2860449254512787 0.36478912830352783 -0.054858479648828506 255.0 0.0 0.0
-0.27326735854148865 0.057057883590459824 0.1483164280653 255.0 0.0 0.0
0.09907419234514236 0.1717882752418518 0.15021392703056335 255.0 0.0 0.0
0.03997139260172844 0.10299764573574066 -0.15001890063285828 255.0 0.0 0.0
-0.22746741771697998 -0.0051515549421310425 0.15272942185401917 255.0 0.0 0.0
-0.08494684100151062 0.21572060883045197 0.1593586653470993 255.0 0.0 0.0
-0.16358189284801483 0.33794814348220825 -0.33836469054222107 255.0 0.0 0.0
0.2557947635650635 -0.2977083623409271 0.08273830264806747 255.0 0.0 0.0
0.21514955163002014 0.5129209160804749 0.04380592331290245 255.0 0.0 0.0
0.18387062847614288 -0.24993771314620972 -0.0405622273683548 255.0 0.0 0.0
0.008536549285054207 0.20337063074111938 -0.1341223120689392 255.0 0.0 0.0
0.22022652626037598 -0.24770233035087585 -0.1315317153930664 255.0 0.0 0.0
0.2875320017337799 -0.038235221058130264 -0.13609051704406738 255.0 0.0 0.0
-0.218764528632164 -0.23665501177310944 -0.13756729662418365 255.0 0.0 0.0
-0.26929670572280884 0.2175326645374298 0.10983997583389282 255.0 0.0 0.0
0.03467639163136482 0.15392135083675385 0.1712033599615097 255.0 0.0 0.0
0.28099218010902405 -0.2252340316772461 -0.13506805896759033 255.0 0.0 0.0
0.29766884446144104 -0.122782401740551 -0.12388356029987335 255.0 0.0 0.0
-0.22439201176166534 0.28803834319114685 -0.36197298765182495 255.0 0.0 0.0
-0.23708997666835785 0.46440526843070984 0.10639043897390366 255.0 0.0 0.0
-0.034354232251644135 0.2791251242160797 -0.2761717140674591 255.0 0.0 0.0
0.29740384221076965 0.2127104103565216 0.14592677354812622 255.0 0.0 0.0
0.06940166652202606 -0.19960375130176544 0.1548442393541336 255.0 0.0 0.0
0.14542709290981293 0.23224718868732452 -0.1299096643924713 255.0 0.0 0.0
-0.2627423107624054 0.1853749305009842 -0.3089691698551178 255.0 0.0 0.0
0.11346341669559479 0.2269105762243271 -0.1265725940465927 255.0 0.0 0.0
-0.20274275541305542 0.3134384751319885 -0.3610977530479431 255.0 0.0 0.0
-0.2538120746612549 -0.25091055035591125 -0.017161650583148003 255.0 0.0 0.0
-0.2512555718421936 0.4836696982383728 0.08677270263433456 255.0 0.0 0.0
0.23095081746578217 0.3714880049228668 0.1137121245265007 255.0 0.0 0.0
-0.26573899388313293 0.22630752623081207 -0.09703964740037918 255.0 0.0 0.0
0.2896525263786316 -0.17260000109672546 -0.1358170211315155 255.0 0.0 0.0
0.2972581684589386 -0.2421177327632904 -0.048190850764513016 255.0 0.0 0.0
0.2508451044559479 -0.06834843009710312 0.15425726771354675 255.0 0.0 0.0
-0.26786670088768005 0.20452216267585754 -0.35135990381240845 255.0 0.0 0.0
0.20936428010463715 -0.25302183628082275 -0.046821229159832 255.0 0.0 0.0
0.2346544861793518 0.30353406071662903 0.0475785993039608 255.0 0.0 0.0
-0.024074919521808624 0.11059357225894928 -0.16471773386001587 255.0 0.0 0.0
0.23519401252269745 -0.4404888451099396 -0.09062637388706207 255.0 0.0 0.0
-0.2527495324611664 -0.3724265992641449 0.1962098777294159 255.0 0.0 0.0
-0.1444464474916458 -0.24811680614948273 -0.1231159195303917 255.0 0.0 0.0
0.19361627101898193 0.3512098789215088 0.08689969778060913 255.0 0.0 0.0
0.24442936480045319 -0.12394284456968307 0.1661253422498703 255.0 0.0 0.0
-0.022753974422812462 0.11393900215625763 -0.1916138380765915 255.0 0.0 0.0
-0.24693726003170013 0.40260711312294006 0.11422129720449448 255.0 0.0 0.0
-0.27065086364746094 0.10653608292341232 0.15260738134384155 255.0 0.0 0.0
0.24432110786437988 -0.13533276319503784 0.16534410417079926 255.0 0.0 0.0
0.21236348152160645 0.3737184703350067 -0.08196324110031128 255.0 0.0 0.0
-0.26111945509910583 -0.012672747485339642 0.15828070044517517 255.0 0.0 0.0
0.13835902512073517 -0.42977917194366455 0.05516846477985382 255.0 0.0 0.0
-0.2609085738658905 0.13169759511947632 -0.32065439224243164 255.0 0.0 0.0
-0.24978090822696686 0.26750603318214417 -0.36357301473617554 255.0 0.0 0.0
0.19798099994659424 0.47935712337493896 0.10876316577196121 255.0 0.0 0.0
0.09251227229833603 -0.19056659936904907 0.15548859536647797 255.0 0.0 0.0
0.29614657163619995 0.2207653969526291 -0.09122613072395325 255.0 0.0 0.0
-0.2274073362350464 0.019102543592453003 0.1521613448858261 255.0 0.0 0.0
0.2936936616897583 0.10243993252515793 -0.13813668489456177 255.0 0.0 0.0
-0.11611242592334747 0.23053671419620514 -0.12426837533712387 255.0 0.0 0.0
-0.2764447331428528 0.050162799656391144 -0.2439129501581192 255.0 0.0 0.0
-0.005751923657953739 0.18503141403198242 -0.2260524332523346 255.0 0.0 0.0
0.03344467282295227 -0.24796324968338013 0.15337100625038147 255.0 0.0 0.0
-0.23223495483398438 0.37134820222854614 -0.07212191075086594 255.0 0.0 0.0
-0.2532920837402344 -0.477836936712265 -0.027236333116889 255.0 0.0 0.0
0.29273226857185364 0.0712374672293663 0.15512007474899292 255.0 0.0 0.0
0.015441818162798882 -0.19640210270881653 0.1508878916501999 255.0 0.0 0.0
0.29722949862480164 -0.11344800144433975 0.147502601146698 255.0 0.0 0.0
-0.24740594625473022 0.24766093492507935 0.0024836331140249968 255.0 0.0 0.0
0.29589876532554626 -0.010969224385917187 -0.13494296371936798 255.0 0.0 0.0
-0.1448623239994049 -0.24309703707695007 0.15632209181785583 255.0 0.0 0.0
0.16528058052062988 -0.25145089626312256 0.027904188260436058 255.0 0.0 0.0
-0.05200273171067238 0.3168339133262634 -0.3142125606536865 255.0 0.0 0.0
0.00015796622028574347 0.1829574555158615 -0.13506805896759033 255.0 0.0 0.0
0.21949341893196106 -0.25662457942962646 0.07013958692550659 255.0 0.0 0.0
0.2995530366897583 0.032366666942834854 -0.12048080563545227 255.0 0.0 0.0
0.25897297263145447 0.1143048107624054 0.1590719074010849 255.0 0.0 0.0
0.06298713386058807 0.13021831214427948 -0.15240007638931274 255.0 0.0 0.0
0.2389708012342453 -0.2781912088394165 -0.05269734561443329 255.0 0.0 0.0
-0.2215118706226349 0.3974040150642395 -0.08169428259134293 255.0 0.0 0.0
0.21770478785037994 0.5085199475288391 0.10297127813100815 255.0 0.0 0.0
0.2670169472694397 0.33888956904411316 -0.05855181813240051 255.0 0.0 0.0
0.0005091035272926092 0.19694532454013824 -0.1345418244600296 255.0 0.0 0.0
-0.2707524597644806 -0.23641598224639893 0.05888371169567108 255.0 0.0 0.0
-0.17516157031059265 0.37098070979118347 0.10173891484737396 255.0 0.0 0.0
0.29399940371513367 0.21598930656909943 -0.07722201198339462 255.0 0.0 0.0
-0.18652886152267456 0.2995029389858246 0.02615274302661419 255.0 0.0 0.0
-0.20474481582641602 -0.09298968315124512 0.16933220624923706 255.0 0.0 0.0
-0.018950190395116806 0.2120857685804367 0.15632209181785583 255.0 0.0 0.0
0.25080376863479614 0.14559459686279297 0.15433384478092194 255.0 0.0 0.0
0.22729994356632233 0.22527864575386047 0.15617233514785767 255.0 0.0 0.0
-0.028328780084848404 0.09514152258634567 -0.13506805896759033 255.0 0.0 0.0
-0.26666751503944397 -0.01238639559596777 -0.13596461713314056 255.0 0.0 0.0
-0.26255854964256287 0.22918376326560974 -0.014557686634361744 255.0 0.0 0.0
0.10511492937803268 0.18138457834720612 0.15562675893306732 255.0 0.0 0.0
0.05033968761563301 0.2384440004825592 -0.21492072939872742 255.0 0.0 0.0
-0.21989887952804565 -0.2990948557853699 -0.06943820416927338 255.0 0.0 0.0
0.2972581684589386 -0.24333655834197998 0.10442794859409332 255.0 0.0 0.0
0.23994183540344238 -0.30380159616470337 -0.0723104253411293 255.0 0.0 0.0
-0.2402174323797226 -0.45654523372650146 0.09905650466680527 255.0 0.0 0.0
0.2796119451522827 0.14280499517917633 0.1563034951686859 255.0 0.0 0.0
0.2963780462741852 0.11158830672502518 0.14087052643299103 255.0 0.0 0.0
0.21478885412216187 0.26163771748542786 -0.008247336372733116 255.0 0.0 0.0
0.16081756353378296 -0.44517695903778076 0.16397914290428162 255.0 0.0 0.0
-0.17539627850055695 0.32796719670295715 -0.3279775381088257 255.0 0.0 0.0
-0.20099188387393951 0.31957754492759705 -0.025876589119434357 255.0 0.0 0.0
-0.27073290944099426 -0.06726503372192383 -0.12212073057889938 255.0 0.0 0.0
0.04161914065480232 0.25357064604759216 -0.23270545899868011 255.0 0.0 0.0
0.26401352882385254 0.03267380967736244 0.1568804681301117 255.0 0.0 0.0
-0.23005305230617523 -0.4010743200778961 0.19343052804470062 255.0 0.0 0.0
0.214063361287117 0.48896780610084534 -0.05154426023364067 255.0 0.0 0.0
-0.2834237217903137 0.166800856590271 -0.32630908489227295 255.0 0.0 0.0
-0.27559298276901245 0.220156729221344 -0.3152879476547241 255.0 0.0 0.0
-0.329495906829834 -0.35024797916412354 0.18759305775165558 255.0 0.0 0.0
0.2397177815437317 -0.25136274099349976 0.07958489656448364 255.0 0.0 0.0
0.24429912865161896 0.29983365535736084 0.046141013503074646 255.0 0.0 0.0
-0.028647439554333687 0.1828075498342514 -0.157217875123024 255.0 0.0 0.0
-0.20788787305355072 0.21212832629680634 0.15632209181785583 255.0 0.0 0.0
-0.32307910919189453 -0.3455650806427002 0.19421200454235077 255.0 0.0 0.0
-0.0205637626349926 0.26908648014068604 -0.270221084356308 255.0 0.0 0.0
-0.1983795017004013 0.34720802307128906 -0.05825570598244667 255.0 0.0 0.0
0.21060678362846375 0.4416884481906891 -0.08106905221939087 255.0 0.0 0.0
0.2447565495967865 -0.4467507600784302 0.1878139227628708 255.0 0.0 0.0
-0.2146105170249939 -0.4256792366504669 0.1698824167251587 255.0 0.0 0.0
-0.18206007778644562 0.23950624465942383 -0.015293107368052006 255.0 0.0 0.0
0.2900488078594208 -0.22491970658302307 0.1625925898551941 255.0 0.0 0.0
-0.24375569820404053 0.23901407420635223 0.03625654801726341 255.0 0.0 0.0
0.18047936260700226 -0.2553143799304962 -0.022776901721954346 255.0 0.0 0.0
0.19946527481079102 0.22753837704658508 0.01946793496608734 255.0 0.0 0.0
0.29864275455474854 0.12366030365228653 0.14113256335258484 255.0 0.0 0.0
0.25115033984184265 0.2986305058002472 -0.023845624178647995 255.0 0.0 0.0
0.09013756364583969 -0.2488580346107483 0.15043798089027405 255.0 0.0 0.0
-0.24457475543022156 -0.1775791347026825 0.15307842195034027 255.0 0.0 0.0
-0.22669389843940735 -0.10332520306110382 0.15000171959400177 255.0 0.0 0.0
-0.007562779355794191 0.10375319421291351 -0.18392163515090942 255.0 0.0 0.0
-0.020200449973344803 0.21096831560134888 -0.2312111258506775 255.0 0.0 0.0
-0.09623714536428452 0.18218575417995453 0.15536652505397797 255.0 0.0 0.0
-0.26961156725883484 0.031161649152636528 -0.1338641345500946 255.0 0.0 0.0
-0.2587037980556488 0.27585023641586304 -0.3574797809123993 255.0 0.0 0.0
-0.24379506707191467 0.40959182381629944 -0.07012465596199036 255.0 0.0 0.0
-0.27101272344589233 0.21173834800720215 -0.05001971498131752 255.0 0.0 0.0
-0.020801370963454247 0.28293395042419434 -0.23277856409549713 255.0 0.0 0.0
0.21744810044765472 0.230662003159523 0.04554835334420204 255.0 0.0 0.0
0.29053518176078796 -0.25045308470726013 0.05147147923707962 255.0 0.0 0.0
0.26078978180885315 -0.19161522388458252 0.15399804711341858 255.0 0.0 0.0
-0.20894396305084229 0.3114614188671112 -0.023817121982574463 255.0 0.0 0.0
0.2915268540382385 -0.43956080079078674 0.15341290831565857 255.0 0.0 0.0
-0.27049490809440613 -0.023251328617334366 -0.12509818375110626 255.0 0.0 0.0
-0.11644718796014786 0.21515107154846191 0.15574058890342712 255.0 0.0 0.0
-0.10843437910079956 0.2266388237476349 -0.13544178009033203 255.0 0.0 0.0
0.04515721648931503 0.10418731719255447 -0.1323031336069107 255.0 0.0 0.0
-0.2774847745895386 -0.30752885341644287 0.12481814622879028 255.0 0.0 0.0
0.023405905812978745 -0.2508184015750885 -0.11687479168176651 255.0 0.0 0.0
0.21661928296089172 0.25697559118270874 0.0341353565454483 255.0 0.0 0.0
-0.28799450397491455 -0.3152613341808319 0.1516098529100418 255.0 0.0 0.0
-0.1740802377462387 0.34474480152130127 0.06560416519641876 255.0 0.0 0.0
0.2021516114473343 0.31317824125289917 0.025475269183516502 255.0 0.0 0.0
0.24471570551395416 0.3097824156284332 -0.030394157394766808 255.0 0.0 0.0
0.2711065113544464 0.22709578275680542 0.03943438082933426 255.0 0.0 0.0
0.24642294645309448 -0.27953290939331055 -0.0553511418402195 255.0 0.0 0.0
0.1807267963886261 0.40119948983192444 0.10796426236629486 255.0 0.0 0.0
0.241062730550766 0.4394693374633789 -0.09107762575149536 255.0 0.0 0.0
0.07587861269712448 -0.18760737776756287 0.15989287197589874 255.0 0.0 0.0
0.262918084859848 -0.33865082263946533 -0.07196475565433502 255.0 0.0 0.0
-0.23763783276081085 -0.2556306719779968 -0.02041931077837944 255.0 0.0 0.0
0.18554912507534027 0.34773099422454834 0.05050746351480484 255.0 0.0 0.0
-0.23217765986919403 -0.40121209621429443 0.19470733404159546 255.0 0.0 0.0
0.23482470214366913 0.216728076338768 -0.13539709150791168 255.0 0.0 0.0
-0.2986180782318115 -0.3232179582118988 0.17709259688854218 255.0 0.0 0.0
-0.25680211186408997 0.1683085709810257 -0.3171277642250061 255.0 0.0 0.0
0.2553117871284485 -0.058839350938797 0.15137596428394318 255.0 0.0 0.0
-0.22203412652015686 0.48361295461654663 0.11029111593961716 255.0 0.0 0.0
0.242143914103508 0.2566280663013458 -0.01785748265683651 255.0 0.0 0.0
-0.10503405332565308 0.3217542767524719 -0.30616164207458496 255.0 0.0 0.0
-0.108635812997818 0.16989706456661224 0.15289033949375153 255.0 0.0 0.0
-0.3305482566356659 -0.36940523982048035 0.11480684578418732 255.0 0.0 0.0
0.16887354850769043 0.22794276475906372 0.14416715502738953 255.0 0.0 0.0
-0.30307525396347046 -0.3229805529117584 0.17356279492378235 255.0 0.0 0.0
0.20445650815963745 0.2321535348892212 -0.012530702166259289 255.0 0.0 0.0
0.1391330063343048 0.21518397331237793 0.15520647168159485 255.0 0.0 0.0
0.2934632897377014 0.21854180097579956 0.083854079246521 255.0 0.0 0.0
0.2634223997592926 0.4595383405685425 0.11284425109624863 255.0 0.0 0.0
-0.2364543378353119 -0.40618813037872314 0.20047901570796967 255.0 0.0 0.0
-0.25890111923217773 -0.41079336404800415 0.19959428906440735 255.0 0.0 0.0
-0.18906046450138092 -0.23706434667110443 -0.13724812865257263 255.0 0.0 0.0
0.28440535068511963 0.35316187143325806 -0.054100845009088516 255.0 0.0 0.0
-0.09338786453008652 0.315613329410553 -0.3063828647136688 255.0 0.0 0.0
0.2986006438732147 -0.24144364893436432 0.14323844015598297 255.0 0.0 0.0
-0.19463883340358734 -0.26999297738075256 -0.056739334017038345 255.0 0.0 0.0
0.2904665470123291 0.22899781167507172 -0.09456224739551544 255.0 0.0 0.0
-0.15418551862239838 0.3344007134437561 -0.3427205979824066 255.0 0.0 0.0
-0.22401531040668488 -0.4182926416397095 0.18139681220054626 255.0 0.0 0.0
0.2916618585586548 -0.18343812227249146 0.1582750380039215 255.0 0.0 0.0
-0.1929880678653717 0.33266681432724 -0.02996307797729969 255.0 0.0 0.0
-0.1908911168575287 -0.2636934816837311 0.07050418108701706 255.0 0.0 0.0
0.061394739896059036 -0.20599833130836487 0.15409539639949799 255.0 0.0 0.0
-0.3031545579433441 -0.4481809437274933 -0.06923078745603561 255.0 0.0 0.0
-0.18521465361118317 0.2877243459224701 -0.002577501814812422 255.0 0.0 0.0
-0.2051127552986145 -0.023201871663331985 0.17078492045402527 255.0 0.0 0.0
0.2625843584537506 -0.44245314598083496 -0.059845827519893646 255.0 0.0 0.0
-0.01187217514961958 0.26320597529411316 -0.27010518312454224 255.0 0.0 0.0
-0.24564266204833984 0.036333117634058 -0.2727896571159363 255.0 0.0 0.0
-0.01286161970347166 0.16393037140369415 -0.13506805896759033 255.0 0.0 0.0
-0.026547184213995934 0.17561955749988556 -0.1326676607131958 255.0 0.0 0.0
-0.1462024599313736 -0.25049373507499695 0.05634790286421776 255.0 0.0 0.0
0.2675314247608185 -0.41449591517448425 -0.07473848015069962 255.0 0.0 0.0
-0.1889415830373764 0.3478057086467743 -0.056671950966119766 255.0 0.0 0.0
0.2902545630931854 -0.2501612603664398 0.09483353048563004 255.0 0.0 0.0
0.12730532884597778 -0.2502565383911133 -0.13720795512199402 255.0 0.0 0.0
-0.2701532542705536 0.13248953223228455 -0.2883213460445404 255.0 0.0 0.0
-0.12820185720920563 -0.18975941836833954 0.15789014101028442 255.0 0.0 0.0
0.044878825545310974 0.17939187586307526 -0.13506805896759033 255.0 0.0 0.0
-0.08623942732810974 0.32214853167533875 -0.323165625333786 255.0 0.0 0.0
0.2660353481769562 -0.245718851685524 -0.1376587599515915 255.0 0.0 0.0
-0.021529246121644974 0.18804657459259033 -0.21967662870883942 255.0 0.0 0.0
-0.23995836079120636 0.329269140958786 0.0477013997733593 255.0 0.0 0.0
0.1569383591413498 -0.3378262519836426 0.08105669170618057 255.0 0.0 0.0
-0.18401406705379486 0.26196035742759705 0.026828398928046227 255.0 0.0 0.0
0.05971960723400116 0.13691598176956177 -0.13457192480564117 255.0 0.0 0.0
0.16869471967220306 -0.17344126105308533 0.17235606908798218 255.0 0.0 0.0
-0.2624419033527374 0.21979829668998718 0.1567094475030899 255.0 0.0 0.0
-0.18771903216838837 0.4451651871204376 0.08819082379341125 255.0 0.0 0.0
0.2495221346616745 -0.1765786111354828 0.15905997157096863 255.0 0.0 0.0
-0.274833083152771 -0.46590813994407654 -0.04619982838630676 255.0 0.0 0.0
-0.19849908351898193 -0.23882198333740234 0.15688839554786682 255.0 0.0 0.0
-0.27072373032569885 -0.05155060440301895 -0.12598399817943573 255.0 0.0 0.0
0.29527944326400757 0.006066258065402508 0.14886948466300964 255.0 0.0 0.0
-0.03386379033327103 0.27019378542900085 -0.25699347257614136 255.0 0.0 0.0
-0.24201424419879913 -0.3022741973400116 -0.0688430666923523 255.0 0.0 0.0
-0.17525814473628998 0.2381558120250702 -0.003625184064731002 255.0 0.0 0.0
0.20869113504886627 0.5050492286682129 0.09184151142835617 255.0 0.0 0.0
-0.2572002410888672 0.285442054271698 -0.35657206177711487 255.0 0.0 0.0
0.15123173594474792 -0.44611644744873047 0.1070001944899559 255.0 0.0 0.0
0.1826787292957306 0.42574191093444824 0.11217319965362549 255.0 0.0 0.0
-0.23170121014118195 0.2780757546424866 -0.33640754222869873 255.0 0.0 0.0
0.26807743310928345 0.4283657968044281 -0.08294225484132767 255.0 0.0 0.0
-0.2531937062740326 0.0795765295624733 -0.28099361062049866 255.0 0.0 0.0
-0.2204424887895584 0.33025869727134705 -0.0420670285820961 255.0 0.0 0.0
0.2918105721473694 -0.24991872906684875 -0.08615915477275848 255.0 0.0 0.0
-0.2815941870212555 0.2295585572719574 -0.3354441225528717 255.0 0.0 0.0
-0.2888953685760498 0.08484182506799698 -0.3007887005805969 255.0 0.0 0.0
0.09175652265548706 0.177223801612854 0.15012842416763306 255.0 0.0 0.0
0.15222713351249695 -0.3987100422382355 0.165923610329628 255.0 0.0 0.0
-0.259640634059906 0.12494122236967087 -0.13524726033210754 255.0 0.0 0.0
-0.25641077756881714 0.2100006490945816 -0.3262442350387573 255.0 0.0 0.0
0.2683391869068146 -0.4334537386894226 0.19994787871837616 255.0 0.0 0.0
-0.2707524597644806 -0.23872609436511993 0.041856974363327026 255.0 0.0 0.0
0.2953733503818512 0.11802656948566437 -0.12449173629283905 255.0 0.0 0.0
-0.21840456128120422 -0.09556052833795547 0.16524776816368103 255.0 0.0 0.0
0.15203024446964264 0.22815535962581635 -0.1331881880760193 255.0 0.0 0.0
-0.252531498670578 -0.08344761282205582 -0.270804762840271 255.0 0.0 0.0
-0.04351898655295372 0.2863081395626068 -0.2737272381782532 255.0 0.0 0.0
0.04239747300744057 0.1902325302362442 -0.217314213514328 255.0 0.0 0.0
0.2358626425266266 0.09387769550085068 0.1669820249080658 255.0 0.0 0.0
-0.16232459247112274 0.3189423382282257 -0.34084272384643555 255.0 0.0 0.0
-0.03901020437479019 0.15029549598693848 -0.1370931714773178 255.0 0.0 0.0
0.18778075277805328 -0.24970613420009613 -0.045155446976423264 255.0 0.0 0.0
-0.039961911737918854 0.18142110109329224 0.15434038639068604 255.0 0.0 0.0
0.25111469626426697 -0.25241172313690186 -0.023281864821910858 255.0 0.0 0.0
0.24094733595848083 -0.3063344955444336 -0.06541316211223602 255.0 0.0 0.0
-0.2770881950855255 -0.3071233928203583 0.11228419095277786 255.0 0.0 0.0
-0.256944864988327 0.10753324627876282 -0.12988406419754028 255.0 0.0 0.0
0.29345300793647766 -0.2501346170902252 -0.09189867973327637 255.0 0.0 0.0
-0.2085488885641098 0.08161722868680954 0.1705889254808426 255.0 0.0 0.0
0.29564258456230164 0.2115355134010315 -0.07887700200080872 255.0 0.0 0.0
-0.2563355267047882 0.18113397061824799 0.15632209181785583 255.0 0.0 0.0
-0.014966421760618687 0.23874850571155548 -0.1936877816915512 255.0 0.0 0.0
-0.18397465348243713 0.3293652832508087 0.03798920288681984 255.0 0.0 0.0
-0.17726430296897888 0.3224788010120392 0.02860098145902157 255.0 0.0 0.0
0.26715487241744995 -0.417338490486145 -0.07573331147432327 255.0 0.0 0.0
-0.23730260133743286 0.3473025858402252 -0.05736881121993065 255.0 0.0 0.0
-0.21846914291381836 -0.15951962769031525 0.16512472927570343 255.0 0.0 0.0
-0.17818045616149902 0.2273598164319992 -0.13104049861431122 255.0 0.0 0.0
-0.27755606174468994 -0.0580560564994812 -0.2242630124092102 255.0 0.0 0.0
-0.24567286670207977 -0.47180384397506714 -0.04089697450399399 255.0 0.0 0.0
0.25955796241760254 0.0137168662622571 0.14976073801517487 255.0 0.0 0.0
-0.24268320202827454 0.2596321105957031 -0.00029939968953840435 255.0 0.0 0.0
0.1931844800710678 0.49183255434036255 0.05416799336671829 255.0 0.0 0.0
-0.0726475641131401 0.2312871813774109 -0.12951338291168213 255.0 0.0 0.0
-0.323193222284317 -0.3384093940258026 0.18127842247486115 255.0 0.0 0.0
-0.20345795154571533 0.2503025233745575 -0.02741539292037487 255.0 0.0 0.0
0.25929784774780273 -0.3817785084247589 0.1789076328277588 255.0 0.0 0.0
0.13811391592025757 -0.43859562277793884 0.11139881610870361 255.0 0.0 0.0
-0.22816266119480133 -0.0012382903369143605 0.1589222401380539 255.0 0.0 0.0
-0.23459912836551666 0.34124496579170227 -0.05120934173464775 255.0 0.0 0.0
-0.2734403908252716 -0.019618399441242218 0.15393805503845215 255.0 0.0 0.0
0.2633572816848755 0.2633802890777588 0.02855551801621914 255.0 0.0 0.0
-0.17790380120277405 0.24873429536819458 0.002674948889762163 255.0 0.0 0.0
0.08013556152582169 -0.24974751472473145 -0.11723076552152634 255.0 0.0 0.0
-0.24204577505588531 -0.31006118655204773 0.1097334697842598 255.0 0.0 0.0
0.22059734165668488 -0.34344956278800964 -0.0835946574807167 255.0 0.0 0.0
0.20960119366645813 0.4208582937717438 -0.08441806584596634 255.0 0.0 0.0
-0.18229512870311737 -0.1695074588060379 0.17152366042137146 255.0 0.0 0.0
0.25235968828201294 0.23702988028526306 0.05181967094540596 255.0 0.0 0.0
0.2352738380432129 0.30738401412963867 -0.028801407665014267 255.0 0.0 0.0
0.07120859622955322 0.2205706089735031 -0.13775044679641724 255.0 0.0 0.0
-0.2546333968639374 -0.09443340450525284 -0.2583812475204468 255.0 0.0 0.0
-0.2604086399078369 0.3887394964694977 0.1086711585521698 255.0 0.0 0.0
-0.24168182909488678 0.25944986939430237 0.01229332759976387 255.0 0.0 0.0
-0.20400914549827576 0.3452127277851105 -0.0625460222363472 255.0 0.0 0.0
-0.23147696256637573 -0.2501331865787506 -0.125506192445755 255.0 0.0 0.0
-0.26368582248687744 -0.204121395945549 -0.1321876347064972 255.0 0.0 0.0
-0.22490622103214264 -0.24571242928504944 0.15522940456867218 255.0 0.0 0.0
-0.1250736117362976 -0.24590422213077545 0.15764951705932617 255.0 0.0 0.0
0.2866227626800537 0.13291244208812714 -0.13435886800289154 255.0 0.0 0.0
0.11393309384584427 0.17160029709339142 0.15416394174098969 255.0 0.0 0.0
-0.2410925030708313 0.3284197449684143 -0.02346489578485489 255.0 0.0 0.0
0.23974023759365082 0.34943103790283203 0.12048061192035675 255.0 0.0 0.0
0.19013266265392303 0.2161596566438675 -0.13506805896759033 255.0 0.0 0.0
0.06935672461986542 0.16044579446315765 0.16397686302661896 255.0 0.0 0.0
0.036017708480358124 0.17455312609672546 0.15305855870246887 255.0 0.0 0.0
-0.22082647681236267 -0.4429667592048645 0.15821325778961182 255.0 0.0 0.0
-0.2656034231185913 0.1881178617477417 0.1558111608028412 255.0 0.0 0.0
-0.08081413060426712 -0.19745191931724548 0.15189802646636963 255.0 0.0 0.0
-0.26513388752937317 0.22629238665103912 0.04204913228750229 255.0 0.0 0.0
-0.04483630508184433 -0.24766580760478973 0.14503063261508942 255.0 0.0 0.0
-0.22643226385116577 -0.018634933978319168 0.15527552366256714 255.0 0.0 0.0
0.2523927390575409 0.3233380615711212 -0.038550157099962234 255.0 0.0 0.0
0.16718155145645142 -0.24171675741672516 0.15488117933273315 255.0 0.0 0.0
0.29723232984542847 0.10139922052621841 -0.12519514560699463 255.0 0.0 0.0
0.16187037527561188 0.2165316492319107 0.15632209181785583 255.0 0.0 0.0
-0.2633829414844513 -0.07188277691602707 0.1577978879213333 255.0 0.0 0.0
0.2681482136249542 0.48230215907096863 0.12853750586509705 255.0 0.0 0.0
-0.33244627714157104 -0.3821893632411957 -0.007783764973282814 255.0 0.0 0.0
0.18870148062705994 -0.25180864334106445 -0.04323496297001839 255.0 0.0 0.0
0.22000974416732788 -0.42062851786613464 -0.08907927572727203 255.0 0.0 0.0
0.2891392111778259 -0.42875561118125916 0.1408572643995285 255.0 0.0 0.0
0.03291784226894379 -0.17600440979003906 0.16919846832752228 255.0 0.0 0.0
0.2817023694515228 0.34412360191345215 0.08717366307973862 255.0 0.0 0.0
-0.2532379627227783 0.013458337634801865 -0.2398887574672699 255.0 0.0 0.0
-0.2181967943906784 -0.2551015019416809 0.06771919876337051 255.0 0.0 0.0
-0.2165755033493042 0.3614088296890259 0.11356627196073532 255.0 0.0 0.0
-0.25471922755241394 0.07693183422088623 -0.13411997258663177 255.0 0.0 0.0
-0.16769614815711975 0.35138827562332153 0.06699128448963165 255.0 0.0 0.0
0.23499776422977448 0.3162446916103363 0.055682748556137085 255.0 0.0 0.0
0.14326830208301544 -0.20148661732673645 0.15402783453464508 255.0 0.0 0.0
0.16634956002235413 -0.41779518127441406 0.1869153380393982 255.0 0.0 0.0
-0.24424190819263458 -0.3424321115016937 -0.09157957136631012 255.0 0.0 0.0
