-0.18902312219142914 0.31512555480003357 -0.3594546616077423 255.0 0.0 0.0
-0.21781809628009796 0.2277037352323532 0.14881354570388794 255.0 0.0 0.0
-0.20054735243320465 0.26525750756263733 0.040249377489089966 255.0 0.0 0.0
0.2971487045288086 -0.11089858412742615 0.15309765934944153 255.0 0.0 0.0
-0.25835084915161133 0.46818631887435913 0.09790375083684921 255.0 0.0 0.0
-0.23105987906455994 0.00792849250137806 0.15031950175762177 255.0 0.0 0.0
0.25100424885749817 -0.3243727385997772 0.10789281129837036 255.0 0.0 0.0
0.23250968754291534 -0.44122448563575745 0.2031855434179306 255.0 0.0 0.0
-0.22662924230098724 0.3201485574245453 -0.3504337668418884 255.0 0.0 0.0
-0.22125297784805298 0.4891257584095001 -0.03973079100251198 255.0 0.0 0.0
-0.25477465987205505 -0.40152567625045776 0.20674237608909607 255.0 0.0 0.0
-0.27599698305130005 -0.4495837092399597 -0.07663537561893463 255.0 0.0 0.0
-0.270567387342453 0.1120288148522377 -0.13318201899528503 255.0 0.0 0.0
-0.2718043029308319 -0.2515068054199219 0.05288314446806908 255.0 0.0 0.0
0.28230658173561096 -0.44168293476104736 0.08456063270568848 255.0 0.0 0.0
0.16646882891654968 -0.25150007009506226 0.02880910597741604 255.0 0.0 0.0
-0.2878640592098236 -0.31315988302230835 0.14106182754039764 255.0 0.0 0.0
0.06351408362388611 0.1839303821325302 -0.18035443127155304 255.0 0.0 0.0
-0.10107455402612686 0.15322108566761017 0.17015138268470764 255.0 0.0 0.0
-0.05582435429096222 -0.2395532727241516 0.15623971819877625 255.0 0.0 0.0
-0.26210135221481323 0.08525509387254715 -0.2715517282485962 255.0 0.0 0.0
-0.15243473649024963 -0.18115825951099396 0.16926124691963196 255.0 0.0 0.0
0.07003442198038101 -0.2497992068529129 0.14364081621170044 255.0 0.0 0.0
-0.09834908694028854 0.16582179069519043 0.1577194184064865 255.0 0.0 0.0
0.24637635052204132 -0.19146043062210083 0.15711557865142822 255.0 0.0 0.0
0.05011964589357376 0.18091778457164764 -0.1392216980457306 255.0 0.0 0.0
-0.22144447267055511 -0.14805270731449127 0.15969331562519073 255.0 0.0 0.0
-0.2522786557674408 -0.3671506643295288 -0.09515807032585144 255.0 0.0 0.0
0.23862513899803162 -0.12295197695493698 0.1680833399295807 255.0 0.0 0.0
0.1541506052017212 -0.44531068205833435 0.14562582969665527 255.0 0.0 0.0
-0.02184968627989292 0.24620476365089417 -0.24860207736492157 255.0 0.0 0.0
-0.07547733187675476 -0.18575559556484222 0.1675712764263153 255.0 0.0 0.0
0.3003668189048767 0.21351231634616852 0.04915380850434303 255.0 0.0 0.0
-0.0821407288312912 0.3239207863807678 -0.3209287226200104 255.0 0.0 0.0
-0.27071884274482727 -0.15629902482032776 -0.12780936062335968 255.0 0.0 0.0
0.053373247385025024 0.13351638615131378 -0.19679729640483856 255.0 0.0 0.0
0.05443509668111801 0.11064557731151581 -0.13747864961624146 255.0 0.0 0.0
-0.284690797328949 -0.40431496500968933 -0.09384375065565109 255.0 0.0 0.0
-0.26448822021484375 0.22423283755779266 -0.13564065098762512 255.0 0.0 0.0
-0.17291352152824402 -0.25130313634872437 -0.12042846530675888 255.0 0.0 0.0
-0.04643097147345543 0.3052588403224945 -0.30936339497566223 255.0 0.0 0.0
0.2503221929073334 0.4766313135623932 0.10970254242420197 255.0 0.0 0.0
-0.06749561429023743 0.3284928798675537 -0.29779574275016785 255.0 0.0 0.0
-0.2100696712732315 0.30283012986183167 0.04453102499246597 255.0 0.0 0.0
0.0006078562000766397 0.19580312073230743 -0.14618460834026337 255.0 0.0 0.0
0.043922845274209976 0.0965631827712059 -0.13655956089496613 255.0 0.0 0.0
-0.33826544880867004 -0.34776559472084045 0.1474888026714325 255.0 0.0 0.0
0.24568992853164673 -0.13303504884243011 0.16380803287029266 255.0 0.0 0.0
-0.034354232251644135 0.2791251242160797 -0.2761717140674591 255.0 0.0 0.0
-0.25873953104019165 0.05481699854135513 -0.2526511251926422 255.0 0.0 0.0
-0.1414337456226349 0.15582764148712158 0.16529063880443573 255.0 0.0 0.0
-0.2732160687446594 0.272301584482193 -0.35081717371940613 255.0 0.0 0.0
-0.21995799243450165 -0.42049235105514526 0.17625883221626282 255.0 0.0 0.0
0.21033605933189392 0.28433138132095337 0.01938408613204956 255.0 0.0 0.0
-0.2959103584289551 -0.3826747238636017 -0.084050253033638 255.0 0.0 0.0
-0.2613910734653473 0.26472657918930054 -0.32400575280189514 255.0 0.0 0.0
-0.2137848138809204 0.2668641209602356 -0.016268929466605186 255.0 0.0 0.0
0.023189319297671318 0.14790242910385132 0.16932013630867004 255.0 0.0 0.0
0.22884158790111542 -0.24875856935977936 -0.1267678588628769 255.0 0.0 0.0
0.22343000769615173 -0.24691833555698395 0.15402035415172577 255.0 0.0 0.0
0.007061310578137636 0.22991465032100677 -0.11842532455921173 255.0 0.0 0.0
-0.20677772164344788 -0.3047941327095032 0.0817115530371666 255.0 0.0 0.0
0.21825268864631653 0.3656768500804901 -0.08004114776849747 255.0 0.0 0.0
-0.2692660689353943 -0.13682866096496582 0.14951564371585846 255.0 0.0 0.0
-0.23886603116989136 -0.4244265556335449 0.19261834025382996 255.0 0.0 0.0
-0.012981485575437546 0.19862677156925201 -0.13513681292533875 255.0 0.0 0.0
0.2403004765510559 0.16972386837005615 0.15007148683071136 255.0 0.0 0.0
-0.20354542136192322 -0.4173436760902405 0.12258083373308182 255.0 0.0 0.0
-0.16712258756160736 0.37281161546707153 0.08708213269710541 255.0 0.0 0.0
-0.019648104906082153 0.19955924153327942 -0.1625683307647705 255.0 0.0 0.0
0.24485047161579132 0.5150821208953857 0.009297245182096958 255.0 0.0 0.0
-0.2722263038158417 0.10318908840417862 -0.13432027399539948 255.0 0.0 0.0
0.2508944272994995 -0.2542631924152374 0.04521481692790985 255.0 0.0 0.0
0.15638354420661926 -0.44501322507858276 0.1665126085281372 255.0 0.0 0.0
-0.2706609070301056 0.13443902134895325 -0.28761154413223267 255.0 0.0 0.0
-0.26441770792007446 -0.25081077218055725 -0.07875686883926392 255.0 0.0 0.0
-0.2707260251045227 -0.026195436716079712 -0.12512212991714478 255.0 0.0 0.0
0.2979036271572113 0.22697994112968445 0.10988178849220276 255.0 0.0 0.0
-0.19620385766029358 0.3707776963710785 0.11165264248847961 255.0 0.0 0.0
-0.22329087555408478 0.2707212567329407 -0.01885935105383396 255.0 0.0 0.0
-0.23223495483398438 0.37134820222854614 -0.07212191075086594 255.0 0.0 0.0
-0.07447871565818787 0.33164000511169434 -0.3046552538871765 255.0 0.0 0.0
-0.2165755033493042 0.3614088296890259 0.11356627196073532 255.0 0.0 0.0
-0.17836521565914154 0.2528523802757263 0.02612391486763954 255.0 0.0 0.0
0.2972581684589386 0.21612784266471863 0.04990057274699211 255.0 0.0 0.0
0.262918084859848 -0.33865082263946533 -0.07196475565433502 255.0 0.0 0.0
-0.27344098687171936 0.23336416482925415 -0.3507844805717468 255.0 0.0 0.0
-0.2583695650100708 -0.024581145495176315 -0.22512568533420563 255.0 0.0 0.0
-0.18893706798553467 -0.25037363171577454 -0.127415731549263 255.0 0.0 0.0
0.22059734165668488 -0.34344956278800964 -0.0835946574807167 255.0 0.0 0.0
0.0674087330698967 -0.24525098502635956 0.15602557361125946 255.0 0.0 0.0
-0.33357053995132446 -0.3738980293273926 0.10732580721378326 255.0 0.0 0.0
-0.26379483938217163 0.432210236787796 0.10098286718130112 255.0 0.0 0.0
0.07721191644668579 0.16389018297195435 0.15911246836185455 255.0 0.0 0.0
-0.18024416267871857 -0.25399285554885864 0.08452072739601135 255.0 0.0 0.0
-0.17703545093536377 0.3231283724308014 -0.0019952955190092325 255.0 0.0 0.0
0.030379600822925568 0.2714978754520416 -0.24924476444721222 255.0 0.0 0.0
-0.2841101288795471 -0.3157656788825989 0.1383955180644989 255.0 0.0 0.0
0.020580055192112923 0.09361241012811661 -0.13525806367397308 255.0 0.0 0.0
0.19072012603282928 0.35475537180900574 0.09199026226997375 255.0 0.0 0.0
-0.265223890542984 -0.24866656959056854 0.09525294601917267 255.0 0.0 0.0
0.29310157895088196 -0.2500525712966919 -0.07194014638662338 255.0 0.0 0.0
0.24217815697193146 -0.04847817122936249 0.1673997938632965 255.0 0.0 0.0
-0.2686871588230133 0.27474871277809143 -0.33428189158439636 255.0 0.0 0.0
-0.3222388029098511 -0.42872685194015503 -0.07196693867444992 255.0 0.0 0.0
0.2820665240287781 -0.43632611632347107 -0.011103427968919277 255.0 0.0 0.0
0.1589110940694809 -0.43313997983932495 -0.04360587149858475 255.0 0.0 0.0
0.2657766342163086 -0.24826321005821228 0.14869287610054016 255.0 0.0 0.0
-0.29210594296455383 -0.4480380713939667 -0.08328010886907578 255.0 0.0 0.0
-0.16853339970111847 -0.24703621864318848 0.15383891761302948 255.0 0.0 0.0
-0.3340466320514679 -0.378112256526947 0.08898907899856567 255.0 0.0 0.0
0.17580577731132507 -0.19847740232944489 0.15400943160057068 255.0 0.0 0.0
0.10619249939918518 0.2275417447090149 0.15121512115001678 255.0 0.0 0.0
-0.29966697096824646 -0.38929060101509094 -0.08079064637422562 255.0 0.0 0.0
-0.21407650411128998 -0.42509499192237854 0.16938671469688416 255.0 0.0 0.0
0.19929051399230957 0.37684470415115356 0.1192309707403183 255.0 0.0 0.0
0.11638806760311127 -0.1942947953939438 0.1527521312236786 255.0 0.0 0.0
0.018369976431131363 0.16206884384155273 0.16743899881839752 255.0 0.0 0.0
0.17088836431503296 -0.251364529132843 -0.02438162826001644 255.0 0.0 0.0
-0.31048133969306946 -0.3380538821220398 0.1935996562242508 255.0 0.0 0.0
0.22786886990070343 -0.2699297368526459 -0.05597371235489845 255.0 0.0 0.0
-0.26910996437072754 0.22681987285614014 -0.050034571439027786 255.0 0.0 0.0
0.22541360557079315 0.47385352849960327 -0.0688130110502243 255.0 0.0 0.0
-0.26630792021751404 0.19605541229248047 0.1552456170320511 255.0 0.0 0.0
0.09591720253229141 0.2290494441986084 -0.13817693293094635 255.0 0.0 0.0
-0.16291563212871552 -0.2495742291212082 0.1448737233877182 255.0 0.0 0.0
-0.23691870272159576 0.28528833389282227 -0.36340272426605225 255.0 0.0 0.0
-0.2952747046947479 -0.41600799560546875 -0.0908878743648529 255.0 0.0 0.0
0.11659427732229233 0.2164449840784073 0.15807226300239563 255.0 0.0 0.0
-0.18523366749286652 0.2734035551548004 0.008948080241680145 255.0 0.0 0.0
-0.09984585642814636 0.1538042575120926 0.1692969650030136 255.0 0.0 0.0
0.24139787256717682 0.056827694177627563 0.16940195858478546 255.0 0.0 0.0
0.2512209713459015 0.1097903922200203 0.1612796187400818 255.0 0.0 0.0
0.2973930835723877 0.05610287934541702 -0.12957395613193512 255.0 0.0 0.0
0.21921350061893463 0.33501511812210083 -0.06290322542190552 255.0 0.0 0.0
0.2972526550292969 -0.2281578928232193 -0.11504732817411423 255.0 0.0 0.0
0.25061511993408203 -0.04348473250865936 0.1539890170097351 255.0 0.0 0.0
0.27593398094177246 0.4340927004814148 -0.0757601335644722 255.0 0.0 0.0
-0.27040040493011475 0.21430625021457672 0.0004616952210199088 255.0 0.0 0.0
0.2760505676269531 0.4295683205127716 0.1174207478761673 255.0 0.0 0.0
0.06102728471159935 0.12188722938299179 -0.13506805896759033 255.0 0.0 0.0
-0.22117112576961517 -0.2986255884170532 -0.07261795550584793 255.0 0.0 0.0
0.02890775538980961 0.22782911360263824 0.1480991393327713 255.0 0.0 0.0
0.296509712934494 0.21523037552833557 0.01726350374519825 255.0 0.0 0.0
-0.26126840710639954 0.11896322667598724 -0.3188686966896057 255.0 0.0 0.0
-0.30382588505744934 -0.31606289744377136 0.1411295235157013 255.0 0.0 0.0
0.07279814779758453 -0.25016242265701294 0.14155593514442444 255.0 0.0 0.0
-0.2742103338241577 0.09163551032543182 0.13730968534946442 255.0 0.0 0.0
-0.2421083003282547 0.28596365451812744 0.010427435860037804 255.0 0.0 0.0
-0.3315354585647583 -0.34080585837364197 0.15214551985263824 255.0 0.0 0.0
0.2578808665275574 -0.43404629826545715 -0.08345331251621246 255.0 0.0 0.0
-0.21707995235919952 -0.28732210397720337 -0.06659173965454102 255.0 0.0 0.0
0.284161776304245 -0.2501532733440399 -0.07134884595870972 255.0 0.0 0.0
-0.1875952184200287 0.3064604103565216 -0.010067101567983627 255.0 0.0 0.0
-0.0226284172385931 0.1101168692111969 -0.17460834980010986 255.0 0.0 0.0
0.19169777631759644 -0.23934699594974518 -0.13876347243785858 255.0 0.0 0.0
0.16377760469913483 -0.43329280614852905 0.18519409000873566 255.0 0.0 0.0
-0.25687602162361145 0.34922853112220764 -0.03022020123898983 255.0 0.0 0.0
-0.3323672413825989 -0.4051602780818939 -0.005116107873618603 255.0 0.0 0.0
0.2737559378147125 0.4073328673839569 0.11744264513254166 255.0 0.0 0.0
-0.28394946455955505 0.16235046088695526 -0.31622931361198425 255.0 0.0 0.0
-0.28676143288612366 -0.3654526174068451 0.20658078789710999 255.0 0.0 0.0
-0.28397485613822937 0.044110119342803955 -0.3184583783149719 255.0 0.0 0.0
0.25785359740257263 -0.18611830472946167 0.15504448115825653 255.0 0.0 0.0
-0.03095403127372265 0.23084139823913574 0.1419188678264618 255.0 0.0 0.0
-0.15582911670207977 0.35670721530914307 0.038745541125535965 255.0 0.0 0.0
0.20952175557613373 -0.27965104579925537 -0.05765118449926376 255.0 0.0 0.0
0.2723102867603302 0.495699405670166 0.11117950826883316 255.0 0.0 0.0
0.1580011546611786 0.22068840265274048 0.15793117880821228 255.0 0.0 0.0
0.20850291848182678 0.22812457382678986 -0.01636030152440071 255.0 0.0 0.0
0.25747013092041016 -0.36703914403915405 0.16685913503170013 255.0 0.0 0.0
-0.22275425493717194 -0.11172889173030853 0.1532307267189026 255.0 0.0 0.0
0.29563942551612854 -0.1610070914030075 -0.13704141974449158 255.0 0.0 0.0
-0.21010488271713257 0.33019477128982544 -0.3435073494911194 255.0 0.0 0.0
-0.26552048325538635 0.22777186334133148 -0.35301610827445984 255.0 0.0 0.0
0.22465789318084717 0.24333404004573822 0.045451220124959946 255.0 0.0 0.0
0.28648877143859863 0.3661160469055176 0.11155904084444046 255.0 0.0 0.0
-0.22109627723693848 0.07394342869520187 0.15576092898845673 255.0 0.0 0.0
-0.29729533195495605 -0.3461850881576538 0.1997707635164261 255.0 0.0 0.0
-0.1740802377462387 0.34474480152130127 0.06560416519641876 255.0 0.0 0.0
-0.26158377528190613 0.16774289309978485 -0.3128853738307953 255.0 0.0 0.0
-0.1385849565267563 0.3217116594314575 -0.31850939989089966 255.0 0.0 0.0
-0.2534749507904053 0.2259676456451416 0.11788436770439148 255.0 0.0 0.0
-0.2448214888572693 -0.4782276749610901 0.007964353077113628 255.0 0.0 0.0
-0.2600748836994171 0.09569049626588821 -0.29469913244247437 255.0 0.0 0.0
-0.1876136213541031 -0.2658097445964813 -0.0509861595928669 255.0 0.0 0.0
0.0740247368812561 -0.25072482228279114 0.14761535823345184 255.0 0.0 0.0
-0.22314901649951935 -0.04459917172789574 0.15545962750911713 255.0 0.0 0.0
-0.004492662847042084 0.10642161965370178 -0.19300596415996552 255.0 0.0 0.0
-0.04973863437771797 -0.18470828235149384 0.1641090363264084 255.0 0.0 0.0
-0.2587672173976898 0.15631495416164398 0.15874336659908295 255.0 0.0 0.0
0.26882848143577576 -0.3607714772224426 0.15729516744613647 255.0 0.0 0.0
0.18983164429664612 -0.2360960990190506 -0.13598668575286865 255.0 0.0 0.0
-0.27940353751182556 -0.3778814673423767 0.21040552854537964 255.0 0.0 0.0
-0.010819414630532265 -0.2493463009595871 -0.12959711253643036 255.0 0.0 0.0
0.12147808820009232 0.2271515280008316 0.1532565802335739 255.0 0.0 0.0
-0.275831937789917 -0.36664268374443054 -0.08870961517095566 255.0 0.0 0.0
0.19858981668949127 0.4908161163330078 -0.002649803413078189 255.0 0.0 0.0
0.01612437516450882 0.28154653310775757 -0.2700473666191101 255.0 0.0 0.0
0.2972327470779419 -0.12263183295726776 -0.12503233551979065 255.0 0.0 0.0
0.23317891359329224 0.22441866993904114 0.15651172399520874 255.0 0.0 0.0
0.13925187289714813 0.2275567203760147 -0.12881605327129364 255.0 0.0 0.0
-0.23799647390842438 -0.4763277471065521 -0.02608894370496273 255.0 0.0 0.0
-0.24010133743286133 -0.4706367552280426 0.04397958144545555 255.0 0.0 0.0
0.0903131514787674 -0.173033207654953 0.16654270887374878 255.0 0.0 0.0
-0.05792698636651039 -0.24981412291526794 -0.12466002255678177 255.0 0.0 0.0
0.2499191015958786 -0.08459464460611343 0.15597286820411682 255.0 0.0 0.0
0.2663952112197876 0.3725886344909668 0.13065683841705322 255.0 0.0 0.0
-0.23991075158119202 0.30667349696159363 0.023457661271095276 255.0 0.0 0.0
0.028539098799228668 0.11393114924430847 -0.20644661784172058 255.0 0.0 0.0
-0.100875124335289 0.22535552084445953 0.15428274869918823 255.0 0.0 0.0
-0.09149441123008728 0.3136015236377716 -0.32707837224006653 255.0 0.0 0.0
0.046719811856746674 0.1600322723388672 -0.2093154788017273 255.0 0.0 0.0
0.25480586290359497 0.4747317135334015 0.11486176401376724 255.0 0.0 0.0
0.27432894706726074 0.36737948656082153 0.1239655390381813 255.0 0.0 0.0
-0.2707185745239258 -0.0746888667345047 0.14916417002677917 255.0 0.0 0.0
-0.3375157117843628 -0.3957228362560272 -0.0145547641441226 255.0 0.0 0.0
-0.010440915822982788 0.29122447967529297 -0.2924530506134033 255.0 0.0 0.0
-0.2707298994064331 -0.03988869488239288 -0.12367654591798782 255.0 0.0 0.0
0.2980155348777771 0.13524121046066284 0.15335533022880554 255.0 0.0 0.0
0.04773324728012085 0.11718688905239105 -0.19409434497356415 255.0 0.0 0.0
-0.11038509011268616 0.3151014447212219 -0.3282788097858429 255.0 0.0 0.0
0.17740994691848755 0.22804713249206543 -0.11759769916534424 255.0 0.0 0.0
-0.025888994336128235 0.30786585807800293 -0.2988296449184418 255.0 0.0 0.0
-0.23331062495708466 0.30986425280570984 -0.017429791390895844 255.0 0.0 0.0
0.2855972349643707 0.13759416341781616 0.15632209181785583 255.0 0.0 0.0
-0.2192639261484146 -0.4693719744682312 0.04075342416763306 255.0 0.0 0.0
-0.32755526900291443 -0.42877253890037537 -0.05938737839460373 255.0 0.0 0.0
-0.2612973749637604 -0.20630528032779694 0.15698805451393127 255.0 0.0 0.0
-0.1373729258775711 -0.1745828241109848 0.16925238072872162 255.0 0.0 0.0
-0.25770479440689087 0.3534581959247589 0.06512818485498428 255.0 0.0 0.0
0.05252990871667862 0.2143833488225937 -0.18989139795303345 255.0 0.0 0.0
0.2960483729839325 -0.2399073839187622 -0.044181644916534424 255.0 0.0 0.0
0.06456276774406433 0.14953915774822235 0.1646704226732254 255.0 0.0 0.0
-0.2658036947250366 0.2129480093717575 -0.3156769871711731 255.0 0.0 0.0
0.03204556182026863 0.09944234788417816 -0.14940214157104492 255.0 0.0 0.0
-0.2616043984889984 0.11999985575675964 0.15381881594657898 255.0 0.0 0.0
-0.23610635101795197 0.21324294805526733 0.15632209181785583 255.0 0.0 0.0
0.028038375079631805 0.09481064230203629 -0.1338929384946823 255.0 0.0 0.0
-0.25512468814849854 0.13667696714401245 0.1589757651090622 255.0 0.0 0.0
0.18763691186904907 0.2144293189048767 0.1551375389099121 255.0 0.0 0.0
-0.2718392014503479 0.2218315601348877 0.025975223630666733 255.0 0.0 0.0
0.2910785377025604 -0.1525413990020752 0.15339158475399017 255.0 0.0 0.0
0.28279221057891846 0.22766178846359253 0.15693174302577972 255.0 0.0 0.0
0.2100440114736557 0.3603579103946686 0.11604753881692886 255.0 0.0 0.0
0.2806357741355896 -0.426327109336853 0.19530750811100006 255.0 0.0 0.0
-0.10141684114933014 0.32711249589920044 -0.3302314579486847 255.0 0.0 0.0
-0.2041647583246231 0.2114032655954361 -0.13124331831932068 255.0 0.0 0.0
-0.11781740933656693 0.3283563554286957 -0.3224888741970062 255.0 0.0 0.0
-0.17345166206359863 0.42891207337379456 0.09690041095018387 255.0 0.0 0.0
0.2036231905221939 -0.24504177272319794 -0.13489064574241638 255.0 0.0 0.0
-0.14988282322883606 -0.26035475730895996 -0.0020408255513757467 255.0 0.0 0.0
-0.2598392069339752 -0.3592839539051056 -0.0901925265789032 255.0 0.0 0.0
-0.025028793141245842 0.11257365345954895 -0.13289862871170044 255.0 0.0 0.0
0.1724674105644226 -0.2633205056190491 -0.01441955752670765 255.0 0.0 0.0
0.23944836854934692 0.1715538054704666 0.15089517831802368 255.0 0.0 0.0
-0.2592901587486267 0.25727978348731995 -0.360727459192276 255.0 0.0 0.0
-0.2616943120956421 -0.25045254826545715 -0.0426781065762043 255.0 0.0 0.0
-0.277778297662735 0.22141823172569275 -0.3214472830295563 255.0 0.0 0.0
0.23585650324821472 0.3476681411266327 0.11263440549373627 255.0 0.0 0.0
-0.26768994331359863 -0.08563672751188278 0.14217504858970642 255.0 0.0 0.0
0.272906094789505 0.24026235938072205 -0.0060782600194215775 255.0 0.0 0.0
-0.26231399178504944 -0.3854990005493164 0.20612883567810059 255.0 0.0 0.0
-0.25012531876564026 -0.02194230817258358 -0.29568374156951904 255.0 0.0 0.0
-0.2594601809978485 0.3690195083618164 0.10057998448610306 255.0 0.0 0.0
0.25506967306137085 -0.25275641679763794 0.06899838149547577 255.0 0.0 0.0
-0.24706000089645386 0.33890292048454285 0.05650099739432335 255.0 0.0 0.0
0.2832885980606079 -0.43983837962150574 0.013097910210490227 255.0 0.0 0.0
0.19820524752140045 0.47519126534461975 0.11648296564817429 255.0 0.0 0.0
-0.18187867105007172 0.3106910288333893 -0.3564976751804352 255.0 0.0 0.0
-0.2683720588684082 0.07582569122314453 0.1562807708978653 255.0 0.0 0.0
-0.017605392262339592 -0.24732188880443573 -0.13721337914466858 255.0 0.0 0.0
-0.21141749620437622 -0.44904211163520813 0.10688222944736481 255.0 0.0 0.0
0.07002463936805725 0.169826939702034 0.14927510917186737 255.0 0.0 0.0
0.2357555627822876 0.21083645522594452 0.15315130352973938 255.0 0.0 0.0
0.2033003866672516 0.499150812625885 0.09612816572189331 255.0 0.0 0.0
0.25421926379203796 0.5136539340019226 0.021376831457018852 255.0 0.0 0.0
-0.22286082804203033 -0.15314677357673645 0.15427875518798828 255.0 0.0 0.0
-0.24408791959285736 -0.4761909544467926 -0.036086492240428925 255.0 0.0 0.0
-0.22642914950847626 -0.4746335744857788 0.03949407860636711 255.0 0.0 0.0
0.23661240935325623 0.08889508247375488 0.16713646054267883 255.0 0.0 0.0
-0.2150009572505951 0.37377700209617615 0.107630655169487 255.0 0.0 0.0
-0.1706247180700302 0.3746696412563324 0.09986411780118942 255.0 0.0 0.0
0.2894958257675171 -0.1637791097164154 0.15642596781253815 255.0 0.0 0.0
-0.14636974036693573 -0.25678104162216187 -0.0015693927416577935 255.0 0.0 0.0
0.19068275392055511 0.17425014078617096 0.15054285526275635 255.0 0.0 0.0
-0.31665748357772827 -0.3595525622367859 0.1983364373445511 255.0 0.0 0.0
0.2986053228378296 -0.24226689338684082 0.006521743256598711 255.0 0.0 0.0
0.29559648036956787 0.07438471913337708 -0.12240108847618103 255.0 0.0 0.0
0.24812988936901093 -0.4342471659183502 0.20410694181919098 255.0 0.0 0.0
0.257685124874115 0.227688267827034 0.14527033269405365 255.0 0.0 0.0
0.22889479994773865 0.5119113922119141 -0.010735874995589256 255.0 0.0 0.0
-0.27072545886039734 -0.18343564867973328 -0.12456872314214706 255.0 0.0 0.0
0.06829660385847092 0.22205176949501038 0.15961280465126038 255.0 0.0 0.0
-0.24649100005626678 -0.34557679295539856 -0.0865713581442833 255.0 0.0 0.0
-0.24765892326831818 -0.06847460567951202 -0.2708180844783783 255.0 0.0 0.0
-0.25358274579048157 7.052615728753153e-06 0.15647219121456146 255.0 0.0 0.0
-0.2227609008550644 0.34896400570869446 -0.06526990979909897 255.0 0.0 0.0
0.1311688870191574 0.15073996782302856 0.17018938064575195 255.0 0.0 0.0
0.14143957197666168 -0.43428295850753784 0.13266634941101074 255.0 0.0 0.0
0.056335002183914185 0.22123736143112183 -0.13497640192508698 255.0 0.0 0.0
-0.26897552609443665 -0.019207842648029327 0.14922338724136353 255.0 0.0 0.0
-0.09797748178243637 0.33168646693229675 -0.32066887617111206 255.0 0.0 0.0
-0.2707524001598358 0.15730096399784088 0.15391647815704346 255.0 0.0 0.0
-0.02131315879523754 0.30000820755958557 -0.29668372869491577 255.0 0.0 0.0
-0.25842157006263733 -0.22923296689987183 -0.13506805896759033 255.0 0.0 0.0
0.26167550683021545 0.3055410087108612 0.03575564920902252 255.0 0.0 0.0
-0.26960113644599915 -0.24674244225025177 0.148177370429039 255.0 0.0 0.0
0.15722687542438507 -0.42645013332366943 -0.039379388093948364 255.0 0.0 0.0
-0.22017163038253784 0.2574608027935028 0.04363911226391792 255.0 0.0 0.0
0.14160867035388947 0.224432572722435 -0.13134784996509552 255.0 0.0 0.0
-0.29719042778015137 -0.3154056668281555 0.14213471114635468 255.0 0.0 0.0
-0.03959463909268379 0.31437376141548157 -0.29695627093315125 255.0 0.0 0.0
-0.2669919431209564 -0.08312290906906128 -0.13506805896759033 255.0 0.0 0.0
-0.16622284054756165 0.22680117189884186 0.017314013093709946 255.0 0.0 0.0
-0.2580910921096802 0.23159240186214447 -0.006591169163584709 255.0 0.0 0.0
-0.2481369972229004 -0.05063344165682793 -0.2766166031360626 255.0 0.0 0.0
-0.2926511764526367 0.05457630380988121 -0.2591705024242401 255.0 0.0 0.0
0.052032530307769775 0.22693747282028198 0.15408886969089508 255.0 0.0 0.0
-0.24927668273448944 0.23156976699829102 0.020251978188753128 255.0 0.0 0.0
-0.22817082703113556 0.39010322093963623 0.09806349873542786 255.0 0.0 0.0
0.20731689035892487 0.39922773838043213 0.10575048625469208 255.0 0.0 0.0
0.24015744030475616 -0.24635957181453705 -0.12667877972126007 255.0 0.0 0.0
-0.26760900020599365 -0.250205934047699 -0.03212675079703331 255.0 0.0 0.0
-0.21699219942092896 0.4479037821292877 -0.07608859241008759 255.0 0.0 0.0
0.22882649302482605 0.509218692779541 -0.019291331991553307 255.0 0.0 0.0
-0.18952807784080505 -0.25282904505729675 -0.05746373534202576 255.0 0.0 0.0
0.15305091440677643 0.2203272432088852 -0.13306349515914917 255.0 0.0 0.0
0.11673995107412338 -0.2468169778585434 0.15582163631916046 255.0 0.0 0.0
0.2129957526922226 0.22693654894828796 0.03140292316675186 255.0 0.0 0.0
0.16934888064861298 0.22788819670677185 0.14658209681510925 255.0 0.0 0.0
-0.19877658784389496 0.43864041566848755 0.08444727212190628 255.0 0.0 0.0
-0.16601328551769257 -0.2475259006023407 -0.13250872492790222 255.0 0.0 0.0
0.2429778128862381 -0.2496488094329834 0.13914646208286285 255.0 0.0 0.0
0.2647397816181183 0.44226813316345215 0.10897700488567352 255.0 0.0 0.0
-0.22201108932495117 0.36928677558898926 -0.07575368136167526 255.0 0.0 0.0
0.019363127648830414 0.12999139726161957 -0.21299782395362854 255.0 0.0 0.0
-0.24748915433883667 0.43643003702163696 0.11386221647262573 255.0 0.0 0.0
-0.246417835354805 0.2754307985305786 -0.3275483548641205 255.0 0.0 0.0
0.29612988233566284 -0.21594864130020142 -0.13519157469272614 255.0 0.0 0.0
-0.21137334406375885 -0.28864341974258423 0.08159583061933517 255.0 0.0 0.0
-0.10880962759256363 0.1748407483100891 0.15226483345031738 255.0 0.0 0.0
0.03686666116118431 0.19292189180850983 -0.22572951018810272 255.0 0.0 0.0
0.2642284631729126 -0.25134140253067017 -0.024340808391571045 255.0 0.0 0.0
-0.2585456371307373 0.2905634343624115 -0.33383238315582275 255.0 0.0 0.0
0.2447204291820526 0.42886999249458313 -0.08760768920183182 255.0 0.0 0.0
0.29492542147636414 -0.24471089243888855 0.10337956249713898 255.0 0.0 0.0
0.17658203840255737 0.2277279645204544 0.15357811748981476 255.0 0.0 0.0
0.21837753057479858 0.36804866790771484 -0.0818728655576706 255.0 0.0 0.0
-0.21229544281959534 -0.24586676061153412 0.1550416350364685 255.0 0.0 0.0
-0.019734151661396027 0.22206681966781616 0.1608239710330963 255.0 0.0 0.0
0.29454663395881653 0.03918616846203804 0.15041787922382355 255.0 0.0 0.0
-0.27574068307876587 -0.0031481131445616484 -0.3114381730556488 255.0 0.0 0.0
-0.2196248471736908 0.2993992865085602 -0.36496758460998535 255.0 0.0 0.0
-0.24666647613048553 -0.08106549829244614 -0.2440815269947052 255.0 0.0 0.0
0.18356527388095856 0.43459951877593994 0.11043356359004974 255.0 0.0 0.0
0.24366538226604462 -0.12148571014404297 0.16745659708976746 255.0 0.0 0.0
0.27680304646492004 0.3721814453601837 0.12315066903829575 255.0 0.0 0.0
-0.031482867896556854 0.11645770072937012 -0.16978716850280762 255.0 0.0 0.0
0.18973855674266815 -0.4371471107006073 0.194789856672287 255.0 0.0 0.0
0.03527957573533058 0.11023206263780594 -0.13622088730335236 255.0 0.0 0.0
-0.039082713425159454 0.2892923951148987 -0.25991564989089966 255.0 0.0 0.0
-0.02917413040995598 0.1780993491411209 -0.20660622417926788 255.0 0.0 0.0
0.23313798010349274 0.37311577796936035 0.11915366351604462 255.0 0.0 0.0
-0.25257471203804016 0.03849602863192558 -0.3046121597290039 255.0 0.0 0.0
0.06310310959815979 -0.17906711995601654 0.16994310915470123 255.0 0.0 0.0
-0.2208590805530548 0.48922455310821533 0.11449764668941498 255.0 0.0 0.0
0.05034767836332321 0.1535932570695877 -0.20708535611629486 255.0 0.0 0.0
0.10009411722421646 -0.20500126481056213 0.15568137168884277 255.0 0.0 0.0
-0.2142830789089203 0.17662332952022552 0.1535683423280716 255.0 0.0 0.0
-0.21184086799621582 -0.0876411497592926 0.16641415655612946 255.0 0.0 0.0
-0.030200552195310593 -0.24586056172847748 -0.13606566190719604 255.0 0.0 0.0
-0.008457151241600513 0.24197715520858765 -0.25526538491249084 255.0 0.0 0.0
-0.26325902342796326 -0.1278529316186905 -0.13864438235759735 255.0 0.0 0.0
0.22956211864948273 -0.42093056440353394 -0.0902172178030014 255.0 0.0 0.0
-0.27633047103881836 0.0608169361948967 -0.31712329387664795 255.0 0.0 0.0
-0.1974608600139618 0.22727005183696747 -0.04443150386214256 255.0 0.0 0.0
-0.24612121284008026 -0.013712121173739433 -0.24074499309062958 255.0 0.0 0.0
-0.2587905526161194 0.37663236260414124 0.09672421962022781 255.0 0.0 0.0
-0.219992995262146 -0.47015470266342163 0.04437052831053734 255.0 0.0 0.0
-0.21140074729919434 0.300335168838501 -0.3411046266555786 255.0 0.0 0.0
-0.16599129140377045 -0.19188839197158813 0.15366698801517487 255.0 0.0 0.0
0.30049097537994385 -0.04332544654607773 0.15460743010044098 255.0 0.0 0.0
-0.26840636134147644 -0.38662856817245483 0.20395146310329437 255.0 0.0 0.0
0.2607073187828064 0.11993427574634552 0.15465028584003448 255.0 0.0 0.0
0.27615097165107727 -0.24632838368415833 -0.1357419192790985 255.0 0.0 0.0
0.20379143953323364 0.24297697842121124 0.0040192087180912495 255.0 0.0 0.0
0.255171537399292 -0.25013467669487 0.027469493448734283 255.0 0.0 0.0
-0.2283448576927185 0.500457227230072 0.022924210876226425 255.0 0.0 0.0
-0.1657823771238327 0.3597262501716614 0.08143910765647888 255.0 0.0 0.0
0.23227089643478394 0.4726417362689972 0.10165485739707947 255.0 0.0 0.0
0.2681945264339447 0.3080386221408844 -0.015100455842912197 255.0 0.0 0.0
-0.22662971913814545 0.06201528385281563 0.15353943407535553 255.0 0.0 0.0
0.25016653537750244 -0.2531753480434418 0.06254005432128906 255.0 0.0 0.0
0.27782943844795227 0.23007282614707947 -0.004776070360094309 255.0 0.0 0.0
0.04841901361942291 0.10304537415504456 -0.13531246781349182 255.0 0.0 0.0
-0.25306612253189087 0.02303250879049301 -0.30726945400238037 255.0 0.0 0.0
0.2438153177499771 0.2853027880191803 0.04166794195771217 255.0 0.0 0.0
0.29190385341644287 0.22715827822685242 0.1172853335738182 255.0 0.0 0.0
-0.1533254235982895 -0.24783404171466827 -0.13433925807476044 255.0 0.0 0.0
-0.14220908284187317 0.341869592666626 -0.3236614167690277 255.0 0.0 0.0
-0.23671621084213257 0.4778672456741333 -0.04578445106744766 255.0 0.0 0.0
-0.23914892971515656 0.28717997670173645 0.003766702488064766 255.0 0.0 0.0
-0.19491274654865265 -0.2323886603116989 -0.135023832321167 255.0 0.0 0.0
0.238435298204422 -0.40502309799194336 0.19980846345424652 255.0 0.0 0.0
0.22055605053901672 0.49289095401763916 0.12041263282299042 255.0 0.0 0.0
0.17005488276481628 -0.24677418172359467 0.1406734138727188 255.0 0.0 0.0
0.2647119462490082 0.16904039680957794 0.15264856815338135 255.0 0.0 0.0
-0.2429313212633133 0.4046507477760315 -0.07206553220748901 255.0 0.0 0.0
0.20054538547992706 0.49926263093948364 -0.006656892132014036 255.0 0.0 0.0
0.29723039269447327 0.07144147157669067 0.14717090129852295 255.0 0.0 0.0
-0.17995502054691315 0.2503242492675781 -0.004333456512540579 255.0 0.0 0.0
-0.2514019012451172 0.2296239584684372 -0.34508857131004333 255.0 0.0 0.0
0.019101517274975777 0.11343516409397125 -0.20422354340553284 255.0 0.0 0.0
-0.2663387060165405 0.22544942796230316 0.07463130354881287 255.0 0.0 0.0
-0.24083228409290314 0.2261187881231308 -0.13352228701114655 255.0 0.0 0.0
-0.23771147429943085 0.22096611559391022 -0.1323852688074112 255.0 0.0 0.0
0.2966417074203491 -0.037838466465473175 -0.13112826645374298 255.0 0.0 0.0
-0.2419552206993103 0.26754823327064514 0.0020891602616757154 255.0 0.0 0.0
0.29716259241104126 -0.24647533893585205 -0.09652643650770187 255.0 0.0 0.0
-0.016414891928434372 0.2215832769870758 -0.13501809537410736 255.0 0.0 0.0
-0.2648594081401825 -0.039112601429224014 -0.13506805896759033 255.0 0.0 0.0
-0.22181425988674164 0.505442202091217 0.0013191525358706713 255.0 0.0 0.0
-0.21758584678173065 0.2613944113254547 0.04406750947237015 255.0 0.0 0.0
-0.12123744934797287 0.3320952355861664 -0.33185091614723206 255.0 0.0 0.0
-0.017668187618255615 0.10421217232942581 -0.1566523313522339 255.0 0.0 0.0
-0.039553139358758926 0.30073150992393494 -0.2562866806983948 255.0 0.0 0.0
-0.20762015879154205 0.2884043753147125 0.0401436984539032 255.0 0.0 0.0
0.22428934276103973 0.497085303068161 -0.044914327561855316 255.0 0.0 0.0
0.05957464128732681 0.1961326003074646 -0.1752723604440689 255.0 0.0 0.0
0.1649875044822693 -0.2389393299818039 0.15820743143558502 255.0 0.0 0.0
-0.20633941888809204 0.06732965260744095 0.16486550867557526 255.0 0.0 0.0
-0.2674674689769745 -0.22278037667274475 0.1557239592075348 255.0 0.0 0.0
-0.036464136093854904 -0.24014447629451752 0.15975970029830933 255.0 0.0 0.0
0.25260037183761597 -0.1992911696434021 0.1546257585287094 255.0 0.0 0.0
-0.23710274696350098 -0.2566806674003601 0.0023941860999912024 255.0 0.0 0.0
-0.19564363360404968 0.2415785938501358 0.04817299544811249 255.0 0.0 0.0
-0.26879310607910156 0.22562935948371887 0.1320248693227768 255.0 0.0 0.0
0.2937568724155426 -0.24706241488456726 0.10402294248342514 255.0 0.0 0.0
0.2342453896999359 -0.38463133573532104 -0.09032465517520905 255.0 0.0 0.0
0.24312016367912292 0.042544763535261154 0.16018453240394592 255.0 0.0 0.0
-0.015302556566894054 -0.19647260010242462 0.14931809902191162 255.0 0.0 0.0
-0.2105143517255783 -0.18741795420646667 0.1600598245859146 255.0 0.0 0.0
-0.07919462770223618 0.3148666024208069 -0.2895912528038025 255.0 0.0 0.0
0.09602421522140503 -0.19909176230430603 0.14991608262062073 255.0 0.0 0.0
-0.2694784104824066 0.22034628689289093 0.06873348355293274 255.0 0.0 0.0
-0.2731284201145172 0.05278071388602257 -0.31910601258277893 255.0 0.0 0.0
0.26309800148010254 0.4864210784435272 -0.05444898456335068 255.0 0.0 0.0
0.2017386108636856 0.4930272400379181 0.10350407660007477 255.0 0.0 0.0
-0.22813548147678375 -0.19198496639728546 0.15069641172885895 255.0 0.0 0.0
0.2598995864391327 0.37523436546325684 0.12418346852064133 255.0 0.0 0.0
-0.17679263651371002 0.316388338804245 0.009423607029020786 255.0 0.0 0.0
-0.22421564161777496 -0.27018284797668457 -0.050656095147132874 255.0 0.0 0.0
-0.05482960119843483 0.22777418792247772 0.14869476854801178 255.0 0.0 0.0
-0.27356186509132385 0.19757702946662903 -0.3091546595096588 255.0 0.0 0.0
0.2625843584537506 -0.44245314598083496 -0.059845827519893646 255.0 0.0 0.0
-0.2193487584590912 0.51075679063797 0.03804786503314972 255.0 0.0 0.0
0.24785631895065308 0.2229997217655182 0.15683913230895996 255.0 0.0 0.0
0.2385125756263733 0.4763731360435486 0.11121384799480438 255.0 0.0 0.0
0.20436792075634003 -0.2580641508102417 0.06970635056495667 255.0 0.0 0.0
0.30023688077926636 0.22267980873584747 0.09507725387811661 255.0 0.0 0.0
-0.1002645343542099 -0.23949559032917023 -0.13217465579509735 255.0 0.0 0.0
0.27203381061553955 -0.24816277623176575 -0.12931831181049347 255.0 0.0 0.0
-0.0062287854962050915 0.2116655707359314 0.155958890914917 255.0 0.0 0.0
-0.2586483359336853 0.3639223277568817 0.09158995747566223 255.0 0.0 0.0
0.26543331146240234 0.040276605635881424 0.15600793063640594 255.0 0.0 0.0
0.03938855230808258 -0.24482126533985138 0.15146027505397797 255.0 0.0 0.0
0.22950303554534912 0.2586069703102112 -0.018591996282339096 255.0 0.0 0.0
0.27024075388908386 0.3457338511943817 0.10727467387914658 255.0 0.0 0.0
0.2819269299507141 -0.22338703274726868 0.15632209181785583 255.0 0.0 0.0
-0.2574017345905304 0.07191383093595505 -0.3066539168357849 255.0 0.0 0.0
-0.33316707611083984 -0.39511924982070923 -0.02988540381193161 255.0 0.0 0.0
-0.16628257930278778 0.3369801938533783 -0.3199392557144165 255.0 0.0 0.0
0.20476306974887848 0.22705279290676117 0.04543513432145119 255.0 0.0 0.0
0.2690671980381012 0.43935149908065796 0.10599030554294586 255.0 0.0 0.0
0.03712192550301552 -0.24180519580841064 -0.1358453631401062 255.0 0.0 0.0
-0.022687764838337898 0.26066890358924866 -0.2593979835510254 255.0 0.0 0.0
0.282982736825943 -0.41925346851348877 0.19116780161857605 255.0 0.0 0.0
0.24689821898937225 0.08928942680358887 0.16002732515335083 255.0 0.0 0.0
0.2593311667442322 0.15686585009098053 0.1554761528968811 255.0 0.0 0.0
0.2946760058403015 -0.13426291942596436 -0.1358979493379593 255.0 0.0 0.0
-0.02171032875776291 0.307235985994339 -0.2644602358341217 255.0 0.0 0.0
0.19068826735019684 0.2277245819568634 -0.12283233553171158 255.0 0.0 0.0
0.2955373227596283 0.22796660661697388 -0.08918105065822601 255.0 0.0 0.0
-0.20832547545433044 -0.4187665283679962 0.15736959874629974 255.0 0.0 0.0
-0.2707524597644806 -0.2444429248571396 -0.043600741773843765 255.0 0.0 0.0
-0.27105531096458435 -0.16744719445705414 -0.13145248591899872 255.0 0.0 0.0
0.053528375923633575 0.1790115237236023 -0.20983093976974487 255.0 0.0 0.0
0.2926703691482544 -0.10310949385166168 -0.13506805896759033 255.0 0.0 0.0
0.004349920433014631 0.2625597417354584 -0.2691676914691925 255.0 0.0 0.0
0.25168272852897644 0.4208333492279053 -0.09306462854146957 255.0 0.0 0.0
0.24633602797985077 -0.3114791512489319 0.09462634474039078 255.0 0.0 0.0
-0.15916213393211365 0.3185839354991913 -0.33549764752388 255.0 0.0 0.0
-0.29725903272628784 -0.35761040449142456 0.2048390805721283 255.0 0.0 0.0
0.2394404411315918 -0.17744018137454987 0.16914403438568115 255.0 0.0 0.0
-0.005314662121236324 0.09200137108564377 -0.13511532545089722 255.0 0.0 0.0
-0.03928773105144501 -0.24799780547618866 0.15378357470035553 255.0 0.0 0.0
-0.25101688504219055 0.3558097183704376 0.08852731436491013 255.0 0.0 0.0
-0.07543843984603882 -0.20390444993972778 0.1562625616788864 255.0 0.0 0.0
0.29586899280548096 0.2161281704902649 0.14418497681617737 255.0 0.0 0.0
-0.33708229660987854 -0.38694265484809875 -0.009958230890333652 255.0 0.0 0.0
0.251501202583313 -0.2852691113948822 -0.05730326101183891 255.0 0.0 0.0
0.28090712428092957 0.36190536618232727 -0.062044668942689896 255.0 0.0 0.0
-0.02952571213245392 0.16588623821735382 -0.20531509816646576 255.0 0.0 0.0
-0.17466354370117188 -0.17771299183368683 0.16532909870147705 255.0 0.0 0.0
0.2674056887626648 0.28708016872406006 0.023073703050613403 255.0 0.0 0.0
0.13270385563373566 -0.17310279607772827 0.1698838621377945 255.0 0.0 0.0
-0.2598944306373596 0.1836588829755783 -0.32984837889671326 255.0 0.0 0.0
-0.21590901911258698 -0.24944359064102173 0.14350426197052002 255.0 0.0 0.0
-0.2558336555957794 0.19989919662475586 -0.13506805896759033 255.0 0.0 0.0
0.27752697467803955 -0.4457983374595642 0.15176646411418915 255.0 0.0 0.0
0.2401774376630783 0.30929839611053467 0.051841866225004196 255.0 0.0 0.0
-0.2672080099582672 -0.08916047215461731 -0.2695167660713196 255.0 0.0 0.0
-0.22148583829402924 -0.26371684670448303 0.06577373296022415 255.0 0.0 0.0
-0.21263070404529572 0.1427314728498459 0.16912832856178284 255.0 0.0 0.0
-0.25872281193733215 -0.07486598193645477 -0.2231551557779312 255.0 0.0 0.0
0.29761090874671936 0.43665504455566406 0.12242037802934647 255.0 0.0 0.0
0.2129811942577362 0.44885313510894775 -0.07824178040027618 255.0 0.0 0.0
-0.02833401970565319 0.1708585023880005 -0.13506805896759033 255.0 0.0 0.0
0.19898857176303864 0.46540629863739014 0.11029554903507233 255.0 0.0 0.0
0.22260671854019165 0.3116007447242737 -0.023815250024199486 255.0 0.0 0.0
-0.19064876437187195 0.491950124502182 0.1033499464392662 255.0 0.0 0.0
-0.0506848581135273 0.3275279998779297 -0.2841840088367462 255.0 0.0 0.0
-0.32532501220703125 -0.3591969907283783 0.18597492575645447 255.0 0.0 0.0
-0.21225611865520477 -0.32817500829696655 -0.07649251073598862 255.0 0.0 0.0
0.29699060320854187 -0.24914149940013885 -0.055358290672302246 255.0 0.0 0.0
-0.037527117878198624 0.3153698146343231 -0.28872713446617126 255.0 0.0 0.0
0.29228150844573975 -0.1751670241355896 -0.13503369688987732 255.0 0.0 0.0
0.18354275822639465 0.21715258061885834 0.15761421620845795 255.0 0.0 0.0
-0.006645204033702612 0.21314701437950134 -0.2370980978012085 255.0 0.0 0.0
-0.27241161465644836 0.04960273578763008 0.14981038868427277 255.0 0.0 0.0
0.29992762207984924 -0.21964769065380096 -0.13499543070793152 255.0 0.0 0.0
0.051205165684223175 0.22682037949562073 -0.19748695194721222 255.0 0.0 0.0
0.21212096512317657 -0.25130173563957214 -0.06515882909297943 255.0 0.0 0.0
0.2969321310520172 -0.24065345525741577 -0.020096389576792717 255.0 0.0 0.0
-0.13671591877937317 0.22471687197685242 -0.13398197293281555 255.0 0.0 0.0
0.019525768235325813 0.2773555815219879 -0.23559124767780304 255.0 0.0 0.0
-0.26146119832992554 0.10860007256269455 -0.29840534925460815 255.0 0.0 0.0
-0.2707190215587616 -0.20220637321472168 -0.1274677962064743 255.0 0.0 0.0
-0.2695455849170685 -0.16646474599838257 0.1553407609462738 255.0 0.0 0.0
-0.25781503319740295 -0.316122829914093 -0.06861237436532974 255.0 0.0 0.0
0.1616523265838623 0.2277676910161972 -0.12915083765983582 255.0 0.0 0.0
0.27431347966194153 -0.3570910692214966 0.13464000821113586 255.0 0.0 0.0
-0.05379815027117729 0.2984769344329834 -0.29800575971603394 255.0 0.0 0.0
-0.16588054597377777 0.22346732020378113 0.15615299344062805 255.0 0.0 0.0
-0.2768585681915283 0.06724981963634491 -0.3196586072444916 255.0 0.0 0.0
0.24781154096126556 -0.4246971309185028 -0.09390288591384888 255.0 0.0 0.0
0.055301036685705185 0.10566001385450363 -0.1367087960243225 255.0 0.0 0.0
-0.12140227854251862 -0.2444785237312317 0.15632209181785583 255.0 0.0 0.0
0.28534191846847534 0.3324040174484253 -0.021465519443154335 255.0 0.0 0.0
0.29718074202537537 -0.12512871623039246 0.15203522145748138 255.0 0.0 0.0
0.1445736289024353 -0.43309256434440613 -0.005549737252295017 255.0 0.0 0.0
0.2473510503768921 0.14318276941776276 0.1607305407524109 255.0 0.0 0.0
-0.20804864168167114 0.1600140482187271 0.16076834499835968 255.0 0.0 0.0
-0.2877238690853119 -0.3843965530395508 0.20519694685935974 255.0 0.0 0.0
-0.2678551971912384 0.1593262106180191 -0.3003634214401245 255.0 0.0 0.0
0.140266552567482 -0.2066948562860489 0.15373574197292328 255.0 0.0 0.0
-0.1244465783238411 0.19818106293678284 -0.13506805896759033 255.0 0.0 0.0
-0.2562234401702881 0.029690977185964584 -0.24092115461826324 255.0 0.0 0.0
-0.07310260832309723 0.21124671399593353 0.15660065412521362 255.0 0.0 0.0
-0.2880566716194153 0.09619776904582977 -0.29244357347488403 255.0 0.0 0.0
-0.2634526193141937 0.22327986359596252 -0.35511165857315063 255.0 0.0 0.0
0.018395908176898956 0.25251689553260803 -0.262965589761734 255.0 0.0 0.0
-0.009380974806845188 0.1632179170846939 0.15682391822338104 255.0 0.0 0.0
-0.02822490967810154 0.27015605568885803 -0.26670217514038086 255.0 0.0 0.0
0.28858837485313416 -0.2502742409706116 -0.07457142323255539 255.0 0.0 0.0
0.2429610639810562 0.09588535130023956 0.16853868961334229 255.0 0.0 0.0
0.1856362670660019 0.46094679832458496 0.10318643599748611 255.0 0.0 0.0
-0.16405867040157318 0.17724502086639404 0.1545376479625702 255.0 0.0 0.0
-0.0998956635594368 0.32338428497314453 -0.30418992042541504 255.0 0.0 0.0
-0.27058881521224976 0.08116739243268967 0.15470583736896515 255.0 0.0 0.0
0.2815324366092682 0.33691370487213135 -0.04262198507785797 255.0 0.0 0.0
-0.16516897082328796 0.4817601144313812 0.004712010268121958 255.0 0.0 0.0
0.2985188961029053 0.17343586683273315 0.13482776284217834 255.0 0.0 0.0
0.29061585664749146 -0.20789293944835663 0.1557384580373764 255.0 0.0 0.0
-0.0008191552478820086 0.1230686828494072 -0.2066258192062378 255.0 0.0 0.0
-0.21751099824905396 -0.17834438383579254 0.16676877439022064 255.0 0.0 0.0
-0.18454188108444214 0.4071103632450104 0.0874139741063118 255.0 0.0 0.0
-0.12132123112678528 0.3247819244861603 -0.31160449981689453 255.0 0.0 0.0
0.2676156461238861 0.5032148361206055 0.09488290548324585 255.0 0.0 0.0
-0.2509542405605316 -0.3436918258666992 -0.08741029351949692 255.0 0.0 0.0
-0.21293391287326813 0.22611309587955475 -0.13392795622348785 255.0 0.0 0.0
-0.014018721878528595 0.16759496927261353 -0.1373337358236313 255.0 0.0 0.0
0.2268633395433426 -0.2529456317424774 -0.04784797504544258 255.0 0.0 0.0
-0.18944549560546875 0.2272338569164276 -0.03760829195380211 255.0 0.0 0.0
0.221006840467453 0.23158800601959229 -0.03256819024682045 255.0 0.0 0.0
0.04715379700064659 0.09651798009872437 -0.133969247341156 255.0 0.0 0.0
0.1845744252204895 -0.25264066457748413 0.06642737984657288 255.0 0.0 0.0
0.2958877980709076 0.22699818015098572 0.041434887796640396 255.0 0.0 0.0
-0.22467492520809174 -0.46450191736221313 0.08818264305591583 255.0 0.0 0.0
-0.06435095518827438 0.32787787914276123 -0.2919420003890991 255.0 0.0 0.0
0.2550871670246124 0.23046858608722687 -0.03411143645644188 255.0 0.0 0.0
-0.2644278407096863 5.918561782891629e-07 -0.22835756838321686 255.0 0.0 0.0
0.28047260642051697 -0.2535141110420227 0.07849189639091492 255.0 0.0 0.0
-0.281053364276886 0.1629284769296646 -0.3352815508842468 255.0 0.0 0.0
0.007711286190897226 0.16263629496097565 0.16303932666778564 255.0 0.0 0.0
-0.22493067383766174 -0.4659375548362732 0.08264800906181335 255.0 0.0 0.0
0.20931915938854218 0.22763463854789734 -0.005028885789215565 255.0 0.0 0.0
0.22612346708774567 0.35460174083709717 -0.08027578890323639 255.0 0.0 0.0
0.2510109543800354 0.2842458486557007 0.039759326726198196 255.0 0.0 0.0
0.25890058279037476 -0.3492439389228821 -0.07619965821504593 255.0 0.0 0.0
0.2970696985721588 0.22131949663162231 0.13801515102386475 255.0 0.0 0.0
0.2638743221759796 0.34688106179237366 -0.07234259694814682 255.0 0.0 0.0
0.2508451044559479 -0.06834843009710312 0.15425726771354675 255.0 0.0 0.0
-0.19994768500328064 0.2352193146944046 -0.02944660373032093 255.0 0.0 0.0
0.08800806850194931 -0.1835593283176422 0.16537675261497498 255.0 0.0 0.0
0.03951215371489525 0.21713782846927643 0.15519919991493225 255.0 0.0 0.0
0.2473289519548416 -0.1632523089647293 0.1607552021741867 255.0 0.0 0.0
0.08528538793325424 0.22793830931186676 -0.12176553905010223 255.0 0.0 0.0
-0.15573325753211975 -0.23315134644508362 0.15632209181785583 255.0 0.0 0.0
-0.20607036352157593 0.232657328248024 0.054143454879522324 255.0 0.0 0.0
0.07606174796819687 -0.24844545125961304 0.1524573117494583 255.0 0.0 0.0
-0.2659755051136017 0.02435503900051117 0.15632209181785583 255.0 0.0 0.0
-0.009608730673789978 0.20377591252326965 -0.23466332256793976 255.0 0.0 0.0
0.25603121519088745 0.027454152703285217 0.15178059041500092 255.0 0.0 0.0
-0.2711147665977478 -0.3071690797805786 0.11174748092889786 255.0 0.0 0.0
0.29754960536956787 -0.03742872178554535 0.14780689775943756 255.0 0.0 0.0
-0.2917814254760742 0.04608530551195145 -0.3128330409526825 255.0 0.0 0.0
-0.038768623024225235 0.3174147307872772 -0.2740534543991089 255.0 0.0 0.0
0.2513810098171234 -0.08182135224342346 0.15354648232460022 255.0 0.0 0.0
0.26895299553871155 0.46374452114105225 -0.07024291902780533 255.0 0.0 0.0
0.17282888293266296 -0.25485166907310486 0.028290489688515663 255.0 0.0 0.0
0.17396105825901031 -0.26922374963760376 -0.01764221303164959 255.0 0.0 0.0
-0.27601587772369385 -0.3938734531402588 0.2012791931629181 255.0 0.0 0.0
-0.15720896422863007 0.4233475923538208 0.08649285137653351 255.0 0.0 0.0
0.1893651783466339 0.3670194447040558 0.09583833813667297 255.0 0.0 0.0
0.27962788939476013 0.328188955783844 -0.03088729828596115 255.0 0.0 0.0
-0.23354953527450562 -0.2551575303077698 0.021895697340369225 255.0 0.0 0.0
0.23472021520137787 0.01829655095934868 0.1702006459236145 255.0 0.0 0.0
-0.26404350996017456 -0.08664922416210175 -0.27388879656791687 255.0 0.0 0.0
0.29358550906181335 0.1795499473810196 0.15630926191806793 255.0 0.0 0.0
0.2453104555606842 0.3230525851249695 -0.04304393008351326 255.0 0.0 0.0
-0.2578830122947693 0.36489132046699524 0.08516883850097656 255.0 0.0 0.0
-0.32929524779319763 -0.3407979905605316 0.18339279294013977 255.0 0.0 0.0
-0.08349047601222992 -0.1961427927017212 0.15489286184310913 255.0 0.0 0.0
0.060860853642225266 0.13690310716629028 -0.13506805896759033 255.0 0.0 0.0
0.24667134881019592 -0.27290645241737366 0.07572009414434433 255.0 0.0 0.0
-0.22953860461711884 0.2751580476760864 -0.35774901509284973 255.0 0.0 0.0
0.28779202699661255 0.34336042404174805 0.06327725946903229 255.0 0.0 0.0
0.21991169452667236 0.4166593849658966 0.0986822098493576 255.0 0.0 0.0
-0.0013223214773461223 0.2293306142091751 -0.13073763251304626 255.0 0.0 0.0
-0.2197204828262329 -0.3017594814300537 0.09125056862831116 255.0 0.0 0.0
0.09625831991434097 0.2246766984462738 -0.13316376507282257 255.0 0.0 0.0
