-0.2758510708808899 0.2041471153497696 0.10187770426273346 255.0 0.0 0.0
0.2773498296737671 -0.2509015202522278 -0.017863471060991287 255.0 0.0 0.0
-0.16531215608119965 0.22812457382678986 0.10794597119092941 255.0 0.0 0.0
-0.17446807026863098 0.1794944554567337 -0.1375565379858017 255.0 0.0 0.0
-0.06254030019044876 0.11907628178596497 0.17101745307445526 255.0 0.0 0.0
0.08041365444660187 -0.14365901052951813 -0.13600610196590424 255.0 0.0 0.0
0.2535531520843506 0.33971086144447327 0.10146135091781616 255.0 0.0 0.0
-0.19899889826774597 0.14758571982383728 -0.13463561236858368 255.0 0.0 0.0
-0.26756197214126587 -0.1935885101556778 -0.06474456191062927 255.0 0.0 0.0
0.04813626781105995 -0.12582989037036896 0.16723878681659698 255.0 0.0 0.0
-0.2955828309059143 -0.31943947076797485 0.09461425989866257 255.0 0.0 0.0
-0.13316187262535095 -0.2523159086704254 0.06683841347694397 255.0 0.0 0.0
-0.16501255333423615 0.4365609288215637 -0.0409906804561615 255.0 0.0 0.0
-0.2698095142841339 -0.016530683264136314 -0.11718252301216125 255.0 0.0 0.0
-0.11375630646944046 0.07863365858793259 0.16940195858478546 255.0 0.0 0.0
0.02784196473658085 0.008398725651204586 0.16924238204956055 255.0 0.0 0.0
0.20537254214286804 0.0055364156141877174 -0.13144376873970032 255.0 0.0 0.0
0.26674214005470276 -0.2878277003765106 -0.004333009477704763 255.0 0.0 0.0
-0.15387964248657227 0.22678154706954956 -0.06082436814904213 255.0 0.0 0.0
-0.04838269576430321 -0.25375014543533325 0.00831541046500206 255.0 0.0 0.0
0.0482950285077095 -0.2483610361814499 0.05734409764409065 255.0 0.0 0.0
-0.11082153767347336 -0.006916629150509834 -0.13506805896759033 255.0 0.0 0.0
-0.16982658207416534 -0.31469374895095825 -0.03836613520979881 255.0 0.0 0.0
0.05855003371834755 0.07868072390556335 -0.13506805896759033 255.0 0.0 0.0
0.10891316831111908 0.036818232387304306 0.1673903465270996 255.0 0.0 0.0
-0.2558135390281677 -0.47667017579078674 -0.0005387662095017731 255.0 0.0 0.0
-0.2680029273033142 0.0688091441988945 0.06953549385070801 255.0 0.0 0.0
-0.10281827300786972 -0.25107651948928833 -0.06557386368513107 255.0 0.0 0.0
0.13275231420993805 -0.2477279156446457 0.09147943556308746 255.0 0.0 0.0
-0.27069801092147827 -0.18566398322582245 -0.06629025191068649 255.0 0.0 0.0
-0.27045562863349915 0.1438949555158615 -0.09481636434793472 255.0 0.0 0.0
-0.2670900523662567 -0.45804116129875183 0.009112905710935593 255.0 0.0 0.0
-0.27131378650665283 -0.018998464569449425 0.08105354011058807 255.0 0.0 0.0
-0.3228837549686432 -0.38429829478263855 0.0981895923614502 255.0 0.0 0.0
0.20288033783435822 -0.33091646432876587 0.11074495315551758 255.0 0.0 0.0
0.03084314614534378 -0.12733200192451477 -0.13708220422267914 255.0 0.0 0.0
-0.0030696468893438578 -0.2533777058124542 -0.10982441157102585 255.0 0.0 0.0
0.029075656086206436 -0.2504086196422577 -0.1081189438700676 255.0 0.0 0.0
0.18529123067855835 0.43129977583885193 -0.04333525523543358 255.0 0.0 0.0
-0.05610321834683418 0.13932564854621887 0.17367510497570038 255.0 0.0 0.0
-0.07901928573846817 -0.25107884407043457 -0.0032789260149002075 255.0 0.0 0.0
0.21337375044822693 -0.2509097158908844 -0.08415158838033676 255.0 0.0 0.0
-0.2179519385099411 -0.2182246595621109 0.15732964873313904 255.0 0.0 0.0
-0.1695990264415741 0.36902865767478943 -0.049340881407260895 255.0 0.0 0.0
0.174795463681221 0.22603841125965118 -0.09749189019203186 255.0 0.0 0.0
-0.18482352793216705 -0.3533687889575958 0.07463285326957703 255.0 0.0 0.0
-0.0690319761633873 0.014020641334354877 0.1704503893852234 255.0 0.0 0.0
-0.2685069441795349 -0.0831095427274704 0.008264388889074326 255.0 0.0 0.0
-0.17510570585727692 -0.36883917450904846 -0.03357706591486931 255.0 0.0 0.0
0.29778674244880676 0.10261622071266174 -0.020015383139252663 255.0 0.0 0.0
0.2892383635044098 0.4683549106121063 0.10772349685430527 255.0 0.0 0.0
-0.030976923182606697 -0.024436110630631447 -0.1333877295255661 255.0 0.0 0.0
-0.13176994025707245 0.1092614158987999 -0.13567738234996796 255.0 0.0 0.0
0.20760156214237213 0.3921544551849365 -0.07901572436094284 255.0 0.0 0.0
-0.2789666950702667 -0.3162924647331238 0.0016478887991979718 255.0 0.0 0.0
0.30066558718681335 -0.18888196349143982 -0.10604999959468842 255.0 0.0 0.0
0.2996569275856018 -0.1811637133359909 -0.06928982585668564 255.0 0.0 0.0
0.19319139420986176 0.2258899211883545 -0.031462304294109344 255.0 0.0 0.0
-0.24489441514015198 -0.27724406123161316 -0.022726519033312798 255.0 0.0 0.0
-0.02362530678510666 -0.2525639832019806 0.11618322879076004 255.0 0.0 0.0
0.043095361441373825 -0.15628942847251892 0.16940069198608398 255.0 0.0 0.0
-0.20369522273540497 -0.10120914876461029 -0.1357119381427765 255.0 0.0 0.0
-0.26657140254974365 0.4113960862159729 0.08178062736988068 255.0 0.0 0.0
0.2945536673069 -0.21055123209953308 -0.03333212062716484 255.0 0.0 0.0
-0.061484526842832565 0.042125020176172256 0.16940195858478546 255.0 0.0 0.0
0.2972581684589386 -0.16737738251686096 -0.02484603226184845 255.0 0.0 0.0
0.2568783462047577 -0.22295425832271576 -0.13506805896759033 255.0 0.0 0.0
-0.051631633192300797 0.22810082137584686 0.1281033158302307 255.0 0.0 0.0
0.2972581684589386 0.041389841586351395 0.11849088221788406 255.0 0.0 0.0
-0.15518374741077423 0.15942689776420593 -0.13614435493946075 255.0 0.0 0.0
0.10547718405723572 -0.15214329957962036 0.16940195858478546 255.0 0.0 0.0
-0.18514509499073029 -0.4169517755508423 0.04949667304754257 255.0 0.0 0.0
-0.2707524597644806 -0.026773011311888695 0.12637965381145477 255.0 0.0 0.0
-0.27042752504348755 -0.34561657905578613 -0.0761994943022728 255.0 0.0 0.0
-0.2694450914859772 0.1384887993335724 -0.005076057277619839 255.0 0.0 0.0
0.09569281339645386 0.02269493043422699 0.16877713799476624 255.0 0.0 0.0
0.15538036823272705 0.14271505177021027 0.1693689227104187 255.0 0.0 0.0
0.07940573990345001 -0.15557844936847687 -0.1338355839252472 255.0 0.0 0.0
-0.09844768792390823 -0.25164350867271423 -0.04250770062208176 255.0 0.0 0.0
-0.2670265734195709 -0.07306895405054092 0.12867175042629242 255.0 0.0 0.0
-0.12588979303836823 0.22812457382678986 -0.014704517088830471 255.0 0.0 0.0
-0.2681044638156891 0.08612259477376938 0.06671135127544403 255.0 0.0 0.0
-0.14164666831493378 -0.018293922767043114 -0.1323218047618866 255.0 0.0 0.0
0.17365698516368866 -0.28799721598625183 0.0571434386074543 255.0 0.0 0.0
-0.056051600724458694 0.14042122662067413 0.16957052052021027 255.0 0.0 0.0
-0.2967689037322998 -0.39365309476852417 0.1365566998720169 255.0 0.0 0.0
0.14041699469089508 0.22856028378009796 0.02711474522948265 255.0 0.0 0.0
-0.026660040020942688 -0.2214929312467575 0.15347672998905182 255.0 0.0 0.0
0.14920607209205627 -0.027017150074243546 0.16924794018268585 255.0 0.0 0.0
-0.2662063539028168 0.36485546827316284 0.024199385195970535 255.0 0.0 0.0
-0.2707524597644806 0.001105689094401896 -0.01350366696715355 255.0 0.0 0.0
0.2578502893447876 -0.25050103664398193 0.09712930023670197 255.0 0.0 0.0
0.20271213352680206 -0.29109957814216614 0.08124208450317383 255.0 0.0 0.0
-0.15590471029281616 0.38980236649513245 -0.010228024795651436 255.0 0.0 0.0
-0.23716695606708527 0.4403749108314514 -0.07021724432706833 255.0 0.0 0.0
-0.26906150579452515 0.4190215766429901 0.05022727698087692 255.0 0.0 0.0
0.07511318475008011 -0.0697108581662178 -0.1326373964548111 255.0 0.0 0.0
-0.2673368453979492 0.3581368625164032 0.030940601602196693 255.0 0.0 0.0
-0.15177299082279205 0.22959695756435394 -0.11936992406845093 255.0 0.0 0.0
0.2433439940214157 0.0950605571269989 -0.13210083544254303 255.0 0.0 0.0
0.03501658886671066 -0.19594183564186096 -0.1352820098400116 255.0 0.0 0.0
0.16487440466880798 0.2280557006597519 0.09329720586538315 255.0 0.0 0.0
0.3016319274902344 -0.1760256439447403 0.09458345919847488 255.0 0.0 0.0
-0.16869033873081207 -0.06504011154174805 0.16940195858478546 255.0 0.0 0.0
-0.19616758823394775 -0.3990305960178375 -0.04779460281133652 255.0 0.0 0.0
0.2207401692867279 -0.2507100999355316 0.11900066584348679 255.0 0.0 0.0
0.11708749830722809 -0.04505022615194321 -0.13506805896759033 255.0 0.0 0.0
-0.06525541096925735 -0.24989984929561615 0.1030912846326828 255.0 0.0 0.0
-0.2707524597644806 -0.15959979593753815 -0.021301044151186943 255.0 0.0 0.0
0.2972581684589386 -0.0770999938249588 -0.04056390002369881 255.0 0.0 0.0
-0.10307120531797409 -0.023631909862160683 -0.13444215059280396 255.0 0.0 0.0
-0.26976442337036133 0.12356062978506088 0.0946674793958664 255.0 0.0 0.0
-0.10994308441877365 0.1505884826183319 -0.1333923637866974 255.0 0.0 0.0
0.2972581684589386 0.08295503258705139 0.03937721997499466 255.0 0.0 0.0
-0.2707524597644806 0.18260546028614044 -0.10115718841552734 255.0 0.0 0.0
0.007104930002242327 0.13148054480552673 -0.21336039900779724 255.0 0.0 0.0
0.1380080282688141 -0.06477349251508713 0.169307142496109 255.0 0.0 0.0
-0.1860211342573166 -0.30515167117118835 0.06836743652820587 255.0 0.0 0.0
0.2972581684589386 0.08916676044464111 0.011388974264264107 255.0 0.0 0.0
-0.23098331689834595 -0.015889285132288933 -0.13506805896759033 255.0 0.0 0.0
-0.18085165321826935 -0.3052038252353668 0.06673835217952728 255.0 0.0 0.0
0.15521614253520966 0.0030850486364215612 -0.13506805896759033 255.0 0.0 0.0
0.28597596287727356 -0.3750914931297302 0.10492905229330063 255.0 0.0 0.0
-0.06081630289554596 -0.011013136245310307 -0.13506805896759033 255.0 0.0 0.0
0.15244251489639282 -0.3222181797027588 0.02748781442642212 255.0 0.0 0.0
-0.17657005786895752 0.13812413811683655 -0.13506805896759033 255.0 0.0 0.0
0.012727029621601105 -0.1236606165766716 0.16716358065605164 255.0 0.0 0.0
-0.18321749567985535 0.13278447091579437 0.16940195858478546 255.0 0.0 0.0
0.26669347286224365 -0.3157206177711487 0.06675311177968979 255.0 0.0 0.0
-0.015248576179146767 -0.18306884169578552 -0.13642174005508423 255.0 0.0 0.0
0.21069325506687164 -0.36798128485679626 0.16266784071922302 255.0 0.0 0.0
-0.09097751975059509 -0.08372227102518082 -0.13492663204669952 255.0 0.0 0.0
0.2990000545978546 0.024177931249141693 -0.031885724514722824 255.0 0.0 0.0
-0.24901531636714935 0.22794312238693237 -0.07673335820436478 255.0 0.0 0.0
0.23198123276233673 -0.4463910758495331 0.08070546388626099 255.0 0.0 0.0
-0.05456899479031563 0.23102398216724396 -0.014367150142788887 255.0 0.0 0.0
-0.17666591703891754 0.010858260095119476 -0.13180330395698547 255.0 0.0 0.0
-0.1212310642004013 0.0026634829118847847 0.16940195858478546 255.0 0.0 0.0
-0.22485676407814026 -0.25059008598327637 -0.07888912409543991 255.0 0.0 0.0
-0.263477087020874 -0.29561999440193176 0.0409100167453289 255.0 0.0 0.0
0.293339341878891 -0.04230457544326782 0.06033163517713547 255.0 0.0 0.0
0.006427591200917959 0.06750049442052841 0.16586259007453918 255.0 0.0 0.0
0.29710742831230164 0.08503365516662598 -0.0719137042760849 255.0 0.0 0.0
0.014831804670393467 -0.25236648321151733 0.054997850209474564 255.0 0.0 0.0
-0.2538253962993622 0.4620808959007263 -0.021791860461235046 255.0 0.0 0.0
-0.06539344787597656 0.07056427001953125 -0.1329798847436905 255.0 0.0 0.0
0.05732525512576103 0.03745424747467041 0.1724284291267395 255.0 0.0 0.0
-0.12055103480815887 0.12351246923208237 -0.1327187865972519 255.0 0.0 0.0
0.1796288937330246 -0.12392200529575348 0.16805194318294525 255.0 0.0 0.0
0.13551363348960876 0.13116468489170074 0.16859424114227295 255.0 0.0 0.0
0.17999336123466492 0.14986230432987213 -0.13499601185321808 255.0 0.0 0.0
0.15414361655712128 0.22918494045734406 -0.08970323204994202 255.0 0.0 0.0
0.021463235840201378 0.12024690210819244 0.16940195858478546 255.0 0.0 0.0
0.07150454074144363 -0.09000004082918167 -0.13185565173625946 255.0 0.0 0.0
-0.2267128974199295 -0.2146472930908203 0.158463254570961 255.0 0.0 0.0
0.1909506618976593 -0.2509017586708069 -0.08166079223155975 255.0 0.0 0.0
-0.2707524597644806 0.11470341682434082 0.10796201974153519 255.0 0.0 0.0
-0.2668934762477875 0.4113890528678894 -0.020798714831471443 255.0 0.0 0.0
-0.11457590758800507 -0.055239658802747726 -0.13543753325939178 255.0 0.0 0.0
0.28647762537002563 0.44674867391586304 -0.06051584333181381 255.0 0.0 0.0
0.29961949586868286 0.13764941692352295 -0.04153181239962578 255.0 0.0 0.0
-0.05698882043361664 -0.04009335860610008 -0.13506805896759033 255.0 0.0 0.0
0.13828708231449127 0.1950247883796692 0.1583814024925232 255.0 0.0 0.0
0.04829961061477661 0.13033832609653473 -0.13733936846256256 255.0 0.0 0.0
-0.2707524597644806 0.01554326806217432 -0.10810678452253342 255.0 0.0 0.0
0.15439414978027344 -0.3060496747493744 0.003264128929004073 255.0 0.0 0.0
0.2763642370700836 -0.25063464045524597 0.05635938048362732 255.0 0.0 0.0
0.23400796949863434 -0.029707755893468857 -0.13506805896759033 255.0 0.0 0.0
0.19466711580753326 -0.2544060945510864 -0.0885954424738884 255.0 0.0 0.0
-0.2707524597644806 -0.21157832443714142 0.06371481716632843 255.0 0.0 0.0
0.24069422483444214 -0.0987955629825592 -0.1356942504644394 255.0 0.0 0.0
-0.08025501668453217 0.22729384899139404 -0.06928300857543945 255.0 0.0 0.0
-0.23711799085140228 0.4887534976005554 -0.021809663623571396 255.0 0.0 0.0
0.1756914258003235 0.4536610245704651 0.047450561076402664 255.0 0.0 0.0
0.2972581684589386 0.11229711025953293 0.11014949530363083 255.0 0.0 0.0
0.07374971359968185 0.22812457382678986 0.04561297222971916 255.0 0.0 0.0
-0.2746101915836334 -0.228249654173851 0.029817337170243263 255.0 0.0 0.0
-0.19358089566230774 -0.27225199341773987 -0.056589171290397644 255.0 0.0 0.0
-0.24672621488571167 0.22408045828342438 -0.06510965526103973 255.0 0.0 0.0
-0.08517462760210037 0.22812457382678986 -0.042344626039266586 255.0 0.0 0.0
-0.32536378502845764 -0.3972204327583313 -0.05311916768550873 255.0 0.0 0.0
0.30036067962646484 0.09897568821907043 0.04841345548629761 255.0 0.0 0.0
0.2972581684589386 -0.030889706686139107 0.047394171357154846 255.0 0.0 0.0
0.10008962452411652 -0.07203035056591034 -0.13655775785446167 255.0 0.0 0.0
0.2646125853061676 -0.30697348713874817 -0.050024040043354034 255.0 0.0 0.0
0.1775912195444107 -0.14441907405853271 -0.13448776304721832 255.0 0.0 0.0
0.16838228702545166 -0.14932705461978912 -0.13685691356658936 255.0 0.0 0.0
0.24279092252254486 0.22466450929641724 -0.06992775946855545 255.0 0.0 0.0
-0.14048102498054504 -0.019474465399980545 0.16940195858478546 255.0 0.0 0.0
0.07584063708782196 -0.09591273963451385 -0.1396499127149582 255.0 0.0 0.0
0.0036491260398179293 -0.0219283290207386 0.170847550034523 255.0 0.0 0.0
-0.04052065312862396 -0.25131720304489136 0.1284528374671936 255.0 0.0 0.0
-0.1632412225008011 0.40925100445747375 -0.04822560027241707 255.0 0.0 0.0
-0.007178880739957094 -0.14605315029621124 0.16862669587135315 255.0 0.0 0.0
0.24099747836589813 -0.07325967401266098 -0.1369042545557022 255.0 0.0 0.0
0.059181097894907 -0.0078169796615839 -0.132037952542305 255.0 0.0 0.0
-0.26493600010871887 0.3880102336406708 -0.0065119704231619835 255.0 0.0 0.0
-0.05485350638628006 -0.252946674823761 -0.025962529703974724 255.0 0.0 0.0
0.17040248215198517 -0.30092185735702515 -0.038474272936582565 255.0 0.0 0.0
0.2874593138694763 0.3327520787715912 0.006211496889591217 255.0 0.0 0.0
-0.019168587401509285 0.12248867750167847 -0.1368541121482849 255.0 0.0 0.0
-0.24354620277881622 0.011311403475701809 -0.2807210683822632 255.0 0.0 0.0
0.15495294332504272 -0.4012468755245209 -0.037557702511548996 255.0 0.0 0.0
-0.21301767230033875 0.22822090983390808 0.0932987630367279 255.0 0.0 0.0
-0.13070674240589142 -0.209104523062706 0.1546247899532318 255.0 0.0 0.0
-0.05760161206126213 0.086739681661129 0.1681225299835205 255.0 0.0 0.0
-0.26994529366493225 -0.1801399290561676 0.03958096727728844 255.0 0.0 0.0
0.2973991334438324 0.1215130165219307 0.10572368651628494 255.0 0.0 0.0
-0.2691905200481415 0.11352085322141647 0.027072453871369362 255.0 0.0 0.0
0.21670036017894745 -0.4424043297767639 -0.036038607358932495 255.0 0.0 0.0
0.07556992024183273 0.024608779698610306 0.1670628935098648 255.0 0.0 0.0
0.27744773030281067 -0.24964821338653564 0.06857006251811981 255.0 0.0 0.0
-0.2933475971221924 0.06783882528543472 -0.29157909750938416 255.0 0.0 0.0
0.2972581684589386 0.19219514727592468 0.0002611326053738594 255.0 0.0 0.0
0.29499906301498413 0.4524677097797394 -0.013902776874601841 255.0 0.0 0.0
0.10857456177473068 -0.20510782301425934 0.15340818464756012 255.0 0.0 0.0
-0.2707475423812866 0.040165722370147705 0.049127861857414246 255.0 0.0 0.0
-0.2392975389957428 0.26907578110694885 0.017961865290999413 255.0 0.0 0.0
0.10986557602882385 -0.20549346506595612 -0.13506805896759033 255.0 0.0 0.0
0.16778825223445892 -0.2963637113571167 -0.029557932168245316 255.0 0.0 0.0
0.2277531921863556 -0.09658189862966537 0.16942721605300903 255.0 0.0 0.0
-0.2885209023952484 -0.4146307408809662 0.08701080828905106 255.0 0.0 0.0
0.0018981199245899916 -0.2498060017824173 0.04306868836283684 255.0 0.0 0.0
-0.1237812265753746 0.13671129941940308 -0.13939332962036133 255.0 0.0 0.0
-0.18774394690990448 -0.40794509649276733 -0.03894640505313873 255.0 0.0 0.0
-0.17278918623924255 0.02189452201128006 0.1676395684480667 255.0 0.0 0.0
-0.2705262303352356 -0.15651190280914307 0.09043146669864655 255.0 0.0 0.0
0.04194379597902298 -0.2039794772863388 -0.1355101764202118 255.0 0.0 0.0
-0.1352321207523346 0.2258065789937973 0.048358991742134094 255.0 0.0 0.0
-0.09976667910814285 0.07904353737831116 -0.13506805896759033 255.0 0.0 0.0
-0.26999589800834656 0.18224161863327026 -0.0507587194442749 255.0 0.0 0.0
-0.23199772834777832 0.49453413486480713 -0.016249846667051315 255.0 0.0 0.0
-0.07182613015174866 -0.25469812750816345 -0.010583571158349514 255.0 0.0 0.0
0.21485202014446259 -0.445404589176178 0.06581735610961914 255.0 0.0 0.0
0.0975939929485321 0.22960102558135986 -0.11012492328882217 255.0 0.0 0.0
0.17607136070728302 0.3714543581008911 -0.01310939621180296 255.0 0.0 0.0
0.17755743861198425 -0.05767398327589035 -0.13738062977790833 255.0 0.0 0.0
0.16310544312000275 -0.09338311105966568 -0.13506805896759033 255.0 0.0 0.0
-0.23914951086044312 -0.2505798935890198 -0.07497672736644745 255.0 0.0 0.0
0.22440174221992493 0.04371064901351929 -0.12966947257518768 255.0 0.0 0.0
-0.1884719431400299 -0.4158843457698822 0.07016001641750336 255.0 0.0 0.0
0.18562385439872742 0.42799341678619385 -0.045557901263237 255.0 0.0 0.0
-0.28668826818466187 -0.33486509323120117 -0.031008077785372734 255.0 0.0 0.0
0.0011015968630090356 0.214689701795578 -0.23508727550506592 255.0 0.0 0.0
-0.03947235643863678 0.22517657279968262 0.0386551208794117 255.0 0.0 0.0
0.2969348728656769 0.08945755660533905 0.047135356813669205 255.0 0.0 0.0
0.05954393744468689 0.19348230957984924 -0.19529633224010468 255.0 0.0 0.0
0.0234786719083786 0.20674537122249603 -0.15677736699581146 255.0 0.0 0.0
-0.2680334746837616 0.14124080538749695 -0.015787089243531227 255.0 0.0 0.0
0.03349117934703827 -0.24960732460021973 0.07751554995775223 255.0 0.0 0.0
0.22341053187847137 -0.4440156817436218 -0.03631480783224106 255.0 0.0 0.0
0.2998882830142975 0.3847711682319641 -0.021151456981897354 255.0 0.0 0.0
-0.14448189735412598 0.22930215299129486 -0.08950486779212952 255.0 0.0 0.0
-0.271150678396225 -0.15636540949344635 0.015785830095410347 255.0 0.0 0.0
-0.29840371012687683 -0.3756539225578308 0.18980276584625244 255.0 0.0 0.0
-0.07012021541595459 -0.2507863938808441 0.10508628934621811 255.0 0.0 0.0
-0.10335741937160492 0.08285532146692276 0.16940195858478546 255.0 0.0 0.0
-0.24055923521518707 -0.27496960759162903 -0.031097346916794777 255.0 0.0 0.0
-0.1507975459098816 0.12900391221046448 0.16836979985237122 255.0 0.0 0.0
0.29437994956970215 -0.002959287026897073 0.05340037867426872 255.0 0.0 0.0
0.20346131920814514 0.48469972610473633 -0.035829637199640274 255.0 0.0 0.0
-0.2707524597644806 0.14163701236248016 0.024935895577073097 255.0 0.0 0.0
0.03842244669795036 -0.016672572121024132 0.1707218885421753 255.0 0.0 0.0
-0.2235792577266693 -0.13076597452163696 -0.13506805896759033 255.0 0.0 0.0
-0.09202436357736588 -0.19388115406036377 -0.13418054580688477 255.0 0.0 0.0
-0.2536425292491913 -0.29856759309768677 -0.034966714680194855 255.0 0.0 0.0
-0.015307470224797726 -0.2525027394294739 -0.02901279367506504 255.0 0.0 0.0
0.19197914004325867 -0.28550538420677185 0.07224324345588684 255.0 0.0 0.0
0.18602575361728668 0.38650479912757874 0.09974350780248642 255.0 0.0 0.0
-0.24992428719997406 0.11810038238763809 0.15628328919410706 255.0 0.0 0.0
-0.2706018090248108 -0.10182853788137436 0.002701178891584277 255.0 0.0 0.0
-0.27265843749046326 0.15969519317150116 0.07637874037027359 255.0 0.0 0.0
-0.038751207292079926 -0.0010838642483577132 0.16940195858478546 255.0 0.0 0.0
0.02028118446469307 -0.09939025342464447 0.17349763214588165 255.0 0.0 0.0
0.2769513726234436 -0.41112419962882996 -0.05716806650161743 255.0 0.0 0.0
0.1732182502746582 0.35790902376174927 0.04177761450409889 255.0 0.0 0.0
-0.039128392934799194 -0.250818133354187 -0.04913180321455002 255.0 0.0 0.0
-0.15344680845737457 0.4048548638820648 0.05135189741849899 255.0 0.0 0.0
-0.19837091863155365 -0.42814573645591736 0.08336680382490158 255.0 0.0 0.0
0.13787972927093506 -0.4114365577697754 0.12143000215291977 255.0 0.0 0.0
0.2836981415748596 -0.38672128319740295 -0.04110062122344971 255.0 0.0 0.0
-0.12440814077854156 0.22465620934963226 -0.0547066405415535 255.0 0.0 0.0
-0.20356573164463043 -0.2493312805891037 0.0967208743095398 255.0 0.0 0.0
0.2972581684589386 0.14741672575473785 -0.07911477237939835 255.0 0.0 0.0
-0.24017301201820374 0.23008453845977783 0.08548807352781296 255.0 0.0 0.0
-0.19069406390190125 -0.33936363458633423 -0.05741945281624794 255.0 0.0 0.0
-0.27046701312065125 -0.16192838549613953 -0.016178397461771965 255.0 0.0 0.0
0.29939988255500793 -0.21843039989471436 0.09481935948133469 255.0 0.0 0.0
0.28837671875953674 -0.40316423773765564 0.019022392109036446 255.0 0.0 0.0
-0.2716573178768158 0.1155383512377739 -0.03895092383027077 255.0 0.0 0.0
-0.17792664468288422 0.34265726804733276 0.0648970752954483 255.0 0.0 0.0
-0.0386042594909668 -0.2513026297092438 -0.049143772572278976 255.0 0.0 0.0
-0.2889949381351471 -0.0433940663933754 -0.2727828919887543 255.0 0.0 0.0
0.04432310163974762 0.12952980399131775 0.1678749918937683 255.0 0.0 0.0
-0.2548595666885376 0.47497400641441345 -0.007002263329923153 255.0 0.0 0.0
0.16052745282649994 -0.13352002203464508 -0.13506805896759033 255.0 0.0 0.0
0.06362663954496384 0.22785407304763794 0.0005629439256154001 255.0 0.0 0.0
0.14036038517951965 -0.3937044143676758 0.11126023530960083 255.0 0.0 0.0
0.17453007400035858 0.40839332342147827 0.00339375133626163 255.0 0.0 0.0
0.2867147624492645 0.4131896495819092 -0.060584474354982376 255.0 0.0 0.0
0.04416763409972191 -0.19256725907325745 -0.13760708272457123 255.0 0.0 0.0
0.15979167819023132 -0.25144490599632263 -0.03234370797872543 255.0 0.0 0.0
-0.043470196425914764 0.020130876451730728 -0.13895130157470703 255.0 0.0 0.0
-0.005623529199510813 0.021846896037459373 -0.13506805896759033 255.0 0.0 0.0
-0.2719786763191223 -0.009422635659575462 0.06423414498567581 255.0 0.0 0.0
-0.27299803495407104 -0.1543639600276947 -0.11763804405927658 255.0 0.0 0.0
0.0035783250350505114 -0.04819953441619873 0.16940195858478546 255.0 0.0 0.0
0.294948548078537 0.18835602700710297 -0.035091422498226166 255.0 0.0 0.0
0.1552117019891739 -0.2970195710659027 0.0009462348534725606 255.0 0.0 0.0
0.08076731115579605 0.18078377842903137 -0.13494297862052917 255.0 0.0 0.0
-0.297157883644104 -0.3994900584220886 0.12828472256660461 255.0 0.0 0.0
-0.13585585355758667 0.024137502536177635 -0.1331983506679535 255.0 0.0 0.0
-0.18919546902179718 0.1064588874578476 -0.13506805896759033 255.0 0.0 0.0
-0.24636927247047424 0.019853657111525536 -0.28938692808151245 255.0 0.0 0.0
0.024281665682792664 0.23025153577327728 0.030126629397273064 255.0 0.0 0.0
-0.1848515123128891 -0.3565707504749298 0.07214976102113724 255.0 0.0 0.0
0.29462578892707825 -0.0494081974029541 0.029059940949082375 255.0 0.0 0.0
-0.1200917437672615 -0.2537861168384552 -0.0672125518321991 255.0 0.0 0.0
-0.27219998836517334 -0.15606048703193665 -0.1048346608877182 255.0 0.0 0.0
-0.15904071927070618 0.22812457382678986 -0.01084979996085167 255.0 0.0 0.0
0.05643641948699951 0.22812457382678986 0.11692485958337784 255.0 0.0 0.0
-0.06854727119207382 0.1880226880311966 0.15740230679512024 255.0 0.0 0.0
-0.26924392580986023 -0.1284562200307846 0.011960864067077637 255.0 0.0 0.0
0.2759810984134674 0.06510685384273529 -0.13194306194782257 255.0 0.0 0.0
0.08752381801605225 -0.11631733179092407 -0.13693742454051971 255.0 0.0 0.0
-0.10435065627098083 -0.10248769819736481 0.16765059530735016 255.0 0.0 0.0
-0.10262200236320496 0.006126131862401962 0.16943420469760895 255.0 0.0 0.0
-0.03868741914629936 0.20648175477981567 0.1563078612089157 255.0 0.0 0.0
-0.2501690685749054 -0.25442731380462646 -0.08200013637542725 255.0 0.0 0.0
0.15868069231510162 -0.17757391929626465 -0.13595108687877655 255.0 0.0 0.0
-0.1874009519815445 0.05530298128724098 0.1661699265241623 255.0 0.0 0.0
0.13790765404701233 -0.3931576609611511 0.047945741564035416 255.0 0.0 0.0
-0.12634000182151794 0.22588400542736053 0.030654828995466232 255.0 0.0 0.0
-0.05093047767877579 0.22895072400569916 -0.0989743024110794 255.0 0.0 0.0
-0.12105429917573929 0.22606231272220612 -0.08406352251768112 255.0 0.0 0.0
0.15484705567359924 -0.40742623805999756 -0.03900124132633209 255.0 0.0 0.0
0.156258687376976 -0.3208286166191101 -0.010762850753962994 255.0 0.0 0.0
0.2450217753648758 -0.34437546133995056 0.13826778531074524 255.0 0.0 0.0
0.2978743016719818 -0.10841621458530426 0.11210844665765762 255.0 0.0 0.0
-0.2880212068557739 -0.3942934274673462 0.1693171262741089 255.0 0.0 0.0
0.0846046656370163 -0.16712111234664917 0.1693480908870697 255.0 0.0 0.0
-0.05787443742156029 0.22811922430992126 0.12327172607183456 255.0 0.0 0.0
-0.30219727754592896 -0.37538933753967285 -0.06469513475894928 255.0 0.0 0.0
0.011295613832771778 0.22947464883327484 0.1264999508857727 255.0 0.0 0.0
0.21927344799041748 -0.44649800658226013 0.010654451325535774 255.0 0.0 0.0
-0.2483370304107666 0.3990575671195984 -0.06256809085607529 255.0 0.0 0.0
-0.15704216063022614 0.4393045902252197 -0.0024797397200018167 255.0 0.0 0.0
0.2822315990924835 -0.4163360297679901 -0.030596425756812096 255.0 0.0 0.0
0.04250872880220413 0.12307655066251755 -0.13645972311496735 255.0 0.0 0.0
-0.03182034194469452 0.22758285701274872 -0.07940717786550522 255.0 0.0 0.0
-0.15711849927902222 -0.18636353313922882 -0.1350087672472 255.0 0.0 0.0
0.2972581684589386 -0.18594160676002502 0.0431138314306736 255.0 0.0 0.0
-0.29598870873451233 -0.3253787159919739 0.03034249134361744 255.0 0.0 0.0
0.066128671169281 -0.25131112337112427 -0.11354290693998337 255.0 0.0 0.0
-0.27326586842536926 -0.18655085563659668 0.0023773962166160345 255.0 0.0 0.0
-0.2072412222623825 0.08743706345558167 -0.13506805896759033 255.0 0.0 0.0
-0.26958733797073364 0.4224185347557068 0.0342218279838562 255.0 0.0 0.0
0.22987335920333862 -0.03782515227794647 -0.13506805896759033 255.0 0.0 0.0
0.15580874681472778 0.2277335375547409 0.08235301077365875 255.0 0.0 0.0
0.040250495076179504 0.15766431391239166 -0.1356780230998993 255.0 0.0 0.0
-0.16938458383083344 -0.24914129078388214 0.13207294046878815 255.0 0.0 0.0
0.044642411172389984 -0.16407109797000885 0.1682513952255249 255.0 0.0 0.0
0.14150844514369965 -0.3779507875442505 0.07670220732688904 255.0 0.0 0.0
-0.2177160233259201 0.500507116317749 0.05192505940794945 255.0 0.0 0.0
-0.17818453907966614 0.493550181388855 0.034471817314624786 255.0 0.0 0.0
0.3009883165359497 0.17963002622127533 -0.09701734036207199 255.0 0.0 0.0
-0.18524791300296783 -0.42077651619911194 0.025594273582100868 255.0 0.0 0.0
-0.2484728991985321 0.011342071928083897 -0.25964266061782837 255.0 0.0 0.0
-0.27120381593704224 -0.18261563777923584 0.12758515775203705 255.0 0.0 0.0
-0.20064695179462433 -0.10324933379888535 0.16999167203903198 255.0 0.0 0.0
0.1886359304189682 0.03229665756225586 -0.13616275787353516 255.0 0.0 0.0
0.11115051060914993 0.23028483986854553 0.09302552789449692 255.0 0.0 0.0
-0.07164816558361053 -0.05609002336859703 0.16838456690311432 255.0 0.0 0.0
-0.022789159789681435 0.1364552229642868 -0.13414043188095093 255.0 0.0 0.0
-0.01254370529204607 0.16394451260566711 -0.13757199048995972 255.0 0.0 0.0
0.29541894793510437 0.1268034726381302 -0.03647485747933388 255.0 0.0 0.0
-0.272524356842041 -0.2086419314146042 0.026234090328216553 255.0 0.0 0.0
-0.2863381803035736 -0.43496179580688477 0.021703889593482018 255.0 0.0 0.0
0.2957231104373932 0.3632294833660126 -0.02532138302922249 255.0 0.0 0.0
0.2550498843193054 0.5104982256889343 0.0774412602186203 255.0 0.0 0.0
-0.2707524597644806 0.1135716363787651 -0.08807239681482315 255.0 0.0 0.0
-0.26842930912971497 0.4293140172958374 0.033378783613443375 255.0 0.0 0.0
0.19224245846271515 -0.29608556628227234 -0.055324479937553406 255.0 0.0 0.0
-0.21898630261421204 -0.4620639681816101 -0.004813652951270342 255.0 0.0 0.0
-0.2707524597644806 0.04930472746491432 -0.10818885266780853 255.0 0.0 0.0
0.2659706175327301 0.04923783987760544 -0.13455240428447723 255.0 0.0 0.0
-0.20084995031356812 -0.44767940044403076 0.018776580691337585 255.0 0.0 0.0
-0.15528683364391327 0.05388687923550606 -0.13553868234157562 255.0 0.0 0.0
0.13543613255023956 0.0028019745368510485 -0.13568438589572906 255.0 0.0 0.0
-0.11039046198129654 -0.11472838371992111 0.16809573769569397 255.0 0.0 0.0
-0.006850938778370619 0.22866716980934143 0.0009611949208192527 255.0 0.0 0.0
0.0009037854615598917 0.14395847916603088 -0.13541655242443085 255.0 0.0 0.0
-0.23165267705917358 0.49182894825935364 -0.020287806168198586 255.0 0.0 0.0
-0.2299770712852478 0.2281070500612259 -0.08178924024105072 255.0 0.0 0.0
-0.09759578108787537 0.05749442055821419 0.1653434783220291 255.0 0.0 0.0
-0.2707524597644806 -0.034243907779455185 0.06550904363393784 255.0 0.0 0.0
0.26804637908935547 -0.288299560546875 0.012783864513039589 255.0 0.0 0.0
-0.057553160935640335 0.09230709820985794 -0.1365344524383545 255.0 0.0 0.0
-0.06553231179714203 0.13827896118164062 -0.13506805896759033 255.0 0.0 0.0
-0.0005255223950371146 -0.09845268726348877 0.172405406832695 255.0 0.0 0.0
-0.23103618621826172 0.22664549946784973 -0.04401562735438347 255.0 0.0 0.0
-0.12883247435092926 -0.017578285187482834 0.17163577675819397 255.0 0.0 0.0
-0.028375661000609398 -0.11629866063594818 -0.13506805896759033 255.0 0.0 0.0
0.2953287959098816 0.0690602958202362 -0.009188997559249401 255.0 0.0 0.0
-0.19898059964179993 -0.42191779613494873 -0.034401848912239075 255.0 0.0 0.0
-0.11226685345172882 0.03856753930449486 0.1695338487625122 255.0 0.0 0.0
0.12303110957145691 -0.2531099319458008 0.08967986702919006 255.0 0.0 0.0
0.22941960394382477 -0.4486960768699646 0.15086601674556732 255.0 0.0 0.0
0.23657546937465668 0.08582204580307007 -0.13677974045276642 255.0 0.0 0.0
-0.24449878931045532 0.018031468614935875 -0.13703112304210663 255.0 0.0 0.0
0.2998678982257843 0.41072389483451843 -0.004547246731817722 255.0 0.0 0.0
-0.2707524597644806 0.06286004930734634 0.12443984299898148 255.0 0.0 0.0
-0.2674737870693207 -0.43592432141304016 0.08582039177417755 255.0 0.0 0.0
0.2982473075389862 0.02348964475095272 0.03604331612586975 255.0 0.0 0.0
0.24693667888641357 -0.19510868191719055 -0.1343860924243927 255.0 0.0 0.0
0.16361093521118164 0.08831892907619476 0.17184492945671082 255.0 0.0 0.0
0.2041599303483963 -0.44621506333351135 -0.04064382612705231 255.0 0.0 0.0
0.021273354068398476 0.008546682074666023 -0.13315798342227936 255.0 0.0 0.0
-0.27373605966567993 -0.0715186595916748 0.10989059507846832 255.0 0.0 0.0
-0.19130167365074158 0.2263760268688202 0.13187697529792786 255.0 0.0 0.0
0.18551194667816162 0.17751912772655487 -0.13506805896759033 255.0 0.0 0.0
-0.2615416646003723 -0.2894570827484131 -0.00975782610476017 255.0 0.0 0.0
0.13203886151313782 -0.2509845197200775 0.059234313666820526 255.0 0.0 0.0
-0.18909618258476257 -0.25013667345046997 0.13411037623882294 255.0 0.0 0.0
0.30254480242729187 -0.09906961023807526 -0.09783995896577835 255.0 0.0 0.0
-0.01135164313018322 0.22683124244213104 -0.09540042281150818 255.0 0.0 0.0
0.1534527689218521 -0.44582316279411316 0.05482052266597748 255.0 0.0 0.0
-0.10626906156539917 0.03173620253801346 0.16787055134773254 255.0 0.0 0.0
-0.26778051257133484 0.16064611077308655 -0.0498213917016983 255.0 0.0 0.0
-0.17403393983840942 -0.2821042835712433 -0.04148263484239578 255.0 0.0 0.0
0.21644474565982819 -0.03005662001669407 0.17095708847045898 255.0 0.0 0.0
0.2950720489025116 0.16105128824710846 -0.010836434550583363 255.0 0.0 0.0
0.059709563851356506 -0.13851161301136017 -0.13506805896759033 255.0 0.0 0.0
-0.27916595339775085 -0.33069220185279846 -0.04878212884068489 255.0 0.0 0.0
-0.29558107256889343 -0.40059706568717957 0.12491917610168457 255.0 0.0 0.0
0.13158206641674042 0.18288682401180267 -0.13510389626026154 255.0 0.0 0.0
0.2972581684589386 0.03596718981862068 -0.019464975222945213 255.0 0.0 0.0
0.038186054676771164 0.2294548898935318 0.1268826425075531 255.0 0.0 0.0
-0.16881926357746124 0.08808302134275436 -0.13506805896759033 255.0 0.0 0.0
0.060769569128751755 -0.21768775582313538 0.15606188774108887 255.0 0.0 0.0
-0.022726459428668022 -0.22814114391803741 0.15422730147838593 255.0 0.0 0.0
0.1902315318584442 0.48427680134773254 0.09314487874507904 255.0 0.0 0.0
0.2972581684589386 -0.1569521129131317 -0.03570139408111572 255.0 0.0 0.0
-0.23671160638332367 -0.2529483735561371 -0.08170603215694427 255.0 0.0 0.0
-0.18285177648067474 0.18187488615512848 -0.13506805896759033 255.0 0.0 0.0
-0.2707524597644806 -0.09979980438947678 0.08258860558271408 255.0 0.0 0.0
0.14505356550216675 -0.3546142876148224 0.028580689802765846 255.0 0.0 0.0
0.08978179842233658 0.22665508091449738 0.11909448355436325 255.0 0.0 0.0
-0.1400911509990692 -0.2515186071395874 0.08501425385475159 255.0 0.0 0.0
0.2055879533290863 0.36115705966949463 -0.07005957514047623 255.0 0.0 0.0
0.12598572671413422 0.12930838763713837 -0.13506805896759033 255.0 0.0 0.0
0.2972581684589386 0.11012740433216095 0.10477565973997116 255.0 0.0 0.0
0.15174193680286407 0.22725529968738556 0.0754544660449028 255.0 0.0 0.0
0.12570896744728088 -0.250166654586792 0.1374572217464447 255.0 0.0 0.0
0.0031617656350135803 0.22451280057430267 -0.2453889548778534 255.0 0.0 0.0
-0.021266285330057144 0.14033707976341248 -0.13468922674655914 255.0 0.0 0.0
-0.04161170497536659 -0.07754432410001755 -0.13506805896759033 255.0 0.0 0.0
-0.1214296892285347 0.22747419774532318 0.11618512123823166 255.0 0.0 0.0
-0.19666554033756256 0.05941897630691528 -0.13466699421405792 255.0 0.0 0.0
-0.29686856269836426 0.037687286734580994 -0.29046306014060974 255.0 0.0 0.0
0.26493778824806213 -0.2846042811870575 0.019912345334887505 255.0 0.0 0.0
-0.16516385972499847 0.46673285961151123 -0.0047143311239778996 255.0 0.0 0.0
-0.2711022198200226 -0.18357917666435242 0.003548251697793603 255.0 0.0 0.0
0.19268496334552765 0.06107191741466522 -0.13342943787574768 255.0 0.0 0.0
0.29406747221946716 0.039065539836883545 -0.0858372375369072 255.0 0.0 0.0
-0.32220128178596497 -0.40848392248153687 0.02520289644598961 255.0 0.0 0.0
0.22413109242916107 -0.04896428436040878 0.16822971403598785 255.0 0.0 0.0
-0.2689802050590515 0.3682689666748047 0.004799391143023968 255.0 0.0 0.0
0.048238854855298996 -0.06969919055700302 0.16940195858478546 255.0 0.0 0.0
0.2711856961250305 0.5048989653587341 0.07540959864854813 255.0 0.0 0.0
-0.049990132451057434 -0.13849490880966187 -0.13184332847595215 255.0 0.0 0.0
0.006526084616780281 0.060472361743450165 -0.1371467411518097 255.0 0.0 0.0
0.16374808549880981 0.13489387929439545 0.16968581080436707 255.0 0.0 0.0
-0.15799212455749512 -0.34243470430374146 0.003488472430035472 255.0 0.0 0.0
0.12154434621334076 -0.24990589916706085 0.03983617201447487 255.0 0.0 0.0
-0.0897362157702446 -0.19910883903503418 -0.13320589065551758 255.0 0.0 0.0
0.130782812833786 0.22579482197761536 0.13319753110408783 255.0 0.0 0.0
0.03480669483542442 -0.07408364862203598 0.16940195858478546 255.0 0.0 0.0
-0.22002063691616058 0.4323122501373291 0.08975330740213394 255.0 0.0 0.0
-0.02726862020790577 -0.05251096189022064 -0.13506805896759033 255.0 0.0 0.0
-0.024144120514392853 0.15261687338352203 -0.13506805896759033 255.0 0.0 0.0
0.26616334915161133 0.5097923874855042 0.052442267537117004 255.0 0.0 0.0
0.15403719246387482 0.22703488171100616 0.08872540295124054 255.0 0.0 0.0
0.18947917222976685 0.2259047031402588 0.060556598007678986 255.0 0.0 0.0
0.1857997179031372 -0.44774770736694336 -0.00368204596452415 255.0 0.0 0.0
-0.10336080938577652 0.20602469146251678 -0.13506805896759033 255.0 0.0 0.0
-0.2286512404680252 -0.25040754675865173 0.12076201289892197 255.0 0.0 0.0
-0.17293797433376312 -0.33025601506233215 -0.04125228524208069 255.0 0.0 0.0
0.18035057187080383 0.46368736028671265 0.016542350873351097 255.0 0.0 0.0
-0.1665509045124054 0.03312429413199425 0.17114776372909546 255.0 0.0 0.0
0.26488587260246277 -0.2915855050086975 -0.019502690061926842 255.0 0.0 0.0
-0.09381457418203354 0.11173495650291443 -0.13506805896759033 255.0 0.0 0.0
0.19427932798862457 -0.38511621952056885 -0.07561475783586502 255.0 0.0 0.0
-0.2726764976978302 0.2044731080532074 -0.05901084840297699 255.0 0.0 0.0
0.04741945117712021 0.003950648009777069 -0.13487787544727325 255.0 0.0 0.0
-0.02697150968015194 0.22812457382678986 -0.040299076586961746 255.0 0.0 0.0
0.2972581684589386 -0.21495282649993896 0.0521669015288353 255.0 0.0 0.0
-0.15826363861560822 -0.21454660594463348 -0.1355319768190384 255.0 0.0 0.0
0.20476306974887848 0.005605313926935196 -0.13142865896224976 255.0 0.0 0.0
-0.27075088024139404 0.10767330974340439 -0.1151949092745781 255.0 0.0 0.0
-0.131334587931633 0.04874454066157341 -0.13577884435653687 255.0 0.0 0.0
-0.2707524597644806 -0.17220230400562286 0.06076784431934357 255.0 0.0 0.0
0.13582326471805573 -0.2219376564025879 -0.1336192786693573 255.0 0.0 0.0
0.036123231053352356 -0.03776288032531738 -0.13442692160606384 255.0 0.0 0.0
-0.2673233449459076 0.4364364445209503 0.03984156996011734 255.0 0.0 0.0
-0.07368551194667816 0.08406789600849152 -0.13352422416210175 255.0 0.0 0.0
0.035346195101737976 -0.2506483495235443 -0.08969855308532715 255.0 0.0 0.0
0.22664949297904968 -0.4480205774307251 0.11253978312015533 255.0 0.0 0.0
-0.24511617422103882 -0.2493358701467514 0.12682563066482544 255.0 0.0 0.0
-0.002338377758860588 -0.018990740180015564 0.16998036205768585 255.0 0.0 0.0
0.2751333713531494 -0.3420969843864441 -0.045447710901498795 255.0 0.0 0.0
-0.1538999378681183 0.23156894743442535 -0.055088989436626434 255.0 0.0 0.0
0.30035993456840515 -0.1562778204679489 -0.007249188609421253 255.0 0.0 0.0
-0.24971723556518555 -0.43872225284576416 0.12462998926639557 255.0 0.0 0.0
0.07534529268741608 -0.2507072687149048 -0.0727405995130539 255.0 0.0 0.0
-0.2707524597644806 0.010271959006786346 0.13171494007110596 255.0 0.0 0.0
-0.16763252019882202 -0.33827120065689087 -0.0189261045306921 255.0 0.0 0.0
0.1724226027727127 0.4200785458087921 -0.013069539330899715 255.0 0.0 0.0
-0.2707524597644806 0.1624499410390854 -0.07782766222953796 255.0 0.0 0.0
-0.12122952193021774 0.22812457382678986 0.0053917900659143925 255.0 0.0 0.0
-0.09679736196994781 0.03716086968779564 -0.13506805896759033 255.0 0.0 0.0
-0.2435518354177475 -0.17149141430854797 0.15740671753883362 255.0 0.0 0.0
0.10525722056627274 -0.11387032270431519 0.16981491446495056 255.0 0.0 0.0
-0.06286128610372543 0.09408530592918396 0.16940195858478546 255.0 0.0 0.0
0.014125448651611805 0.06856532394886017 -0.1338883340358734 255.0 0.0 0.0
0.16839705407619476 -0.4050178527832031 -0.054411761462688446 255.0 0.0 0.0
-0.1690264344215393 -0.0959448516368866 0.16968874633312225 255.0 0.0 0.0
-0.1371774673461914 0.2287326604127884 -0.042502280324697495 255.0 0.0 0.0
-0.08404800295829773 0.10298305749893188 0.16923247277736664 255.0 0.0 0.0
0.10579730570316315 0.005788717418909073 0.16956837475299835 255.0 0.0 0.0
-0.0991513654589653 0.13272857666015625 -0.13506805896759033 255.0 0.0 0.0
-0.1968495398759842 -0.377096027135849 -0.057484060525894165 255.0 0.0 0.0
0.048761773854494095 0.004571759141981602 0.1657859832048416 255.0 0.0 0.0
0.0981496125459671 -0.1481340080499649 0.1674584448337555 255.0 0.0 0.0
-0.01620962657034397 -0.2213967889547348 -0.13234245777130127 255.0 0.0 0.0
0.019164785742759705 0.12714797258377075 -0.13542455434799194 255.0 0.0 0.0
0.23571227490901947 0.47468850016593933 -0.07557692378759384 255.0 0.0 0.0
0.2972581684589386 0.022993573918938637 0.1360142081975937 255.0 0.0 0.0
-0.11462362855672836 0.22812457382678986 -0.0032307985238730907 255.0 0.0 0.0
-0.21200516819953918 0.22761695086956024 0.07596592605113983 255.0 0.0 0.0
-0.03485872223973274 -0.032866545021533966 -0.13506805896759033 255.0 0.0 0.0
0.0018236525356769562 0.073543481528759 0.16940195858478546 255.0 0.0 0.0
-0.27129626274108887 0.3894771635532379 0.05243603512644768 255.0 0.0 0.0
-0.012022841721773148 -0.22460193932056427 0.15628546476364136 255.0 0.0 0.0
-0.16225090622901917 -0.35043781995773315 0.014391889795660973 255.0 0.0 0.0
0.06751511245965958 -0.019184958189725876 -0.13506805896759033 255.0 0.0 0.0
-0.2184600830078125 -0.25107479095458984 -0.08937712013721466 255.0 0.0 0.0
-0.18813744187355042 0.23165127635002136 0.08439168334007263 255.0 0.0 0.0
-0.2722316086292267 -0.21480490267276764 -0.014778423123061657 255.0 0.0 0.0
0.20187176764011383 0.07501509040594101 0.16940195858478546 255.0 0.0 0.0
0.2972581684589386 0.09955539554357529 0.08680671453475952 255.0 0.0 0.0
0.2587405741214752 -0.4460468590259552 0.1271386593580246 255.0 0.0 0.0
0.03625302389264107 -0.1248931959271431 0.16823972761631012 255.0 0.0 0.0
0.20659209787845612 0.0024220948107540607 0.1689528375864029 255.0 0.0 0.0
-0.1407579928636551 0.12560103833675385 -0.13506805896759033 255.0 0.0 0.0
0.11870294064283371 0.22812457382678986 -0.007972437888383865 255.0 0.0 0.0
0.2249992936849594 -0.14766022562980652 0.16714847087860107 255.0 0.0 0.0
-0.19523446261882782 -0.43950963020324707 -0.004939947742968798 255.0 0.0 0.0
-0.16290490329265594 -0.24938468635082245 -0.07367999106645584 255.0 0.0 0.0
-0.3243025243282318 -0.3550873398780823 0.025196705013513565 255.0 0.0 0.0
0.19058218598365784 0.1361169070005417 0.16686135530471802 255.0 0.0 0.0
0.19897110760211945 -0.3573002517223358 -0.07599532604217529 255.0 0.0 0.0
0.017000893130898476 0.22930440306663513 0.022999195381999016 255.0 0.0 0.0
-0.08546538650989532 0.22812457382678986 -0.021489454433321953 255.0 0.0 0.0
-0.15382170677185059 0.3721570074558258 0.0013158369110897183 255.0 0.0 0.0
-0.1404908448457718 -0.1263359934091568 -0.13439632952213287 255.0 0.0 0.0
-0.18339502811431885 0.22369349002838135 0.11083666980266571 255.0 0.0 0.0
0.066107839345932 -0.25071612000465393 0.07493183016777039 255.0 0.0 0.0
0.08002093434333801 -0.16552522778511047 -0.13328348100185394 255.0 0.0 0.0
-0.10251301527023315 0.22738616168498993 0.0490134097635746 255.0 0.0 0.0
0.2972581684589386 -0.17909826338291168 0.03586583212018013 255.0 0.0 0.0
0.2972327172756195 -0.11978030949831009 -0.08823279291391373 255.0 0.0 0.0
0.2973724603652954 0.10505985468626022 0.10737502574920654 255.0 0.0 0.0
0.09572850912809372 0.1622973382472992 -0.13506805896759033 255.0 0.0 0.0
-0.18703366816043854 -0.31171169877052307 -0.05325751006603241 255.0 0.0 0.0
-0.2707524597644806 0.176301971077919 0.019047796726226807 255.0 0.0 0.0
-0.272845059633255 0.06657130271196365 -0.09662394970655441 255.0 0.0 0.0
0.2759630084037781 -0.25089699029922485 0.008463239297270775 255.0 0.0 0.0
-0.11421813070774078 0.19272685050964355 -0.1349327266216278 255.0 0.0 0.0
-0.29650697112083435 -0.44375091791152954 -0.02689165435731411 255.0 0.0 0.0
-0.2854571044445038 -0.3982717990875244 0.16652847826480865 255.0 0.0 0.0
-0.029571140184998512 -0.2507302165031433 0.10690957307815552 255.0 0.0 0.0
0.13724848628044128 -0.3967303931713104 0.08432554453611374 255.0 0.0 0.0
0.29578718543052673 0.1101689338684082 -0.012025701813399792 255.0 0.0 0.0
0.295428603887558 -0.22091041505336761 -0.08335820585489273 255.0 0.0 0.0
-0.27378833293914795 0.14056028425693512 0.0762607678771019 255.0 0.0 0.0
-0.3189890384674072 -0.35528847575187683 0.015570995397865772 255.0 0.0 0.0
0.03691361844539642 0.10573306679725647 0.16903147101402283 255.0 0.0 0.0
-0.07177262008190155 -0.25057458877563477 -0.10346747934818268 255.0 0.0 0.0
0.017457881942391396 -0.25020232796669006 -0.08213690668344498 255.0 0.0 0.0
0.15153728425502777 0.015213118866086006 -0.13506805896759033 255.0 0.0 0.0
0.16357189416885376 -0.25142642855644226 0.13565018773078918 255.0 0.0 0.0
0.2649974226951599 0.22697333991527557 -0.05872572585940361 255.0 0.0 0.0
0.23014795780181885 -0.16241709887981415 -0.13448403775691986 255.0 0.0 0.0
0.2720552384853363 -0.44802695512771606 0.1433849185705185 255.0 0.0 0.0
0.26555338501930237 0.2060181051492691 -0.13506805896759033 255.0 0.0 0.0
-0.023963460698723793 0.22575242817401886 0.061409372836351395 255.0 0.0 0.0
0.17581872642040253 -0.3954372704029083 0.18220195174217224 255.0 0.0 0.0
0.17405451834201813 0.3829628825187683 0.02510215900838375 255.0 0.0 0.0
0.20866654813289642 -0.09330336004495621 0.16786909103393555 255.0 0.0 0.0
-0.24936115741729736 -0.4217328429222107 -0.08572225272655487 255.0 0.0 0.0
0.09958349913358688 -0.10984323173761368 0.17048992216587067 255.0 0.0 0.0
-0.14066535234451294 -0.053781963884830475 0.16940195858478546 255.0 0.0 0.0
-0.1955859661102295 0.4138304889202118 -0.07671485096216202 255.0 0.0 0.0
0.3018706142902374 -0.18989594280719757 0.00750476960092783 255.0 0.0 0.0
-0.2695489525794983 0.11155880987644196 -0.04812724143266678 255.0 0.0 0.0
-0.03332599252462387 -0.25000208616256714 -0.0028750079218298197 255.0 0.0 0.0
-0.23309306800365448 0.2300839126110077 -0.08618456870317459 255.0 0.0 0.0
0.2093217819929123 0.18079879879951477 -0.13580892980098724 255.0 0.0 0.0
-0.024354157969355583 -0.22750553488731384 -0.13506805896759033 255.0 0.0 0.0
-0.2467956691980362 0.19597142934799194 0.15624113380908966 255.0 0.0 0.0
-0.07976575195789337 -0.24967685341835022 -0.01791449636220932 255.0 0.0 0.0
-0.1590476781129837 0.23111386597156525 -0.005038520321249962 255.0 0.0 0.0
0.1786973625421524 -0.44600388407707214 0.007975198328495026 255.0 0.0 0.0
0.17050132155418396 0.18851418793201447 0.15457546710968018 255.0 0.0 0.0
0.22604584693908691 -0.0014169934438541532 0.16902892291545868 255.0 0.0 0.0
0.29947158694267273 0.06502130627632141 0.026635799556970596 255.0 0.0 0.0
-0.019288048148155212 0.22812457382678986 0.08025483787059784 255.0 0.0 0.0
0.1574198603630066 -0.44540512561798096 0.05870542675256729 255.0 0.0 0.0
0.2591302990913391 -0.2739518880844116 -0.031817466020584106 255.0 0.0 0.0
-0.21436166763305664 -0.3164937198162079 0.09445158392190933 255.0 0.0 0.0
-0.2707524597644806 0.1646704524755478 -0.11123665422201157 255.0 0.0 0.0
-0.2707497179508209 0.06896642595529556 -0.11539910733699799 255.0 0.0 0.0
0.0726669505238533 -0.02980647422373295 0.16801543533802032 255.0 0.0 0.0
-0.2351926863193512 0.5016838908195496 0.049763113260269165 255.0 0.0 0.0
-0.26460206508636475 0.05671633034944534 0.1143493801355362 255.0 0.0 0.0
0.251835435628891 0.3350977301597595 0.09221730381250381 255.0 0.0 0.0
-0.26207244396209717 0.3669750988483429 0.07361479103565216 255.0 0.0 0.0
-0.1590503752231598 0.45264503359794617 -0.015937022864818573 255.0 0.0 0.0
-0.017342612147331238 -0.2504390478134155 0.035462137311697006 255.0 0.0 0.0
-0.04623089358210564 -0.11359868943691254 -0.13564114272594452 255.0 0.0 0.0
-0.000536283478140831 -0.13131649792194366 0.16940195858478546 255.0 0.0 0.0
0.012714246287941933 0.22801843285560608 0.10073702037334442 255.0 0.0 0.0
0.27745166420936584 -0.04480155557394028 -0.13506805896759033 255.0 0.0 0.0
0.12084401398897171 -0.2164783477783203 0.15618222951889038 255.0 0.0 0.0
0.08497268706560135 0.22812457382678986 -0.03070424310863018 255.0 0.0 0.0
0.2967304289340973 0.07574062794446945 -0.0835452601313591 255.0 0.0 0.0
-0.019508469849824905 0.22929419577121735 -0.030583027750253677 255.0 0.0 0.0
