0.2883232831954956 -0.42875856161117554 0.1780756115913391 255.0 0.0 0.0
-0.2712620198726654 -0.3468892276287079 -0.07878485321998596 255.0 0.0 0.0
-0.26892080903053284 -0.2422439455986023 0.04170834645628929 255.0 0.0 0.0
0.1253238469362259 -0.24278515577316284 0.15202008187770844 255.0 0.0 0.0
-0.1664809286594391 0.32504022121429443 -0.3307211399078369 255.0 0.0 0.0
0.28307265043258667 0.2299441695213318 -0.06315135210752487 255.0 0.0 0.0
0.2014952152967453 0.15370140969753265 0.16766071319580078 255.0 0.0 0.0
-0.21009474992752075 0.2119552195072174 0.1561528891324997 255.0 0.0 0.0
0.18134337663650513 -0.23311439156532288 0.15632209181785583 255.0 0.0 0.0
-0.021603569388389587 0.16744573414325714 -0.21511486172676086 255.0 0.0 0.0
-0.2509925365447998 0.019104130566120148 -0.30965477228164673 255.0 0.0 0.0
-0.17438001930713654 0.36378395557403564 0.09500923752784729 255.0 0.0 0.0
-0.23115545511245728 0.4949783384799957 0.10428353399038315 255.0 0.0 0.0
-0.2526938021183014 -0.2469927817583084 -0.1279953420162201 255.0 0.0 0.0
-0.03880586847662926 -0.2350483536720276 0.15632209181785583 255.0 0.0 0.0
0.28223690390586853 0.22663408517837524 0.054079461842775345 255.0 0.0 0.0
-0.12973222136497498 0.33305808901786804 -0.30812758207321167 255.0 0.0 0.0
-0.25570282340049744 0.018712984398007393 0.15731872618198395 255.0 0.0 0.0
0.20777112245559692 0.4960382580757141 -0.02351614087820053 255.0 0.0 0.0
-0.17129769921302795 0.3295784592628479 0.022031115368008614 255.0 0.0 0.0
0.011349567212164402 0.26049405336380005 -0.2666250169277191 255.0 0.0 0.0
0.2578181028366089 0.08338864147663116 0.1542125791311264 255.0 0.0 0.0
-0.23505499958992004 0.473337322473526 -0.05170352756977081 255.0 0.0 0.0
0.011763651855289936 0.1747477948665619 0.15164710581302643 255.0 0.0 0.0
0.2691148519515991 -0.44111397862434387 -0.050190407782793045 255.0 0.0 0.0
0.10966542363166809 0.1617717146873474 0.16664418578147888 255.0 0.0 0.0
-0.3352103531360626 -0.3908752501010895 0.03822940215468407 255.0 0.0 0.0
-0.1737828254699707 -0.2526583969593048 0.07877817004919052 255.0 0.0 0.0
0.2650423049926758 -0.4425603449344635 -0.051186442375183105 255.0 0.0 0.0
0.2782425582408905 0.002051136689260602 0.15629491209983826 255.0 0.0 0.0
-0.16634149849414825 -0.24732385575771332 -0.1256774663925171 255.0 0.0 0.0
0.053936515003442764 0.22573356330394745 -0.19608739018440247 255.0 0.0 0.0
-0.0762348473072052 -0.19517317414283752 0.15032736957073212 255.0 0.0 0.0
-0.2882993519306183 -0.008042662404477596 -0.29715943336486816 255.0 0.0 0.0
0.29623427987098694 0.20441758632659912 0.15566444396972656 255.0 0.0 0.0
0.06436055153608322 -0.23639245331287384 -0.13479448854923248 255.0 0.0 0.0
0.2888030409812927 0.20975516736507416 0.15632209181785583 255.0 0.0 0.0
0.2490263134241104 0.25814536213874817 -0.023823430761694908 255.0 0.0 0.0
0.26708272099494934 0.2287762463092804 0.05628449469804764 255.0 0.0 0.0
0.1444159299135208 -0.4398605525493622 -0.02081100083887577 255.0 0.0 0.0
-0.2241724580526352 0.3533213138580322 0.11015725135803223 255.0 0.0 0.0
0.02098858542740345 0.15446670353412628 0.16988453269004822 255.0 0.0 0.0
-0.23685796558856964 0.2624284327030182 -0.015444891527295113 255.0 0.0 0.0
-0.26324141025543213 0.15599142014980316 -0.306672602891922 255.0 0.0 0.0
-0.25901174545288086 0.18138982355594635 -0.31891345977783203 255.0 0.0 0.0
-0.2331077605485916 0.3183806240558624 -0.01946374960243702 255.0 0.0 0.0
0.2258053570985794 -0.27465349435806274 -0.05905788019299507 255.0 0.0 0.0
0.22042565047740936 0.1650349348783493 0.1649816334247589 255.0 0.0 0.0
0.22240899503231049 0.40643104910850525 0.10383179038763046 255.0 0.0 0.0
-0.20293794572353363 0.25206562876701355 0.042859114706516266 255.0 0.0 0.0
-0.26440131664276123 0.2284030169248581 -0.017634201794862747 255.0 0.0 0.0
0.2645825147628784 -0.4104531407356262 0.1951388567686081 255.0 0.0 0.0
-0.26313209533691406 -0.24584327638149261 0.06817030161619186 255.0 0.0 0.0
-0.0893191322684288 -0.23615474998950958 0.15632209181785583 255.0 0.0 0.0
-0.3174019455909729 -0.3559148907661438 0.20132498443126678 255.0 0.0 0.0
0.14368782937526703 -0.44832029938697815 0.09234569221735 255.0 0.0 0.0
0.014275004155933857 0.1935328096151352 -0.1344427615404129 255.0 0.0 0.0
-0.26804330945014954 -0.11552780866622925 -0.1257309466600418 255.0 0.0 0.0
0.2972581684589386 0.21130435168743134 0.0012306607095524669 255.0 0.0 0.0
0.005981647875159979 -0.1766132265329361 0.16822071373462677 255.0 0.0 0.0
0.2975025177001953 -0.23671464622020721 -0.051423970609903336 255.0 0.0 0.0
0.26000961661338806 0.22717998921871185 -0.028307873755693436 255.0 0.0 0.0
0.03749200329184532 0.22910045087337494 -0.24573448300361633 255.0 0.0 0.0
0.2858129143714905 0.09288011491298676 -0.13506805896759033 255.0 0.0 0.0
0.29593005776405334 0.04594756290316582 -0.135326087474823 255.0 0.0 0.0
-0.0974622443318367 0.332863986492157 -0.29704761505126953 255.0 0.0 0.0
-0.2314324676990509 -0.42149484157562256 0.19092553853988647 255.0 0.0 0.0
0.2844507694244385 0.22808818519115448 0.052131518721580505 255.0 0.0 0.0
-0.24879464507102966 -0.3966483771800995 0.20094142854213715 255.0 0.0 0.0
0.26372048258781433 0.2930215299129486 -0.016284197568893433 255.0 0.0 0.0
0.05884414166212082 -0.19020505249500275 0.16099913418293 255.0 0.0 0.0
-0.20841911435127258 0.21566739678382874 0.15391959249973297 255.0 0.0 0.0
0.19677698612213135 0.34556448459625244 -0.056168314069509506 255.0 0.0 0.0
-0.2084175944328308 -0.16942594945430756 0.17056073248386383 255.0 0.0 0.0
0.2959880530834198 0.19668373465538025 0.15860216319561005 255.0 0.0 0.0
0.2686696946620941 -0.335443913936615 0.11437030136585236 255.0 0.0 0.0
0.20356760919094086 0.18125121295452118 0.1543768346309662 255.0 0.0 0.0
0.29723411798477173 -0.1422208845615387 0.14577506482601166 255.0 0.0 0.0
-0.012247390113770962 0.15854550898075104 0.1690167486667633 255.0 0.0 0.0
-0.18156646192073822 0.46959736943244934 0.10475324094295502 255.0 0.0 0.0
-0.2624649405479431 0.010096853598952293 -0.13726288080215454 255.0 0.0 0.0
-0.2896527051925659 0.04630511999130249 -0.25655776262283325 255.0 0.0 0.0
-0.20181918144226074 0.44084855914115906 0.08610531687736511 255.0 0.0 0.0
-0.23041971027851105 -0.2540530264377594 -0.030140738934278488 255.0 0.0 0.0
-0.2665853202342987 0.1922442466020584 -0.13506805896759033 255.0 0.0 0.0
-0.22717098891735077 0.43981650471687317 -0.07167495787143707 255.0 0.0 0.0
-0.23316487669944763 0.1630512773990631 0.15222252905368805 255.0 0.0 0.0
0.25276127457618713 -0.25316521525382996 -0.015195712447166443 255.0 0.0 0.0
0.015559466555714607 0.25944843888282776 -0.26691678166389465 255.0 0.0 0.0
-0.12329772859811783 0.3215518593788147 -0.3173291087150574 255.0 0.0 0.0
0.07945515960454941 0.16779538989067078 0.15594685077667236 255.0 0.0 0.0
0.29090628027915955 0.22749820351600647 0.10002250224351883 255.0 0.0 0.0
-0.015718739479780197 0.10071495920419693 -0.15567456185817719 255.0 0.0 0.0
-0.22086791694164276 -0.3071694076061249 -0.07404452562332153 255.0 0.0 0.0
0.2836357653141022 -0.132550910115242 0.15632209181785583 255.0 0.0 0.0
-0.17694464325904846 0.25003957748413086 0.017723895609378815 255.0 0.0 0.0
-0.23334883153438568 -0.2537793815135956 0.04944264143705368 255.0 0.0 0.0
0.06226237118244171 0.12414850294589996 -0.15491798520088196 255.0 0.0 0.0
-0.2633873224258423 0.05821219086647034 0.1579737663269043 255.0 0.0 0.0
0.27875375747680664 0.3393096923828125 -0.04893558844923973 255.0 0.0 0.0
-0.19291774928569794 0.46855655312538147 0.09586668014526367 255.0 0.0 0.0
0.29575812816619873 0.22628413140773773 -0.08188637346029282 255.0 0.0 0.0
0.23597760498523712 -0.19609442353248596 0.1534423828125 255.0 0.0 0.0
0.2981990575790405 0.15496034920215607 -0.1361534148454666 255.0 0.0 0.0
-0.2723749876022339 -0.017802592366933823 0.15403172373771667 255.0 0.0 0.0
-0.0824337750673294 0.328520804643631 -0.3156070113182068 255.0 0.0 0.0
-0.1978338062763214 0.500677227973938 0.0040395488031208515 255.0 0.0 0.0
0.25202831625938416 0.17107222974300385 0.14754199981689453 255.0 0.0 0.0
0.2519570589065552 0.3205633759498596 0.058725062757730484 255.0 0.0 0.0
-0.27072301506996155 -0.1810705065727234 -0.12576527893543243 255.0 0.0 0.0
-0.08084983378648758 0.15819403529167175 0.1686650812625885 255.0 0.0 0.0
-0.1741514652967453 0.4078037440776825 0.10001643002033234 255.0 0.0 0.0
-0.07525890320539474 -0.18228557705879211 0.1678093522787094 255.0 0.0 0.0
-0.22278714179992676 -0.4218687415122986 0.18343888223171234 255.0 0.0 0.0
-0.1888677179813385 0.5006023645401001 0.020530154928565025 255.0 0.0 0.0
0.22963063418865204 0.23146001994609833 0.05193555727601051 255.0 0.0 0.0
-0.009884737432003021 0.21742583811283112 0.154957115650177 255.0 0.0 0.0
-0.16109882295131683 -0.2513178288936615 -0.04553455859422684 255.0 0.0 0.0
-0.2405242621898651 -0.3926633596420288 0.19711394608020782 255.0 0.0 0.0
-0.24320834875106812 0.2731190025806427 -0.3296789526939392 255.0 0.0 0.0
-0.26935017108917236 0.09358330816030502 0.15683390200138092 255.0 0.0 0.0
-0.28147751092910767 -0.3735881447792053 -0.08849592506885529 255.0 0.0 0.0
0.29710230231285095 -0.16127988696098328 -0.1326003074645996 255.0 0.0 0.0
0.18021787703037262 0.17274780571460724 0.15281188488006592 255.0 0.0 0.0
-0.3290170729160309 -0.35929781198501587 0.16344183683395386 255.0 0.0 0.0
-0.2363528460264206 0.31617581844329834 -0.018655847758054733 255.0 0.0 0.0
-0.20447315275669098 -0.2448299080133438 0.15630334615707397 255.0 0.0 0.0
0.2970201075077057 0.0905817523598671 0.1493285596370697 255.0 0.0 0.0
-0.02332485094666481 0.11071654409170151 -0.17103339731693268 255.0 0.0 0.0
-0.2500898838043213 -0.37371012568473816 -0.09636388719081879 255.0 0.0 0.0
0.2913552224636078 0.12753799557685852 -0.13597799837589264 255.0 0.0 0.0
0.11298719048500061 0.2290758341550827 0.15094877779483795 255.0 0.0 0.0
0.0018781357211992145 0.17354609072208405 0.14970433712005615 255.0 0.0 0.0
-0.22083927690982819 -0.17664925754070282 0.16065768897533417 255.0 0.0 0.0
-0.32549649477005005 -0.34010007977485657 0.18974624574184418 255.0 0.0 0.0
-0.2498016208410263 -0.3571418225765228 -0.09100674837827682 255.0 0.0 0.0
0.025788109749555588 0.09651926904916763 -0.13779450953006744 255.0 0.0 0.0
-0.2793630361557007 -0.397467702627182 -0.0947740450501442 255.0 0.0 0.0
0.26252806186676025 0.2911023199558258 0.03112289123237133 255.0 0.0 0.0
-0.11636271327733994 -0.19406457245349884 0.15228670835494995 255.0 0.0 0.0
-0.1562248319387436 0.39385101199150085 0.09496906399726868 255.0 0.0 0.0
-0.028985485434532166 0.21451975405216217 0.15547211468219757 255.0 0.0 0.0
0.25694963335990906 0.2442592829465866 -0.02041119523346424 255.0 0.0 0.0
0.09828599542379379 -0.17270538210868835 0.16868309676647186 255.0 0.0 0.0
-0.2004825919866562 0.44218888878822327 -0.07903984934091568 255.0 0.0 0.0
-0.14440996944904327 0.3218963146209717 -0.3460027277469635 255.0 0.0 0.0
-0.20659378170967102 -0.23124375939369202 -0.13358542323112488 255.0 0.0 0.0
-0.34199202060699463 -0.3641529083251953 0.07852745801210403 255.0 0.0 0.0
0.2706544101238251 -0.348099023103714 0.12662063539028168 255.0 0.0 0.0
-0.06911050528287888 0.216717928647995 -0.13506805896759033 255.0 0.0 0.0
0.0333181694149971 0.19000205397605896 -0.13598963618278503 255.0 0.0 0.0
0.2979666590690613 -0.08104108273983002 0.1464969515800476 255.0 0.0 0.0
0.050642576068639755 0.21713587641716003 -0.21746116876602173 255.0 0.0 0.0
-0.23826934397220612 -0.29499927163124084 0.08710143715143204 255.0 0.0 0.0
0.2513257563114166 0.08548641949892044 0.15688182413578033 255.0 0.0 0.0
-0.246342271566391 -0.4658213257789612 -0.04818178340792656 255.0 0.0 0.0
0.2161494493484497 0.3616518974304199 0.12408719956874847 255.0 0.0 0.0
0.2940619885921478 -0.200592502951622 0.1562388837337494 255.0 0.0 0.0
-0.26578283309936523 -0.02994353137910366 -0.2227693349123001 255.0 0.0 0.0
0.1599031686782837 -0.33785000443458557 0.08120214939117432 255.0 0.0 0.0
0.26853346824645996 0.3495428264141083 0.112921342253685 255.0 0.0 0.0
0.25514867901802063 0.26695993542671204 -0.015752414241433144 255.0 0.0 0.0
0.04852847754955292 0.23261123895645142 -0.20117099583148956 255.0 0.0 0.0
-0.19995412230491638 0.301443487405777 -0.35724082589149475 255.0 0.0 0.0
-0.025394009426236153 0.29542115330696106 -0.24645809829235077 255.0 0.0 0.0
0.2698530852794647 -0.25067976117134094 -0.013473721221089363 255.0 0.0 0.0
0.24728311598300934 0.4920731782913208 -0.05250784009695053 255.0 0.0 0.0
-0.12549187242984772 0.22736577689647675 0.15659639239311218 255.0 0.0 0.0
-0.1876913458108902 0.499752014875412 0.062275480479002 255.0 0.0 0.0
0.09041552245616913 -0.19028379023075104 0.15600056946277618 255.0 0.0 0.0
0.26127108931541443 0.29931363463401794 0.041081495583057404 255.0 0.0 0.0
-0.24652977287769318 -0.3919701874256134 0.20263388752937317 255.0 0.0 0.0
-0.23846803605556488 -0.4272106885910034 0.18822930753231049 255.0 0.0 0.0
0.02342921681702137 -0.2485441267490387 -0.1310790777206421 255.0 0.0 0.0
0.21348178386688232 -0.26885274052619934 0.07757874578237534 255.0 0.0 0.0
-0.23607337474822998 -0.25306031107902527 0.05778447538614273 255.0 0.0 0.0
0.29654282331466675 -0.24070709943771362 0.13079117238521576 255.0 0.0 0.0
0.2968798875808716 0.146870955824852 0.14597956836223602 255.0 0.0 0.0
0.2994484305381775 0.22484496235847473 -0.04802464321255684 255.0 0.0 0.0
-0.005805266089737415 -0.24898308515548706 -0.1291169673204422 255.0 0.0 0.0
-0.23648516833782196 -0.4739319384098053 -0.02785821445286274 255.0 0.0 0.0
0.27559271454811096 0.3324868679046631 0.0531037375330925 255.0 0.0 0.0
0.25433534383773804 0.37562310695648193 -0.09145396947860718 255.0 0.0 0.0
0.24050305783748627 -0.2408515214920044 -0.136857807636261 255.0 0.0 0.0
-0.2856726050376892 0.10194490104913712 -0.28907543420791626 255.0 0.0 0.0
-0.2705495059490204 0.09259316325187683 -0.13366709649562836 255.0 0.0 0.0
0.2972089946269989 0.4479493498802185 0.11285308003425598 255.0 0.0 0.0
-0.2634187340736389 -0.06304679065942764 -0.287516325712204 255.0 0.0 0.0
-0.10176406055688858 -0.20326703786849976 0.15699243545532227 255.0 0.0 0.0
-0.2476462572813034 -0.01203196495771408 -0.24315978586673737 255.0 0.0 0.0
-0.27222245931625366 0.14210058748722076 0.1456158459186554 255.0 0.0 0.0
0.27606603503227234 -0.443582683801651 0.05030970647931099 255.0 0.0 0.0
0.28757286071777344 -0.14655321836471558 -0.13624140620231628 255.0 0.0 0.0
0.20414462685585022 0.2270623743534088 -0.016316527500748634 255.0 0.0 0.0
0.04779685661196709 0.11549146473407745 -0.18268626928329468 255.0 0.0 0.0
0.2486412674188614 0.3790007531642914 0.11374355107545853 255.0 0.0 0.0
-0.2136782556772232 -0.03130404278635979 0.16913285851478577 255.0 0.0 0.0
0.1991526186466217 0.17186647653579712 0.1518278568983078 255.0 0.0 0.0
-0.23744291067123413 0.49204906821250916 0.09771013259887695 255.0 0.0 0.0
-0.17389944195747375 -0.19873785972595215 0.1542389690876007 255.0 0.0 0.0
-0.256076842546463 -0.006253242492675781 -0.13493318855762482 255.0 0.0 0.0
-0.02528640814125538 0.28433215618133545 -0.23795931041240692 255.0 0.0 0.0
-0.20503956079483032 0.230742409825325 -0.035992369055747986 255.0 0.0 0.0
-0.26368483901023865 0.22641970217227936 -0.1163698211312294 255.0 0.0 0.0
-0.2587595283985138 0.22809040546417236 -0.08684872090816498 255.0 0.0 0.0
-0.21929599344730377 -0.02184666506946087 0.16360095143318176 255.0 0.0 0.0
-0.2631133198738098 0.1478164792060852 -0.13648365437984467 255.0 0.0 0.0
-0.22819481790065765 0.44001254439353943 -0.07607372105121613 255.0 0.0 0.0
0.2769160866737366 0.22827750444412231 -0.035234857350587845 255.0 0.0 0.0
0.28528934717178345 -0.00506205577403307 0.1595168262720108 255.0 0.0 0.0
-0.20838582515716553 0.4845050871372223 0.10543910413980484 255.0 0.0 0.0
-0.24597367644309998 0.22701896727085114 0.05403793603181839 255.0 0.0 0.0
0.2280883938074112 -0.37591540813446045 -0.08969631046056747 255.0 0.0 0.0
-0.04563364014029503 0.32101112604141235 -0.29201486706733704 255.0 0.0 0.0
0.25986993312835693 -0.26683440804481506 0.0019281575223430991 255.0 0.0 0.0
-0.03097960166633129 -0.19618409872055054 0.14908626675605774 255.0 0.0 0.0
-0.22479033470153809 0.2982194721698761 -0.018920982256531715 255.0 0.0 0.0
0.05344373360276222 -0.1956157386302948 0.15101544559001923 255.0 0.0 0.0
-0.1777445673942566 0.4910731613636017 0.08201569318771362 255.0 0.0 0.0
-0.2163376808166504 -0.2623392641544342 -0.05114331841468811 255.0 0.0 0.0
0.2503427565097809 0.09714008122682571 0.15328605473041534 255.0 0.0 0.0
-0.20740163326263428 0.007536388002336025 0.16884474456310272 255.0 0.0 0.0
0.2744942605495453 0.4875573217868805 0.12405259162187576 255.0 0.0 0.0
0.044114891439676285 0.2278740555047989 -0.23511391878128052 255.0 0.0 0.0
-0.22038650512695312 0.12424022704362869 0.15803159773349762 255.0 0.0 0.0
-0.2160736322402954 0.4225882887840271 -0.08050496131181717 255.0 0.0 0.0
0.2179112285375595 -0.2527633309364319 0.08580292761325836 255.0 0.0 0.0
-0.2581762969493866 -0.4750206470489502 -0.03526993840932846 255.0 0.0 0.0
0.2857634127140045 0.08567801862955093 -0.13945665955543518 255.0 0.0 0.0
-0.205777108669281 0.3289358913898468 0.05544326454401016 255.0 0.0 0.0
0.1447696089744568 0.16587615013122559 0.15756158530712128 255.0 0.0 0.0
-0.27679744362831116 0.13350078463554382 -0.3302837610244751 255.0 0.0 0.0
0.1764829009771347 -0.42415353655815125 0.19099543988704681 255.0 0.0 0.0
-0.2675358057022095 0.13636502623558044 -0.1347314417362213 255.0 0.0 0.0
0.2239997535943985 -0.23940585553646088 -0.1359037160873413 255.0 0.0 0.0
-0.27327874302864075 0.17856626212596893 -0.1199602261185646 255.0 0.0 0.0
-0.0569143109023571 0.17152392864227295 0.15112271904945374 255.0 0.0 0.0
0.045479726046323776 0.250102162361145 -0.23300491273403168 255.0 0.0 0.0
-0.028661033138632774 0.24169385433197021 -0.22433264553546906 255.0 0.0 0.0
-0.2708587646484375 -0.042978718876838684 0.15103816986083984 255.0 0.0 0.0
-0.24064068496227264 0.25927242636680603 0.02754811756312847 255.0 0.0 0.0
0.27553945779800415 0.007353372406214476 0.1539013683795929 255.0 0.0 0.0
0.23050005733966827 0.17195390164852142 0.14999990165233612 255.0 0.0 0.0
0.21486423909664154 0.4752158224582672 0.10278938710689545 255.0 0.0 0.0
0.30506303906440735 0.15666864812374115 0.14476382732391357 255.0 0.0 0.0
0.21293146908283234 0.2707844078540802 0.005320120137184858 255.0 0.0 0.0
-0.2855195105075836 0.04705362394452095 -0.318172425031662 255.0 0.0 0.0
0.2198658138513565 0.3021868169307709 0.042130205780267715 255.0 0.0 0.0
-0.2703911364078522 0.22803200781345367 -0.3548075556755066 255.0 0.0 0.0
0.19997422397136688 0.22936518490314484 0.034470319747924805 255.0 0.0 0.0
0.2720837891101837 0.39859533309936523 0.12074287980794907 255.0 0.0 0.0
-0.2657056450843811 -0.17833085358142853 -0.13643458485603333 255.0 0.0 0.0
-0.26178276538848877 0.14932073652744293 -0.30502012372016907 255.0 0.0 0.0
0.2433130145072937 0.34300288558006287 0.11177327483892441 255.0 0.0 0.0
-0.24439528584480286 -0.40856409072875977 0.20044276118278503 255.0 0.0 0.0
0.18770772218704224 0.3528408408164978 0.08247885853052139 255.0 0.0 0.0
0.2972581684589386 -0.23793566226959229 0.08977207541465759 255.0 0.0 0.0
0.17513613402843475 -0.252805233001709 -0.12689360976219177 255.0 0.0 0.0
0.05250905081629753 0.21180908381938934 -0.1836068332195282 255.0 0.0 0.0
0.19626465439796448 -0.442345529794693 -0.0762481838464737 255.0 0.0 0.0
-0.2707221806049347 0.025564687326550484 0.14782020449638367 255.0 0.0 0.0
0.2671826183795929 0.5115538239479065 0.0171925351023674 255.0 0.0 0.0
-0.2294582575559616 0.10364479571580887 0.15305589139461517 255.0 0.0 0.0
-0.25663304328918457 0.06662625819444656 0.15758493542671204 255.0 0.0 0.0
-0.21479740738868713 0.31214261054992676 0.04427988454699516 255.0 0.0 0.0
0.29634323716163635 0.21615077555179596 0.13518927991390228 255.0 0.0 0.0
-0.2530193626880646 -0.026851369068026543 -0.2991865873336792 255.0 0.0 0.0
0.29231882095336914 0.18827858567237854 -0.13348333537578583 255.0 0.0 0.0
-0.2741933763027191 0.13149157166481018 -0.11761839687824249 255.0 0.0 0.0
-0.25616857409477234 0.09427133202552795 0.1606922596693039 255.0 0.0 0.0
-0.273689329624176 -0.016292182728648186 0.1525897979736328 255.0 0.0 0.0
-0.14483040571212769 -0.192795991897583 0.155991330742836 255.0 0.0 0.0
-0.2483186423778534 0.47417449951171875 0.09029722213745117 255.0 0.0 0.0
0.29817354679107666 -0.04176412895321846 -0.117459736764431 255.0 0.0 0.0
-0.1664782017469406 0.394988089799881 0.10307790338993073 255.0 0.0 0.0
-0.32225534319877625 -0.35390207171440125 0.19772082567214966 255.0 0.0 0.0
-0.06276404857635498 -0.17701134085655212 0.16943101584911346 255.0 0.0 0.0
0.24899713695049286 -0.23412500321865082 0.15696567296981812 255.0 0.0 0.0
0.22510236501693726 0.5135897994041443 0.04763951525092125 255.0 0.0 0.0
-0.27870097756385803 -0.36515599489212036 -0.08999434858560562 255.0 0.0 0.0
0.19079887866973877 -0.4365023374557495 -0.07404480129480362 255.0 0.0 0.0
-0.2629031240940094 0.4173659384250641 0.10109887272119522 255.0 0.0 0.0
-0.3298153877258301 -0.3407265543937683 0.17797254025936127 255.0 0.0 0.0
-0.2624249756336212 0.14403261244297028 -0.29786792397499084 255.0 0.0 0.0
-0.13870219886302948 0.3416237533092499 -0.3205435872077942 255.0 0.0 0.0
-0.26746875047683716 -0.17308299243450165 0.13920415937900543 255.0 0.0 0.0
-0.3361935615539551 -0.37077596783638 0.07871226966381073 255.0 0.0 0.0
-0.135257750749588 -0.23684658110141754 0.154108464717865 255.0 0.0 0.0
-0.19304867088794708 0.5007466673851013 0.08319459855556488 255.0 0.0 0.0
0.13023895025253296 0.17363160848617554 0.14576107263565063 255.0 0.0 0.0
0.2951390743255615 -0.2512270212173462 -0.04841975122690201 255.0 0.0 0.0
-0.1966729760169983 0.23323772847652435 -0.029707159847021103 255.0 0.0 0.0
0.27979543805122375 0.35253778100013733 -0.06041914224624634 255.0 0.0 0.0
-0.1946410983800888 -0.18035610020160675 0.1686747968196869 255.0 0.0 0.0
-0.21058401465415955 -0.4154972434043884 0.15591609477996826 255.0 0.0 0.0
0.022069469094276428 0.2279849648475647 0.14229825139045715 255.0 0.0 0.0
-0.1878432184457779 0.3164156377315521 0.03646112605929375 255.0 0.0 0.0
-0.16129283607006073 0.40075021982192993 0.09630455821752548 255.0 0.0 0.0
0.24058373272418976 -0.4457339346408844 0.19765983521938324 255.0 0.0 0.0
0.1404661238193512 0.16364355385303497 0.1619848757982254 255.0 0.0 0.0
0.21755282580852509 -0.25845861434936523 -0.04966290295124054 255.0 0.0 0.0
-0.01995660550892353 0.28407028317451477 -0.28669992089271545 255.0 0.0 0.0
0.2958289086818695 -0.024580728262662888 -0.12986969947814941 255.0 0.0 0.0
0.2131766974925995 0.22707746922969818 0.14791199564933777 255.0 0.0 0.0
-0.1719558984041214 0.1560240238904953 0.1675763577222824 255.0 0.0 0.0
0.2551034986972809 -0.2626310884952545 0.04397619143128395 255.0 0.0 0.0
-0.27458900213241577 0.15652118623256683 -0.2994237542152405 255.0 0.0 0.0
0.2972506880760193 0.0034758092369884253 0.1396021693944931 255.0 0.0 0.0
-0.2903302311897278 0.07857809215784073 -0.2789270281791687 255.0 0.0 0.0
0.24410493671894073 0.00513363815844059 0.1708802729845047 255.0 0.0 0.0
-0.008217353373765945 0.22850599884986877 -0.18073520064353943 255.0 0.0 0.0
-0.13577136397361755 0.3311249613761902 -0.31087225675582886 255.0 0.0 0.0
-0.06321373581886292 0.1849425733089447 0.15443331003189087 255.0 0.0 0.0
-0.058225736021995544 0.22562836110591888 -0.13846653699874878 255.0 0.0 0.0
-0.07512101531028748 -0.23870080709457397 -0.13180312514305115 255.0 0.0 0.0
0.2953456938266754 0.1611146479845047 0.1365804374217987 255.0 0.0 0.0
-0.20975454151630402 0.2357839047908783 -0.03171227127313614 255.0 0.0 0.0
0.2812497913837433 -0.08388664573431015 0.1563185155391693 255.0 0.0 0.0
0.2524496912956238 -0.2991301417350769 -0.06501191854476929 255.0 0.0 0.0
-0.05277364328503609 -0.25019943714141846 -0.12891890108585358 255.0 0.0 0.0
-0.16925370693206787 -0.2604409158229828 0.057304758578538895 255.0 0.0 0.0
0.2633459270000458 -0.38478997349739075 0.17800085246562958 255.0 0.0 0.0
0.2831486761569977 0.009090007282793522 0.15580251812934875 255.0 0.0 0.0
-0.2592123746871948 0.15531842410564423 -0.3328574299812317 255.0 0.0 0.0
-0.02527935616672039 0.17117534577846527 -0.1343952864408493 255.0 0.0 0.0
-0.1737954169511795 -0.2537006437778473 -0.05706878751516342 255.0 0.0 0.0
-0.15720896422863007 0.4233475923538208 0.08649285137653351 255.0 0.0 0.0
-0.25938892364501953 0.440611869096756 0.11506608128547668 255.0 0.0 0.0
0.2065390795469284 0.3920656144618988 0.11236009001731873 255.0 0.0 0.0
0.2527427077293396 0.35234707593917847 -0.07995730638504028 255.0 0.0 0.0
0.11009707301855087 -0.24963100254535675 -0.13122500479221344 255.0 0.0 0.0
-0.14658337831497192 -0.23829850554466248 0.15517735481262207 255.0 0.0 0.0
-0.03924091160297394 0.22489356994628906 0.15768097341060638 255.0 0.0 0.0
0.2972581684589386 -0.24231232702732086 0.09167350083589554 255.0 0.0 0.0
-0.1787131428718567 0.2107599377632141 0.15632209181785583 255.0 0.0 0.0
0.07632672786712646 0.1375923901796341 -0.13559187948703766 255.0 0.0 0.0
0.19817858934402466 -0.19374817609786987 0.15096227824687958 255.0 0.0 0.0
0.15861530601978302 -0.2500673830509186 0.1421157568693161 255.0 0.0 0.0
0.025645460933446884 0.18107976019382477 0.15801618993282318 255.0 0.0 0.0
-0.21296243369579315 -0.2032746821641922 0.15827694535255432 255.0 0.0 0.0
-0.2707524597644806 0.21980810165405273 0.06610432267189026 255.0 0.0 0.0
0.04878081753849983 0.22913037240505219 -0.23014535009860992 255.0 0.0 0.0
0.285385400056839 -0.015057363547384739 0.15482746064662933 255.0 0.0 0.0
0.09061306715011597 0.21741236746311188 0.15621505677700043 255.0 0.0 0.0
-0.24105024337768555 -0.3014688491821289 -0.06747418642044067 255.0 0.0 0.0
0.22549504041671753 0.49704086780548096 -0.03833698853850365 255.0 0.0 0.0
0.2518133819103241 -0.043470971286296844 0.15417176485061646 255.0 0.0 0.0
-0.21252642571926117 -0.28632381558418274 0.07583548873662949 255.0 0.0 0.0
0.2159072458744049 0.33838218450546265 0.10115192085504532 255.0 0.0 0.0
-0.2557487487792969 0.28709983825683594 -0.32881054282188416 255.0 0.0 0.0
-0.2557724416255951 -0.4749371409416199 -0.04400878772139549 255.0 0.0 0.0
-0.07551144063472748 -0.18935060501098633 0.15243351459503174 255.0 0.0 0.0
-0.2249603122472763 0.4683791697025299 0.09906171262264252 255.0 0.0 0.0
-0.23113948106765747 -0.2591051757335663 0.03750372305512428 255.0 0.0 0.0
-0.20527517795562744 0.16236890852451324 0.1637938916683197 255.0 0.0 0.0
0.017511259764432907 0.1867867112159729 -0.13877186179161072 255.0 0.0 0.0
-0.02117779850959778 0.25926145911216736 -0.2585223317146301 255.0 0.0 0.0
-0.2525978684425354 0.22949577867984772 -0.0023857844062149525 255.0 0.0 0.0
-0.2145685851573944 0.34438732266426086 -0.061256058514118195 255.0 0.0 0.0
0.2541115880012512 -0.44544240832328796 0.19780822098255157 255.0 0.0 0.0
0.0165984109044075 0.27255743741989136 -0.22714637219905853 255.0 0.0 0.0
0.22091183066368103 -0.44287583231925964 -0.08063594996929169 255.0 0.0 0.0
-0.22371318936347961 -0.046274732798337936 0.15331405401229858 255.0 0.0 0.0
0.2523616850376129 -0.08874320983886719 0.1471184492111206 255.0 0.0 0.0
-0.11810348927974701 -0.2494325339794159 -0.13192909955978394 255.0 0.0 0.0
-0.20783086121082306 -0.2525961995124817 0.07444629818201065 255.0 0.0 0.0
-0.27458813786506653 -0.15410354733467102 -0.12412311136722565 255.0 0.0 0.0
0.24019178748130798 -0.0649079978466034 0.1670738011598587 255.0 0.0 0.0
-0.21121451258659363 0.27307650446891785 -0.01902269572019577 255.0 0.0 0.0
0.058777518570423126 0.17268094420433044 0.1481102705001831 255.0 0.0 0.0
0.2237667292356491 -0.4453278183937073 0.19287653267383575 255.0 0.0 0.0
0.08387577533721924 -0.25111520290374756 0.1447252482175827 255.0 0.0 0.0
0.21192923188209534 0.40068116784095764 -0.08004987239837646 255.0 0.0 0.0
-0.02827642858028412 0.2984994947910309 -0.2528928816318512 255.0 0.0 0.0
0.060243234038352966 0.19815704226493835 -0.20178206264972687 255.0 0.0 0.0
-0.2617572844028473 0.20216162502765656 -0.3460242450237274 255.0 0.0 0.0
-0.23443099856376648 -0.09982401877641678 0.1583404690027237 255.0 0.0 0.0
0.25279927253723145 0.2292594313621521 0.05897064879536629 255.0 0.0 0.0
-0.20132924616336823 0.29664117097854614 -0.01806515082716942 255.0 0.0 0.0
0.18541871011257172 -0.2522847652435303 0.0456521175801754 255.0 0.0 0.0
-0.20084315538406372 -0.42015039920806885 0.13038064539432526 255.0 0.0 0.0
0.2530719041824341 0.34167245030403137 -0.06715710461139679 255.0 0.0 0.0
-0.06773335486650467 0.21192428469657898 -0.1330394744873047 255.0 0.0 0.0
0.296220064163208 -0.21367590129375458 0.14369350671768188 255.0 0.0 0.0
0.19551444053649902 -0.2517215311527252 0.06272630393505096 255.0 0.0 0.0
0.22799427807331085 0.5078114867210388 -0.02461763098835945 255.0 0.0 0.0
-0.18021361529827118 0.16687238216400146 0.15728917717933655 255.0 0.0 0.0
-0.2418612241744995 -0.3183933198451996 -0.07796727865934372 255.0 0.0 0.0
0.2596066892147064 -0.4446429908275604 0.19389581680297852 255.0 0.0 0.0
0.2532307803630829 0.506428599357605 -0.026865605264902115 255.0 0.0 0.0
0.18884313106536865 0.40436863899230957 0.11516523361206055 255.0 0.0 0.0
-0.23093397915363312 -0.4470614194869995 0.12124701589345932 255.0 0.0 0.0
0.21997524797916412 -0.4403769075870514 -0.08430930227041245 255.0 0.0 0.0
0.24736729264259338 0.4251427948474884 -0.09334640204906464 255.0 0.0 0.0
-0.27172189950942993 0.25690755248069763 -0.32826492190361023 255.0 0.0 0.0
-0.26260384917259216 -0.17242324352264404 0.15365301072597504 255.0 0.0 0.0
-0.2608305811882019 0.15870660543441772 -0.32299119234085083 255.0 0.0 0.0
-0.2831944525241852 -0.04304010421037674 -0.23827886581420898 255.0 0.0 0.0
-0.01249460969120264 0.16679614782333374 -0.13658179342746735 255.0 0.0 0.0
0.21509325504302979 -0.2516821324825287 -0.05231405794620514 255.0 0.0 0.0
0.2562016248703003 -0.0013929597334936261 0.1536698192358017 255.0 0.0 0.0
-0.2019391804933548 0.356458842754364 0.10746201127767563 255.0 0.0 0.0
-0.25501322746276855 -0.08529543876647949 -0.22736644744873047 255.0 0.0 0.0
-0.21471565961837769 0.22877682745456696 0.06508594751358032 255.0 0.0 0.0
0.2992836534976959 -0.23227854073047638 0.012916703708469868 255.0 0.0 0.0
0.1639116108417511 -0.24709810316562653 0.1547619253396988 255.0 0.0 0.0
-0.2608548700809479 0.15209844708442688 -0.30864453315734863 255.0 0.0 0.0
-0.2156856209039688 -0.05290047079324722 0.17325459420681 255.0 0.0 0.0
-0.23708558082580566 0.45050472021102905 -0.07001809030771255 255.0 0.0 0.0
0.1292058676481247 -0.19360660016536713 0.15632829070091248 255.0 0.0 0.0
-0.22725379467010498 0.23855388164520264 0.04919109866023064 255.0 0.0 0.0
-0.25106731057167053 0.22574615478515625 -0.3503401577472687 255.0 0.0 0.0
-0.14827784895896912 -0.2668963074684143 0.003321573371067643 255.0 0.0 0.0
-0.016432296484708786 0.14494048058986664 -0.2114650160074234 255.0 0.0 0.0
0.2830495536327362 -0.10816716402769089 0.15329720079898834 255.0 0.0 0.0
-0.07727253437042236 -0.19166649878025055 0.15799228847026825 255.0 0.0 0.0
-0.2577608525753021 -0.046006616204977036 -0.1354040950536728 255.0 0.0 0.0
-0.26449722051620483 0.0087271211668849 -0.31067711114883423 255.0 0.0 0.0
-0.1640678346157074 0.36595895886421204 0.0844707190990448 255.0 0.0 0.0
0.23765453696250916 0.15007483959197998 0.16629460453987122 255.0 0.0 0.0
0.24957892298698425 -0.014495433308184147 0.15660306811332703 255.0 0.0 0.0
0.22447414696216583 0.2279077172279358 0.14571769535541534 255.0 0.0 0.0
0.27183234691619873 0.3730151057243347 0.1295848786830902 255.0 0.0 0.0
-0.09053179621696472 0.314349502325058 -0.32845190167427063 255.0 0.0 0.0
0.25053244829177856 0.2304801642894745 0.06530588865280151 255.0 0.0 0.0
-0.2796612083911896 0.13534116744995117 -0.3279651999473572 255.0 0.0 0.0
0.26787757873535156 -0.38175272941589355 -0.07175873219966888 255.0 0.0 0.0
-0.25980404019355774 0.050319869071245193 0.1556348204612732 255.0 0.0 0.0
0.2976975440979004 0.1276737004518509 -0.12090200930833817 255.0 0.0 0.0
-0.33305561542510986 -0.36548522114753723 0.12871193885803223 255.0 0.0 0.0
-0.08161383867263794 0.332721084356308 -0.29682430624961853 255.0 0.0 0.0
-0.061509259045124054 0.16777192056179047 0.1603943556547165 255.0 0.0 0.0
-0.039223331958055496 0.15516908466815948 -0.1363728642463684 255.0 0.0 0.0
0.10375421494245529 -0.2338975965976715 0.16086556017398834 255.0 0.0 0.0
0.2270069718360901 -0.17992661893367767 0.1675623506307602 255.0 0.0 0.0
-0.21830050647258759 -0.06835740804672241 0.15878400206565857 255.0 0.0 0.0
0.03810212016105652 0.22396545112133026 -0.23894256353378296 255.0 0.0 0.0
-0.2587151825428009 0.35623690485954285 -0.023167800158262253 255.0 0.0 0.0
-0.26929670572280884 0.2175326645374298 0.10983997583389282 255.0 0.0 0.0
0.28977862000465393 -0.4377824068069458 0.1003483310341835 255.0 0.0 0.0
0.20071454346179962 0.3203469216823578 -0.02443382330238819 255.0 0.0 0.0
-0.2154943346977234 -0.4636099636554718 0.05349878966808319 255.0 0.0 0.0
-0.2528109848499298 0.14636307954788208 -0.13460254669189453 255.0 0.0 0.0
0.2841950058937073 -0.3780352771282196 0.14399559795856476 255.0 0.0 0.0
-0.020227959379553795 -0.2534233331680298 -0.12225797027349472 255.0 0.0 0.0
-0.23832520842552185 0.2253415286540985 0.05911370739340782 255.0 0.0 0.0
-0.1279391199350357 -0.23958781361579895 -0.13506805896759033 255.0 0.0 0.0
-0.2588121294975281 0.024227702990174294 0.15632209181785583 255.0 0.0 0.0
-0.25566861033439636 -0.09537646919488907 -0.25869104266166687 255.0 0.0 0.0
-0.3379824459552765 -0.3731187582015991 0.03912607580423355 255.0 0.0 0.0
-0.2704301178455353 -0.1385943740606308 -0.12753671407699585 255.0 0.0 0.0
-0.22398273646831512 0.3092738389968872 -0.36263057589530945 255.0 0.0 0.0
-0.2273392677307129 0.3904076814651489 0.09738215804100037 255.0 0.0 0.0
0.21272870898246765 0.4642575979232788 -0.07117193192243576 255.0 0.0 0.0
0.19523954391479492 0.49107012152671814 0.09995977580547333 255.0 0.0 0.0
-0.32890498638153076 -0.41733160614967346 -0.05037987232208252 255.0 0.0 0.0
-0.19214561581611633 0.29978203773498535 -0.009730148129165173 255.0 0.0 0.0
-0.25857189297676086 0.18118983507156372 -0.30806589126586914 255.0 0.0 0.0
-0.25101447105407715 0.45318421721458435 0.11910707503557205 255.0 0.0 0.0
0.20405252277851105 0.31680867075920105 -0.008494377136230469 255.0 0.0 0.0
-0.25714144110679626 0.22980047762393951 -0.10276724398136139 255.0 0.0 0.0
0.28993961215019226 0.42551127076148987 0.1271807700395584 255.0 0.0 0.0
-0.02938128262758255 0.2415124624967575 -0.23079542815685272 255.0 0.0 0.0
0.19534359872341156 0.23098035156726837 0.01494054775685072 255.0 0.0 0.0
-0.2856215238571167 -0.037910230457782745 -0.23597541451454163 255.0 0.0 0.0
0.16101256012916565 -0.4354242980480194 -0.04447254166007042 255.0 0.0 0.0
-0.2761388123035431 0.2006562203168869 -0.3127760589122772 255.0 0.0 0.0
-0.22642052173614502 0.265674889087677 0.0409773588180542 255.0 0.0 0.0
0.052181944251060486 -0.23355430364608765 -0.13353563845157623 255.0 0.0 0.0
0.27971750497817993 -0.4420386254787445 -0.01626291312277317 255.0 0.0 0.0
0.1932305097579956 0.3550141751766205 -0.04492542892694473 255.0 0.0 0.0
0.26295313239097595 0.23625829815864563 -0.021633349359035492 255.0 0.0 0.0
-0.2623138427734375 -0.25097912549972534 0.028844257816672325 255.0 0.0 0.0
-0.23139704763889313 0.4836272895336151 -0.04165234789252281 255.0 0.0 0.0
0.2841425836086273 0.37172332406044006 0.12279652804136276 255.0 0.0 0.0
0.25639608502388 -0.4316820800304413 -0.08647701144218445 255.0 0.0 0.0
-0.23913641273975372 0.27691468596458435 0.002658634912222624 255.0 0.0 0.0
-0.2700537145137787 -0.24914799630641937 -0.06821124255657196 255.0 0.0 0.0
-0.20070424675941467 0.4312073588371277 -0.07725640386343002 255.0 0.0 0.0
-0.29532745480537415 0.04345109313726425 -0.2672930657863617 255.0 0.0 0.0
0.027204172685742378 0.08905711024999619 -0.136508971452713 255.0 0.0 0.0
0.2547578513622284 0.30463770031929016 0.04627520218491554 255.0 0.0 0.0
0.05391924828290939 0.18619540333747864 -0.15721572935581207 255.0 0.0 0.0
-0.28384122252464294 0.02661898545920849 -0.3157948851585388 255.0 0.0 0.0
-0.19011281430721283 0.16094547510147095 0.169237419962883 255.0 0.0 0.0
0.22320185601711273 0.22794297337532043 0.14415790140628815 255.0 0.0 0.0
-0.21600423753261566 -0.187477245926857 0.15974263846874237 255.0 0.0 0.0
-0.05953676998615265 -0.2499772608280182 0.1418021023273468 255.0 0.0 0.0
-0.2908390164375305 -0.38039103150367737 0.20283232629299164 255.0 0.0 0.0
-0.26425474882125854 0.42747625708580017 0.10322758555412292 255.0 0.0 0.0
-0.28626498579978943 -0.46023139357566833 -0.060637447983026505 255.0 0.0 0.0
-0.1824716478586197 0.2566576302051544 0.013208041898906231 255.0 0.0 0.0
0.269779771566391 0.4623975455760956 0.12207916378974915 255.0 0.0 0.0
-0.21293391287326813 0.22611309587955475 -0.13392795622348785 255.0 0.0 0.0
0.26941946148872375 0.29531270265579224 0.006950011011213064 255.0 0.0 0.0
0.2954331040382385 0.460226446390152 0.11132434010505676 255.0 0.0 0.0
0.24203938245773315 0.011632625944912434 0.16113027930259705 255.0 0.0 0.0
-0.2034546434879303 -0.27276626229286194 0.0767945945262909 255.0 0.0 0.0
0.2640591561794281 0.48565059900283813 -0.05430274084210396 255.0 0.0 0.0
0.2317705899477005 0.24735863506793976 -0.024280564859509468 255.0 0.0 0.0
-0.27525022625923157 -0.3944566547870636 0.19341570138931274 255.0 0.0 0.0
-0.2311432659626007 -0.24456949532032013 0.15817013382911682 255.0 0.0 0.0
0.2646653652191162 -0.43916669487953186 0.20121267437934875 255.0 0.0 0.0
0.29598408937454224 -0.10291753709316254 0.14155608415603638 255.0 0.0 0.0
-0.03415963426232338 0.20480917394161224 -0.19661052525043488 255.0 0.0 0.0
-0.2542969286441803 0.47033974528312683 0.1027827262878418 255.0 0.0 0.0
0.006416971329599619 0.28622230887413025 -0.23760691285133362 255.0 0.0 0.0
-0.0335664376616478 0.20479333400726318 -0.18831588327884674 255.0 0.0 0.0
-0.25515979528427124 0.053345561027526855 -0.25472167134284973 255.0 0.0 0.0
0.2935328483581543 0.2016906440258026 0.15679775178432465 255.0 0.0 0.0
-0.21383747458457947 -0.25328943133354187 -0.06150944530963898 255.0 0.0 0.0
0.2484765648841858 -0.2470041811466217 0.15016081929206848 255.0 0.0 0.0
0.2549803555011749 0.027301166206598282 0.1561005562543869 255.0 0.0 0.0
-0.26093536615371704 0.2263754904270172 -0.09601221233606339 255.0 0.0 0.0
-0.22035537660121918 -0.06841728091239929 0.15418314933776855 255.0 0.0 0.0
-0.26913368701934814 0.07135068625211716 0.14600197970867157 255.0 0.0 0.0
-0.22002027928829193 -0.23592528700828552 -0.13481876254081726 255.0 0.0 0.0
0.2586754858493805 -0.2642311453819275 0.0013136042980477214 255.0 0.0 0.0
-0.3311561942100525 -0.33995792269706726 0.17532533407211304 255.0 0.0 0.0
0.17650163173675537 -0.44460511207580566 -0.04351204261183739 255.0 0.0 0.0
0.28787270188331604 -0.06387250125408173 -0.1366516649723053 255.0 0.0 0.0
-0.19262242317199707 0.4311811923980713 0.08923112601041794 255.0 0.0 0.0
-0.23358072340488434 0.27395743131637573 -0.012963999062776566 255.0 0.0 0.0
0.2972294092178345 -0.08501699566841125 0.14753267168998718 255.0 0.0 0.0
-0.04775266349315643 -0.24861721694469452 0.15190018713474274 255.0 0.0 0.0
0.022339556366205215 0.22170399129390717 0.15536320209503174 255.0 0.0 0.0
-0.0713597983121872 0.30571651458740234 -0.289448082447052 255.0 0.0 0.0
0.24574095010757446 -0.07168465107679367 0.1637134999036789 255.0 0.0 0.0
-0.1844129115343094 0.3312450349330902 -0.024657858535647392 255.0 0.0 0.0
0.2972581684589386 -0.23679524660110474 0.07322341948747635 255.0 0.0 0.0
0.24647609889507294 -0.05753406137228012 0.16079314053058624 255.0 0.0 0.0
-0.20170244574546814 -0.05086610093712807 0.16856242716312408 255.0 0.0 0.0
-0.2553577125072479 -0.3476109206676483 -0.08784503489732742 255.0 0.0 0.0
-0.03998878225684166 0.2822533845901489 -0.2702721059322357 255.0 0.0 0.0
-0.20552775263786316 0.23054352402687073 0.14048361778259277 255.0 0.0 0.0
-0.2598664462566376 0.20869989693164825 -0.3443254828453064 255.0 0.0 0.0
-0.18795697391033173 0.43987950682640076 0.08372984081506729 255.0 0.0 0.0
-0.2790655493736267 -0.4161571264266968 -0.08917079865932465 255.0 0.0 0.0
-0.16610516607761383 0.2282751500606537 -0.0019267750903964043 255.0 0.0 0.0
0.18845497071743011 -0.25860264897346497 -0.028346439823508263 255.0 0.0 0.0
-0.264102041721344 0.07720138132572174 -0.31651434302330017 255.0 0.0 0.0
-0.16865789890289307 0.4841699004173279 0.080956369638443 255.0 0.0 0.0
-0.04687079042196274 0.2945411801338196 -0.2875436544418335 255.0 0.0 0.0
-0.041586507111787796 0.11905669420957565 -0.1350902020931244 255.0 0.0 0.0
-0.21315957605838776 0.10886456072330475 0.16620193421840668 255.0 0.0 0.0
-0.2391451597213745 0.15618564188480377 0.15601687133312225 255.0 0.0 0.0
-0.22713375091552734 0.24228575825691223 -0.024778658524155617 255.0 0.0 0.0
0.059076450765132904 0.15679480135440826 -0.13667675852775574 255.0 0.0 0.0
-0.2597495913505554 0.29569190740585327 -0.34457287192344666 255.0 0.0 0.0
-0.23707793653011322 0.2247377634048462 -0.1291199028491974 255.0 0.0 0.0
0.12845933437347412 0.21775515377521515 0.15820376574993134 255.0 0.0 0.0
-0.0848546251654625 0.325608491897583 -0.3184056878089905 255.0 0.0 0.0
-0.16476626694202423 0.23271626234054565 0.018391717225313187 255.0 0.0 0.0
0.16247937083244324 -0.4319106936454773 0.18620121479034424 255.0 0.0 0.0
0.244861900806427 -0.24048039317131042 -0.13799791038036346 255.0 0.0 0.0
-0.09412286430597305 0.3131280243396759 -0.32179611921310425 255.0 0.0 0.0
-0.014019416645169258 0.19915801286697388 -0.13477197289466858 255.0 0.0 0.0
-0.26571449637413025 0.10642948001623154 -0.32560113072395325 255.0 0.0 0.0
0.028093677014112473 0.19891896843910217 -0.14039917290210724 255.0 0.0 0.0
0.19344404339790344 0.3588544428348541 -0.0564437210559845 255.0 0.0 0.0
0.23614336550235748 0.4851590692996979 -0.06829504668712616 255.0 0.0 0.0
-0.1519632637500763 0.3274245262145996 -0.3424457311630249 255.0 0.0 0.0
0.2536030113697052 -0.09680190682411194 0.15394942462444305 255.0 0.0 0.0
0.02656659111380577 0.16966794431209564 0.16185176372528076 255.0 0.0 0.0
0.1885899156332016 0.22812457382678986 -0.014438333921134472 255.0 0.0 0.0
0.23056010901927948 -0.2670765817165375 0.07692376524209976 255.0 0.0 0.0
0.052030496299266815 0.10903880000114441 -0.16450820863246918 255.0 0.0 0.0
-0.04320075362920761 0.22621236741542816 -0.13281945884227753 255.0 0.0 0.0
0.24287362396717072 -0.4125489592552185 0.20272743701934814 255.0 0.0 0.0
-0.2584671676158905 0.3873016834259033 0.10500046610832214 255.0 0.0 0.0
-0.20849230885505676 0.3637779653072357 0.11042582243680954 255.0 0.0 0.0
-0.16483955085277557 0.22936926782131195 0.020969126373529434 255.0 0.0 0.0
0.21644631028175354 0.2144525945186615 -0.13638059794902802 255.0 0.0 0.0
0.2670670449733734 0.33021464943885803 -0.045608822256326675 255.0 0.0 0.0
-0.18047203123569489 0.2660517990589142 0.022561823949217796 255.0 0.0 0.0
-0.25283634662628174 -0.04210122302174568 -0.2407476007938385 255.0 0.0 0.0
-0.28329384326934814 -0.3116639256477356 0.13967035710811615 255.0 0.0 0.0
0.17633256316184998 -0.24775967001914978 0.15499860048294067 255.0 0.0 0.0
0.2371261566877365 -0.2890748679637909 0.08935246616601944 255.0 0.0 0.0
-0.20079044997692108 0.49500349164009094 0.10381195694208145 255.0 0.0 0.0
0.2576846480369568 0.13706497848033905 0.15165501832962036 255.0 0.0 0.0
-0.09755095094442368 0.17625972628593445 0.1517879217863083 255.0 0.0 0.0
-0.2700071334838867 -0.3959330916404724 0.19589439034461975 255.0 0.0 0.0
0.1365148276090622 -0.19627006351947784 0.1484566181898117 255.0 0.0 0.0
0.2962188720703125 -0.24967914819717407 0.06425005197525024 255.0 0.0 0.0
0.15794672071933746 -0.18988995254039764 0.15992294251918793 255.0 0.0 0.0
-0.2636798918247223 0.07323141396045685 -0.2647888958454132 255.0 0.0 0.0
-0.21711784601211548 0.3684818744659424 -0.07581968605518341 255.0 0.0 0.0
0.06509730964899063 -0.1950007528066635 0.15262918174266815 255.0 0.0 0.0
-0.06061466038227081 0.31441330909729004 -0.31743842363357544 255.0 0.0 0.0
-0.2798214554786682 0.19975468516349792 -0.34118494391441345 255.0 0.0 0.0
-0.2714202404022217 -0.4634093940258026 -0.0684506744146347 255.0 0.0 0.0
0.06298713386058807 0.13021831214427948 -0.15240007638931274 255.0 0.0 0.0
0.13064920902252197 -0.1860874593257904 0.16210328042507172 255.0 0.0 0.0
0.29103702306747437 0.2304607480764389 -0.002143339952453971 255.0 0.0 0.0
0.23635771870613098 0.5050670504570007 0.12110111117362976 255.0 0.0 0.0
0.2989339232444763 0.07489639520645142 0.13942334055900574 255.0 0.0 0.0
0.19620899856090546 -0.244482159614563 -0.1349627822637558 255.0 0.0 0.0
-0.20422011613845825 0.36362019181251526 -0.07363058626651764 255.0 0.0 0.0
-0.16424301266670227 0.4198768138885498 0.09759081155061722 255.0 0.0 0.0
-0.07554183900356293 -0.1840900480747223 0.16500262916088104 255.0 0.0 0.0
0.25070226192474365 -0.03089311346411705 0.1507173776626587 255.0 0.0 0.0
0.2589823305606842 -0.295573890209198 0.08212442696094513 255.0 0.0 0.0
-0.33216971158981323 -0.37195491790771484 0.10956958681344986 255.0 0.0 0.0
-0.19265078008174896 0.15694214403629303 0.16916523873806 255.0 0.0 0.0
-0.05973992869257927 -0.18520750105381012 0.16173304617404938 255.0 0.0 0.0
0.24703657627105713 -0.24302445352077484 0.15625128149986267 255.0 0.0 0.0
0.28318387269973755 0.22834064066410065 -0.0003839039127342403 255.0 0.0 0.0
0.26036500930786133 -0.4439229667186737 -0.06299786269664764 255.0 0.0 0.0
0.263041228055954 0.24852204322814941 -0.015261495485901833 255.0 0.0 0.0
-0.21120044589042664 0.49901890754699707 -0.021231286227703094 255.0 0.0 0.0
0.2972436547279358 0.17201469838619232 -0.12096906453371048 255.0 0.0 0.0
-0.32518163323402405 -0.33350446820259094 0.17242683470249176 255.0 0.0 0.0
-0.07895013689994812 -0.2321985363960266 -0.1332125961780548 255.0 0.0 0.0
0.1609262377023697 -0.4468289017677307 0.1778041124343872 255.0 0.0 0.0
0.2939167022705078 0.12994486093521118 0.1499292254447937 255.0 0.0 0.0
-0.035276513546705246 0.21176579594612122 -0.1343754231929779 255.0 0.0 0.0
0.23078539967536926 0.381298303604126 0.1069827750325203 255.0 0.0 0.0
0.25554701685905457 -0.2575673758983612 -0.008719542063772678 255.0 0.0 0.0
-0.08166153728961945 0.3080369830131531 -0.30516427755355835 255.0 0.0 0.0
-0.2506827414035797 0.23552776873111725 -0.3356357216835022 255.0 0.0 0.0
-0.2659173905849457 -0.1501350998878479 0.15632209181785583 255.0 0.0 0.0
0.20399051904678345 0.23398682475090027 0.04348791018128395 255.0 0.0 0.0
-0.10417059808969498 -0.24974744021892548 0.15317781269550323 255.0 0.0 0.0
-0.006092118564993143 0.2912098169326782 -0.28827613592147827 255.0 0.0 0.0
-0.2364858239889145 -0.24604952335357666 -0.13028432428836823 255.0 0.0 0.0
-0.2620241343975067 0.355426162481308 0.056202203035354614 255.0 0.0 0.0
0.27673161029815674 0.48180899024009705 0.1238803043961525 255.0 0.0 0.0
-0.24731257557868958 -0.011884229257702827 -0.23895134031772614 255.0 0.0 0.0
0.22962161898612976 0.2501978576183319 0.04117864370346069 255.0 0.0 0.0
-0.217181995511055 0.1488407701253891 0.1650708019733429 255.0 0.0 0.0
0.23505236208438873 0.2445608526468277 -0.02142290771007538 255.0 0.0 0.0
-0.024471398442983627 0.2164374440908432 -0.1791791319847107 255.0 0.0 0.0
0.2964017689228058 0.19940167665481567 0.15539658069610596 255.0 0.0 0.0
-0.2398197054862976 0.22774742543697357 -0.13613268733024597 255.0 0.0 0.0
0.23602348566055298 -0.24505844712257385 0.14971542358398438 255.0 0.0 0.0
0.2540144920349121 -0.2557459771633148 -0.04352444037795067 255.0 0.0 0.0
-0.22341735661029816 0.23020225763320923 0.05856390669941902 255.0 0.0 0.0
0.2957042455673218 0.12609264254570007 0.14786997437477112 255.0 0.0 0.0
-0.23475024104118347 -0.3797161281108856 -0.08915171027183533 255.0 0.0 0.0
0.2943962812423706 -0.1681552678346634 -0.1331920474767685 255.0 0.0 0.0
-0.14463955163955688 0.34170520305633545 -0.3239731788635254 255.0 0.0 0.0
-0.037842221558094025 0.14457212388515472 0.1669754832983017 255.0 0.0 0.0
