0.27930471301078796 0.4121040105819702 -0.0753907561302185 255.0 0.0 0.0
0.08800806850194931 -0.1835593283176422 0.16537675261497498 255.0 0.0 0.0
-0.20339423418045044 0.002066255547106266 0.16792328655719757 255.0 0.0 0.0
0.2898980677127838 -0.25066283345222473 0.11576015502214432 255.0 0.0 0.0
-0.20708942413330078 0.4107854664325714 -0.08114022761583328 255.0 0.0 0.0
0.28281742334365845 0.22750666737556458 -0.11405593156814575 255.0 0.0 0.0
0.29527944326400757 0.006066258065402508 0.14886948466300964 255.0 0.0 0.0
-0.19707028567790985 -0.24883422255516052 -0.12666621804237366 255.0 0.0 0.0
0.2890734374523163 -0.42865705490112305 0.031355712562799454 255.0 0.0 0.0
0.2746056318283081 -0.44887977838516235 0.15773367881774902 255.0 0.0 0.0
-0.23462001979351044 -0.468858927488327 0.03989413380622864 255.0 0.0 0.0
-0.26970174908638 -0.12031537294387817 0.15409715473651886 255.0 0.0 0.0
0.1435915231704712 -0.23461925983428955 -0.13657404482364655 255.0 0.0 0.0
-0.15419718623161316 -0.2671038806438446 0.04029175266623497 255.0 0.0 0.0
-0.22711575031280518 -0.43594494462013245 0.17255286872386932 255.0 0.0 0.0
0.16279339790344238 -0.44567322731018066 0.16215597093105316 255.0 0.0 0.0
0.2847665548324585 0.11370895057916641 -0.13557292520999908 255.0 0.0 0.0
-0.25063881278038025 0.22775033116340637 -0.1338423639535904 255.0 0.0 0.0
-0.2707948684692383 -0.1340140551328659 0.1620905101299286 255.0 0.0 0.0
-0.1798940747976303 0.3202516734600067 -0.3337141275405884 255.0 0.0 0.0
-0.26954734325408936 -0.09479108452796936 -0.25472307205200195 255.0 0.0 0.0
-0.25603508949279785 -0.11895600706338882 0.15420910716056824 255.0 0.0 0.0
-0.055946413427591324 0.3012978136539459 -0.27869439125061035 255.0 0.0 0.0
-0.14777527749538422 0.33957087993621826 -0.32980066537857056 255.0 0.0 0.0
-0.2243046760559082 0.3812393546104431 -0.08097703009843826 255.0 0.0 0.0
0.2592909038066864 0.27830740809440613 0.032324645668268204 255.0 0.0 0.0
-0.24830497801303864 -0.027130864560604095 -0.23403379321098328 255.0 0.0 0.0
-0.05482960119843483 0.22777418792247772 0.14869476854801178 255.0 0.0 0.0
-0.2622472941875458 0.24816963076591492 -0.35875093936920166 255.0 0.0 0.0
0.14000888168811798 -0.4354003667831421 0.1377062201499939 255.0 0.0 0.0
0.19896943867206573 -0.25411108136177063 0.1513410359621048 255.0 0.0 0.0
-0.17825458943843842 0.31824958324432373 0.004737573210150003 255.0 0.0 0.0
0.25660625100135803 0.5062742829322815 -0.030262239277362823 255.0 0.0 0.0
-0.25233274698257446 0.006966214161366224 -0.23854176700115204 255.0 0.0 0.0
-0.27066829800605774 0.20749950408935547 -0.1251303255558014 255.0 0.0 0.0
-0.00886835902929306 0.1717754304409027 -0.22143714129924774 255.0 0.0 0.0
0.2967609167098999 -0.12748315930366516 0.1559447944164276 255.0 0.0 0.0
0.21645744144916534 0.3599873185157776 -0.07821232080459595 255.0 0.0 0.0
0.2972581684589386 0.21667133271694183 -0.09602155536413193 255.0 0.0 0.0
-0.21490392088890076 0.3162074387073517 0.05110254883766174 255.0 0.0 0.0
0.22879895567893982 0.5067787170410156 0.1150076687335968 255.0 0.0 0.0
0.24551473557949066 0.4938550889492035 0.12105873227119446 255.0 0.0 0.0
-0.2787419557571411 0.07856768369674683 -0.3200514316558838 255.0 0.0 0.0
-0.21211884915828705 -0.014701860025525093 0.1676240861415863 255.0 0.0 0.0
0.20949654281139374 -0.24174194037914276 0.1592048555612564 255.0 0.0 0.0
0.2436748743057251 -0.23688670992851257 -0.13058674335479736 255.0 0.0 0.0
-0.17865508794784546 0.35589009523391724 0.08662979304790497 255.0 0.0 0.0
0.2908310294151306 -0.24849797785282135 -0.04608019441366196 255.0 0.0 0.0
0.29626402258872986 -0.047081977128982544 -0.13328401744365692 255.0 0.0 0.0
0.28338488936424255 -0.08925315737724304 -0.13609598577022552 255.0 0.0 0.0
-0.3397471606731415 -0.37716275453567505 0.07432130724191666 255.0 0.0 0.0
-0.22258970141410828 0.3980085551738739 0.09499083459377289 255.0 0.0 0.0
0.030813822522759438 0.2248619645833969 -0.13600914180278778 255.0 0.0 0.0
0.23215477168560028 -0.2057638168334961 0.15567757189273834 255.0 0.0 0.0
0.29340386390686035 0.11307865381240845 0.1462092250585556 255.0 0.0 0.0
0.16736486554145813 -0.39588186144828796 0.17373743653297424 255.0 0.0 0.0
-0.10380735248327255 0.17951682209968567 0.1545783430337906 255.0 0.0 0.0
-0.27402549982070923 -0.22446514666080475 0.1529320925474167 255.0 0.0 0.0
-0.26604533195495605 0.22722220420837402 0.020279161632061005 255.0 0.0 0.0
-0.014018721878528595 0.16759496927261353 -0.1373337358236313 255.0 0.0 0.0
-0.21076948940753937 0.2327522486448288 0.05559513345360756 255.0 0.0 0.0
-0.2620388865470886 0.164718896150589 0.1587224304676056 255.0 0.0 0.0
0.234805628657341 -0.2364349067211151 0.1542935073375702 255.0 0.0 0.0
-0.25471922755241394 0.07693183422088623 -0.13411997258663177 255.0 0.0 0.0
0.25121715664863586 -0.27668362855911255 -0.04979420453310013 255.0 0.0 0.0
-0.15327142179012299 0.317942351102829 -0.34924226999282837 255.0 0.0 0.0
0.059635601937770844 0.16681735217571259 0.15922455489635468 255.0 0.0 0.0
-0.19514213502407074 0.44740164279937744 0.08674830198287964 255.0 0.0 0.0
0.20522275567054749 0.29938453435897827 0.01066087931394577 255.0 0.0 0.0
0.23976534605026245 0.06538845598697662 0.17051808536052704 255.0 0.0 0.0
0.16753235459327698 -0.249261274933815 0.03761221468448639 255.0 0.0 0.0
0.28145530819892883 0.45828282833099365 0.1271674931049347 255.0 0.0 0.0
0.269567608833313 0.2750259339809418 0.011611724272370338 255.0 0.0 0.0
-0.2313206046819687 -0.314810186624527 -0.0815756618976593 255.0 0.0 0.0
-0.16870121657848358 -0.2546428442001343 -0.037308305501937866 255.0 0.0 0.0
-0.24561606347560883 -0.3613376021385193 -0.09274653345346451 255.0 0.0 0.0
0.27359363436698914 0.24326470494270325 0.01174649503082037 255.0 0.0 0.0
0.22600018978118896 -0.20360226929187775 0.15367797017097473 255.0 0.0 0.0
0.1451122760772705 -0.2485959529876709 -0.1217968687415123 255.0 0.0 0.0
0.26726233959198 -0.384696900844574 0.18347126245498657 255.0 0.0 0.0
0.06611790508031845 -0.17976778745651245 0.1689046025276184 255.0 0.0 0.0
0.24781154096126556 -0.4246971309185028 -0.09390288591384888 255.0 0.0 0.0
0.2588130831718445 -0.009891320019960403 0.15711301565170288 255.0 0.0 0.0
-0.18816116452217102 0.22923889756202698 0.05429588630795479 255.0 0.0 0.0
-0.2622241973876953 0.24279651045799255 -0.32014405727386475 255.0 0.0 0.0
-0.2667716443538666 0.04408161714673042 0.14693056046962738 255.0 0.0 0.0
-0.2860582172870636 0.16660946607589722 -0.3184448778629303 255.0 0.0 0.0
-0.24087439477443695 0.27657297253608704 -0.3329560458660126 255.0 0.0 0.0
-0.21568913757801056 -0.12863443791866302 0.16533292829990387 255.0 0.0 0.0
-0.3288995921611786 -0.3372424840927124 0.15818437933921814 255.0 0.0 0.0
-0.23678208887577057 0.4280611276626587 -0.07729588449001312 255.0 0.0 0.0
-0.20079044997692108 0.49500349164009094 0.10381195694208145 255.0 0.0 0.0
-0.060085732489824295 -0.17168428003787994 0.16932591795921326 255.0 0.0 0.0
0.2590121328830719 0.31724050641059875 0.05168856680393219 255.0 0.0 0.0
-0.032957740128040314 0.11492009460926056 -0.14131617546081543 255.0 0.0 0.0
-0.17587067186832428 0.33806493878364563 0.043514739722013474 255.0 0.0 0.0
0.2951558530330658 0.2216816395521164 -0.10571780800819397 255.0 0.0 0.0
0.26660850644111633 0.3086380660533905 -0.018735507503151894 255.0 0.0 0.0
-0.2707252502441406 -0.12642262876033783 0.14667148888111115 255.0 0.0 0.0
0.23677405714988708 0.3138817548751831 -0.029772154986858368 255.0 0.0 0.0
0.2427290827035904 0.11115166544914246 0.17066830396652222 255.0 0.0 0.0
0.25275862216949463 0.3062473237514496 0.04863899201154709 255.0 0.0 0.0
-0.258783221244812 0.29061591625213623 -0.33515554666519165 255.0 0.0 0.0
-0.2730863094329834 0.22586266696453094 -0.3459339141845703 255.0 0.0 0.0
-0.22469724714756012 0.25311464071273804 0.04587610438466072 255.0 0.0 0.0
0.2398274540901184 -0.3666297197341919 -0.08597858250141144 255.0 0.0 0.0
0.0025009384844452143 -0.24716956913471222 -0.13720740377902985 255.0 0.0 0.0
0.18964268267154694 0.16343478858470917 0.16195960342884064 255.0 0.0 0.0
-0.26977869868278503 0.22434882819652557 0.13862797617912292 255.0 0.0 0.0
-0.2703199088573456 0.21720291674137115 0.10955850780010223 255.0 0.0 0.0
-0.26331108808517456 0.09198322147130966 -0.2741267681121826 255.0 0.0 0.0
-0.272962361574173 0.22388651967048645 0.023257842287421227 255.0 0.0 0.0
0.2699663043022156 0.4055151045322418 -0.0828038826584816 255.0 0.0 0.0
-0.13707272708415985 -0.25306397676467896 0.015204112976789474 255.0 0.0 0.0
0.27946990728378296 -0.3798852860927582 0.1690182089805603 255.0 0.0 0.0
0.03239776939153671 -0.24945491552352905 0.14852173626422882 255.0 0.0 0.0
0.19451729953289032 0.3389025032520294 -0.03160102292895317 255.0 0.0 0.0
-0.20061807334423065 0.4232792556285858 -0.07891286164522171 255.0 0.0 0.0
-0.27498704195022583 0.026399163529276848 0.15392851829528809 255.0 0.0 0.0
-0.2623264193534851 -0.16262656450271606 -0.13529981672763824 255.0 0.0 0.0
0.023189319297671318 0.14790242910385132 0.16932013630867004 255.0 0.0 0.0
0.2972421646118164 -0.20309732854366302 -0.12151944637298584 255.0 0.0 0.0
0.24113786220550537 -0.4401594400405884 -0.0693536028265953 255.0 0.0 0.0
0.2971540689468384 0.212988018989563 -0.05225875973701477 255.0 0.0 0.0
0.09907419234514236 0.1717882752418518 0.15021392703056335 255.0 0.0 0.0
0.08966770023107529 0.16586469113826752 0.15626272559165955 255.0 0.0 0.0
-0.16742806136608124 0.48312678933143616 0.0329858660697937 255.0 0.0 0.0
0.18044012784957886 0.1628837287425995 0.16308988630771637 255.0 0.0 0.0
-0.026985157281160355 0.27240341901779175 -0.23605799674987793 255.0 0.0 0.0
0.05727439746260643 -0.24735529720783234 0.14828269183635712 255.0 0.0 0.0
-0.187300443649292 0.27409982681274414 -0.0013876783195883036 255.0 0.0 0.0
0.2825688421726227 0.3441044092178345 0.08970896899700165 255.0 0.0 0.0
-0.15582911670207977 0.35670721530914307 0.038745541125535965 255.0 0.0 0.0
0.20547614991664886 -0.2515293061733246 -0.052657365798950195 255.0 0.0 0.0
-0.05260736495256424 0.32149848341941833 -0.30265071988105774 255.0 0.0 0.0
-0.27072450518608093 -0.16424833238124847 0.14695198833942413 255.0 0.0 0.0
0.16144457459449768 -0.3678586184978485 -0.053127288818359375 255.0 0.0 0.0
-0.16389605402946472 -0.25352975726127625 -0.04022861644625664 255.0 0.0 0.0
-0.11609313637018204 0.3333786725997925 -0.32890477776527405 255.0 0.0 0.0
-0.2887519896030426 0.06030098721385002 -0.26941215991973877 255.0 0.0 0.0
0.2902589738368988 0.17484968900680542 0.15631753206253052 255.0 0.0 0.0
0.2359827607870102 -0.11909083276987076 0.17360758781433105 255.0 0.0 0.0
-0.24250997602939606 -0.4800712466239929 -0.007679584436118603 255.0 0.0 0.0
-0.2184448391199112 -0.30349406599998474 -0.06788158416748047 255.0 0.0 0.0
0.25465813279151917 0.31869596242904663 -0.038740064948797226 255.0 0.0 0.0
0.2279960662126541 0.31793713569641113 0.05543723329901695 255.0 0.0 0.0
-0.044956889003515244 0.1371651291847229 -0.13668948411941528 255.0 0.0 0.0
-0.25570282340049744 0.018712984398007393 0.15731872618198395 255.0 0.0 0.0
0.22871394455432892 0.3001815676689148 -0.0228631142526865 255.0 0.0 0.0
-0.2672278881072998 -0.08897142112255096 -0.13506805896759033 255.0 0.0 0.0
0.0819377526640892 -0.23645921051502228 -0.13506805896759033 255.0 0.0 0.0
-0.2339055985212326 0.10577675700187683 0.15757575631141663 255.0 0.0 0.0
0.19233804941177368 -0.24686743319034576 -0.13472788035869598 255.0 0.0 0.0
-0.33065342903137207 -0.3540973663330078 0.09381847083568573 255.0 0.0 0.0
0.06343898922204971 0.17871420085430145 -0.13506805896759033 255.0 0.0 0.0
0.0575263611972332 0.13605272769927979 -0.1936766505241394 255.0 0.0 0.0
0.2717403173446655 -0.44532907009124756 0.11083211749792099 255.0 0.0 0.0
0.24731852114200592 0.07465870678424835 0.15712332725524902 255.0 0.0 0.0
-0.0848546251654625 0.325608491897583 -0.3184056878089905 255.0 0.0 0.0
-0.17529435455799103 0.22739455103874207 0.1486208140850067 255.0 0.0 0.0
0.22989286482334137 -0.269568532705307 -0.056887369602918625 255.0 0.0 0.0
-0.27544331550598145 0.24833382666110992 -0.34431949257850647 255.0 0.0 0.0
-0.22201108932495117 0.36928677558898926 -0.07575368136167526 255.0 0.0 0.0
0.2925044596195221 0.1678774356842041 -0.13392728567123413 255.0 0.0 0.0
-0.1595878005027771 0.22812457382678986 0.017073770985007286 255.0 0.0 0.0
-0.08715038001537323 -0.18368443846702576 0.16554594039916992 255.0 0.0 0.0
0.03394227474927902 -0.2487526834011078 -0.12025037407875061 255.0 0.0 0.0
0.014275004155933857 0.1935328096151352 -0.1344427615404129 255.0 0.0 0.0
0.09614189714193344 0.16065841913223267 0.16738121211528778 255.0 0.0 0.0
0.23548996448516846 0.16029375791549683 0.16776679456233978 255.0 0.0 0.0
0.06814537197351456 -0.24747547507286072 -0.1375114768743515 255.0 0.0 0.0
0.26875442266464233 0.4168235957622528 0.11238830536603928 255.0 0.0 0.0
0.2890941798686981 -0.41499435901641846 0.1788959801197052 255.0 0.0 0.0
-0.03038609027862549 0.23879046738147736 -0.22037391364574432 255.0 0.0 0.0
-0.2991500496864319 -0.34343278408050537 0.20111247897148132 255.0 0.0 0.0
-0.051207952201366425 0.21538256108760834 0.1569419950246811 255.0 0.0 0.0
-0.009304512292146683 0.2727384865283966 -0.28317731618881226 255.0 0.0 0.0
0.22750990092754364 0.25230759382247925 0.042407453060150146 255.0 0.0 0.0
0.29373472929000854 -0.24589985609054565 0.1033347025513649 255.0 0.0 0.0
-0.18470604717731476 0.31282278895378113 -0.013763384893536568 255.0 0.0 0.0
0.21060678362846375 0.4416884481906891 -0.08106905221939087 255.0 0.0 0.0
-0.25938892364501953 0.440611869096756 0.11506608128547668 255.0 0.0 0.0
0.24392013251781464 -0.33558163046836853 -0.08243600279092789 255.0 0.0 0.0
0.15289148688316345 -0.44477447867393494 0.025205204263329506 255.0 0.0 0.0
-0.011647803708910942 0.1857859492301941 -0.22769521176815033 255.0 0.0 0.0
0.163838729262352 -0.24905240535736084 -0.0011121772695332766 255.0 0.0 0.0
0.2971813678741455 0.02436175011098385 -0.13049620389938354 255.0 0.0 0.0
0.18924127519130707 0.3425582945346832 -0.04163218289613724 255.0 0.0 0.0
0.03020394966006279 -0.25134822726249695 -0.12020552903413773 255.0 0.0 0.0
0.18338896334171295 0.34270718693733215 -0.01487042661756277 255.0 0.0 0.0
-0.28523948788642883 0.13983117043972015 -0.31190550327301025 255.0 0.0 0.0
-0.14416265487670898 -0.18037541210651398 0.16828419268131256 255.0 0.0 0.0
-0.24133828282356262 0.24944765865802765 0.029622439295053482 255.0 0.0 0.0
0.187883198261261 0.38882896304130554 0.10425646603107452 255.0 0.0 0.0
0.28580451011657715 0.09419628977775574 -0.13418538868427277 255.0 0.0 0.0
-0.20606468617916107 0.4874196946620941 0.11306463927030563 255.0 0.0 0.0
0.2366356998682022 0.1704854518175125 0.1526566743850708 255.0 0.0 0.0
0.09251227229833603 -0.19056659936904907 0.15548859536647797 255.0 0.0 0.0
0.2972581684589386 0.21283671259880066 -0.002384571358561516 255.0 0.0 0.0
0.027896538376808167 -0.23307979106903076 0.15795882046222687 255.0 0.0 0.0
-0.22430546581745148 0.39500346779823303 -0.08502629399299622 255.0 0.0 0.0
0.29642948508262634 -0.11883040517568588 -0.1347900778055191 255.0 0.0 0.0
-0.12153201550245285 -0.24756085872650146 0.1517760157585144 255.0 0.0 0.0
-0.13836897909641266 0.33500388264656067 -0.3297276794910431 255.0 0.0 0.0
0.005121990106999874 0.10741633921861649 -0.19156496226787567 255.0 0.0 0.0
0.2691148519515991 -0.44111397862434387 -0.050190407782793045 255.0 0.0 0.0
0.25890058279037476 -0.3492439389228821 -0.07619965821504593 255.0 0.0 0.0
-0.12445106357336044 0.15057988464832306 0.1693289577960968 255.0 0.0 0.0
-0.19107268750667572 0.3373059630393982 -0.03656625747680664 255.0 0.0 0.0
0.2964261770248413 0.09674808382987976 -0.1252184510231018 255.0 0.0 0.0
-0.14348681271076202 0.22096309065818787 0.15941385924816132 255.0 0.0 0.0
0.23195576667785645 0.5051096081733704 -0.02854882925748825 255.0 0.0 0.0
-0.14849896728992462 -0.24672694504261017 0.15250031650066376 255.0 0.0 0.0
-0.28086990118026733 0.1556779444217682 -0.33402571082115173 255.0 0.0 0.0
-0.2588619291782379 0.40376368165016174 0.11463609337806702 255.0 0.0 0.0
-0.1452331244945526 0.32546690106391907 -0.3218907117843628 255.0 0.0 0.0
-0.2595275938510895 -0.038073256611824036 -0.13145579397678375 255.0 0.0 0.0
-0.011038367636501789 0.1877680867910385 -0.22490812838077545 255.0 0.0 0.0
0.2446429431438446 0.49403801560401917 -0.051740195602178574 255.0 0.0 0.0
-0.2728457748889923 -0.10064782947301865 0.15111178159713745 255.0 0.0 0.0
-0.22490094602108002 0.06602045893669128 0.15321694314479828 255.0 0.0 0.0
0.01307025644928217 -0.18707044422626495 0.16067370772361755 255.0 0.0 0.0
-0.18909867107868195 0.34641551971435547 0.08737007528543472 255.0 0.0 0.0
-0.2518139183521271 -0.06860829889774323 -0.2805454730987549 255.0 0.0 0.0
-0.06176074966788292 0.3084092140197754 -0.27701133489608765 255.0 0.0 0.0
0.04414074495434761 0.19892242550849915 -0.15946397185325623 255.0 0.0 0.0
-0.2734403908252716 -0.019618399441242218 0.15393805503845215 255.0 0.0 0.0
-0.2832556664943695 0.06766445934772491 -0.2556319534778595 255.0 0.0 0.0
0.2764318287372589 0.3891385793685913 -0.07236209511756897 255.0 0.0 0.0
-0.2699395418167114 -0.23673474788665771 0.08865546435117722 255.0 0.0 0.0
-0.2833475172519684 -0.3506872057914734 0.19946959614753723 255.0 0.0 0.0
0.23945118486881256 0.3083481192588806 -0.029609039425849915 255.0 0.0 0.0
0.0700795128941536 -0.18475933372974396 0.16403478384017944 255.0 0.0 0.0
-0.026220643892884254 -0.18481595814228058 0.16395242512226105 255.0 0.0 0.0
-0.2296115756034851 0.25397294759750366 0.04608185589313507 255.0 0.0 0.0
-0.15336573123931885 0.16361068189144135 0.16203269362449646 255.0 0.0 0.0
0.2315690815448761 -0.2589324414730072 -0.05127951130270958 255.0 0.0 0.0
-0.051407355815172195 0.22595621645450592 -0.13448843359947205 255.0 0.0 0.0
0.24723953008651733 0.08477048575878143 0.1609371453523636 255.0 0.0 0.0
-0.27053236961364746 -0.18912170827388763 -0.13542474806308746 255.0 0.0 0.0
0.2661041021347046 -0.44490495324134827 -0.03954337164759636 255.0 0.0 0.0
0.06515049934387207 0.12353075295686722 -0.14069125056266785 255.0 0.0 0.0
-0.043235521763563156 0.30533546209335327 -0.3056284189224243 255.0 0.0 0.0
-0.3225550949573517 -0.33204302191734314 0.17774321138858795 255.0 0.0 0.0
0.0061497255228459835 0.26334038376808167 -0.26788410544395447 255.0 0.0 0.0
0.25348716974258423 0.31957870721817017 -0.042632121592760086 255.0 0.0 0.0
-0.20272623002529144 0.3906610608100891 0.09222867339849472 255.0 0.0 0.0
-0.26512211561203003 -0.3952687382698059 0.2072681337594986 255.0 0.0 0.0
-0.06105712428689003 0.1660091131925583 0.1585446298122406 255.0 0.0 0.0
-0.25593599677085876 0.05304529890418053 -0.25933560729026794 255.0 0.0 0.0
0.05135491490364075 0.20593315362930298 -0.21950513124465942 255.0 0.0 0.0
-0.2510528564453125 0.2285967320203781 -0.01148668397217989 255.0 0.0 0.0
-0.18049150705337524 0.3154742121696472 0.0242016464471817 255.0 0.0 0.0
-0.22996583580970764 0.28913983702659607 -0.3340764343738556 255.0 0.0 0.0
0.2552340626716614 0.005304532125592232 0.15662384033203125 255.0 0.0 0.0
-0.2857263684272766 -0.4038863182067871 -0.09440349042415619 255.0 0.0 0.0
0.022454682737588882 0.2351437658071518 -0.25108057260513306 255.0 0.0 0.0
0.2427452951669693 0.501668393611908 -0.04972279444336891 255.0 0.0 0.0
-0.2615908682346344 0.13694818317890167 -0.3222256600856781 255.0 0.0 0.0
0.2934691309928894 0.22734671831130981 0.06625775247812271 255.0 0.0 0.0
0.23142248392105103 0.2688671946525574 -0.018662407994270325 255.0 0.0 0.0
-0.21734210848808289 0.009173915721476078 0.17032675445079803 255.0 0.0 0.0
0.2822270691394806 0.0630006268620491 0.15706248581409454 255.0 0.0 0.0
0.25506967306137085 -0.25275641679763794 0.06899838149547577 255.0 0.0 0.0
-0.18194329738616943 0.32555583119392395 0.034505922347307205 255.0 0.0 0.0
0.25030773878097534 -0.05060093477368355 0.16168445348739624 255.0 0.0 0.0
-0.09637978672981262 -0.2505257725715637 0.15390262007713318 255.0 0.0 0.0
-0.2558336555957794 0.19989919662475586 -0.13506805896759033 255.0 0.0 0.0
-0.27053478360176086 -0.09195239841938019 0.15687312185764313 255.0 0.0 0.0
0.2949214279651642 -0.24983075261116028 0.11652646213769913 255.0 0.0 0.0
0.0131169892847538 0.19999009370803833 -0.15097077190876007 255.0 0.0 0.0
-0.34199202060699463 -0.3641529083251953 0.07852745801210403 255.0 0.0 0.0
-0.23528574407100677 0.10494048148393631 0.1527905911207199 255.0 0.0 0.0
-0.021944716572761536 0.12867839634418488 -0.19701501727104187 255.0 0.0 0.0
-0.23906220495700836 -0.46773022413253784 -0.04053236544132233 255.0 0.0 0.0
-0.03414852172136307 0.14636054635047913 0.1707518845796585 255.0 0.0 0.0
0.2056390792131424 -0.24898499250411987 -0.12551623582839966 255.0 0.0 0.0
0.25168827176094055 0.11540623009204865 0.15269522368907928 255.0 0.0 0.0
-0.05468809977173805 0.2183520644903183 -0.13506805896759033 255.0 0.0 0.0
0.11680098623037338 0.20799045264720917 0.15798918902873993 255.0 0.0 0.0
-0.22262971103191376 -0.4489646255970001 0.1499912291765213 255.0 0.0 0.0
-0.24371714890003204 -0.28998714685440063 0.0801810771226883 255.0 0.0 0.0
1.1498907042550854e-05 -0.24416354298591614 -0.13450485467910767 255.0 0.0 0.0
0.27024614810943604 -0.36795297265052795 0.15943652391433716 255.0 0.0 0.0
0.2571641206741333 0.2800610661506653 0.0390857569873333 255.0 0.0 0.0
-0.3396814465522766 -0.377149373292923 0.05871417745947838 255.0 0.0 0.0
0.2633114457130432 -0.23957861959934235 0.1543653905391693 255.0 0.0 0.0
-0.19463883340358734 -0.26999297738075256 -0.056739334017038345 255.0 0.0 0.0
0.21389463543891907 0.27972665429115295 0.015024203807115555 255.0 0.0 0.0
0.2789742648601532 0.41246986389160156 0.12527179718017578 255.0 0.0 0.0
-0.25494688749313354 0.3860298693180084 0.0982784554362297 255.0 0.0 0.0
-0.22480812668800354 0.1369292289018631 0.15364894270896912 255.0 0.0 0.0
0.21443060040473938 0.3401438891887665 -0.0638110339641571 255.0 0.0 0.0
0.23858389258384705 0.17701362073421478 0.1547989845275879 255.0 0.0 0.0
0.26720917224884033 0.26500844955444336 0.012762662023305893 255.0 0.0 0.0
-0.23754727840423584 -0.44202545285224915 0.15803363919258118 255.0 0.0 0.0
-0.27633047103881836 0.0608169361948967 -0.31712329387664795 255.0 0.0 0.0
-0.1937025636434555 0.3462555408477783 0.08903490751981735 255.0 0.0 0.0
-0.18329374492168427 0.17808160185813904 0.15471994876861572 255.0 0.0 0.0
-0.19608795642852783 0.4016281068325043 0.09122981131076813 255.0 0.0 0.0
-0.1604122668504715 0.22689080238342285 0.02129499800503254 255.0 0.0 0.0
0.07722797989845276 -0.24933753907680511 -0.11801981180906296 255.0 0.0 0.0
-0.23896576464176178 0.2761037349700928 -0.0019155490444973111 255.0 0.0 0.0
-0.2565975487232208 0.18456688523292542 -0.3159099519252777 255.0 0.0 0.0
-0.15118399262428284 0.15253420174121857 0.17146612703800201 255.0 0.0 0.0
-0.2855311930179596 0.03886836767196655 -0.3148733377456665 255.0 0.0 0.0
0.2816567122936249 0.13334773480892181 -0.14064770936965942 255.0 0.0 0.0
0.29086172580718994 -0.12416964024305344 -0.13840201497077942 255.0 0.0 0.0
-0.19262242317199707 0.4311811923980713 0.08923112601041794 255.0 0.0 0.0
-0.22950661182403564 0.2760211229324341 -0.3533816635608673 255.0 0.0 0.0
-0.2686229944229126 -0.379934161901474 -0.09502799808979034 255.0 0.0 0.0
0.03431408107280731 0.20415833592414856 -0.13506805896759033 255.0 0.0 0.0
-0.17638495564460754 0.16847272217273712 0.15506403148174286 255.0 0.0 0.0
0.2920280992984772 -0.4221569299697876 0.1592271476984024 255.0 0.0 0.0
-0.043236445635557175 0.22803176939487457 -0.11821813881397247 255.0 0.0 0.0
-0.20677421987056732 0.22799630463123322 0.13988465070724487 255.0 0.0 0.0
0.15254934132099152 -0.39963972568511963 0.15970145165920258 255.0 0.0 0.0
-0.2753511071205139 0.08258428424596786 -0.31603291630744934 255.0 0.0 0.0
-0.28497859835624695 0.011321157217025757 -0.24014581739902496 255.0 0.0 0.0
0.21444928646087646 0.1712629348039627 0.15090395510196686 255.0 0.0 0.0
0.2896767556667328 0.33587580919265747 0.07014676928520203 255.0 0.0 0.0
-0.2049369215965271 -0.41118189692497253 0.15115101635456085 255.0 0.0 0.0
0.20642036199569702 0.3355300724506378 -0.04248718544840813 255.0 0.0 0.0
-0.25808167457580566 -0.3077695667743683 0.10431376844644547 255.0 0.0 0.0
0.049767717719078064 0.16753531992435455 0.1576574295759201 255.0 0.0 0.0
-0.23387545347213745 0.35152924060821533 -0.0682477056980133 255.0 0.0 0.0
0.27500396966934204 0.3694356083869934 0.12626750767230988 255.0 0.0 0.0
0.27782943844795227 0.23007282614707947 -0.004776070360094309 255.0 0.0 0.0
-0.2709740400314331 -0.3431282043457031 -0.07765362411737442 255.0 0.0 0.0
0.25905394554138184 -0.12680938839912415 0.1534646451473236 255.0 0.0 0.0
-0.230108380317688 0.2748729884624481 -0.35256829857826233 255.0 0.0 0.0
-0.2298283576965332 -0.44971200823783875 0.13358066976070404 255.0 0.0 0.0
-0.22693920135498047 0.2329351007938385 0.0523843877017498 255.0 0.0 0.0
-0.2308335155248642 -0.30003616213798523 -0.0696834847331047 255.0 0.0 0.0
-0.23130708932876587 0.2822743356227875 -0.36256563663482666 255.0 0.0 0.0
0.21024776995182037 0.29930201172828674 0.02615496516227722 255.0 0.0 0.0
0.27061304450035095 -0.25155991315841675 0.014556230045855045 255.0 0.0 0.0
0.043937377631664276 0.10783233493566513 -0.15776094794273376 255.0 0.0 0.0
-0.20804865658283234 0.24091872572898865 -0.029366327449679375 255.0 0.0 0.0
0.2948918640613556 0.4514029026031494 0.11317101120948792 255.0 0.0 0.0
-0.2579272389411926 0.004053337965160608 -0.3079663813114166 255.0 0.0 0.0
0.28799137473106384 0.3635921776294708 0.1142406016588211 255.0 0.0 0.0
0.2860449254512787 0.36478912830352783 -0.054858479648828506 255.0 0.0 0.0
-0.2940272092819214 -0.3153700828552246 0.14605070650577545 255.0 0.0 0.0
0.28759250044822693 0.1315716952085495 0.15632209181785583 255.0 0.0 0.0
0.02610081434249878 0.281013160943985 -0.257354199886322 255.0 0.0 0.0
-0.20884113013744354 -0.034985028207302094 0.16928863525390625 255.0 0.0 0.0
0.261152058839798 -0.4423607289791107 -0.06759903579950333 255.0 0.0 0.0
-0.015015089884400368 0.2268674671649933 0.1543610543012619 255.0 0.0 0.0
-0.19429440796375275 -0.2528800666332245 -0.056810345500707626 255.0 0.0 0.0
-0.013837053440511227 0.2977825403213501 -0.2477276772260666 255.0 0.0 0.0
0.24189572036266327 -0.11034663766622543 0.16839106380939484 255.0 0.0 0.0
0.2584713101387024 -0.3344753086566925 -0.07026387751102448 255.0 0.0 0.0
0.2041022926568985 0.5064727663993835 0.012639092281460762 255.0 0.0 0.0
0.2607073187828064 0.11993427574634552 0.15465028584003448 255.0 0.0 0.0
-0.33831697702407837 -0.3848574161529541 0.0033841081894934177 255.0 0.0 0.0
0.23749223351478577 0.2635357081890106 -0.018394239246845245 255.0 0.0 0.0
0.2972581684589386 0.21968206763267517 -0.071403868496418 255.0 0.0 0.0
-0.2766432762145996 0.24038062989711761 -0.33560407161712646 255.0 0.0 0.0
0.19209645688533783 -0.39880797266960144 0.18876565992832184 255.0 0.0 0.0
-0.25714144110679626 0.22980047762393951 -0.10276724398136139 255.0 0.0 0.0
0.29307320713996887 0.33686113357543945 0.011441857554018497 255.0 0.0 0.0
-0.25763005018234253 0.21529871225357056 -0.3212753236293793 255.0 0.0 0.0
0.2972473204135895 0.05426155775785446 0.14086060225963593 255.0 0.0 0.0
0.2701132297515869 0.3080213665962219 -0.010516955517232418 255.0 0.0 0.0
-0.2840964198112488 0.16466639935970306 -0.30417418479919434 255.0 0.0 0.0
0.21324428915977478 -0.44831958413124084 0.19338053464889526 255.0 0.0 0.0
0.29591184854507446 0.016116978600621223 -0.12329575419425964 255.0 0.0 0.0
-0.2691091001033783 -0.23917941749095917 0.04085182398557663 255.0 0.0 0.0
0.14917774498462677 0.22839562594890594 0.15103688836097717 255.0 0.0 0.0
-0.2566952109336853 0.020694419741630554 -0.23933102190494537 255.0 0.0 0.0
0.29690665006637573 0.22001738846302032 -0.12326692789793015 255.0 0.0 0.0
0.23994183540344238 -0.30380159616470337 -0.0723104253411293 255.0 0.0 0.0
-0.23726779222488403 0.2819908559322357 -0.3630369305610657 255.0 0.0 0.0
-0.26983264088630676 0.2212349772453308 0.015346602536737919 255.0 0.0 0.0
-0.2084076851606369 0.25250178575515747 -0.02550065889954567 255.0 0.0 0.0
0.27909019589424133 0.11733924597501755 0.15762120485305786 255.0 0.0 0.0
-0.04536166042089462 -0.2313549816608429 -0.1366804987192154 255.0 0.0 0.0
0.23929235339164734 0.5123698711395264 0.10312389582395554 255.0 0.0 0.0
-0.26783615350723267 0.07004744559526443 -0.1295449286699295 255.0 0.0 0.0
-0.1943395584821701 0.4549427926540375 -0.06841753423213959 255.0 0.0 0.0
0.29915469884872437 0.12082411348819733 0.14750218391418457 255.0 0.0 0.0
0.18242061138153076 -0.4482344090938568 -0.05194305256009102 255.0 0.0 0.0
-0.26801663637161255 0.05846095457673073 -0.24910467863082886 255.0 0.0 0.0
-0.26259270310401917 0.22548650205135345 0.03079131245613098 255.0 0.0 0.0
0.21489010751247406 0.25316113233566284 -0.013179467059671879 255.0 0.0 0.0
0.001595058012753725 0.278531014919281 -0.22891297936439514 255.0 0.0 0.0
0.29245591163635254 -0.02592458389699459 -0.13565108180046082 255.0 0.0 0.0
-0.26952001452445984 -0.07111343741416931 0.15616518259048462 255.0 0.0 0.0
-0.27058321237564087 0.04705827683210373 -0.13275325298309326 255.0 0.0 0.0
0.05651041120290756 0.11321361362934113 -0.1611914336681366 255.0 0.0 0.0
0.29767149686813354 0.15379078686237335 0.13731682300567627 255.0 0.0 0.0
0.13790041208267212 -0.43847060203552246 0.10644541680812836 255.0 0.0 0.0
0.24873854219913483 0.057450469583272934 0.1581600159406662 255.0 0.0 0.0
-0.23122090101242065 -0.01200179848819971 0.15323588252067566 255.0 0.0 0.0
-0.26807457208633423 -0.020050792023539543 -0.30830371379852295 255.0 0.0 0.0
-0.21995136141777039 -0.1250939667224884 0.16142140328884125 255.0 0.0 0.0
0.20526476204395294 0.22631394863128662 0.018334850668907166 255.0 0.0 0.0
0.19148612022399902 -0.2584038972854614 -0.031137740239501 255.0 0.0 0.0
-0.26846441626548767 0.14569152891635895 -0.13503707945346832 255.0 0.0 0.0
0.2295306771993637 0.15318484604358673 0.17294692993164062 255.0 0.0 0.0
-0.24689073860645294 0.4568190574645996 0.11717545986175537 255.0 0.0 0.0
0.2798209488391876 -0.4426807761192322 0.183202862739563 255.0 0.0 0.0
-0.16712258756160736 0.37281161546707153 0.08708213269710541 255.0 0.0 0.0
-0.15582698583602905 -0.24245688319206238 -0.13214406371116638 255.0 0.0 0.0
-0.24597306549549103 -0.24069878458976746 -0.13506805896759033 255.0 0.0 0.0
0.18493671715259552 0.15462683141231537 0.16921807825565338 255.0 0.0 0.0
0.2972581684589386 0.22263336181640625 -0.0069175101816654205 255.0 0.0 0.0
-0.2322712540626526 0.24676379561424255 -0.02303409017622471 255.0 0.0 0.0
0.29229065775871277 -0.0793473869562149 0.15632209181785583 255.0 0.0 0.0
0.23232446610927582 -0.11041580885648727 0.16865535080432892 255.0 0.0 0.0
-0.24935224652290344 -0.24647527933120728 0.1534573882818222 255.0 0.0 0.0
0.29235169291496277 0.17879556119441986 -0.136780247092247 255.0 0.0 0.0
0.09607585519552231 -0.24901321530342102 -0.12620152533054352 255.0 0.0 0.0
-0.10807661712169647 -0.24710021913051605 -0.13485001027584076 255.0 0.0 0.0
0.2648434638977051 0.3091244101524353 0.043024834245443344 255.0 0.0 0.0
-0.26634737849235535 0.22397379577159882 0.011083755642175674 255.0 0.0 0.0
0.23398298025131226 -0.09634817391633987 0.1718161255121231 255.0 0.0 0.0
0.29398584365844727 0.18699532747268677 -0.13758201897144318 255.0 0.0 0.0
0.2500000596046448 -0.10435250401496887 0.1608225405216217 255.0 0.0 0.0
0.16130568087100983 -0.37840235233306885 -0.04540112987160683 255.0 0.0 0.0
0.29722821712493896 0.059949036687612534 -0.1267208456993103 255.0 0.0 0.0
0.25365695357322693 -0.27899545431137085 0.06742875277996063 255.0 0.0 0.0
0.2543630003929138 -0.26275762915611267 -0.002287703100591898 255.0 0.0 0.0
0.2414192259311676 0.2289639711380005 -0.13078926503658295 255.0 0.0 0.0
-0.2632769048213959 -0.09920967370271683 -0.2460697442293167 255.0 0.0 0.0
-0.2604500949382782 -0.19809459149837494 -0.13440865278244019 255.0 0.0 0.0
0.016619320958852768 0.17270813882350922 0.15426059067249298 255.0 0.0 0.0
-0.27275270223617554 -0.10501696169376373 0.1439104676246643 255.0 0.0 0.0
0.21259379386901855 -0.25355321168899536 0.07902536541223526 255.0 0.0 0.0
-0.02568751759827137 0.2463511973619461 -0.21201764047145844 255.0 0.0 0.0
0.19622258841991425 -0.4328839182853699 0.20117686688899994 255.0 0.0 0.0
0.2951570749282837 -0.15626125037670135 -0.1200837567448616 255.0 0.0 0.0
-0.25835540890693665 -0.051379017531871796 -0.22176377475261688 255.0 0.0 0.0
-0.2519551217556 -0.4764048755168915 -0.01690603420138359 255.0 0.0 0.0
-0.23005305230617523 -0.4010743200778961 0.19343052804470062 255.0 0.0 0.0
-0.23285844922065735 0.33245497941970825 0.05076512694358826 255.0 0.0 0.0
-0.08714462071657181 -0.19598183035850525 0.14960946142673492 255.0 0.0 0.0
0.2174544632434845 0.24867628514766693 0.03691718354821205 255.0 0.0 0.0
-0.03623044118285179 0.14532172679901123 -0.13554438948631287 255.0 0.0 0.0
-0.2600659728050232 -0.12041837722063065 0.15530063211917877 255.0 0.0 0.0
-0.22220170497894287 0.29551035165786743 -0.3673895597457886 255.0 0.0 0.0
-0.18023602664470673 -0.25133559107780457 0.06995607167482376 255.0 0.0 0.0
0.28715527057647705 -0.22863154113292694 0.15632209181785583 255.0 0.0 0.0
0.28434062004089355 -0.44278228282928467 0.05594736337661743 255.0 0.0 0.0
0.2166907638311386 -0.24113021790981293 -0.13506805896759033 255.0 0.0 0.0
0.11426768451929092 -0.19484464824199677 0.14651872217655182 255.0 0.0 0.0
0.26205456256866455 0.22526727616786957 0.06319327652454376 255.0 0.0 0.0
-0.13922247290611267 -0.18435068428516388 0.16462908685207367 255.0 0.0 0.0
0.2940170168876648 0.3884613513946533 0.11423178017139435 255.0 0.0 0.0
0.24669189751148224 0.23670946061611176 -0.02967570163309574 255.0 0.0 0.0
0.2425396591424942 -0.36108261346817017 -0.08863655477762222 255.0 0.0 0.0
-0.17448720335960388 0.22766824066638947 0.15100283920764923 255.0 0.0 0.0
-0.25428614020347595 -0.015240904875099659 -0.22951751947402954 255.0 0.0 0.0
-0.1841340810060501 0.2676313817501068 0.014635899104177952 255.0 0.0 0.0
0.2807749807834625 -0.42015859484672546 0.19288715720176697 255.0 0.0 0.0
0.23056010901927948 -0.2670765817165375 0.07692376524209976 255.0 0.0 0.0
-0.2577129900455475 -0.250641405582428 0.05800726264715195 255.0 0.0 0.0
-0.07207044214010239 0.3064331114292145 -0.3023088276386261 255.0 0.0 0.0
-0.039223331958055496 0.15516908466815948 -0.1363728642463684 255.0 0.0 0.0
0.2683783173561096 -0.2512567341327667 0.022316738963127136 255.0 0.0 0.0
-0.24025896191596985 0.2991887629032135 0.0038125496357679367 255.0 0.0 0.0
-0.0007114117033779621 0.2289731800556183 0.14875099062919617 255.0 0.0 0.0
-0.337392121553421 -0.35603752732276917 0.15354777872562408 255.0 0.0 0.0
-0.05276399850845337 0.2149997353553772 -0.1332983821630478 255.0 0.0 0.0
0.28376638889312744 -0.4425506293773651 0.08685922622680664 255.0 0.0 0.0
-0.06657179445028305 0.16118472814559937 0.16554106771945953 255.0 0.0 0.0
-0.2243109494447708 -0.11754482239484787 0.15431000292301178 255.0 0.0 0.0
-0.250031441450119 0.23112554848194122 0.013147645629942417 255.0 0.0 0.0
0.2946014702320099 0.2051476687192917 0.156209334731102 255.0 0.0 0.0
-0.27058854699134827 0.18034431338310242 -0.132609024643898 255.0 0.0 0.0
0.2968090772628784 -0.23635584115982056 0.04175999388098717 255.0 0.0 0.0
-0.27057549357414246 0.2242128849029541 -0.10597383975982666 255.0 0.0 0.0
0.2971283793449402 -0.16258715093135834 0.15377356112003326 255.0 0.0 0.0
0.2669372260570526 0.3451058864593506 -0.0629386305809021 255.0 0.0 0.0
0.14803285896778107 -0.4448804259300232 0.05750999227166176 255.0 0.0 0.0
0.2869170606136322 -0.23574954271316528 -0.13551218807697296 255.0 0.0 0.0
-0.01014598086476326 0.3014875054359436 -0.25741046667099 255.0 0.0 0.0
-0.2732153534889221 0.20738068222999573 -0.31047821044921875 255.0 0.0 0.0
0.27055567502975464 0.22853699326515198 -0.03856884688138962 255.0 0.0 0.0
-0.05348791554570198 0.1422153115272522 -0.13445311784744263 255.0 0.0 0.0
0.21571996808052063 0.26058050990104675 -0.010370071977376938 255.0 0.0 0.0
-0.04414764419198036 0.1664772927761078 0.15615150332450867 255.0 0.0 0.0
-0.2625827491283417 0.22747159004211426 0.1077602282166481 255.0 0.0 0.0
-0.2679412364959717 0.22682009637355804 0.07629715651273727 255.0 0.0 0.0
-0.33250755071640015 -0.35137757658958435 0.10424061119556427 255.0 0.0 0.0
0.2841060757637024 0.0002955844975076616 0.15632209181785583 255.0 0.0 0.0
-0.0019386403728276491 0.10601045191287994 -0.19320710003376007 255.0 0.0 0.0
0.2524403929710388 -0.25738561153411865 0.03611217811703682 255.0 0.0 0.0
0.19626465439796448 -0.442345529794693 -0.0762481838464737 255.0 0.0 0.0
0.015301527455449104 0.2707119286060333 -0.22044630348682404 255.0 0.0 0.0
-0.2055666744709015 0.5052074193954468 0.051867809146642685 255.0 0.0 0.0
0.2650172710418701 0.26552948355674744 0.02696509100496769 255.0 0.0 0.0
-0.15943540632724762 0.2263917624950409 0.01459160353988409 255.0 0.0 0.0
-0.053058553487062454 -0.2497318834066391 0.14413894712924957 255.0 0.0 0.0
0.10942123085260391 0.22622749209403992 0.15477624535560608 255.0 0.0 0.0
-0.27363285422325134 0.212071031332016 -0.10893620550632477 255.0 0.0 0.0
0.2646212875843048 0.24744290113449097 -0.019966792315244675 255.0 0.0 0.0
0.25920993089675903 0.40405410528182983 0.11340874433517456 255.0 0.0 0.0
-0.2222372591495514 0.38369572162628174 -0.08052925020456314 255.0 0.0 0.0
0.26075664162635803 0.08872953057289124 0.15762028098106384 255.0 0.0 0.0
-0.26755544543266296 -0.07437106966972351 -0.28050118684768677 255.0 0.0 0.0
-0.21104948222637177 -0.13299588859081268 0.16958923637866974 255.0 0.0 0.0
0.2511459290981293 -0.44515904784202576 -0.06587303429841995 255.0 0.0 0.0
0.1962793618440628 0.48592409491539 -0.013829533010721207 255.0 0.0 0.0
0.0591987781226635 0.1541772037744522 -0.19902482628822327 255.0 0.0 0.0
0.2726457118988037 -0.374215692281723 0.1635243445634842 255.0 0.0 0.0
-0.2730606198310852 0.016818992793560028 0.14988495409488678 255.0 0.0 0.0
-0.20121511816978455 0.4572125971317291 0.08955847471952438 255.0 0.0 0.0
-0.0569143109023571 0.17152392864227295 0.15112271904945374 255.0 0.0 0.0
0.04625729098916054 0.2470589578151703 -0.2368146777153015 255.0 0.0 0.0
0.21069180965423584 0.32501330971717834 -0.029940029606223106 255.0 0.0 0.0
0.20873478055000305 -0.4437086582183838 -0.07145366817712784 255.0 0.0 0.0
-0.0011384643148630857 0.09247927367687225 -0.13506805896759033 255.0 0.0 0.0
0.2971089482307434 0.03095903806388378 0.1544172316789627 255.0 0.0 0.0
-0.17596952617168427 -0.23695553839206696 -0.13456255197525024 255.0 0.0 0.0
-0.033605244010686874 0.17361725866794586 -0.14947865903377533 255.0 0.0 0.0
-0.2440134584903717 -0.0030202260240912437 -0.28734922409057617 255.0 0.0 0.0
0.26349717378616333 0.3932614028453827 0.11077478528022766 255.0 0.0 0.0
-0.18499630689620972 0.28522658348083496 0.014641805551946163 255.0 0.0 0.0
-0.266457736492157 -0.042590439319610596 0.15864022076129913 255.0 0.0 0.0
-0.2565983533859253 -0.29627153277397156 0.08003538846969604 255.0 0.0 0.0
-0.22242414951324463 -0.008811797015368938 0.16081774234771729 255.0 0.0 0.0
0.03926181048154831 0.2545463740825653 -0.2456047087907791 255.0 0.0 0.0
-0.16048318147659302 0.43025925755500793 0.09742599725723267 255.0 0.0 0.0
0.21580934524536133 0.15434618294239044 0.1694394052028656 255.0 0.0 0.0
-0.11464037001132965 0.17866599559783936 0.15359368920326233 255.0 0.0 0.0
0.059470780193805695 0.1224316731095314 -0.13533127307891846 255.0 0.0 0.0
0.07252540439367294 0.11817530542612076 -0.1371132731437683 255.0 0.0 0.0
-0.2540341019630432 0.2471972107887268 -0.3194497525691986 255.0 0.0 0.0
-0.004123507998883724 -0.2481304109096527 0.1536368876695633 255.0 0.0 0.0
0.29621732234954834 0.20976848900318146 -0.010231483727693558 255.0 0.0 0.0
-0.25545361638069153 0.2275112420320511 0.13734585046768188 255.0 0.0 0.0
-0.10417059808969498 -0.24974744021892548 0.15317781269550323 255.0 0.0 0.0
0.01906925067305565 0.08524582535028458 -0.13506805896759033 255.0 0.0 0.0
-0.2424769401550293 0.4302518367767334 0.10295136272907257 255.0 0.0 0.0
0.13697873055934906 -0.43763259053230286 0.04502074420452118 255.0 0.0 0.0
0.2571190893650055 0.13631084561347961 0.14954443275928497 255.0 0.0 0.0
-0.22070449590682983 -0.4520626366138458 0.12739603221416473 255.0 0.0 0.0
0.25430023670196533 0.5000617504119873 0.126297727227211 255.0 0.0 0.0
0.28142836689949036 0.21882523596286774 -0.13238613307476044 255.0 0.0 0.0
-0.2704034745693207 -0.15142670273780823 -0.13432931900024414 255.0 0.0 0.0
-0.2808789014816284 -0.3159913718700409 0.14633120596408844 255.0 0.0 0.0
-0.2770881950855255 -0.3071233928203583 0.11228419095277786 255.0 0.0 0.0
-0.258954256772995 -0.022907931357622147 -0.30310752987861633 255.0 0.0 0.0
0.0023169799242168665 -0.23944203555583954 0.15593227744102478 255.0 0.0 0.0
0.10311996936798096 -0.24347639083862305 0.1568332314491272 255.0 0.0 0.0
0.2830527722835541 -0.24611735343933105 -0.11204157024621964 255.0 0.0 0.0
-0.21369881927967072 0.11518030613660812 0.16913220286369324 255.0 0.0 0.0
-0.2521263062953949 -0.0449548214673996 0.15597236156463623 255.0 0.0 0.0
0.263164758682251 -0.238198921084404 -0.13506805896759033 255.0 0.0 0.0
0.2543492615222931 0.03909916430711746 0.14954449236392975 255.0 0.0 0.0
-0.2639332413673401 0.1377314180135727 -0.32710251212120056 255.0 0.0 0.0
0.23715655505657196 -0.45042333006858826 0.19035650789737701 255.0 0.0 0.0
0.2577418386936188 0.2732239365577698 0.03545309975743294 255.0 0.0 0.0
0.25616222620010376 -0.23667848110198975 -0.13391317427158356 255.0 0.0 0.0
-0.1908911168575287 -0.2636934816837311 0.07050418108701706 255.0 0.0 0.0
-0.06422801315784454 0.3183422386646271 -0.3166953921318054 255.0 0.0 0.0
-0.045128606259822845 0.2298436164855957 -0.12154674530029297 255.0 0.0 0.0
0.22967666387557983 0.2854470908641815 0.04016783460974693 255.0 0.0 0.0
-0.13477571308612823 0.33018365502357483 -0.3135509788990021 255.0 0.0 0.0
-0.13311520218849182 0.3234284520149231 -0.34176838397979736 255.0 0.0 0.0
-0.16876810789108276 0.32487204670906067 -0.3220605254173279 255.0 0.0 0.0
-0.28598302602767944 0.00524512492120266 -0.245030477643013 255.0 0.0 0.0
-0.2784750461578369 0.05743420124053955 -0.2444109469652176 255.0 0.0 0.0
-0.27334362268447876 -0.24239017069339752 0.11483956128358841 255.0 0.0 0.0
-0.279360294342041 -0.03077000007033348 -0.2939015030860901 255.0 0.0 0.0
0.14921343326568604 -0.429788202047348 -0.023795122280716896 255.0 0.0 0.0
0.22406600415706635 0.2683749794960022 0.03684186190366745 255.0 0.0 0.0
-0.29533058404922485 -0.4165111184120178 -0.09371057897806168 255.0 0.0 0.0
-0.26461783051490784 0.07272438704967499 -0.13657677173614502 255.0 0.0 0.0
0.2943190336227417 -0.16621460020542145 -0.12506015598773956 255.0 0.0 0.0
-0.19791360199451447 0.2895525097846985 0.03722081333398819 255.0 0.0 0.0
-0.27599698305130005 -0.4495837092399597 -0.07663537561893463 255.0 0.0 0.0
0.2478112280368805 -0.08691614866256714 0.15803509950637817 255.0 0.0 0.0
-0.26331186294555664 0.26353323459625244 -0.324118047952652 255.0 0.0 0.0
-0.2707524597644806 -0.24159255623817444 0.013569734059274197 255.0 0.0 0.0
0.06423317641019821 0.22661307454109192 0.1497150957584381 255.0 0.0 0.0
-0.2420322597026825 -0.27466753125190735 0.008049958385527134 255.0 0.0 0.0
-0.11062060296535492 0.1806820183992386 0.15925848484039307 255.0 0.0 0.0
-0.06593142449855804 0.32805579900741577 -0.2915710210800171 255.0 0.0 0.0
0.19112253189086914 0.39105817675590515 0.11384107917547226 255.0 0.0 0.0
0.2900528013706207 -0.2187945395708084 0.15472349524497986 255.0 0.0 0.0
0.2337074875831604 0.3206495940685272 0.05448302999138832 255.0 0.0 0.0
-0.06967014074325562 -0.25204819440841675 0.14813373982906342 255.0 0.0 0.0
-0.008631023578345776 0.23589687049388885 -0.2521928548812866 255.0 0.0 0.0
0.2628035545349121 0.45705923438072205 -0.07748778909444809 255.0 0.0 0.0
-0.30096083879470825 -0.3142040967941284 0.15112659335136414 255.0 0.0 0.0
-0.2707170248031616 0.11936259269714355 -0.12849341332912445 255.0 0.0 0.0
0.21103233098983765 0.2727591395378113 0.013430717401206493 255.0 0.0 0.0
-0.03956069424748421 0.13559938967227936 -0.17673426866531372 255.0 0.0 0.0
0.27109941840171814 -0.4354255199432373 -0.05960534140467644 255.0 0.0 0.0
-0.23807281255722046 0.4287070035934448 0.10269723832607269 255.0 0.0 0.0
-0.26743483543395996 0.1282438039779663 -0.13194739818572998 255.0 0.0 0.0
-0.33322980999946594 -0.35835883021354675 0.07572068274021149 255.0 0.0 0.0
0.0729999989271164 0.16310840845108032 0.15933644771575928 255.0 0.0 0.0
0.011973079293966293 -0.1960713118314743 0.1497042030096054 255.0 0.0 0.0
-0.17813310027122498 0.33386480808258057 -0.3220023810863495 255.0 0.0 0.0
0.21350423991680145 0.509323239326477 0.09295837581157684 255.0 0.0 0.0
-0.18685294687747955 -0.24750381708145142 -0.13325175642967224 255.0 0.0 0.0
0.2931656837463379 0.2250654399394989 -0.029767917469143867 255.0 0.0 0.0
-0.2689836621284485 -0.09040766954421997 -0.13030298054218292 255.0 0.0 0.0
-0.20399335026741028 0.11777159571647644 0.17206025123596191 255.0 0.0 0.0
-0.2454320788383484 -0.25419721007347107 0.04022807255387306 255.0 0.0 0.0
-0.22520405054092407 0.26222944259643555 -0.021463580429553986 255.0 0.0 0.0
0.20119647681713104 0.2269081324338913 -0.014599480666220188 255.0 0.0 0.0
0.2167203277349472 0.47078394889831543 -0.06972484290599823 255.0 0.0 0.0
-0.2551621198654175 0.22703072428703308 -0.028456103056669235 255.0 0.0 0.0
-0.020033128559589386 0.2838013768196106 -0.2894422113895416 255.0 0.0 0.0
0.24192892014980316 0.02177223563194275 0.1693422794342041 255.0 0.0 0.0
0.16793400049209595 0.15928156673908234 0.17076386511325836 255.0 0.0 0.0
0.03752566874027252 0.26666611433029175 -0.23838549852371216 255.0 0.0 0.0
-0.3216271996498108 -0.3321666717529297 0.1803715080022812 255.0 0.0 0.0
0.2972530424594879 -0.24340112507343292 -0.10395810008049011 255.0 0.0 0.0
-0.28996607661247253 -0.0019476243760436773 -0.24526382982730865 255.0 0.0 0.0
0.1552756428718567 -0.25263506174087524 -0.12143094837665558 255.0 0.0 0.0
-0.2636825740337372 0.09695713222026825 -0.3186219334602356 255.0 0.0 0.0
0.18573172390460968 -0.2520633041858673 -0.047334715723991394 255.0 0.0 0.0
0.21235865354537964 0.22062495350837708 0.15632209181785583 255.0 0.0 0.0
-0.2749127745628357 0.18793898820877075 -0.34564298391342163 255.0 0.0 0.0
0.2846461534500122 -0.43515393137931824 -0.011994604952633381 255.0 0.0 0.0
-0.2800880968570709 0.22959624230861664 -0.34054800868034363 255.0 0.0 0.0
-0.27036502957344055 0.1752023547887802 -0.12921197712421417 255.0 0.0 0.0
-0.2685106694698334 0.22230063378810883 -0.0862509235739708 255.0 0.0 0.0
0.2507227659225464 0.15807101130485535 0.16207095980644226 255.0 0.0 0.0
0.26397454738616943 -0.3220214545726776 -0.062313664704561234 255.0 0.0 0.0
-0.23200193047523499 -0.2551979720592499 -0.0060092974454164505 255.0 0.0 0.0
-0.21345312893390656 -0.1794649213552475 0.16830003261566162 255.0 0.0 0.0
-0.052821945399045944 0.22772736847400665 0.15877285599708557 255.0 0.0 0.0
-0.25622180104255676 0.0842994749546051 -0.2988910675048828 255.0 0.0 0.0
-0.2518019676208496 0.22784414887428284 0.10823976248502731 255.0 0.0 0.0
-0.33159688115119934 -0.39850670099258423 -0.044334374368190765 255.0 0.0 0.0
0.14564767479896545 -0.4475925862789154 0.08031599968671799 255.0 0.0 0.0
-0.23338234424591064 0.31230783462524414 -0.35809701681137085 255.0 0.0 0.0
-0.1658451408147812 0.14878182113170624 0.16933810710906982 255.0 0.0 0.0
-0.1289229691028595 0.32988440990448 -0.3108166456222534 255.0 0.0 0.0
-0.2579960525035858 0.05275844782590866 -0.13723990321159363 255.0 0.0 0.0
-0.24101829528808594 -0.06715546548366547 -0.25148269534111023 255.0 0.0 0.0
-0.21153119206428528 0.2986660301685333 -0.36065205931663513 255.0 0.0 0.0
0.2061789482831955 0.23624753952026367 0.03296046704053879 255.0 0.0 0.0
0.1409333199262619 -0.42751792073249817 0.124651238322258 255.0 0.0 0.0
-0.24220597743988037 -0.2956729233264923 -0.061418287456035614 255.0 0.0 0.0
