-0.09747542440891266 0.33577802777290344 -0.30565381050109863 255.0 0.0 0.0
-0.17694464325904846 0.25003957748413086 0.017723895609378815 255.0 0.0 0.0
0.08013556152582169 -0.24974751472473145 -0.11723076552152634 255.0 0.0 0.0
0.14367440342903137 -0.24947333335876465 -0.13287639617919922 255.0 0.0 0.0
-0.27457478642463684 -0.317884236574173 0.13988196849822998 255.0 0.0 0.0
0.11227893829345703 0.16372954845428467 0.16185982525348663 255.0 0.0 0.0
-0.1746620237827301 0.3274940848350525 -0.3499259352684021 255.0 0.0 0.0
-0.2647055387496948 0.23019607365131378 0.08735790103673935 255.0 0.0 0.0
0.20075611770153046 0.2266746461391449 -0.13296158611774445 255.0 0.0 0.0
0.20680205523967743 -0.19456958770751953 0.15564022958278656 255.0 0.0 0.0
-0.00574243301525712 0.1797911524772644 0.15284568071365356 255.0 0.0 0.0
-0.2711850702762604 0.11498263478279114 -0.3265296518802643 255.0 0.0 0.0
0.26276445388793945 -0.25150349736213684 0.018543219193816185 255.0 0.0 0.0
0.10008884966373444 0.22589734196662903 0.14617857336997986 255.0 0.0 0.0
-0.24199354648590088 -0.18600907921791077 0.15059088170528412 255.0 0.0 0.0
-0.19083678722381592 0.21530255675315857 0.1546104997396469 255.0 0.0 0.0
0.23797529935836792 -0.17524389922618866 0.16862262785434723 255.0 0.0 0.0
-0.22059690952301025 0.13596615195274353 0.1607353836297989 255.0 0.0 0.0
-0.23975299298763275 0.36663714051246643 -0.07384523004293442 255.0 0.0 0.0
0.24679908156394958 -0.32969430088996887 0.12530766427516937 255.0 0.0 0.0
-0.08276694267988205 0.32998934388160706 -0.29006025195121765 255.0 0.0 0.0
-0.18245258927345276 0.26540517807006836 0.002020197454839945 255.0 0.0 0.0
0.289237380027771 0.22542373836040497 0.1381259560585022 255.0 0.0 0.0
0.28509870171546936 -0.44638049602508545 0.14937622845172882 255.0 0.0 0.0
0.25142455101013184 0.42751801013946533 -0.091018445789814 255.0 0.0 0.0
-0.2706047296524048 0.20877531170845032 0.1375756710767746 255.0 0.0 0.0
0.13572393357753754 -0.24792814254760742 0.15358342230319977 255.0 0.0 0.0
0.23827284574508667 0.5144978165626526 -0.01629556342959404 255.0 0.0 0.0
0.11653679609298706 -0.1905771940946579 0.15557387471199036 255.0 0.0 0.0
0.24917112290859222 -0.043116819113492966 0.15735860168933868 255.0 0.0 0.0
-0.3348618149757385 -0.3832729458808899 0.042999330908060074 255.0 0.0 0.0
-0.2536974847316742 -0.04657641798257828 -0.22191916406154633 255.0 0.0 0.0
-0.2403986155986786 0.26764270663261414 -0.3351726830005646 255.0 0.0 0.0
-0.22170549631118774 -0.4698277711868286 0.05860668048262596 255.0 0.0 0.0
0.2056976556777954 0.39070242643356323 0.11057360470294952 255.0 0.0 0.0
-0.19990649819374084 0.18165726959705353 0.15375150740146637 255.0 0.0 0.0
-0.24083024263381958 -0.3533342778682709 -0.08898409456014633 255.0 0.0 0.0
-0.02598435804247856 0.3171140253543854 -0.2816982567310333 255.0 0.0 0.0
0.04518171772360802 0.10516630858182907 -0.1341310739517212 255.0 0.0 0.0
-0.2614383399486542 -0.3834364116191864 -0.09634235501289368 255.0 0.0 0.0
0.2656732499599457 0.25811564922332764 0.005006003193557262 255.0 0.0 0.0
0.2604614198207855 -0.26353055238723755 -0.005792710464447737 255.0 0.0 0.0
-0.25117769837379456 -0.07613113522529602 -0.2780817747116089 255.0 0.0 0.0
-0.21878120303153992 0.05962429195642471 0.16033558547496796 255.0 0.0 0.0
-0.23994265496730804 0.3717290461063385 0.1165844276547432 255.0 0.0 0.0
-0.28737592697143555 0.08150090277194977 -0.2814055383205414 255.0 0.0 0.0
0.06617994606494904 0.22871115803718567 0.1491972655057907 255.0 0.0 0.0
0.1462143063545227 -0.4463290274143219 0.04156968742609024 255.0 0.0 0.0
0.02799067460000515 -0.23598052561283112 -0.13506805896759033 255.0 0.0 0.0
-0.2167133390903473 -0.02139268070459366 0.16742560267448425 255.0 0.0 0.0
-0.27072450518608093 -0.16424833238124847 0.14695198833942413 255.0 0.0 0.0
0.24896597862243652 0.005784966051578522 0.1588124930858612 255.0 0.0 0.0
-0.26567113399505615 0.15761099755764008 -0.3352644443511963 255.0 0.0 0.0
-0.027129774913191795 0.12048757076263428 -0.1857290118932724 255.0 0.0 0.0
0.2577486038208008 0.27335670590400696 0.03821258991956711 255.0 0.0 0.0
0.29509657621383667 0.0364702008664608 -0.13243767619132996 255.0 0.0 0.0
-0.23540794849395752 0.14685748517513275 0.1539350152015686 255.0 0.0 0.0
0.24266214668750763 -0.04892328381538391 0.16815944015979767 255.0 0.0 0.0
0.2147393673658371 -0.2470051795244217 -0.13454821705818176 255.0 0.0 0.0
0.24161244928836823 0.16632799804210663 0.15858127176761627 255.0 0.0 0.0
-0.27059343457221985 0.22498980164527893 -0.010365055873990059 255.0 0.0 0.0
0.25905922055244446 -0.16790969669818878 0.151590496301651 255.0 0.0 0.0
-0.23965325951576233 0.32310760021209717 -0.018839174881577492 255.0 0.0 0.0
-0.2217312902212143 -0.4104022979736328 0.17943508923053741 255.0 0.0 0.0
-0.2713209390640259 -0.24136610329151154 0.06202918291091919 255.0 0.0 0.0
0.18870148062705994 -0.25180864334106445 -0.04323496297001839 255.0 0.0 0.0
-0.1610698252916336 0.3373309373855591 -0.31766659021377563 255.0 0.0 0.0
0.05787140876054764 0.13738395273685455 -0.19197902083396912 255.0 0.0 0.0
-0.28356102108955383 0.17092172801494598 -0.308144748210907 255.0 0.0 0.0
-0.27073007822036743 0.03939252719283104 0.1448657363653183 255.0 0.0 0.0
0.21600258350372314 0.24842770397663116 0.0473003126680851 255.0 0.0 0.0
0.2733324468135834 0.344769150018692 -0.06081830710172653 255.0 0.0 0.0
-0.1404096931219101 0.32596778869628906 -0.34376364946365356 255.0 0.0 0.0
-0.28374505043029785 0.0603642500936985 -0.31838250160217285 255.0 0.0 0.0
-0.04259834438562393 -0.18544867634773254 0.16037413477897644 255.0 0.0 0.0
0.22019290924072266 0.3659062087535858 0.11911635100841522 255.0 0.0 0.0
-0.24637891352176666 0.44685977697372437 0.10625635087490082 255.0 0.0 0.0
0.2672470808029175 -0.2499503642320633 0.030372902750968933 255.0 0.0 0.0
-0.17884616553783417 -0.26377183198928833 0.064971923828125 255.0 0.0 0.0
0.06339582800865173 0.11795246601104736 -0.1354697346687317 255.0 0.0 0.0
0.26509517431259155 0.2282232791185379 -0.13486668467521667 255.0 0.0 0.0
0.2831529676914215 0.3351249098777771 0.057286400347948074 255.0 0.0 0.0
-0.27006781101226807 0.2239736020565033 0.04337317869067192 255.0 0.0 0.0
-0.2275443971157074 0.3542320132255554 0.10803382098674774 255.0 0.0 0.0
-0.22388917207717896 -0.03902576491236687 0.15509140491485596 255.0 0.0 0.0
0.24391017854213715 -0.28539371490478516 0.08700481802225113 255.0 0.0 0.0
-0.17081157863140106 0.23858484625816345 0.02122720144689083 255.0 0.0 0.0
-0.23256239295005798 0.2805480360984802 -0.33636146783828735 255.0 0.0 0.0
0.2130906581878662 0.48138508200645447 0.11863549798727036 255.0 0.0 0.0
-0.2378152757883072 0.44798174500465393 0.1035991832613945 255.0 0.0 0.0
-0.0891743078827858 0.1761261224746704 0.15417860448360443 255.0 0.0 0.0
0.24724014103412628 -0.06604807823896408 0.16652590036392212 255.0 0.0 0.0
0.027234766632318497 0.18240861594676971 -0.13914696872234344 255.0 0.0 0.0
0.28394627571105957 -0.4436918795108795 0.06213952600955963 255.0 0.0 0.0
0.2144376039505005 0.4216163456439972 -0.08261247724294662 255.0 0.0 0.0
0.2422163188457489 0.3944167494773865 0.10456760972738266 255.0 0.0 0.0
-0.06063045188784599 0.3262256979942322 -0.2996748685836792 255.0 0.0 0.0
0.24253743886947632 -0.32937079668045044 0.12518653273582458 255.0 0.0 0.0
-0.08374815434217453 0.16819101572036743 0.1539294570684433 255.0 0.0 0.0
0.297535240650177 -0.24538937211036682 -0.07289095222949982 255.0 0.0 0.0
0.2816351652145386 -0.36337634921073914 0.12035869061946869 255.0 0.0 0.0
0.2824270725250244 -0.25006669759750366 0.11328621208667755 255.0 0.0 0.0
0.1853967159986496 -0.406708687543869 0.19038452208042145 255.0 0.0 0.0
-0.2704215347766876 0.24512803554534912 -0.3563627004623413 255.0 0.0 0.0
0.12744148075580597 0.17681601643562317 0.15466086566448212 255.0 0.0 0.0
0.02324390411376953 0.23061935603618622 -0.2471834421157837 255.0 0.0 0.0
0.2910737693309784 0.35106003284454346 0.0651434063911438 255.0 0.0 0.0
0.2109604924917221 -0.24194040894508362 0.15259705483913422 255.0 0.0 0.0
-0.2478497326374054 -0.009801818057894707 -0.24588635563850403 255.0 0.0 0.0
0.23813919723033905 0.5116591453552246 -0.031629979610443115 255.0 0.0 0.0
-0.25630784034729004 0.04419378191232681 0.15632209181785583 255.0 0.0 0.0
-0.22421172261238098 0.2080671191215515 0.1582849621772766 255.0 0.0 0.0
-0.2317701280117035 -0.44073230028152466 0.16302333772182465 255.0 0.0 0.0
-0.22783738374710083 0.22901879251003265 0.06426021456718445 255.0 0.0 0.0
0.2845282554626465 -0.25051257014274597 -0.022836800664663315 255.0 0.0 0.0
-0.24509510397911072 0.24301587045192719 -0.009497201070189476 255.0 0.0 0.0
0.26931917667388916 -0.4157432019710541 0.19927962124347687 255.0 0.0 0.0
-0.2676595151424408 0.0861433669924736 -0.13048429787158966 255.0 0.0 0.0
0.2685720920562744 0.40532854199409485 -0.08797265589237213 255.0 0.0 0.0
-0.22693923115730286 -0.10061942785978317 0.15039019286632538 255.0 0.0 0.0
0.031198322772979736 -0.2522229552268982 0.1433786004781723 255.0 0.0 0.0
0.1451755166053772 -0.43978238105773926 -0.004628636874258518 255.0 0.0 0.0
0.2480396181344986 -0.2960951030254364 -0.0635584145784378 255.0 0.0 0.0
0.24061858654022217 0.281734824180603 0.041894860565662384 255.0 0.0 0.0
-0.03928573057055473 0.13644292950630188 -0.19109971821308136 255.0 0.0 0.0
0.2971841096878052 -0.023125549778342247 0.15192332863807678 255.0 0.0 0.0
-0.2204446941614151 -0.15270888805389404 0.16147281229496002 255.0 0.0 0.0
-0.2114592045545578 0.258262574672699 0.04345601052045822 255.0 0.0 0.0
-0.26755544543266296 -0.07437106966972351 -0.28050118684768677 255.0 0.0 0.0
-0.21209149062633514 0.5085058212280273 0.05033835396170616 255.0 0.0 0.0
-0.16615194082260132 0.22812457382678986 0.008301734924316406 255.0 0.0 0.0
-0.23870734870433807 0.3454820513725281 -0.05178866907954216 255.0 0.0 0.0
-0.2887532711029053 0.077222540974617 -0.3058037757873535 255.0 0.0 0.0
-0.25289779901504517 -0.3160676956176758 0.11753074824810028 255.0 0.0 0.0
0.2945636808872223 -0.13866250216960907 0.16013972461223602 255.0 0.0 0.0
-0.18407239019870758 -0.17154860496520996 0.16978436708450317 255.0 0.0 0.0
-0.005199555307626724 -0.24768002331256866 0.1546923667192459 255.0 0.0 0.0
-0.2692122459411621 0.07887008041143417 -0.32250073552131653 255.0 0.0 0.0
-0.17230699956417084 0.38955098390579224 0.10524351894855499 255.0 0.0 0.0
0.22055605053901672 0.49289095401763916 0.12041263282299042 255.0 0.0 0.0
0.28552669286727905 0.2282269448041916 0.014459840953350067 255.0 0.0 0.0
-0.2541511058807373 0.23417627811431885 -0.3244534432888031 255.0 0.0 0.0
-0.2689819037914276 0.14257217943668365 -0.12798857688903809 255.0 0.0 0.0
-0.22351492941379547 0.10223027318716049 0.15178701281547546 255.0 0.0 0.0
0.29456132650375366 -0.0719694048166275 0.1558600217103958 255.0 0.0 0.0
0.03895826265215874 0.2297765463590622 -0.11701564490795135 255.0 0.0 0.0
0.02978961542248726 0.22469820082187653 -0.13462871313095093 255.0 0.0 0.0
0.2874158024787903 -0.016206098720431328 0.15615524351596832 255.0 0.0 0.0
-0.33129993081092834 -0.38124409317970276 0.08240290731191635 255.0 0.0 0.0
-0.2860555648803711 -0.04925231263041496 -0.23599180579185486 255.0 0.0 0.0
0.28796422481536865 -0.4063267111778259 0.17845414578914642 255.0 0.0 0.0
0.24537084996700287 0.040445636957883835 0.16228161752223969 255.0 0.0 0.0
-0.26907092332839966 0.03777395933866501 -0.12753528356552124 255.0 0.0 0.0
0.2752506136894226 0.41822314262390137 -0.07462693750858307 255.0 0.0 0.0
0.1389426290988922 -0.4306095242500305 0.1205720454454422 255.0 0.0 0.0
-0.2178828865289688 0.360004186630249 0.1141216903924942 255.0 0.0 0.0
0.2799126207828522 0.23603935539722443 0.02792535349726677 255.0 0.0 0.0
-0.04788070172071457 0.3026297688484192 -0.26260244846343994 255.0 0.0 0.0
0.2949789762496948 0.1460287719964981 0.1562839299440384 255.0 0.0 0.0
0.1826787292957306 0.42574191093444824 0.11217319965362549 255.0 0.0 0.0
-0.032162949442863464 0.21575455367565155 -0.2009163647890091 255.0 0.0 0.0
-0.1990738809108734 0.301878422498703 -0.018208520486950874 255.0 0.0 0.0
-0.22377313673496246 0.28750061988830566 -0.34419816732406616 255.0 0.0 0.0
0.27084019780158997 0.24349677562713623 -0.006374815478920937 255.0 0.0 0.0
0.06359616667032242 0.18063315749168396 -0.17086544632911682 255.0 0.0 0.0
-0.3376649022102356 -0.3686298429965973 0.09667053073644638 255.0 0.0 0.0
-0.16097025573253632 0.35085830092430115 -0.0009136709268204868 255.0 0.0 0.0
0.24275033175945282 -0.2489609271287918 -0.12741422653198242 255.0 0.0 0.0
-0.2282543182373047 -0.37821969389915466 -0.09016052633523941 255.0 0.0 0.0
0.24333062767982483 -0.32528698444366455 -0.07928536832332611 255.0 0.0 0.0
-0.22809000313282013 0.12305102497339249 0.15220490097999573 255.0 0.0 0.0
-0.3346521258354187 -0.38630688190460205 0.05267293378710747 255.0 0.0 0.0
-0.03327283635735512 0.18056868016719818 0.15490993857383728 255.0 0.0 0.0
0.23538024723529816 -0.253135085105896 -0.04540904238820076 255.0 0.0 0.0
0.06423094868659973 0.22688141465187073 -0.11920268088579178 255.0 0.0 0.0
-0.0853368490934372 -0.24877603352069855 0.15087853372097015 255.0 0.0 0.0
0.15269741415977478 -0.23103481531143188 0.15198460221290588 255.0 0.0 0.0
0.06736017763614655 0.1307518184185028 -0.13961997628211975 255.0 0.0 0.0
-0.24766935408115387 0.47857561707496643 0.1117456927895546 255.0 0.0 0.0
-0.2548941671848297 -0.09265371412038803 -0.26103460788726807 255.0 0.0 0.0
-0.22341735661029816 0.23020225763320923 0.05856390669941902 255.0 0.0 0.0
-0.3064076602458954 -0.390461802482605 -0.07594125717878342 255.0 0.0 0.0
0.2530285120010376 -0.2395433634519577 0.15867911279201508 255.0 0.0 0.0
-0.27133244276046753 0.06508109718561172 0.14748357236385345 255.0 0.0 0.0
0.018369976431131363 0.16206884384155273 0.16743899881839752 255.0 0.0 0.0
-0.2601669430732727 -0.07645725458860397 -0.22140198945999146 255.0 0.0 0.0
0.29926297068595886 0.17971102893352509 -0.12140502780675888 255.0 0.0 0.0
-0.2710018754005432 -0.09048642963171005 -0.24182742834091187 255.0 0.0 0.0
-0.017387371510267258 0.22405342757701874 -0.17861971259117126 255.0 0.0 0.0
-0.2618740499019623 -0.25394001603126526 -0.0023573103826493025 255.0 0.0 0.0
-0.22894397377967834 0.0718679130077362 0.15172156691551208 255.0 0.0 0.0
-0.3321993947029114 -0.35514286160469055 0.16043314337730408 255.0 0.0 0.0
0.29188376665115356 -0.24945463240146637 0.09703314304351807 255.0 0.0 0.0
0.03426055237650871 0.22355006635189056 -0.134799063205719 255.0 0.0 0.0
-0.07257857173681259 -0.24679706990718842 0.15376567840576172 255.0 0.0 0.0
0.21546205878257751 -0.43333056569099426 -0.0885375365614891 255.0 0.0 0.0
0.19946527481079102 0.22753837704658508 0.01946793496608734 255.0 0.0 0.0
-0.027377808466553688 -0.25079604983329773 0.03981029614806175 255.0 0.0 0.0
0.20615406334400177 0.22812457382678986 0.03392508253455162 255.0 0.0 0.0
0.13709864020347595 -0.42825835943222046 0.06109117344021797 255.0 0.0 0.0
0.2061476707458496 0.2684270441532135 0.01577918604016304 255.0 0.0 0.0
0.21642661094665527 0.2318635731935501 0.06208174675703049 255.0 0.0 0.0
0.30025655031204224 -0.030085233971476555 -0.13012588024139404 255.0 0.0 0.0
-0.2785671651363373 0.06038711592555046 -0.31526651978492737 255.0 0.0 0.0
0.25912588834762573 -0.2642470896244049 0.03983224183320999 255.0 0.0 0.0
0.2055124044418335 -0.24932566285133362 -0.051296982914209366 255.0 0.0 0.0
-0.27596309781074524 0.22627446055412292 -0.3183022439479828 255.0 0.0 0.0
-0.14701831340789795 -0.2545207440853119 0.022886695340275764 255.0 0.0 0.0
-0.251448392868042 0.3490831255912781 0.07854010164737701 255.0 0.0 0.0
-0.26930761337280273 -0.0973275750875473 0.15510042011737823 255.0 0.0 0.0
-0.09143297374248505 0.22760799527168274 0.14492936432361603 255.0 0.0 0.0
0.24880608916282654 -0.28829729557037354 0.07990172505378723 255.0 0.0 0.0
-0.21658819913864136 0.295939564704895 -0.34791359305381775 255.0 0.0 0.0
-0.18573933839797974 -0.24635691940784454 -0.13506805896759033 255.0 0.0 0.0
0.22694627940654755 0.28387612104415894 -0.01827247440814972 255.0 0.0 0.0
-0.2536322772502899 -0.2497241050004959 0.12799306213855743 255.0 0.0 0.0
0.29139578342437744 -0.43499889969825745 0.025304708629846573 255.0 0.0 0.0
0.2623745799064636 -0.31980109214782715 0.10079202800989151 255.0 0.0 0.0
-0.17767184972763062 0.3383195996284485 -0.031546201556921005 255.0 0.0 0.0
0.21254141628742218 0.18013717234134674 0.1557161509990692 255.0 0.0 0.0
-0.22047732770442963 0.3027305603027344 -0.02040347084403038 255.0 0.0 0.0
0.20463350415229797 -0.24598486721515656 -0.13219007849693298 255.0 0.0 0.0
0.27394720911979675 -0.25123411417007446 0.1447898894548416 255.0 0.0 0.0
-0.24593578279018402 -0.045448172837495804 -0.2817193269729614 255.0 0.0 0.0
0.06346745043992996 0.15067961812019348 -0.1438423991203308 255.0 0.0 0.0
-0.2694341838359833 0.2212904542684555 -0.0005384086980484426 255.0 0.0 0.0
-0.17890983819961548 0.4070306122303009 0.09300149977207184 255.0 0.0 0.0
-0.25699758529663086 0.2098568230867386 -0.34222328662872314 255.0 0.0 0.0
0.07913313806056976 -0.2515173554420471 -0.11740902066230774 255.0 0.0 0.0
-0.21902425587177277 0.4783150851726532 0.10435190051794052 255.0 0.0 0.0
0.2101556658744812 0.2863845229148865 0.00743107357993722 255.0 0.0 0.0
0.1578906774520874 -0.1915467530488968 0.15859916806221008 255.0 0.0 0.0
0.04803404211997986 0.22671456634998322 0.1448996365070343 255.0 0.0 0.0
0.19169218838214874 -0.19094610214233398 0.15271130204200745 255.0 0.0 0.0
-0.17180275917053223 0.22976772487163544 0.032605353742837906 255.0 0.0 0.0
0.2655699849128723 -0.3529949188232422 0.14202240109443665 255.0 0.0 0.0
0.28769370913505554 -0.2507738173007965 -0.07765617221593857 255.0 0.0 0.0
-0.3316231369972229 -0.3449603021144867 0.1388276368379593 255.0 0.0 0.0
-0.22028258442878723 -0.11865858733654022 0.16487781703472137 255.0 0.0 0.0
-0.2378281056880951 -0.040248576551675797 0.1559581607580185 255.0 0.0 0.0
-0.2767152786254883 0.24856658279895782 -0.33476966619491577 255.0 0.0 0.0
-0.259575217962265 0.09842642396688461 -0.30844202637672424 255.0 0.0 0.0
0.051775719970464706 0.18050868809223175 -0.20781250298023224 255.0 0.0 0.0
0.18938113749027252 -0.2517773509025574 0.05301055684685707 255.0 0.0 0.0
-0.19543133676052094 0.3430018126964569 -0.054758429527282715 255.0 0.0 0.0
0.2599504590034485 -0.13545598089694977 0.15460535883903503 255.0 0.0 0.0
0.0015171889681369066 -0.19660453498363495 0.15061262249946594 255.0 0.0 0.0
0.28519630432128906 0.46288391947746277 0.13060179352760315 255.0 0.0 0.0
0.1976054161787033 -0.2526225745677948 0.06588922441005707 255.0 0.0 0.0
-0.27060434222221375 -0.24480023980140686 -0.09784761816263199 255.0 0.0 0.0
-0.1442941427230835 -0.25726935267448425 -0.124212346971035 255.0 0.0 0.0
-0.17628450691699982 0.3511631488800049 -0.04583742842078209 255.0 0.0 0.0
0.26300349831581116 0.2960880994796753 0.03615061193704605 255.0 0.0 0.0
0.24798522889614105 0.17371955513954163 0.1548723727464676 255.0 0.0 0.0
-0.10160058736801147 -0.24428711831569672 -0.13720431923866272 255.0 0.0 0.0
0.19858743250370026 0.4471242129802704 0.10560448467731476 255.0 0.0 0.0
-0.09180518984794617 0.33032742142677307 -0.29120728373527527 255.0 0.0 0.0
1.4218951037037186e-05 0.2891075015068054 -0.23781996965408325 255.0 0.0 0.0
0.25687724351882935 0.3478739857673645 -0.0771125927567482 255.0 0.0 0.0
0.28689536452293396 -0.05931037664413452 0.15632209181785583 255.0 0.0 0.0
0.23435571789741516 -0.2602817416191101 -0.048619188368320465 255.0 0.0 0.0
0.2539948523044586 -0.38090166449546814 -0.08361611515283585 255.0 0.0 0.0
-0.26746225357055664 -0.019833272323012352 0.15629753470420837 255.0 0.0 0.0
0.17621304094791412 -0.4451667070388794 -0.0516153909265995 255.0 0.0 0.0
0.2847665548324585 0.11370895057916641 -0.13557292520999908 255.0 0.0 0.0
0.25712066888809204 -0.31994199752807617 0.10384427756071091 255.0 0.0 0.0
0.2461380660533905 -0.4129047989845276 -0.0920596644282341 255.0 0.0 0.0
-0.26850125193595886 -0.17013812065124512 -0.13376036286354065 255.0 0.0 0.0
-0.24082373082637787 0.352286159992218 -0.062490757554769516 255.0 0.0 0.0
-0.20084315538406372 -0.42015039920806885 0.13038064539432526 255.0 0.0 0.0
-0.28672096133232117 0.11715752631425858 -0.3078920543193817 255.0 0.0 0.0
-0.2555481195449829 0.09062029421329498 -0.28586336970329285 255.0 0.0 0.0
-0.18816116452217102 0.22923889756202698 0.05429588630795479 255.0 0.0 0.0
-0.039961911737918854 0.18142110109329224 0.15434038639068604 255.0 0.0 0.0
-0.12689441442489624 0.16493915021419525 0.16538996994495392 255.0 0.0 0.0
0.17668138444423676 -0.24976550042629242 -0.11784060299396515 255.0 0.0 0.0
0.24913601577281952 -0.040260542184114456 0.15721215307712555 255.0 0.0 0.0
0.29605457186698914 0.08252463489770889 -0.12530022859573364 255.0 0.0 0.0
0.0549297071993351 0.21247611939907074 -0.2048494964838028 255.0 0.0 0.0
-0.2661552131175995 0.22597981989383698 0.0517769493162632 255.0 0.0 0.0
-0.2706620991230011 0.18436384201049805 0.15222741663455963 255.0 0.0 0.0
-0.26177844405174255 0.22879914939403534 -0.06645894795656204 255.0 0.0 0.0
0.2880133092403412 -0.24818913638591766 0.1485772728919983 255.0 0.0 0.0
-0.15059994161128998 0.33788737654685974 -0.3121125102043152 255.0 0.0 0.0
0.2817141115665436 0.4876532554626465 0.11133342236280441 255.0 0.0 0.0
-0.2833271026611328 -0.02552143484354019 -0.23139797151088715 255.0 0.0 0.0
-0.17690618336200714 0.36185240745544434 0.10187117010354996 255.0 0.0 0.0
-0.01871390827000141 0.22785155475139618 -0.2455071061849594 255.0 0.0 0.0
-0.3291000425815582 -0.3566139042377472 0.1853020340204239 255.0 0.0 0.0
-0.20384743809700012 -0.2540159821510315 0.07666242867708206 255.0 0.0 0.0
-0.012069346383213997 0.2783665060997009 -0.22406354546546936 255.0 0.0 0.0
0.12769439816474915 0.22777684032917023 0.14866603910923004 255.0 0.0 0.0
0.02564452402293682 0.22089862823486328 -0.24525900185108185 255.0 0.0 0.0
-0.20871801674365997 -0.08974327892065048 0.1692925989627838 255.0 0.0 0.0
-0.259054958820343 0.08060542494058609 -0.31040576100349426 255.0 0.0 0.0
-0.17671887576580048 0.2459118515253067 0.017353519797325134 255.0 0.0 0.0
-0.20805026590824127 -0.10854395478963852 0.16931411623954773 255.0 0.0 0.0
0.29095593094825745 0.04106096923351288 -0.13423076272010803 255.0 0.0 0.0
-0.16449028253555298 -0.18759003281593323 0.16280435025691986 255.0 0.0 0.0
-0.18433146178722382 0.31727832555770874 -0.3398914039134979 255.0 0.0 0.0
0.2460433542728424 0.5100072622299194 -0.022515354678034782 255.0 0.0 0.0
-0.007073166314512491 0.1015806570649147 -0.13492132723331451 255.0 0.0 0.0
-0.0256624948233366 0.15212133526802063 -0.13717176020145416 255.0 0.0 0.0
-0.019109711050987244 0.16951054334640503 -0.13586829602718353 255.0 0.0 0.0
-0.20405814051628113 0.32760173082351685 -0.03185703232884407 255.0 0.0 0.0
-0.19287578761577606 0.3277507722377777 -0.33221733570098877 255.0 0.0 0.0
-0.246442973613739 0.324314147233963 -0.005550071131438017 255.0 0.0 0.0
0.19247975945472717 0.4173778295516968 0.11110088974237442 255.0 0.0 0.0
0.2706684172153473 0.3122422397136688 -0.006008770316839218 255.0 0.0 0.0
-0.1398884356021881 0.17194421589374542 0.15578073263168335 255.0 0.0 0.0
-0.24627257883548737 0.2517628073692322 -0.3515956699848175 255.0 0.0 0.0
-0.25234857201576233 0.43206286430358887 0.1133403554558754 255.0 0.0 0.0
-0.27265048027038574 0.2218908816576004 -0.07376396656036377 255.0 0.0 0.0
0.2605299651622772 0.32549428939819336 0.061525121331214905 255.0 0.0 0.0
-0.22662144899368286 0.3301341235637665 -0.034309983253479004 255.0 0.0 0.0
-0.23463144898414612 0.39765334129333496 0.10299386084079742 255.0 0.0 0.0
0.24102728068828583 -0.24888503551483154 0.14679302275180817 255.0 0.0 0.0
0.167342871427536 -0.2709866762161255 0.0047648814506828785 255.0 0.0 0.0
-0.1624421924352646 0.3865950405597687 0.0956510379910469 255.0 0.0 0.0
-0.22548529505729675 -0.06316455453634262 0.15213435888290405 255.0 0.0 0.0
-0.21996299922466278 0.4567297101020813 0.09038146585226059 255.0 0.0 0.0
-0.20200583338737488 -0.05881819128990173 0.17164556682109833 255.0 0.0 0.0
-0.2380707859992981 -0.26967254281044006 -0.0387897789478302 255.0 0.0 0.0
-0.27070945501327515 -0.24535952508449554 -0.10017955303192139 255.0 0.0 0.0
-0.2888721823692322 0.08934172242879868 -0.2815195322036743 255.0 0.0 0.0
0.1584169566631317 -0.3857463598251343 0.15539328753948212 255.0 0.0 0.0
-0.253572940826416 0.4727095067501068 0.11029873043298721 255.0 0.0 0.0
-0.337056040763855 -0.3737794756889343 0.0077964733354747295 255.0 0.0 0.0
0.15758013725280762 -0.250509113073349 0.019367167726159096 255.0 0.0 0.0
-0.22843776643276215 -0.00942573044449091 0.15054048597812653 255.0 0.0 0.0
-0.22101588547229767 0.3167191743850708 -0.35765478014945984 255.0 0.0 0.0
-0.1521596759557724 0.20782865583896637 0.15858003497123718 255.0 0.0 0.0
0.21965181827545166 -0.25961071252822876 -0.05057280510663986 255.0 0.0 0.0
-0.19687774777412415 0.31389331817626953 0.039223406463861465 255.0 0.0 0.0
0.1745476871728897 -0.2527630031108856 0.14590229094028473 255.0 0.0 0.0
-0.11994298547506332 0.31760382652282715 -0.33762678503990173 255.0 0.0 0.0
0.21201159060001373 0.27601394057273865 0.02560942992568016 255.0 0.0 0.0
-0.22693920135498047 0.2329351007938385 0.0523843877017498 255.0 0.0 0.0
-0.024423303082585335 0.10839547216892242 -0.18331816792488098 255.0 0.0 0.0
0.04336988553404808 0.17068444192409515 0.15335476398468018 255.0 0.0 0.0
0.289235383272171 -0.030646054074168205 -0.13506805896759033 255.0 0.0 0.0
-0.03721834346652031 0.1545962542295456 -0.1953427493572235 255.0 0.0 0.0
-0.1757146716117859 -0.1968093067407608 0.15255102515220642 255.0 0.0 0.0
0.21999159455299377 -0.4462425708770752 0.19019803404808044 255.0 0.0 0.0
0.2972581684589386 -0.23679861426353455 -0.03131933510303497 255.0 0.0 0.0
0.20941148698329926 0.5079028606414795 0.09443940222263336 255.0 0.0 0.0
-0.2522428035736084 -0.0261146891862154 -0.229038804769516 255.0 0.0 0.0
-0.024269264191389084 0.2256862074136734 -0.1888919174671173 255.0 0.0 0.0
-0.20315566658973694 -0.25482597947120667 -0.052162230014801025 255.0 0.0 0.0
-0.02762725204229355 -0.24958720803260803 -0.12349003553390503 255.0 0.0 0.0
0.016531089320778847 -0.25011906027793884 0.13984762132167816 255.0 0.0 0.0
-0.23710274696350098 -0.2566806674003601 0.0023941860999912024 255.0 0.0 0.0
0.1818935126066208 0.3942802846431732 0.10246031731367111 255.0 0.0 0.0
-0.21723148226737976 0.22634373605251312 0.15506672859191895 255.0 0.0 0.0
-0.10417059808969498 -0.24974744021892548 0.15317781269550323 255.0 0.0 0.0
0.10416444391012192 0.1628255695104599 0.16317448019981384 255.0 0.0 0.0
-0.2956550121307373 -0.3173993229866028 0.16136302053928375 255.0 0.0 0.0
-0.24987603724002838 0.23104648292064667 -0.010349494405090809 255.0 0.0 0.0
0.21331250667572021 0.29262182116508484 -0.009408443234860897 255.0 0.0 0.0
-0.23773862421512604 -0.021657906472682953 0.15595416724681854 255.0 0.0 0.0
-0.2474757432937622 0.23718126118183136 -0.009500084444880486 255.0 0.0 0.0
0.13709864020347595 -0.4311310648918152 0.05934013053774834 255.0 0.0 0.0
-0.25672104954719543 0.12963011860847473 -0.3138393461704254 255.0 0.0 0.0
0.03840154409408569 0.1242753192782402 -0.20618899166584015 255.0 0.0 0.0
-0.22481410205364227 -0.1578093022108078 0.15296903252601624 255.0 0.0 0.0
-0.20535852015018463 0.3191605508327484 -0.3315143287181854 255.0 0.0 0.0
-0.22701698541641235 -0.2837236225605011 0.07995858043432236 255.0 0.0 0.0
-0.3336094319820404 -0.3620474636554718 0.13624224066734314 255.0 0.0 0.0
-0.21201913058757782 0.37315917015075684 0.10393306612968445 255.0 0.0 0.0
0.2651005983352661 -0.4200439751148224 -0.07949088513851166 255.0 0.0 0.0
0.047856543213129044 0.19823217391967773 -0.2218717485666275 255.0 0.0 0.0
-0.248673677444458 0.3602016866207123 0.09997571259737015 255.0 0.0 0.0
-0.23131009936332703 0.023346783593297005 0.15735316276550293 255.0 0.0 0.0
-0.31842753291130066 -0.34620076417922974 0.19944949448108673 255.0 0.0 0.0
0.2978532016277313 -0.18882930278778076 0.1515302062034607 255.0 0.0 0.0
-0.23424361646175385 0.45770108699798584 -0.06571415811777115 255.0 0.0 0.0
-0.26410824060440063 -0.17985063791275024 -0.13506805896759033 255.0 0.0 0.0
-0.20261795818805695 0.37418803572654724 0.10624775290489197 255.0 0.0 0.0
0.2870995104312897 0.22863391041755676 0.12292509526014328 255.0 0.0 0.0
0.12397666275501251 -0.24972261488437653 0.14407885074615479 255.0 0.0 0.0
-0.2703113853931427 0.07618948817253113 -0.2626720368862152 255.0 0.0 0.0
-0.24414345622062683 0.49074098467826843 0.08926130831241608 255.0 0.0 0.0
0.21308870613574982 0.327499121427536 0.058159079402685165 255.0 0.0 0.0
0.23640410602092743 0.43707600235939026 -0.09072918444871902 255.0 0.0 0.0
0.17505590617656708 -0.4444849193096161 0.18630756437778473 255.0 0.0 0.0
-0.284379243850708 -0.03470166400074959 -0.29384011030197144 255.0 0.0 0.0
-0.1926458328962326 -0.41390854120254517 0.10959184914827347 255.0 0.0 0.0
-0.09939426183700562 0.17739242315292358 0.15652628242969513 255.0 0.0 0.0
0.12095417827367783 0.22789466381072998 0.15194927155971527 255.0 0.0 0.0
-0.179470032453537 0.49025413393974304 0.0789879709482193 255.0 0.0 0.0
0.0356251560151577 0.1811825931072235 -0.13276703655719757 255.0 0.0 0.0
-0.24503587186336517 0.35468345880508423 0.08630005270242691 255.0 0.0 0.0
-0.23138365149497986 -0.25533604621887207 -0.057138796895742416 255.0 0.0 0.0
0.2891688346862793 0.21069836616516113 -0.13506805896759033 255.0 0.0 0.0
-0.27072668075561523 0.20437391102313995 0.1429651528596878 255.0 0.0 0.0
0.23164670169353485 0.28047874569892883 0.04019099846482277 255.0 0.0 0.0
-0.26491713523864746 0.2254180759191513 -0.11987483501434326 255.0 0.0 0.0
0.2559656500816345 0.5085718631744385 0.10477311164140701 255.0 0.0 0.0
-0.22277313470840454 0.4527320861816406 0.09155326336622238 255.0 0.0 0.0
-0.0678093433380127 0.31350669264793396 -0.32105886936187744 255.0 0.0 0.0
-0.2582405209541321 0.22588373720645905 -0.31936654448509216 255.0 0.0 0.0
0.2384890466928482 -0.3213326632976532 -0.0759987011551857 255.0 0.0 0.0
0.056481149047613144 0.17913690209388733 -0.15343435108661652 255.0 0.0 0.0
0.26726233959198 -0.384696900844574 0.18347126245498657 255.0 0.0 0.0
-0.13610833883285522 -0.25131967663764954 -0.007178029976785183 255.0 0.0 0.0
-0.2632087767124176 0.05438252538442612 -0.3193362057209015 255.0 0.0 0.0
-0.15983010828495026 -0.24059100449085236 0.15901407599449158 255.0 0.0 0.0
-0.2703091502189636 -0.14848075807094574 0.14832596480846405 255.0 0.0 0.0
-0.23004022240638733 -0.3946782946586609 0.18822607398033142 255.0 0.0 0.0
-0.2164759486913681 0.04084901511669159 0.1633010059595108 255.0 0.0 0.0
0.2745000720024109 -0.3828901946544647 0.17451803386211395 255.0 0.0 0.0
-0.21707554161548615 -0.038596365600824356 0.17176109552383423 255.0 0.0 0.0
0.281200647354126 0.22837790846824646 -0.015048973262310028 255.0 0.0 0.0
-0.23878778517246246 0.26207202672958374 -0.3521806299686432 255.0 0.0 0.0
0.28440535068511963 0.35316187143325806 -0.054100845009088516 255.0 0.0 0.0
-0.2662871181964874 -0.04008634015917778 0.160540372133255 255.0 0.0 0.0
-0.2497342824935913 0.3506094217300415 -0.052142009139060974 255.0 0.0 0.0
-0.25631269812583923 0.22836729884147644 0.017617741599678993 255.0 0.0 0.0
-0.25931045413017273 0.10198155045509338 -0.28639429807662964 255.0 0.0 0.0
0.03848934918642044 0.24475617706775665 -0.24796004593372345 255.0 0.0 0.0
0.26502862572669983 0.02187701128423214 0.15598976612091064 255.0 0.0 0.0
0.06268174201250076 0.13155189156532288 -0.15638689696788788 255.0 0.0 0.0
-0.20567111670970917 0.2644508481025696 0.03844920173287392 255.0 0.0 0.0
0.24658885598182678 -0.12792032957077026 0.1626601219177246 255.0 0.0 0.0
-0.20071697235107422 0.5028323531150818 0.023216327652335167 255.0 0.0 0.0
0.2755137085914612 -0.44475701451301575 0.03973260894417763 255.0 0.0 0.0
-0.24573485553264618 0.3172379732131958 0.004152602981775999 255.0 0.0 0.0
0.2833135426044464 -0.2485000342130661 0.08356895297765732 255.0 0.0 0.0
-0.2741802930831909 0.051267895847558975 -0.24613313376903534 255.0 0.0 0.0
-0.19336555898189545 -0.2521953880786896 0.14685912430286407 255.0 0.0 0.0
-0.29167214035987854 0.07250553369522095 -0.2797274887561798 255.0 0.0 0.0
0.21680989861488342 0.29555052518844604 0.03495826572179794 255.0 0.0 0.0
-0.22902382910251617 -0.24819163978099823 -0.13227567076683044 255.0 0.0 0.0
-0.1828145980834961 0.24245211482048035 -0.014585220254957676 255.0 0.0 0.0
-0.26584959030151367 -0.3584187626838684 -0.08686833828687668 255.0 0.0 0.0
0.2642742395401001 0.4685748517513275 0.11093328148126602 255.0 0.0 0.0
-0.011157091706991196 0.2921454608440399 -0.2932058572769165 255.0 0.0 0.0
0.2616852819919586 0.2994445562362671 -0.01052593532949686 255.0 0.0 0.0
-0.2330089509487152 0.49362096190452576 0.10505285859107971 255.0 0.0 0.0
-0.258877694606781 0.08909250795841217 -0.28149545192718506 255.0 0.0 0.0
-0.010293458588421345 0.17109668254852295 -0.21725353598594666 255.0 0.0 0.0
-0.18890179693698883 0.32026639580726624 0.04144557565450668 255.0 0.0 0.0
0.2055940330028534 0.22812457382678986 0.012021590955555439 255.0 0.0 0.0
-0.016799455508589745 0.3091946840286255 -0.2922958731651306 255.0 0.0 0.0
-0.3312671184539795 -0.41094422340393066 -0.0328436978161335 255.0 0.0 0.0
-0.2641005218029022 0.36269187927246094 0.05854738876223564 255.0 0.0 0.0
-0.23738856613636017 0.42315641045570374 0.09604979306459427 255.0 0.0 0.0
-0.26114654541015625 0.44374415278434753 0.11425131559371948 255.0 0.0 0.0
0.23783054947853088 0.2912622094154358 0.04465503618121147 255.0 0.0 0.0
-0.010998968034982681 0.2715942859649658 -0.27701395750045776 255.0 0.0 0.0
0.2829894423484802 0.023159002885222435 0.15650399029254913 255.0 0.0 0.0
-0.2556302547454834 -0.2419886291027069 0.1569499373435974 255.0 0.0 0.0
-0.11620473861694336 0.21728716790676117 -0.13506805896759033 255.0 0.0 0.0
0.2901649475097656 -0.25030794739723206 0.13301029801368713 255.0 0.0 0.0
-0.02332485094666481 0.11071654409170151 -0.17103339731693268 255.0 0.0 0.0
0.2978013753890991 0.35222241282463074 0.03908873349428177 255.0 0.0 0.0
0.11676681786775589 0.14923733472824097 0.16598038375377655 255.0 0.0 0.0
-0.26952895522117615 0.22024676203727722 0.12507280707359314 255.0 0.0 0.0
-0.2707524597644806 0.21382281184196472 0.13274848461151123 255.0 0.0 0.0
-0.26493364572525024 0.23153331875801086 -0.08416455239057541 255.0 0.0 0.0
-0.014624815434217453 0.1120014488697052 -0.19378824532032013 255.0 0.0 0.0
-0.16172020137310028 0.21272289752960205 -0.13749302923679352 255.0 0.0 0.0
-0.15843035280704498 0.1590653508901596 0.1597696840763092 255.0 0.0 0.0
0.2956797778606415 -0.08761110156774521 -0.1330045610666275 255.0 0.0 0.0
0.2891389727592468 0.2277027666568756 -0.08779739588499069 255.0 0.0 0.0
0.24845360219478607 -0.03805944696068764 0.15572182834148407 255.0 0.0 0.0
-0.15930739045143127 0.17347407341003418 0.1505729705095291 255.0 0.0 0.0
-0.19825135171413422 0.40381133556365967 0.08596039563417435 255.0 0.0 0.0
0.24781887233257294 -0.44519561529159546 0.19936689734458923 255.0 0.0 0.0
-0.2512144148349762 0.24541905522346497 -0.32786986231803894 255.0 0.0 0.0
-0.19401362538337708 -0.16617219150066376 0.170791357755661 255.0 0.0 0.0
-0.20126886665821075 0.381442129611969 -0.08008461445569992 255.0 0.0 0.0
-0.21793174743652344 0.26660847663879395 -0.02154804952442646 255.0 0.0 0.0
-0.207047238945961 0.35963237285614014 0.11123493313789368 255.0 0.0 0.0
0.2683647572994232 -0.37132880091667175 0.1682220846414566 255.0 0.0 0.0
-0.23807281255722046 0.4287070035934448 0.10269723832607269 255.0 0.0 0.0
-0.2583368718624115 0.039459191262722015 -0.31222522258758545 255.0 0.0 0.0
-0.10557559877634048 0.16622039675712585 0.15761785209178925 255.0 0.0 0.0
-0.1799711436033249 0.3126528263092041 0.014626149088144302 255.0 0.0 0.0
0.2497359663248062 0.5094226598739624 0.10653843730688095 255.0 0.0 0.0
-0.016171418130397797 0.18545673787593842 -0.14321260154247284 255.0 0.0 0.0
0.22424396872520447 0.32956305146217346 0.06254907697439194 255.0 0.0 0.0
-0.2194451093673706 0.2972365915775299 -0.36468052864074707 255.0 0.0 0.0
-0.26047006249427795 0.4577469825744629 0.10872271656990051 255.0 0.0 0.0
-0.1875952184200287 0.3064604103565216 -0.010067101567983627 255.0 0.0 0.0
0.28476935625076294 0.22828540205955505 -0.04591038078069687 255.0 0.0 0.0
0.17139728367328644 -0.2517319917678833 -0.0076149506494402885 255.0 0.0 0.0
-0.26799628138542175 0.028583168983459473 -0.236870676279068 255.0 0.0 0.0
-0.29057544469833374 -0.41509297490119934 -0.09420663863420486 255.0 0.0 0.0
-0.28504616022109985 0.18312108516693115 -0.32231414318084717 255.0 0.0 0.0
-0.1794758141040802 0.3389453589916229 0.050396133214235306 255.0 0.0 0.0
-0.2898425757884979 -0.0023522479459643364 -0.29981836676597595 255.0 0.0 0.0
-0.17263981699943542 0.23112405836582184 0.030199332162737846 255.0 0.0 0.0
0.25819382071495056 0.3489861488342285 0.12085096538066864 255.0 0.0 0.0
-0.2680487632751465 -0.004385550040751696 -0.3066537082195282 255.0 0.0 0.0
-0.055392682552337646 0.1787538081407547 0.15525701642036438 255.0 0.0 0.0
0.25351840257644653 0.31395062804222107 -0.03190024197101593 255.0 0.0 0.0
-0.011579104699194431 0.2279440015554428 0.14411233365535736 255.0 0.0 0.0
0.21161675453186035 0.22686566412448883 0.04326874762773514 255.0 0.0 0.0
0.019565854221582413 -0.25144582986831665 -0.12650704383850098 255.0 0.0 0.0
0.06388401985168457 -0.23354226350784302 -0.13506805896759033 255.0 0.0 0.0
0.24257735908031464 0.26533493399620056 -0.020267987623810768 255.0 0.0 0.0
0.2174246609210968 -0.23740804195404053 -0.13360874354839325 255.0 0.0 0.0
-0.26835060119628906 0.27373871207237244 -0.3480764329433441 255.0 0.0 0.0
-0.2400837391614914 0.4553512632846832 0.10049954801797867 255.0 0.0 0.0
-0.2367207258939743 -0.3776264190673828 0.18716759979724884 255.0 0.0 0.0
-0.1699099838733673 0.4446951448917389 0.10451428592205048 255.0 0.0 0.0
-0.22283683717250824 -0.25326770544052124 0.08457352966070175 255.0 0.0 0.0
0.29288384318351746 -0.20779938995838165 0.14562758803367615 255.0 0.0 0.0
-0.16673927009105682 0.3422790467739105 0.04000086709856987 255.0 0.0 0.0
-0.2707524597644806 0.22113151848316193 -0.0954630896449089 255.0 0.0 0.0
-0.16666387021541595 0.3803366422653198 0.09110121428966522 255.0 0.0 0.0
-0.1868673413991928 0.2531498968601227 0.028131553903222084 255.0 0.0 0.0
0.05438343808054924 0.11589428037405014 -0.16667276620864868 255.0 0.0 0.0
0.1597394049167633 0.22646288573741913 0.14047975838184357 255.0 0.0 0.0
0.19787083566188812 0.32920390367507935 0.045604199171066284 255.0 0.0 0.0
-0.019305970519781113 0.28145912289619446 -0.28437772393226624 255.0 0.0 0.0
-0.27072858810424805 0.07516193389892578 0.14542192220687866 255.0 0.0 0.0
0.280874639749527 0.16543319821357727 0.15425355732440948 255.0 0.0 0.0
0.29950281977653503 -0.1638074666261673 -0.13196255266666412 255.0 0.0 0.0
-0.2687799036502838 -0.09225161373615265 -0.26020681858062744 255.0 0.0 0.0
-0.24001038074493408 0.35023197531700134 -0.06075314059853554 255.0 0.0 0.0
0.2293819636106491 0.48946863412857056 0.11517231166362762 255.0 0.0 0.0
0.2795562148094177 -0.24883735179901123 -0.12109993398189545 255.0 0.0 0.0
-0.2809162437915802 0.030475687235593796 -0.2402527928352356 255.0 0.0 0.0
-0.1839292198419571 0.3271799683570862 -0.3290461599826813 255.0 0.0 0.0
-0.25997865200042725 0.452911376953125 0.10821923613548279 255.0 0.0 0.0
-0.33389365673065186 -0.3986124098300934 -0.03998488187789917 255.0 0.0 0.0
-0.23489385843276978 0.3941812217235565 0.10055150836706161 255.0 0.0 0.0
0.27912530303001404 0.49433454871177673 0.107447050511837 255.0 0.0 0.0
-0.28293299674987793 0.2163742184638977 -0.3295924663543701 255.0 0.0 0.0
-0.05532997474074364 0.2974703311920166 -0.2939991056919098 255.0 0.0 0.0
-0.2588302791118622 -0.25004276633262634 0.11114700138568878 255.0 0.0 0.0
-0.2610912621021271 0.16461022198200226 -0.30653879046440125 255.0 0.0 0.0
-0.17719583213329315 0.2298356294631958 0.03766345605254173 255.0 0.0 0.0
0.2382194548845291 0.5183481574058533 0.05139492452144623 255.0 0.0 0.0
0.0076661016792058945 0.28818145394325256 -0.2755499482154846 255.0 0.0 0.0
-0.19564363360404968 0.2415785938501358 0.04817299544811249 255.0 0.0 0.0
0.27205002307891846 0.22796842455863953 0.05402757227420807 255.0 0.0 0.0
0.2041022926568985 0.5064727663993835 0.012639092281460762 255.0 0.0 0.0
-0.2937606871128082 0.059030089527368546 -0.3113458752632141 255.0 0.0 0.0
0.26263242959976196 -0.13434788584709167 0.15728478133678436 255.0 0.0 0.0
-0.03278966620564461 0.22890977561473846 -0.12998440861701965 255.0 0.0 0.0
0.1280124932527542 0.1831059604883194 0.1594124734401703 255.0 0.0 0.0
-0.13448503613471985 0.22694268822669983 0.1542176902294159 255.0 0.0 0.0
0.2770256996154785 -0.4000716805458069 0.19021552801132202 255.0 0.0 0.0
0.20216745138168335 0.41189903020858765 0.10709776729345322 255.0 0.0 0.0
-0.21645189821720123 0.49490994215011597 0.10852296650409698 255.0 0.0 0.0
0.247375026345253 0.12566211819648743 0.16068613529205322 255.0 0.0 0.0
-0.24288387596607208 -0.272664874792099 -0.011476204730570316 255.0 0.0 0.0
-0.005780802574008703 0.179475799202919 0.1546698361635208 255.0 0.0 0.0
-0.28366076946258545 0.1793096661567688 -0.3192029893398285 255.0 0.0 0.0
0.002790021011605859 0.2822626531124115 -0.22729556262493134 255.0 0.0 0.0
-0.20959633588790894 0.2587626874446869 0.044775668531656265 255.0 0.0 0.0
-0.06445064395666122 0.3045263886451721 -0.2887141704559326 255.0 0.0 0.0
-0.09644196927547455 0.16880029439926147 0.15448538959026337 255.0 0.0 0.0
-0.08349047601222992 -0.1961427927017212 0.15489286184310913 255.0 0.0 0.0
0.1534705013036728 -0.3748244643211365 0.1204897090792656 255.0 0.0 0.0
-0.22999854385852814 0.33261194825172424 0.053586456924676895 255.0 0.0 0.0
-0.3323672413825989 -0.4051602780818939 -0.005116107873618603 255.0 0.0 0.0
0.16185452044010162 -0.4383225440979004 -0.04004364833235741 255.0 0.0 0.0
-0.22441977262496948 0.11470900475978851 0.1491876095533371 255.0 0.0 0.0
-0.2719990909099579 -0.07065530121326447 -0.22395768761634827 255.0 0.0 0.0
0.1787307858467102 0.22109034657478333 0.15538786351680756 255.0 0.0 0.0
-0.04687079042196274 0.2945411801338196 -0.2875436544418335 255.0 0.0 0.0
-0.3081665635108948 -0.333974689245224 0.18987347185611725 255.0 0.0 0.0
-0.23472943902015686 -0.2541755139827728 0.0462777242064476 255.0 0.0 0.0
-0.23256869614124298 0.33366844058036804 0.06321224570274353 255.0 0.0 0.0
-0.03058173879981041 0.22588783502578735 -0.20377443730831146 255.0 0.0 0.0
0.19662658870220184 0.37737712264060974 0.115920789539814 255.0 0.0 0.0
-0.25388604402542114 0.006649473216384649 -0.3055524230003357 255.0 0.0 0.0
-0.24951966106891632 0.34467050433158875 0.07458467036485672 255.0 0.0 0.0
0.20068036019802094 -0.23725397884845734 0.15748170018196106 255.0 0.0 0.0
0.2423105686903 0.0752798542380333 0.16640271246433258 255.0 0.0 0.0
-0.030021723359823227 0.20360888540744781 -0.1764354258775711 255.0 0.0 0.0
-0.2962542176246643 -0.45024290680885315 -0.07470663636922836 255.0 0.0 0.0
-0.0476071834564209 0.1751272976398468 0.14782729744911194 255.0 0.0 0.0
0.2092621773481369 0.22009344398975372 0.15597015619277954 255.0 0.0 0.0
0.27707311511039734 0.33988216519355774 0.08677525818347931 255.0 0.0 0.0
0.2490338832139969 0.5151177644729614 0.0016444690991193056 255.0 0.0 0.0
-0.24175326526165009 -0.0059985388070344925 -0.2508068382740021 255.0 0.0 0.0
0.06355560570955276 0.16181838512420654 0.16352757811546326 255.0 0.0 0.0
-0.24133828282356262 0.24944765865802765 0.029622439295053482 255.0 0.0 0.0
-0.2712970972061157 0.2124488204717636 -0.07738195359706879 255.0 0.0 0.0
0.18810398876667023 0.17239892482757568 0.1537906676530838 255.0 0.0 0.0
-0.21437008678913116 -0.253219336271286 0.08870925009250641 255.0 0.0 0.0
-0.21252642571926117 -0.28632381558418274 0.07583548873662949 255.0 0.0 0.0
-0.2701477110385895 0.22121389210224152 -0.006981195416301489 255.0 0.0 0.0
0.22128668427467346 -0.4435269832611084 -0.07645957916975021 255.0 0.0 0.0
-0.26318949460983276 -0.04766889289021492 -0.13774193823337555 255.0 0.0 0.0
-0.26177340745925903 0.3751634657382965 0.08907412737607956 255.0 0.0 0.0
-0.16168203949928284 -0.2521301805973053 -0.04705214872956276 255.0 0.0 0.0
0.2972581684589386 -0.24063608050346375 0.09923982620239258 255.0 0.0 0.0
0.21005135774612427 0.5101601481437683 0.08537541329860687 255.0 0.0 0.0
0.2588765025138855 -0.2523823380470276 0.020905835554003716 255.0 0.0 0.0
0.009327085688710213 0.22740338742733002 0.14290903508663177 255.0 0.0 0.0
0.1711871176958084 -0.25658684968948364 0.013843727298080921 255.0 0.0 0.0
-0.25889256596565247 0.09852802008390427 0.15632209181785583 255.0 0.0 0.0
0.2959368824958801 0.22586846351623535 -0.11468615382909775 255.0 0.0 0.0
0.10750838369131088 -0.24850401282310486 -0.12229907512664795 255.0 0.0 0.0
0.24678918719291687 0.22780290246009827 -0.12203316390514374 255.0 0.0 0.0
-0.017687365412712097 0.24866080284118652 -0.25446438789367676 255.0 0.0 0.0
-0.22907884418964386 0.1387109011411667 0.15463310480117798 255.0 0.0 0.0
-0.22339396178722382 0.019317086786031723 0.14918175339698792 255.0 0.0 0.0
0.015646426007151604 0.2860848009586334 -0.2437732070684433 255.0 0.0 0.0
0.05603634566068649 0.1303907334804535 -0.1824999451637268 255.0 0.0 0.0
-0.2235228419303894 -0.25016888976097107 -0.060351982712745667 255.0 0.0 0.0
0.14722175896167755 -0.4324546456336975 -0.0183057002723217 255.0 0.0 0.0
0.1936345100402832 0.33395567536354065 0.039358437061309814 255.0 0.0 0.0
-0.26671409606933594 0.13713517785072327 0.15880732238292694 255.0 0.0 0.0
-0.28175708651542664 -0.006514373701065779 -0.30279773473739624 255.0 0.0 0.0
-0.19293701648712158 0.48121094703674316 -0.04699710011482239 255.0 0.0 0.0
-0.17821098864078522 0.31882649660110474 0.01758100464940071 255.0 0.0 0.0
-0.259529709815979 0.2280246764421463 -0.0226688664406538 255.0 0.0 0.0
0.05656980350613594 0.2262553721666336 -0.21051397919654846 255.0 0.0 0.0
0.1246039941906929 0.22804094851016998 0.13982100784778595 255.0 0.0 0.0
-0.26987552642822266 -0.014962412416934967 -0.22373142838478088 255.0 0.0 0.0
0.10966542363166809 0.1617717146873474 0.16664418578147888 255.0 0.0 0.0
-0.2819514274597168 0.13542109727859497 -0.29402410984039307 255.0 0.0 0.0
0.29722997546195984 0.14045338332653046 0.14732854068279266 255.0 0.0 0.0
0.007870934903621674 0.17899851500988007 0.15394973754882812 255.0 0.0 0.0
0.2660353481769562 -0.245718851685524 -0.1376587599515915 255.0 0.0 0.0
-0.23796498775482178 0.4639013111591339 -0.055290043354034424 255.0 0.0 0.0
0.15075752139091492 0.2214128077030182 0.15632209181785583 255.0 0.0 0.0
-0.29729533195495605 -0.3461850881576538 0.1997707635164261 255.0 0.0 0.0
0.20499786734580994 -0.24978867173194885 0.13927710056304932 255.0 0.0 0.0
-0.025196217000484467 0.22384296357631683 -0.1891561597585678 255.0 0.0 0.0
0.28356650471687317 -0.42958852648735046 -0.020069239661097527 255.0 0.0 0.0
0.2705613076686859 -0.3416696786880493 0.11824197322130203 255.0 0.0 0.0
0.24949966371059418 -0.02905764803290367 0.15272116661071777 255.0 0.0 0.0
-0.25820499658584595 -0.2511863112449646 0.038034506142139435 255.0 0.0 0.0
-0.29654455184936523 -0.45293915271759033 -0.06578763574361801 255.0 0.0 0.0
0.028736386448144913 0.18603220582008362 0.1547950804233551 255.0 0.0 0.0
-0.282084196805954 0.0003255467745475471 -0.30848973989486694 255.0 0.0 0.0
-0.26723459362983704 0.14141106605529785 -0.29233089089393616 255.0 0.0 0.0
-0.2044808268547058 0.16751864552497864 0.15631136298179626 255.0 0.0 0.0
0.29302656650543213 0.22562068700790405 -0.12876102328300476 255.0 0.0 0.0
-0.21617160737514496 0.48280781507492065 0.11067317426204681 255.0 0.0 0.0
0.19705526530742645 0.22796957194805145 -0.12057897448539734 255.0 0.0 0.0
-0.31377142667770386 -0.4059157967567444 -0.07947385311126709 255.0 0.0 0.0
-0.27014437317848206 0.08121658861637115 -0.12452034652233124 255.0 0.0 0.0
0.21443060040473938 0.3401438891887665 -0.0638110339641571 255.0 0.0 0.0
0.2948795258998871 0.181735098361969 0.15852682292461395 255.0 0.0 0.0
