0.0323413610458374 0.23207902908325195 0.06991853564977646 255.0 0.0 0.0
0.1989460438489914 0.0013829743256792426 0.1701865941286087 255.0 0.0 0.0
0.016313347965478897 -0.06948942691087723 -0.13506805896759033 255.0 0.0 0.0
0.19137898087501526 -0.2501690983772278 0.13563451170921326 255.0 0.0 0.0
0.22420579195022583 -0.1091151237487793 -0.1363612413406372 255.0 0.0 0.0
0.2972581684589386 0.17045524716377258 0.11959903687238693 255.0 0.0 0.0
0.09147441387176514 -0.04990769550204277 -0.1331540197134018 255.0 0.0 0.0
-0.19473330676555634 0.17235495150089264 -0.13506805896759033 255.0 0.0 0.0
-0.2516055405139923 0.22798728942871094 -0.06823911517858505 255.0 0.0 0.0
-0.26757338643074036 -0.003743973094969988 -0.07122894376516342 255.0 0.0 0.0
0.20897488296031952 0.367653489112854 -0.07331760972738266 255.0 0.0 0.0
-0.2707524597644806 0.06765472888946533 0.05706789717078209 255.0 0.0 0.0
0.1288880854845047 -0.12650878727436066 -0.13506805896759033 255.0 0.0 0.0
-0.16624315083026886 -0.3262171447277069 0.050356023013591766 255.0 0.0 0.0
0.03871840611100197 -0.1133003905415535 -0.1347430795431137 255.0 0.0 0.0
0.2836659550666809 -0.38692545890808105 0.028394034132361412 255.0 0.0 0.0
-0.06792755424976349 0.2293047308921814 0.13478779792785645 255.0 0.0 0.0
-0.07408089190721512 0.22667624056339264 -0.041070371866226196 255.0 0.0 0.0
0.2083842009305954 -0.014913172461092472 -0.13607081770896912 255.0 0.0 0.0
0.10067954659461975 0.1180378645658493 0.17204822599887848 255.0 0.0 0.0
-0.039473310112953186 0.14512719213962555 -0.17879214882850647 255.0 0.0 0.0
0.13939225673675537 -0.3797101676464081 0.04515470564365387 255.0 0.0 0.0
-0.24275460839271545 -0.11960074305534363 -0.13401317596435547 255.0 0.0 0.0
0.23175908625125885 -0.2521401047706604 -0.1178874596953392 255.0 0.0 0.0
0.07360250502824783 -0.2507374882698059 -0.007168935611844063 255.0 0.0 0.0
-0.2707524597644806 -0.1615072339773178 0.05671151354908943 255.0 0.0 0.0
0.2972714900970459 0.021151350811123848 0.0705166831612587 255.0 0.0 0.0
-0.19062376022338867 -0.11956684291362762 0.16938516497612 255.0 0.0 0.0
-0.20939649641513824 -0.14863044023513794 -0.1339646428823471 255.0 0.0 0.0
-0.27103182673454285 -0.009092696011066437 -0.033473700284957886 255.0 0.0 0.0
-0.30980443954467773 -0.34982120990753174 -0.0020728777162730694 255.0 0.0 0.0
-0.1610276997089386 0.005440571345388889 0.16940195858478546 255.0 0.0 0.0
0.029523449018597603 -0.251379132270813 -0.04541647806763649 255.0 0.0 0.0
0.11955679208040237 -0.19446611404418945 -0.13506805896759033 255.0 0.0 0.0
-0.21272461116313934 0.5063798427581787 0.03119610995054245 255.0 0.0 0.0
0.20769499242305756 -0.10075656324625015 -0.13682860136032104 255.0 0.0 0.0
0.2972581684589386 -0.1767444908618927 0.003245738334953785 255.0 0.0 0.0
-0.018224256113171577 -0.2520129382610321 -0.07152365148067474 255.0 0.0 0.0
-0.2672760486602783 -0.3074215352535248 -0.025423655286431313 255.0 0.0 0.0
0.17939792573451996 -0.0645611584186554 -0.13233605027198792 255.0 0.0 0.0
0.144029438495636 -0.4213947653770447 -0.01580510288476944 255.0 0.0 0.0
0.11800024658441544 -0.24977988004684448 0.02638905495405197 255.0 0.0 0.0
-0.19827115535736084 0.006887132301926613 -0.13506805896759033 255.0 0.0 0.0
-0.18434181809425354 0.228109210729599 -0.0972476601600647 255.0 0.0 0.0
-0.3224363625049591 -0.40397799015045166 0.043635956943035126 255.0 0.0 0.0
0.3015318214893341 -0.12924230098724365 -0.07401684671640396 255.0 0.0 0.0
0.29342329502105713 0.47805818915367126 0.06277123093605042 255.0 0.0 0.0
-0.21806098520755768 0.22694015502929688 0.1329021006822586 255.0 0.0 0.0
-0.26795682311058044 0.022845057770609856 0.019486311823129654 255.0 0.0 0.0
0.14274819195270538 -0.05492197349667549 -0.1325245201587677 255.0 0.0 0.0
0.19518941640853882 -0.32065287232398987 0.0959639847278595 255.0 0.0 0.0
-0.20239223539829254 0.0430247038602829 -0.13618071377277374 255.0 0.0 0.0
-0.31978049874305725 -0.33356547355651855 0.1470949798822403 255.0 0.0 0.0
0.25738584995269775 -0.21185384690761566 -0.13506805896759033 255.0 0.0 0.0
0.16139456629753113 0.22919976711273193 -0.05343898758292198 255.0 0.0 0.0
-0.2457350641489029 0.007007221691310406 -0.2867445647716522 255.0 0.0 0.0
-0.23168161511421204 -0.44949865341186523 -0.05245557054877281 255.0 0.0 0.0
0.0347234271466732 0.13667336106300354 -0.2113843560218811 255.0 0.0 0.0
-0.2707524597644806 -0.05633433535695076 -0.07997925579547882 255.0 0.0 0.0
0.22489643096923828 -0.12789107859134674 -0.13506805896759033 255.0 0.0 0.0
-0.2956617474555969 -0.3699299097061157 -0.06703358888626099 255.0 0.0 0.0
0.17429381608963013 0.41897574067115784 0.07146254926919937 255.0 0.0 0.0
0.05317024141550064 -0.1036929115653038 -0.13506805896759033 255.0 0.0 0.0
-0.1620446890592575 0.42902514338493347 -0.04210870712995529 255.0 0.0 0.0
0.30082857608795166 0.4214046001434326 0.02823513187468052 255.0 0.0 0.0
-0.1664121448993683 0.3419356644153595 -0.0065430388785898685 255.0 0.0 0.0
0.20643627643585205 0.22954490780830383 0.0797974169254303 255.0 0.0 0.0
0.2961317002773285 -0.12151232361793518 0.06974627077579498 255.0 0.0 0.0
0.20359329879283905 -0.15679167211055756 -0.13453122973442078 255.0 0.0 0.0
-0.0967344418168068 -0.24979239702224731 0.040046241134405136 255.0 0.0 0.0
-0.27018576860427856 -0.10700320452451706 -0.0949922502040863 255.0 0.0 0.0
-0.2697632908821106 -0.22791525721549988 -0.11282430589199066 255.0 0.0 0.0
-0.29302048683166504 -0.0060158721171319485 -0.28356510400772095 255.0 0.0 0.0
0.0719958022236824 -0.128945454955101 0.16940195858478546 255.0 0.0 0.0
0.21105735003948212 -0.08154845237731934 0.16945809125900269 255.0 0.0 0.0
-0.20692649483680725 -0.09987389296293259 -0.13506805896759033 255.0 0.0 0.0
0.10408862680196762 -0.0914047360420227 -0.13506805896759033 255.0 0.0 0.0
0.29882052540779114 -0.14238522946834564 0.037380218505859375 255.0 0.0 0.0
-0.1895020306110382 -0.4305570721626282 0.022442996501922607 255.0 0.0 0.0
0.29731473326683044 -0.0016940062632784247 -0.013250064104795456 255.0 0.0 0.0
-0.06404637545347214 0.2280503511428833 -0.11690102517604828 255.0 0.0 0.0
0.21235749125480652 -0.2521947920322418 0.09464962780475616 255.0 0.0 0.0
0.10534451901912689 0.22583192586898804 -0.07776862382888794 255.0 0.0 0.0
0.2958777844905853 -0.16528697311878204 -0.09017901867628098 255.0 0.0 0.0
0.18279185891151428 0.36363479495048523 0.06418896466493607 255.0 0.0 0.0
-0.10515934973955154 0.013862991705536842 0.16940195858478546 255.0 0.0 0.0
-0.2318630814552307 -0.3298969864845276 0.11261368542909622 255.0 0.0 0.0
0.26937147974967957 -0.3000129461288452 0.06418010592460632 255.0 0.0 0.0
-0.2707524597644806 0.015114112757146358 -0.022036490961909294 255.0 0.0 0.0
-0.24390913546085358 -0.4552149474620819 -0.06123220920562744 255.0 0.0 0.0
0.1890895664691925 -0.22539541125297546 0.1561874896287918 255.0 0.0 0.0
0.05243730545043945 0.22812457382678986 0.07864256948232651 255.0 0.0 0.0
-0.18950355052947998 -0.3644337058067322 -0.059798646718263626 255.0 0.0 0.0
-0.2700747847557068 -0.22272491455078125 0.07218509912490845 255.0 0.0 0.0
-0.22233355045318604 -0.37807372212409973 0.16216501593589783 255.0 0.0 0.0
0.172518789768219 0.3990410566329956 0.05268651247024536 255.0 0.0 0.0
0.29228878021240234 -0.38239768147468567 0.05824146047234535 255.0 0.0 0.0
-0.2672852873802185 0.43628692626953125 0.03482893109321594 255.0 0.0 0.0
0.277090460062027 -0.2506009340286255 0.06313061714172363 255.0 0.0 0.0
0.13158053159713745 0.22574883699417114 -0.03412531316280365 255.0 0.0 0.0
0.013889437541365623 0.20621101558208466 -0.23681877553462982 255.0 0.0 0.0
0.29486963152885437 0.16380684077739716 0.006001912988722324 255.0 0.0 0.0
0.30095374584198 0.43279367685317993 0.06942036002874374 255.0 0.0 0.0
-0.31571292877197266 -0.37693244218826294 0.14663265645503998 255.0 0.0 0.0
0.27781903743743896 -0.33761081099510193 0.08130601793527603 255.0 0.0 0.0
-0.16086766123771667 0.1045195460319519 -0.13311313092708588 255.0 0.0 0.0
0.2562437355518341 -0.44349947571754456 0.029566321521997452 255.0 0.0 0.0
0.16316203773021698 0.22770972549915314 -0.031892742961645126 255.0 0.0 0.0
0.06324594467878342 -0.25071609020233154 0.06077339127659798 255.0 0.0 0.0
-0.048963870853185654 0.22812457382678986 0.1190323457121849 255.0 0.0 0.0
0.1580536812543869 -0.3150394558906555 0.05423284322023392 255.0 0.0 0.0
0.2033129185438156 0.012283639051020145 -0.13502493500709534 255.0 0.0 0.0
0.23195268213748932 -0.12506546080112457 -0.13573215901851654 255.0 0.0 0.0
-0.24522383511066437 0.014048854820430279 -0.2816701829433441 255.0 0.0 0.0
0.16600631177425385 0.22694358229637146 0.036944810301065445 255.0 0.0 0.0
0.25695285201072693 -0.07377906143665314 -0.13481442630290985 255.0 0.0 0.0
0.07403987646102905 -0.2448117733001709 -0.09120899438858032 255.0 0.0 0.0
0.17405296862125397 0.05674999579787254 0.17054134607315063 255.0 0.0 0.0
0.2972581684589386 -0.010087057016789913 0.015515227802097797 255.0 0.0 0.0
-0.2632423937320709 -0.31008458137512207 -0.051407746970653534 255.0 0.0 0.0
-0.028643548488616943 -0.2514135241508484 0.010292630642652512 255.0 0.0 0.0
0.2938492000102997 -0.20584061741828918 0.0648195818066597 255.0 0.0 0.0
-0.20364384353160858 0.22510062158107758 0.07674149423837662 255.0 0.0 0.0
0.044363249093294144 0.0398845300078392 0.1716373860836029 255.0 0.0 0.0
0.026893509551882744 -0.2507137656211853 0.019696548581123352 255.0 0.0 0.0
0.23911039531230927 0.22771726548671722 -0.12008102238178253 255.0 0.0 0.0
-0.3053390085697174 -0.351280152797699 -0.026366444304585457 255.0 0.0 0.0
0.1812518686056137 0.35116708278656006 0.03171827644109726 255.0 0.0 0.0
-0.0380484014749527 0.0016875845612958074 0.16893500089645386 255.0 0.0 0.0
0.19232290983200073 -0.03314768895506859 -0.1352124959230423 255.0 0.0 0.0
-0.3153972327709198 -0.3740483224391937 0.15590502321720123 255.0 0.0 0.0
0.06664728373289108 0.22809121012687683 0.13083505630493164 255.0 0.0 0.0
0.001964431256055832 0.1004839539527893 -0.16396504640579224 255.0 0.0 0.0
0.2989198863506317 -0.07926289737224579 0.02373037114739418 255.0 0.0 0.0
-0.20159603655338287 -0.07191962003707886 -0.13412678241729736 255.0 0.0 0.0
-0.2692461907863617 0.08691129833459854 -0.02027065120637417 255.0 0.0 0.0
-0.18085165321826935 -0.3052038252353668 0.06673835217952728 255.0 0.0 0.0
0.24579760432243347 -0.2218087911605835 0.1540686935186386 255.0 0.0 0.0
0.2804909646511078 -0.3335014283657074 0.006860864814370871 255.0 0.0 0.0
0.0015456604305654764 0.22807641327381134 -0.11126623302698135 255.0 0.0 0.0
0.01703691855072975 0.22800271213054657 0.07405586540699005 255.0 0.0 0.0
0.29125070571899414 -0.40865567326545715 0.07047147303819656 255.0 0.0 0.0
-0.32713982462882996 -0.4200008809566498 -0.03867229074239731 255.0 0.0 0.0
-0.18555369973182678 -0.15150968730449677 0.16940195858478546 255.0 0.0 0.0
0.22786292433738708 -0.4095422327518463 -0.08717858046293259 255.0 0.0 0.0
-0.19283410906791687 -0.09069779515266418 -0.13497844338417053 255.0 0.0 0.0
0.29956015944480896 0.05672189220786095 0.045744266360998154 255.0 0.0 0.0
0.2591617703437805 -0.4455731213092804 -0.0010183148551732302 255.0 0.0 0.0
0.2629198133945465 -0.2469988912343979 0.07904312759637833 255.0 0.0 0.0
-0.2641369700431824 0.4223097264766693 -0.023856693878769875 255.0 0.0 0.0
0.20387060940265656 0.45679110288619995 -0.06577149033546448 255.0 0.0 0.0
0.15593644976615906 -0.2510904371738434 -0.030695397406816483 255.0 0.0 0.0
0.29661428928375244 0.3823108375072479 -0.003949585370719433 255.0 0.0 0.0
0.042798932641744614 -0.22718745470046997 0.15766213834285736 255.0 0.0 0.0
0.15195660293102264 0.17041167616844177 -0.13506805896759033 255.0 0.0 0.0
0.21909290552139282 0.2281239926815033 -0.08002649247646332 255.0 0.0 0.0
-0.08554556965827942 0.06790036708116531 -0.13849443197250366 255.0 0.0 0.0
-0.0010030523408204317 0.12760275602340698 -0.13372251391410828 255.0 0.0 0.0
-0.1877078115940094 -0.10667944699525833 0.169520765542984 255.0 0.0 0.0
-0.1875222623348236 -0.41047707200050354 0.07791174203157425 255.0 0.0 0.0
-0.08874095231294632 -0.2505985200405121 -0.10368910431861877 255.0 0.0 0.0
-0.2707524597644806 -0.16383038461208344 -0.028706349432468414 255.0 0.0 0.0
0.06159467622637749 0.07674850523471832 -0.13506805896759033 255.0 0.0 0.0
0.2961271107196808 0.07287611067295074 0.12979532778263092 255.0 0.0 0.0
-0.15763883292675018 0.41811826825141907 -0.02021830528974533 255.0 0.0 0.0
0.07807135581970215 -0.023268109187483788 0.16940195858478546 255.0 0.0 0.0
0.24091853201389313 0.3315587341785431 0.08007872104644775 255.0 0.0 0.0
-0.18388958275318146 -0.4177623391151428 0.025408746674656868 255.0 0.0 0.0
0.2240879386663437 0.5104050636291504 0.07164318859577179 255.0 0.0 0.0
-0.2707524597644806 0.1391240656375885 -0.02540520764887333 255.0 0.0 0.0
-0.18080541491508484 -0.09448546916246414 0.16534070670604706 255.0 0.0 0.0
0.13871623575687408 -0.17023444175720215 -0.13219887018203735 255.0 0.0 0.0
-0.26921316981315613 0.40724125504493713 0.02887144684791565 255.0 0.0 0.0
0.22596506774425507 -0.18280094861984253 -0.13506805896759033 255.0 0.0 0.0
-0.2463604211807251 -0.0032272236421704292 -0.2584150433540344 255.0 0.0 0.0
0.2972581684589386 -0.02659664861857891 -0.03460342809557915 255.0 0.0 0.0
-0.29328879714012146 0.04961501434445381 -0.28341782093048096 255.0 0.0 0.0
0.2100389301776886 0.03931713104248047 -0.13723446428775787 255.0 0.0 0.0
0.11671426147222519 0.22812457382678986 -0.03828625753521919 255.0 0.0 0.0
-0.08058249205350876 -0.16345970332622528 0.1701783388853073 255.0 0.0 0.0
-0.10007812827825546 -0.06428733468055725 -0.13506805896759033 255.0 0.0 0.0
-0.2602376341819763 0.3511708676815033 0.001980930333957076 255.0 0.0 0.0
0.12825952470302582 0.22812457382678986 0.092545285820961 255.0 0.0 0.0
-0.2636816203594208 0.4437088072299957 0.09259501844644547 255.0 0.0 0.0
0.18876183032989502 0.0647418275475502 -0.13439235091209412 255.0 0.0 0.0
-0.2681015431880951 0.07353184372186661 -0.07979317754507065 255.0 0.0 0.0
-0.2123340666294098 -0.45471277832984924 -0.015826962888240814 255.0 0.0 0.0
-0.1734887808561325 -0.39192521572113037 0.0026944398414343596 255.0 0.0 0.0
0.19521771371364594 -0.2527994215488434 -0.10901535302400589 255.0 0.0 0.0
-0.2790360152721405 -0.33382925391197205 0.17649447917938232 255.0 0.0 0.0
-0.009374828077852726 -0.07511096447706223 -0.13809369504451752 255.0 0.0 0.0
-0.22865644097328186 0.4265119731426239 0.09089711308479309 255.0 0.0 0.0
-0.2814518213272095 -0.31461843848228455 0.012291030026972294 255.0 0.0 0.0
-0.27188897132873535 -0.07859352976083755 -0.035210952162742615 255.0 0.0 0.0
0.046094492077827454 0.00027130430680699646 -0.13170409202575684 255.0 0.0 0.0
0.10883554816246033 -0.2502182424068451 0.11269799619913101 255.0 0.0 0.0
0.14640523493289948 -0.2513895332813263 -0.0632530227303505 255.0 0.0 0.0
-0.026458607986569405 -0.12031475454568863 -0.13430850207805634 255.0 0.0 0.0
0.2948661744594574 0.12348046153783798 0.05345607548952103 255.0 0.0 0.0
-0.24534311890602112 0.08118893951177597 -0.13314831256866455 255.0 0.0 0.0
0.2660927474498749 -0.31391555070877075 -0.041091423481702805 255.0 0.0 0.0
-0.30088043212890625 -0.4347957372665405 -0.008874344639480114 255.0 0.0 0.0
-0.14464826881885529 -0.2488103061914444 0.06545095890760422 255.0 0.0 0.0
0.10505696386098862 -0.14318814873695374 0.17098382115364075 255.0 0.0 0.0
-0.27014586329460144 -0.2066699117422104 0.04933493956923485 255.0 0.0 0.0
-0.2730902433395386 0.08363381028175354 -0.09156303107738495 255.0 0.0 0.0
-0.25375810265541077 0.10717897117137909 -0.13676577806472778 255.0 0.0 0.0
0.014402766712009907 0.15144841372966766 -0.21911995112895966 255.0 0.0 0.0
-0.2707524597644806 -0.013439752161502838 -0.04241717606782913 255.0 0.0 0.0
0.09856399893760681 -0.2504569888114929 -0.04684283956885338 255.0 0.0 0.0
0.13170132040977478 -0.19098183512687683 -0.13107891380786896 255.0 0.0 0.0
0.2972581684589386 0.1759587824344635 0.07671867311000824 255.0 0.0 0.0
0.27574577927589417 -0.3889363706111908 -0.05202329531311989 255.0 0.0 0.0
0.1970546543598175 0.4826332926750183 -0.022303065285086632 255.0 0.0 0.0
0.13289569318294525 -0.25379154086112976 -0.045314278453588486 255.0 0.0 0.0
0.17318394780158997 -0.25373557209968567 0.08828014135360718 255.0 0.0 0.0
-0.16780441999435425 -0.3187732696533203 -0.035366397351026535 255.0 0.0 0.0
-0.25076815485954285 -0.14043202996253967 -0.13506805896759033 255.0 0.0 0.0
-0.16637460887432098 -0.0763648971915245 -0.13939006626605988 255.0 0.0 0.0
-0.24744082987308502 -0.42409229278564453 0.17318743467330933 255.0 0.0 0.0
0.11412883549928665 0.23000356554985046 -0.004144732840359211 255.0 0.0 0.0
0.2264023870229721 -0.2944568991661072 -0.06863811612129211 255.0 0.0 0.0
-0.1714751273393631 -0.25021469593048096 -0.1186891496181488 255.0 0.0 0.0
-0.12695199251174927 0.23285804688930511 -0.07308896631002426 255.0 0.0 0.0
-0.2706061899662018 -0.01854517310857773 -0.03391522541642189 255.0 0.0 0.0
-0.27058157324790955 0.1435423195362091 0.08884775638580322 255.0 0.0 0.0
0.05208909884095192 -0.059239935129880905 -0.13514214754104614 255.0 0.0 0.0
0.2972581684589386 0.030381329357624054 -0.02874569781124592 255.0 0.0 0.0
-0.1597076952457428 0.07433277368545532 0.17148014903068542 255.0 0.0 0.0
-0.26996633410453796 -0.1642540991306305 0.023750312626361847 255.0 0.0 0.0
0.1912781298160553 -0.08560321480035782 -0.13565072417259216 255.0 0.0 0.0
0.2984389364719391 -0.06294222176074982 -0.1113489642739296 255.0 0.0 0.0
-0.062292855232954025 -0.019824614748358727 -0.13330809772014618 255.0 0.0 0.0
-0.014316962100565434 -0.12725356221199036 -0.13500504195690155 255.0 0.0 0.0
0.0623646005988121 0.09312357008457184 0.1679740995168686 255.0 0.0 0.0
-0.28534698486328125 -0.04127801954746246 -0.24688348174095154 255.0 0.0 0.0
0.1725715845823288 -0.3067893385887146 -0.038686271756887436 255.0 0.0 0.0
0.004580674692988396 -0.09352754801511765 -0.13506805896759033 255.0 0.0 0.0
-0.16238045692443848 -0.3400217890739441 0.017251906916499138 255.0 0.0 0.0
0.08767994493246078 0.10773755609989166 0.16940195858478546 255.0 0.0 0.0
-0.11856726557016373 0.12603488564491272 -0.13699714839458466 255.0 0.0 0.0
0.3000328540802002 -0.013561124913394451 0.033904023468494415 255.0 0.0 0.0
0.0697479173541069 0.020905259996652603 -0.13651229441165924 255.0 0.0 0.0
0.06502119451761246 -0.24968881905078888 -0.11011271178722382 255.0 0.0 0.0
0.2958936095237732 -0.1401941031217575 0.09897001832723618 255.0 0.0 0.0
-0.3165609836578369 -0.4285726547241211 -0.03648434579372406 255.0 0.0 0.0
-0.2707644999027252 0.11438605934381485 0.1284642219543457 255.0 0.0 0.0
-0.1724899262189865 -0.18811669945716858 -0.12969763576984406 255.0 0.0 0.0
-0.08994116634130478 0.19081108272075653 0.15612022578716278 255.0 0.0 0.0
-0.10373657196760178 -0.25101032853126526 0.09868445247411728 255.0 0.0 0.0
-0.16845647990703583 0.34527209401130676 -0.021217597648501396 255.0 0.0 0.0
0.2971642017364502 -0.052701521664857864 0.13504472374916077 255.0 0.0 0.0
0.1648622751235962 0.22495079040527344 0.03880143165588379 255.0 0.0 0.0
0.19336868822574615 0.04981502145528793 0.1710081398487091 255.0 0.0 0.0
0.07522282749414444 0.2269924283027649 0.009590172208845615 255.0 0.0 0.0
-0.19583161175251007 -0.19974836707115173 -0.13506805896759033 255.0 0.0 0.0
-0.27267274260520935 0.007782274857163429 0.12998723983764648 255.0 0.0 0.0
-0.23443065583705902 -0.3573184907436371 0.15773001313209534 255.0 0.0 0.0
-0.32969537377357483 -0.3636328876018524 0.035743921995162964 255.0 0.0 0.0
0.11111557483673096 -0.11357377469539642 0.16940195858478546 255.0 0.0 0.0
-0.22722227871418 -0.24969473481178284 0.13464845716953278 255.0 0.0 0.0
0.2780865430831909 -0.35203078389167786 0.08819098025560379 255.0 0.0 0.0
-0.27255117893218994 0.03828075900673866 0.13013193011283875 255.0 0.0 0.0
0.2932128310203552 0.12836535274982452 -0.03392629697918892 255.0 0.0 0.0
-0.08902368694543839 -0.2512194514274597 0.01579255238175392 255.0 0.0 0.0
-0.15225157141685486 -0.2837596535682678 -0.007409955840557814 255.0 0.0 0.0
0.1874065101146698 0.47410911321640015 -0.006768141873180866 255.0 0.0 0.0
0.12132454663515091 -0.2113388031721115 -0.1361360251903534 255.0 0.0 0.0
0.06727394461631775 0.03301439434289932 0.16940195858478546 255.0 0.0 0.0
-0.2659653425216675 -0.31458231806755066 -0.044242508709430695 255.0 0.0 0.0
-0.29493987560272217 0.023081647232174873 -0.2581837475299835 255.0 0.0 0.0
0.035873930901288986 -0.1560773253440857 -0.1381126046180725 255.0 0.0 0.0
-0.31123003363609314 -0.37459927797317505 0.15078799426555634 255.0 0.0 0.0
0.2050020396709442 0.3949803113937378 -0.07412301748991013 255.0 0.0 0.0
-0.3003201186656952 -0.33004698157310486 0.056592680513858795 255.0 0.0 0.0
-0.1833415925502777 -0.41575899720191956 0.029204029589891434 255.0 0.0 0.0
-0.12725917994976044 0.22812457382678986 0.096336729824543 255.0 0.0 0.0
-0.18923917412757874 0.23010924458503723 -0.054485470056533813 255.0 0.0 0.0
-0.2672560513019562 0.38866087794303894 -0.005980479530990124 255.0 0.0 0.0
0.2685011029243469 -0.3049785792827606 -0.044295795261859894 255.0 0.0 0.0
0.30036288499832153 -0.09918104857206345 0.01151724997907877 255.0 0.0 0.0
-0.2670503556728363 0.3833143711090088 0.06859102100133896 255.0 0.0 0.0
-0.1909024864435196 -0.4295152425765991 -0.012972356751561165 255.0 0.0 0.0
-0.15535394847393036 0.37293463945388794 0.009032667614519596 255.0 0.0 0.0
-0.1419389694929123 -0.15604878962039948 -0.13598483800888062 255.0 0.0 0.0
0.29754939675331116 0.435898095369339 0.09657537937164307 255.0 0.0 0.0
-0.2707524597644806 0.06282758712768555 0.11910437047481537 255.0 0.0 0.0
-0.24213826656341553 0.05910545215010643 -0.13447308540344238 255.0 0.0 0.0
0.22608555853366852 0.06751928478479385 0.17414771020412445 255.0 0.0 0.0
0.05379808694124222 -0.052598003298044205 0.16417290270328522 255.0 0.0 0.0
-0.2973557412624359 -0.35096389055252075 -0.041286613792181015 255.0 0.0 0.0
-0.27208465337753296 -0.20629635453224182 -0.03723154962062836 255.0 0.0 0.0
-0.18770696222782135 -0.18484696745872498 -0.13663451373577118 255.0 0.0 0.0
0.3015352189540863 0.041722577065229416 0.011767463758587837 255.0 0.0 0.0
-0.21110159158706665 -0.06448744982481003 -0.13506805896759033 255.0 0.0 0.0
0.13816584646701813 -0.06861253827810287 -0.1366548389196396 255.0 0.0 0.0
0.2972581684589386 0.17439691722393036 0.0035832682624459267 255.0 0.0 0.0
-0.17693348228931427 0.4649924039840698 -0.04713055118918419 255.0 0.0 0.0
-0.26182645559310913 -0.38901254534721375 -0.09331078082323074 255.0 0.0 0.0
0.29425570368766785 -0.10217618197202682 -0.03320049121975899 255.0 0.0 0.0
-0.27373605966567993 -0.0715186595916748 0.10989059507846832 255.0 0.0 0.0
-0.04443840682506561 0.0010762505698949099 0.16938191652297974 255.0 0.0 0.0
0.2174190729856491 -0.4492807388305664 0.06473157554864883 255.0 0.0 0.0
0.2381974309682846 -0.0267028771340847 -0.1307913213968277 255.0 0.0 0.0
-0.26676180958747864 0.4104250967502594 0.0408082976937294 255.0 0.0 0.0
0.07017872482538223 -0.25111961364746094 0.12239352613687515 255.0 0.0 0.0
-0.2720642387866974 0.10448592901229858 -0.05436350032687187 255.0 0.0 0.0
-0.039685335010290146 0.156617671251297 -0.1829928308725357 255.0 0.0 0.0
-0.023074572905898094 0.012872183695435524 -0.13810552656650543 255.0 0.0 0.0
-0.10136472433805466 -0.2510811984539032 0.08327875286340714 255.0 0.0 0.0
0.18959660828113556 0.23080958425998688 0.11388430744409561 255.0 0.0 0.0
0.02743740752339363 0.20321089029312134 -0.1575106829404831 255.0 0.0 0.0
-0.0858382061123848 -0.2509973347187042 -0.06370718777179718 255.0 0.0 0.0
-0.2707524597644806 -0.13620010018348694 0.09943699091672897 255.0 0.0 0.0
0.29538723826408386 0.18867337703704834 0.1401781290769577 255.0 0.0 0.0
0.0875919908285141 -0.03455424681305885 0.16940195858478546 255.0 0.0 0.0
0.190447598695755 -0.4442536532878876 0.09222854673862457 255.0 0.0 0.0
-0.17165623605251312 -0.2498413473367691 0.11318349838256836 255.0 0.0 0.0
-0.2648048400878906 0.3824297785758972 0.07886704802513123 255.0 0.0 0.0
0.2997360825538635 0.0461086630821228 0.10298192501068115 255.0 0.0 0.0
0.16310544312000275 -0.09338311105966568 -0.13506805896759033 255.0 0.0 0.0
-0.15509797632694244 -0.007773555815219879 0.16866092383861542 255.0 0.0 0.0
-0.2020713835954666 -0.2767290472984314 -0.05964156985282898 255.0 0.0 0.0
-0.27260205149650574 -0.018767276778817177 -0.026145782321691513 255.0 0.0 0.0
-0.09169943630695343 0.18254055082798004 -0.1362583488225937 255.0 0.0 0.0
-0.2713421881198883 0.1798967570066452 -0.08119944483041763 255.0 0.0 0.0
0.2972581684589386 -0.1092979684472084 0.03441212698817253 255.0 0.0 0.0
0.09820964932441711 -0.17818473279476166 -0.13506805896759033 255.0 0.0 0.0
0.10830327123403549 -0.2509922683238983 -0.06388340890407562 255.0 0.0 0.0
-0.04128287732601166 -0.2508196532726288 -0.052849121391773224 255.0 0.0 0.0
-0.2692229747772217 0.14216238260269165 -0.03263635188341141 255.0 0.0 0.0
0.29653865098953247 0.1703096628189087 -0.04110308736562729 255.0 0.0 0.0
-0.2604203522205353 0.3659203350543976 -0.033845167607069016 255.0 0.0 0.0
-0.07620484381914139 0.0073694889433681965 -0.1359434425830841 255.0 0.0 0.0
0.2979407012462616 -0.1004088819026947 -0.08466143906116486 255.0 0.0 0.0
0.170328289270401 -0.33679407835006714 -0.046461377292871475 255.0 0.0 0.0
-0.26344573497772217 -0.34630316495895386 0.18217898905277252 255.0 0.0 0.0
0.1950807124376297 -0.36196401715278625 0.1505451202392578 255.0 0.0 0.0
0.06926602870225906 0.036949314177036285 0.1717795878648758 255.0 0.0 0.0
-0.2845306396484375 -0.44013160467147827 0.02156742475926876 255.0 0.0 0.0
-0.09515248239040375 -0.18148906528949738 -0.13506805896759033 255.0 0.0 0.0
0.2972581684589386 0.1197727620601654 -0.09605879336595535 255.0 0.0 0.0
0.19911496341228485 0.20987068116664886 -0.13663281500339508 255.0 0.0 0.0
-0.10793590545654297 0.2272861748933792 0.08902992308139801 255.0 0.0 0.0
0.14238415658473969 -0.38878658413887024 0.019858891144394875 255.0 0.0 0.0
-0.14240632951259613 0.22873437404632568 0.037825439125299454 255.0 0.0 0.0
0.12286732345819473 0.0639088973402977 -0.13364730775356293 255.0 0.0 0.0
0.15195819735527039 0.23071807622909546 -0.07144898176193237 255.0 0.0 0.0
0.09125901013612747 -0.20218351483345032 -0.13325944542884827 255.0 0.0 0.0
-0.16077890992164612 0.22812457382678986 -0.02197856642305851 255.0 0.0 0.0
-0.14322544634342194 -0.00588434562087059 -0.13214810192584991 255.0 0.0 0.0
-0.15800365805625916 0.46268007159233093 0.06854114681482315 255.0 0.0 0.0
0.19088919460773468 -0.127591073513031 -0.13763123750686646 255.0 0.0 0.0
-0.241407573223114 -0.2503073215484619 -0.08861378580331802 255.0 0.0 0.0
0.08604138344526291 0.22812457382678986 -0.044060125946998596 255.0 0.0 0.0
0.2647624611854553 0.3343128561973572 0.077504463493824 255.0 0.0 0.0
-0.2954048216342926 0.03125176206231117 -0.2779221534729004 255.0 0.0 0.0
0.1759553849697113 -0.3960842490196228 -0.06321391463279724 255.0 0.0 0.0
-0.156611368060112 0.4273102283477783 -0.017611488699913025 255.0 0.0 0.0
-0.19989825785160065 0.10639899224042892 0.16711017489433289 255.0 0.0 0.0
-0.1829078048467636 -0.3469010889530182 0.06711995601654053 255.0 0.0 0.0
0.279228150844574 -0.16439080238342285 0.15630488097667694 255.0 0.0 0.0
0.18952786922454834 -0.4464186728000641 0.0332774892449379 255.0 0.0 0.0
-0.03512078896164894 0.15099932253360748 -0.18564707040786743 255.0 0.0 0.0
0.2978111803531647 -0.025837643072009087 -0.01495277788490057 255.0 0.0 0.0
-0.2707524597644806 0.1570265144109726 0.08971112966537476 255.0 0.0 0.0
0.2865621745586395 0.4290412664413452 -0.06347893923521042 255.0 0.0 0.0
0.1884140819311142 0.42003098130226135 -0.05553669109940529 255.0 0.0 0.0
0.2631831467151642 -0.1625175029039383 -0.13506805896759033 255.0 0.0 0.0
-0.1593213677406311 0.36901211738586426 -0.0166518222540617 255.0 0.0 0.0
0.11990769952535629 -0.01376876700669527 0.17181871831417084 255.0 0.0 0.0
0.20402593910694122 0.33515334129333496 0.07151567190885544 255.0 0.0 0.0
0.26060229539871216 -0.4448091387748718 -0.03813358396291733 255.0 0.0 0.0
-0.2687007486820221 0.03146754577755928 0.04304616153240204 255.0 0.0 0.0
-0.14947885274887085 -0.2524081766605377 -0.05232385918498039 255.0 0.0 0.0
0.20787334442138672 0.0411861427128315 0.1700473576784134 255.0 0.0 0.0
0.05627390742301941 0.03644443303346634 0.16940195858478546 255.0 0.0 0.0
-0.18279987573623657 -0.059185877442359924 -0.1346731185913086 255.0 0.0 0.0
0.033750034868717194 -0.15197210013866425 0.1665409654378891 255.0 0.0 0.0
-0.14445377886295319 -0.044485677033662796 0.17136546969413757 255.0 0.0 0.0
0.29946908354759216 -0.22528602182865143 -0.10544422268867493 255.0 0.0 0.0
-0.047011736780405045 0.2282959669828415 0.013767408207058907 255.0 0.0 0.0
0.19580557942390442 0.038944318890571594 0.16940195858478546 255.0 0.0 0.0
0.08265937119722366 0.06175879389047623 -0.1349460333585739 255.0 0.0 0.0
0.17160899937152863 -0.4115980863571167 -0.0590958409011364 255.0 0.0 0.0
-0.2204289436340332 0.45191532373428345 0.08933787792921066 255.0 0.0 0.0
0.12086739391088486 -0.14758183062076569 0.16940195858478546 255.0 0.0 0.0
0.030863020569086075 0.16012628376483917 -0.13797695934772491 255.0 0.0 0.0
0.14780256152153015 -0.4189792275428772 -0.008562221191823483 255.0 0.0 0.0
-0.07641452550888062 0.22812457382678986 0.1127871721982956 255.0 0.0 0.0
-0.006766263861209154 -0.1785067319869995 -0.1353733241558075 255.0 0.0 0.0
-0.026303859427571297 -0.251656174659729 0.05173470824956894 255.0 0.0 0.0
0.17807568609714508 0.4304708242416382 0.09681172668933868 255.0 0.0 0.0
-0.16730034351348877 -0.11076333373785019 0.1712399125099182 255.0 0.0 0.0
0.14458586275577545 -0.36295509338378906 0.022577736526727676 255.0 0.0 0.0
-0.2333548367023468 -0.2518029808998108 -0.10806126892566681 255.0 0.0 0.0
-0.035631727427244186 -0.25080057978630066 -0.06698154658079147 255.0 0.0 0.0
-0.20078475773334503 -0.44461899995803833 0.000702608609572053 255.0 0.0 0.0
-0.27021917700767517 0.018187368288636208 0.12608279287815094 255.0 0.0 0.0
0.26230400800704956 0.0013970568543300033 0.15930584073066711 255.0 0.0 0.0
-0.09463320672512054 -0.015268642455339432 -0.13270635902881622 255.0 0.0 0.0
0.12019364535808563 -0.1854615956544876 -0.13253998756408691 255.0 0.0 0.0
0.03066585585474968 -0.1627013087272644 -0.13610272109508514 255.0 0.0 0.0
0.15450294315814972 -0.37442147731781006 -0.029171185567975044 255.0 0.0 0.0
0.11136135458946228 -0.1943686157464981 -0.131590336561203 255.0 0.0 0.0
-0.0402744859457016 -0.16712473332881927 -0.1321537345647812 255.0 0.0 0.0
-0.30562838912010193 -0.33698132634162903 0.035294465720653534 255.0 0.0 0.0
-0.07846905291080475 -0.2491573691368103 -0.08854217827320099 255.0 0.0 0.0
0.015555508434772491 -0.1442084163427353 0.1688942164182663 255.0 0.0 0.0
-0.25178784132003784 0.22929808497428894 -0.09584889560937881 255.0 0.0 0.0
-0.2732815146446228 -0.1339118629693985 -0.004634148441255093 255.0 0.0 0.0
0.20535126328468323 0.09633782505989075 -0.1350606381893158 255.0 0.0 0.0
0.06814020872116089 0.14214865863323212 0.1693717986345291 255.0 0.0 0.0
0.1874854564666748 -0.3102356493473053 -0.057125844061374664 255.0 0.0 0.0
-0.17247512936592102 0.22822098433971405 -0.04689681902527809 255.0 0.0 0.0
0.29982656240463257 0.4255848824977875 0.07897987216711044 255.0 0.0 0.0
-0.017244378104805946 0.11944670230150223 -0.13506805896759033 255.0 0.0 0.0
0.039301130920648575 0.2265370786190033 0.04842321574687958 255.0 0.0 0.0
-0.15470188856124878 0.43757978081703186 0.028073135763406754 255.0 0.0 0.0
-0.24452154338359833 -0.021178802475333214 -0.26289066672325134 255.0 0.0 0.0
0.2996411919593811 -0.015339046716690063 0.07572562247514725 255.0 0.0 0.0
-0.14066386222839355 0.06416215747594833 -0.13506805896759033 255.0 0.0 0.0
-0.23661868274211884 0.15211009979248047 -0.13575729727745056 255.0 0.0 0.0
-0.07549972087144852 0.22839081287384033 0.05258980393409729 255.0 0.0 0.0
0.11788102239370346 0.2263862043619156 0.05415123701095581 255.0 0.0 0.0
0.23224051296710968 -0.44686904549598694 0.003848048159852624 255.0 0.0 0.0
-0.2707524597644806 -0.22506305575370789 0.10668335855007172 255.0 0.0 0.0
-0.1871115267276764 -0.3327408730983734 0.0743316188454628 255.0 0.0 0.0
0.29328304529190063 0.3556404411792755 -0.007453903090208769 255.0 0.0 0.0
-0.2707524597644806 -0.045215755701065063 0.0017342939972877502 255.0 0.0 0.0
0.09156928956508636 -0.25510531663894653 -0.10757126659154892 255.0 0.0 0.0
-0.015899764373898506 0.20647937059402466 0.15655617415905 255.0 0.0 0.0
-0.07931403815746307 0.19662778079509735 0.15774135291576385 255.0 0.0 0.0
-0.2663643956184387 0.46005311608314514 0.04111176356673241 255.0 0.0 0.0
0.1973465383052826 -0.19540145993232727 -0.13610048592090607 255.0 0.0 0.0
-0.06861644983291626 0.03272940590977669 -0.13594916462898254 255.0 0.0 0.0
-0.26350316405296326 -0.44263407588005066 0.07728925347328186 255.0 0.0 0.0
-0.29931044578552246 -0.40507519245147705 -0.08728761970996857 255.0 0.0 0.0
-0.13251402974128723 -0.02581128105521202 -0.13506805896759033 255.0 0.0 0.0
0.16545480489730835 -0.3739054799079895 0.14064310491085052 255.0 0.0 0.0
0.020471759140491486 0.13206379115581512 -0.13506805896759033 255.0 0.0 0.0
0.016836240887641907 -0.07010053098201752 -0.13558265566825867 255.0 0.0 0.0
0.031038353219628334 -0.1541687548160553 -0.13441257178783417 255.0 0.0 0.0
0.15030071139335632 -0.32375839352607727 0.04769798368215561 255.0 0.0 0.0
0.11717314273118973 -0.2508392632007599 -0.02788463979959488 255.0 0.0 0.0
0.2622028589248657 -0.27858197689056396 0.03996844217181206 255.0 0.0 0.0
-0.25513288378715515 0.37600481510162354 -0.035139188170433044 255.0 0.0 0.0
0.10488386452198029 0.23053282499313354 0.0396018885076046 255.0 0.0 0.0
0.019658297300338745 -0.25058555603027344 -0.07421910762786865 255.0 0.0 0.0
0.03427845984697342 -0.040379684418439865 0.16940195858478546 255.0 0.0 0.0
0.25444015860557556 0.5113237500190735 0.07728083431720734 255.0 0.0 0.0
0.17304974794387817 0.22812457382678986 -0.041809335350990295 255.0 0.0 0.0
-0.11126252263784409 -0.029110565781593323 0.16940195858478546 255.0 0.0 0.0
0.2755938470363617 -0.02606547623872757 0.1541775017976761 255.0 0.0 0.0
0.13420909643173218 -0.2509233355522156 0.050278082489967346 255.0 0.0 0.0
0.3012327253818512 -0.010466685518622398 0.05963243171572685 255.0 0.0 0.0
0.24414032697677612 -0.10190121829509735 -0.13306811451911926 255.0 0.0 0.0
-0.24426434934139252 0.00435027526691556 -0.2771892249584198 255.0 0.0 0.0
0.2602088451385498 -0.2531775236129761 0.1370195746421814 255.0 0.0 0.0
-0.2941288352012634 0.03522903472185135 -0.2774414122104645 255.0 0.0 0.0
0.1333881914615631 -0.17147164046764374 -0.13619941473007202 255.0 0.0 0.0
0.2988191545009613 -0.12726087868213654 -0.08956397324800491 255.0 0.0 0.0
-0.19104455411434174 -0.3697080910205841 0.08796441555023193 255.0 0.0 0.0
0.22720032930374146 -0.12087217718362808 0.1716877967119217 255.0 0.0 0.0
0.06095831096172333 -0.2495986819267273 -0.01559127401560545 255.0 0.0 0.0
-0.12237051129341125 -0.22894287109375 -0.13506805896759033 255.0 0.0 0.0
0.29588744044303894 -0.13512897491455078 -0.021530693396925926 255.0 0.0 0.0
0.29717549681663513 -0.04922151565551758 0.028538597747683525 255.0 0.0 0.0
-0.27074429392814636 0.1389196217060089 0.13956040143966675 255.0 0.0 0.0
0.2703510820865631 0.0494004525244236 -0.13506805896759033 255.0 0.0 0.0
-0.11395766586065292 0.2276073396205902 0.0670660212635994 255.0 0.0 0.0
-0.23693007230758667 -0.3422715365886688 0.13839983940124512 255.0 0.0 0.0
0.029834503307938576 -0.0469694547355175 -0.13706548511981964 255.0 0.0 0.0
0.1992255449295044 -0.44602179527282715 0.001653181156143546 255.0 0.0 0.0
0.295034795999527 0.17180684208869934 0.0738464742898941 255.0 0.0 0.0
-0.2694231867790222 -0.09836507588624954 0.08614450693130493 255.0 0.0 0.0
0.2972581684589386 0.2095196545124054 -0.019349969923496246 255.0 0.0 0.0
0.17864178121089935 -0.12672355771064758 0.1690875142812729 255.0 0.0 0.0
-0.060323718935251236 0.12950557470321655 0.16940195858478546 255.0 0.0 0.0
-0.1257791519165039 0.10047010332345963 0.16940195858478546 255.0 0.0 0.0
0.019427843391895294 0.10044922679662704 0.16940195858478546 255.0 0.0 0.0
0.20680968463420868 -0.3496664762496948 0.1354144960641861 255.0 0.0 0.0
-0.1798677146434784 -0.2471475452184677 -0.09941057860851288 255.0 0.0 0.0
0.302022248506546 0.4130231738090515 0.05263884738087654 255.0 0.0 0.0
0.17815929651260376 -0.44563835859298706 -0.00386170856654644 255.0 0.0 0.0
0.29859161376953125 -0.026347588747739792 -0.04415449500083923 255.0 0.0 0.0
-0.11400724947452545 0.14585372805595398 -0.13506805896759033 255.0 0.0 0.0
0.11424917727708817 -0.22990933060646057 -0.13546662032604218 255.0 0.0 0.0
0.2297290563583374 -0.44179558753967285 0.15264976024627686 255.0 0.0 0.0
0.07285747677087784 0.03692786023020744 0.16458025574684143 255.0 0.0 0.0
0.15620319545269012 -0.10378555208444595 0.1709316074848175 255.0 0.0 0.0
-0.2700617015361786 0.11496832966804504 0.11301082372665405 255.0 0.0 0.0
-0.16787156462669373 0.22829800844192505 -0.03921571001410484 255.0 0.0 0.0
-0.2707524597644806 0.06754472106695175 -0.036478955298662186 255.0 0.0 0.0
0.00738683482632041 0.22812457382678986 -0.06647944450378418 255.0 0.0 0.0
-0.24961651861667633 0.22969011962413788 -0.04444180801510811 255.0 0.0 0.0
0.2972581684589386 0.05538879707455635 -0.04670315235853195 255.0 0.0 0.0
0.173544242978096 -0.2939019203186035 -0.035455457866191864 255.0 0.0 0.0
-0.268026202917099 0.4003191590309143 0.06277409940958023 255.0 0.0 0.0
-0.31692788004875183 -0.3831745684146881 0.12021850794553757 255.0 0.0 0.0
-0.2714736759662628 0.016993483528494835 0.017344418913125992 255.0 0.0 0.0
-0.01782715693116188 0.22812457382678986 0.06784888356924057 255.0 0.0 0.0
-0.15699797868728638 -0.15987062454223633 -0.13506805896759033 255.0 0.0 0.0
-0.10920380055904388 -0.08174378424882889 0.17253144085407257 255.0 0.0 0.0
-0.2737283706665039 -0.008000869303941727 -0.03359168395400047 255.0 0.0 0.0
0.29947683215141296 0.4376586973667145 0.03185364231467247 255.0 0.0 0.0
-0.23338080942630768 -0.40315791964530945 -0.08291232585906982 255.0 0.0 0.0
0.2972581684589386 -0.1650339514017105 -0.05412476882338524 255.0 0.0 0.0
-0.20347118377685547 0.11475099623203278 -0.13506805896759033 255.0 0.0 0.0
-0.12593302130699158 -0.24902018904685974 -0.012627078220248222 255.0 0.0 0.0
-0.15548552572727203 0.35713639855384827 -0.00031463196501135826 255.0 0.0 0.0
0.2957574725151062 -0.15697616338729858 0.1355399638414383 255.0 0.0 0.0
0.03768349066376686 -0.15600211918354034 -0.13506805896759033 255.0 0.0 0.0
0.29766857624053955 0.07135681062936783 -0.07758458703756332 255.0 0.0 0.0
0.1772676706314087 0.001488219015300274 0.16940195858478546 255.0 0.0 0.0
-0.30081456899642944 -0.42927831411361694 0.01162764709442854 255.0 0.0 0.0
-0.15092690289020538 0.22487805783748627 -0.11397775262594223 255.0 0.0 0.0
-0.03183286637067795 0.0498729832470417 -0.13506805896759033 255.0 0.0 0.0
-0.05892585590481758 -0.00579048553481698 -0.13579592108726501 255.0 0.0 0.0
0.19722725450992584 -0.3115682005882263 -0.06867333501577377 255.0 0.0 0.0
-0.06333284825086594 0.22864006459712982 0.0682193785905838 255.0 0.0 0.0
0.11910906434059143 0.1445973962545395 0.16599231958389282 255.0 0.0 0.0
0.009367318823933601 0.0011088548926636577 -0.13702774047851562 255.0 0.0 0.0
-0.18209947645664215 -0.28475716710090637 -0.04780270531773567 255.0 0.0 0.0
0.07410764694213867 0.22683393955230713 0.05980711802840233 255.0 0.0 0.0
-0.06547475606203079 0.1477653831243515 0.1724807620048523 255.0 0.0 0.0
-0.04894654452800751 0.19816824793815613 0.15584491193294525 255.0 0.0 0.0
0.2972581684589386 -0.22634674608707428 0.11894095689058304 255.0 0.0 0.0
0.1394791454076767 -0.07217048108577728 -0.13653305172920227 255.0 0.0 0.0
0.09349675476551056 -0.2506982982158661 0.10315602272748947 255.0 0.0 0.0
0.2972581684589386 -0.19176644086837769 -0.09925807267427444 255.0 0.0 0.0
0.2802775204181671 0.3223276138305664 -0.002023617969825864 255.0 0.0 0.0
-0.11070165783166885 0.16441699862480164 -0.13445237278938293 255.0 0.0 0.0
0.1726398468017578 0.4066154956817627 0.026729367673397064 255.0 0.0 0.0
0.2946699559688568 0.37540918588638306 -0.013284148648381233 255.0 0.0 0.0
0.29921749234199524 -0.2320326715707779 0.09721436351537704 255.0 0.0 0.0
-0.24828171730041504 -0.42616477608680725 0.16325075924396515 255.0 0.0 0.0
-0.21227312088012695 0.01458788476884365 -0.12992489337921143 255.0 0.0 0.0
0.18902507424354553 -0.3284314274787903 -0.06150707229971886 255.0 0.0 0.0
-0.1940556764602661 -0.21423156559467316 -0.13483926653862 255.0 0.0 0.0
0.17355044186115265 0.4325750470161438 0.009384416043758392 255.0 0.0 0.0
-0.2585602104663849 0.3413465917110443 0.00498833367601037 255.0 0.0 0.0
0.23453383147716522 -0.40834471583366394 -0.09132807701826096 255.0 0.0 0.0
0.13745437562465668 -0.37846505641937256 0.0869443342089653 255.0 0.0 0.0
-0.272487074136734 -0.09888624399900436 -0.07178404182195663 255.0 0.0 0.0
-0.2322532832622528 -0.37614691257476807 0.17844796180725098 255.0 0.0 0.0
-0.10616733133792877 0.06448041647672653 -0.1356050819158554 255.0 0.0 0.0
-0.27377641201019287 -0.04874768853187561 0.09708764404058456 255.0 0.0 0.0
-0.21735171973705292 0.05562218278646469 -0.13904185593128204 255.0 0.0 0.0
-0.2707524597644806 -0.037131842225790024 0.1021072193980217 255.0 0.0 0.0
0.21641094982624054 0.43068620562553406 -0.08482339978218079 255.0 0.0 0.0
0.07526122778654099 0.05459095165133476 -0.13506805896759033 255.0 0.0 0.0
0.25138458609580994 -0.4462781846523285 0.16507814824581146 255.0 0.0 0.0
-0.2707524597644806 -0.015578445978462696 0.02467634715139866 255.0 0.0 0.0
-0.2031489610671997 -0.38802003860473633 0.13901817798614502 255.0 0.0 0.0
-0.26769188046455383 0.06180231273174286 -0.02675887756049633 255.0 0.0 0.0
0.30140483379364014 -0.18260760605335236 0.08205817639827728 255.0 0.0 0.0
0.08999183028936386 0.11165274679660797 0.1712120771408081 255.0 0.0 0.0
0.053274061530828476 -0.2527703642845154 0.06060059741139412 255.0 0.0 0.0
0.2992721498012543 0.44727686047554016 0.01612613908946514 255.0 0.0 0.0
0.17130672931671143 -0.44587576389312744 0.020056983456015587 255.0 0.0 0.0
-0.16852901875972748 -0.21515408158302307 0.15558212995529175 255.0 0.0 0.0
-0.3026551902294159 -0.39006468653678894 0.13975854218006134 255.0 0.0 0.0
-0.1831638067960739 0.4937466084957123 0.027834642678499222 255.0 0.0 0.0
0.17666013538837433 -0.41388460993766785 -0.06567768007516861 255.0 0.0 0.0
-0.19741958379745483 -0.3480702340602875 0.09155856817960739 255.0 0.0 0.0
0.2981811761856079 0.45356184244155884 0.04495953768491745 255.0 0.0 0.0
-0.007405346259474754 0.22812457382678986 0.10091875493526459 255.0 0.0 0.0
0.17390264570713043 -0.30463314056396484 -0.040699612349271774 255.0 0.0 0.0
-0.18915733695030212 0.20019209384918213 -0.13506805896759033 255.0 0.0 0.0
-0.18051356077194214 -0.3898465633392334 -0.02363901399075985 255.0 0.0 0.0
0.10727332532405853 -0.22718191146850586 -0.134155735373497 255.0 0.0 0.0
0.004993678070604801 -0.25072699785232544 0.05597931519150734 255.0 0.0 0.0
0.2031320333480835 -0.4447281062602997 0.1693098247051239 255.0 0.0 0.0
0.17480237782001495 0.3776251971721649 0.03520684316754341 255.0 0.0 0.0
-0.03355105221271515 0.052514124661684036 0.1685355007648468 255.0 0.0 0.0
0.28458940982818604 -0.3579203188419342 -0.005554688163101673 255.0 0.0 0.0
0.02781687304377556 -0.24889585375785828 -0.10927532613277435 255.0 0.0 0.0
-0.15358246862888336 0.3741936683654785 0.03817756846547127 255.0 0.0 0.0
0.2980998158454895 0.4376481771469116 0.0527777299284935 255.0 0.0 0.0
-0.15425781905651093 0.42194029688835144 0.06949722021818161 255.0 0.0 0.0
0.20246824622154236 0.22523336112499237 -0.0017117706593126059 255.0 0.0 0.0
0.2972581684589386 -0.22656095027923584 0.03358398377895355 255.0 0.0 0.0
-0.21845532953739166 0.18458004295825958 -0.1374129354953766 255.0 0.0 0.0
0.26608535647392273 -0.19465309381484985 -0.13506805896759033 255.0 0.0 0.0
0.20870842039585114 0.22812457382678986 -0.0836060643196106 255.0 0.0 0.0
-0.18402288854122162 -0.25329697132110596 0.10327181965112686 255.0 0.0 0.0
0.24827061593532562 0.228083997964859 -0.08688675612211227 255.0 0.0 0.0
0.27886763215065 -0.2512258291244507 -0.10424180328845978 255.0 0.0 0.0
-0.08849085122346878 -0.21517743170261383 -0.13965362310409546 255.0 0.0 0.0
-0.23673368990421295 0.22921933233737946 0.13117514550685883 255.0 0.0 0.0
0.1327543705701828 -0.2487511932849884 0.1238672211766243 255.0 0.0 0.0
0.1545221358537674 -0.32164210081100464 -0.015279305167496204 255.0 0.0 0.0
-0.3201123774051666 -0.36755961179733276 0.16353297233581543 255.0 0.0 0.0
0.06443502008914948 0.15425552427768707 -0.17206445336341858 255.0 0.0 0.0
-0.2941441237926483 -0.32367241382598877 0.05661793053150177 255.0 0.0 0.0
-0.2715871334075928 0.15853244066238403 0.011299806647002697 255.0 0.0 0.0
0.24988539516925812 0.11742270737886429 -0.13775813579559326 255.0 0.0 0.0
-0.303512305021286 -0.3993793725967407 0.10417938977479935 255.0 0.0 0.0
0.2972581684589386 -0.06175680831074715 0.024538207799196243 255.0 0.0 0.0
0.1618947982788086 -0.3794667422771454 -0.048872627317905426 255.0 0.0 0.0
-0.2311011403799057 -0.22352094948291779 -0.13553881645202637 255.0 0.0 0.0
-0.05571144446730614 -0.2503334879875183 -0.011023420840501785 255.0 0.0 0.0
-0.27175673842430115 0.027402618899941444 -0.1171535924077034 255.0 0.0 0.0
-0.19844315946102142 -0.3793763220310211 -0.06513863056898117 255.0 0.0 0.0
-0.1524658054113388 0.22772499918937683 -0.01060703955590725 255.0 0.0 0.0
-0.21479889750480652 -0.38604193925857544 -0.0768074095249176 255.0 0.0 0.0
0.139476478099823 -0.41817447543144226 0.007115371059626341 255.0 0.0 0.0
-0.2707485556602478 -0.1300627738237381 -0.11410217732191086 255.0 0.0 0.0
0.06757233291864395 0.050598081201314926 -0.13009802997112274 255.0 0.0 0.0
0.1362418681383133 0.18691298365592957 0.15598461031913757 255.0 0.0 0.0
0.038865331560373306 -0.058217603713274 -0.1357061266899109 255.0 0.0 0.0
0.2766481935977936 -0.2500261664390564 -0.09087918698787689 255.0 0.0 0.0
-0.2698036730289459 0.07613053917884827 0.02699929289519787 255.0 0.0 0.0
-0.08078821748495102 0.022632455453276634 0.1680547147989273 255.0 0.0 0.0
0.2980097234249115 -0.06638853996992111 -0.06461471319198608 255.0 0.0 0.0
-0.2657216191291809 0.4361957311630249 0.08423570543527603 255.0 0.0 0.0
0.024813277646899223 0.23008687794208527 -0.18184535205364227 255.0 0.0 0.0
-0.10382615029811859 0.177556574344635 -0.13467760384082794 255.0 0.0 0.0
0.022536514326930046 -0.2514857351779938 0.08557403087615967 255.0 0.0 0.0
0.17507003247737885 -0.031039826571941376 -0.13506805896759033 255.0 0.0 0.0
-0.11446982622146606 -0.22453463077545166 -0.13648149371147156 255.0 0.0 0.0
0.19132792949676514 -0.13249829411506653 -0.13339567184448242 255.0 0.0 0.0
0.21891789138317108 -0.4498078525066376 0.1743299961090088 255.0 0.0 0.0
0.052466753870248795 0.1990349441766739 0.15625610947608948 255.0 0.0 0.0
-0.16552677750587463 -0.3570496737957001 -0.009705832228064537 255.0 0.0 0.0
0.29550206661224365 -0.199936181306839 0.0644666850566864 255.0 0.0 0.0
-0.27078863978385925 -0.012764579616487026 -0.022160908207297325 255.0 0.0 0.0
0.15278886258602142 0.03492310270667076 0.16764582693576813 255.0 0.0 0.0
0.29884007573127747 0.12890422344207764 -0.08072850853204727 255.0 0.0 0.0
0.1604052633047104 0.22857235372066498 0.09354287385940552 255.0 0.0 0.0
0.005879001691937447 -0.10840294510126114 0.16752928495407104 255.0 0.0 0.0
0.17003042995929718 0.18711866438388824 -0.1329987347126007 255.0 0.0 0.0
0.0783565565943718 -0.07096734642982483 -0.13439728319644928 255.0 0.0 0.0
-0.3314363658428192 -0.4038965404033661 0.0027904617600142956 255.0 0.0 0.0
-0.12439289689064026 0.22812457382678986 -0.09441787004470825 255.0 0.0 0.0
-0.019292911514639854 -0.0904727354645729 0.16553840041160583 255.0 0.0 0.0
0.08223836869001389 -0.251528263092041 -0.11103589087724686 255.0 0.0 0.0
0.2686212658882141 -0.3188837468624115 -0.03397621959447861 255.0 0.0 0.0
