-0.2992169260978699 -0.3178519606590271 0.1300658881664276 255.0 0.0 0.0
0.17483340203762054 0.22403982281684875 -0.12522238492965698 255.0 0.0 0.0
0.23538024723529816 -0.253135085105896 -0.04540904238820076 255.0 0.0 0.0
-0.20536872744560242 -0.027246525511145592 0.16932986676692963 255.0 0.0 0.0
-0.1895073801279068 0.4058251678943634 0.08799964934587479 255.0 0.0 0.0
-0.050178706645965576 -0.19809630513191223 0.15321999788284302 255.0 0.0 0.0
-0.04654763266444206 0.14611175656318665 -0.13506805896759033 255.0 0.0 0.0
-0.22768419981002808 0.46924492716789246 0.10092932730913162 255.0 0.0 0.0
-0.20606982707977295 0.3205919861793518 -0.3553749918937683 255.0 0.0 0.0
-0.16332265734672546 -0.2502014636993408 0.14943504333496094 255.0 0.0 0.0
0.14828357100486755 0.165389746427536 0.16127116978168488 255.0 0.0 0.0
-0.16359999775886536 -0.25473296642303467 -0.03788130357861519 255.0 0.0 0.0
0.2342461347579956 -0.16279447078704834 0.1712261140346527 255.0 0.0 0.0
-0.26267319917678833 0.4399796426296234 0.10192848742008209 255.0 0.0 0.0
-0.2702566981315613 0.1349681317806244 0.14549905061721802 255.0 0.0 0.0
-0.28564757108688354 -0.04617222025990486 -0.2809450328350067 255.0 0.0 0.0
-0.05303819105029106 0.21660834550857544 0.15632209181785583 255.0 0.0 0.0
-0.25211775302886963 0.4480384290218353 0.12066298723220825 255.0 0.0 0.0
0.26633694767951965 -0.36062586307525635 -0.0716312974691391 255.0 0.0 0.0
-0.16141556203365326 0.4213631749153137 0.10283897817134857 255.0 0.0 0.0
-0.2760303318500519 0.13344761729240417 -0.2873091995716095 255.0 0.0 0.0
-0.03337211534380913 0.15971219539642334 -0.1369844675064087 255.0 0.0 0.0
-0.019384516403079033 0.28612327575683594 -0.29121801257133484 255.0 0.0 0.0
0.25228050351142883 -0.3216301202774048 -0.0742368996143341 255.0 0.0 0.0
-0.18150873482227325 0.223100483417511 -0.13048510253429413 255.0 0.0 0.0
-0.2647298574447632 0.3548404574394226 0.0435868501663208 255.0 0.0 0.0
0.28380027413368225 0.4870587885379791 -0.0013145067496225238 255.0 0.0 0.0
-0.039599187672138214 0.15791939198970795 -0.15709029138088226 255.0 0.0 0.0
0.008987938985228539 0.286883682012558 -0.27855488657951355 255.0 0.0 0.0
0.207904651761055 0.4574113190174103 0.10123156011104584 255.0 0.0 0.0
0.2885453402996063 -0.24883484840393066 0.021649207919836044 255.0 0.0 0.0
0.29566845297813416 0.22451984882354736 -0.12428706139326096 255.0 0.0 0.0
-0.03846992552280426 0.1248403936624527 -0.13506805896759033 255.0 0.0 0.0
0.26315751671791077 -0.3575979769229889 -0.06688882410526276 255.0 0.0 0.0
-0.18082618713378906 0.3515993058681488 0.0868050679564476 255.0 0.0 0.0
0.23214033246040344 0.31830894947052 0.05690838769078255 255.0 0.0 0.0
-0.09287425130605698 -0.18266408145427704 0.16684028506278992 255.0 0.0 0.0
-0.05376052111387253 0.1761043816804886 0.1539849042892456 255.0 0.0 0.0
-0.2481369972229004 -0.05063344165682793 -0.2766166031360626 255.0 0.0 0.0
-0.16882231831550598 0.3157719373703003 -0.3386193513870239 255.0 0.0 0.0
-0.1328805536031723 0.22446663677692413 0.1525203287601471 255.0 0.0 0.0
-0.24870122969150543 0.47330808639526367 -0.02790985256433487 255.0 0.0 0.0
-0.26482367515563965 0.39686480164527893 0.0934034213423729 255.0 0.0 0.0
-0.2707228660583496 0.18375079333782196 -0.1263076364994049 255.0 0.0 0.0
-0.2394455075263977 -0.2651063799858093 0.006133292801678181 255.0 0.0 0.0
-0.216356560587883 0.39492928981781006 -0.08255597203969955 255.0 0.0 0.0
0.21290473639965057 0.3535124361515045 -0.06937126815319061 255.0 0.0 0.0
0.26134493947029114 0.2328551858663559 0.0483241081237793 255.0 0.0 0.0
-0.04854859039187431 0.293317586183548 -0.30154454708099365 255.0 0.0 0.0
-0.011241082102060318 -0.2363952398300171 -0.1343478411436081 255.0 0.0 0.0
-0.25890272855758667 0.34742271900177 -0.015626899898052216 255.0 0.0 0.0
0.19657577574253082 0.4411398470401764 0.10755050927400589 255.0 0.0 0.0
-0.23431749641895294 0.303589791059494 0.03676551952958107 255.0 0.0 0.0
0.2945534288883209 0.11226394027471542 0.15466846525669098 255.0 0.0 0.0
0.17711783945560455 -0.24858175218105316 0.1498136818408966 255.0 0.0 0.0
-0.21729911863803864 -0.4205959141254425 0.17116039991378784 255.0 0.0 0.0
0.25576263666152954 -0.30095240473747253 -0.059725936502218246 255.0 0.0 0.0
-0.3079976439476013 -0.35668477416038513 0.20145569741725922 255.0 0.0 0.0
-0.25751549005508423 0.23053230345249176 0.012572954408824444 255.0 0.0 0.0
0.1430470198392868 -0.44156619906425476 0.021518683061003685 255.0 0.0 0.0
-0.06655088812112808 -0.20255322754383087 0.1583940088748932 255.0 0.0 0.0
0.2397139072418213 0.2663766145706177 -0.023907996714115143 255.0 0.0 0.0
-0.207649365067482 0.08731061220169067 0.16932131350040436 255.0 0.0 0.0
0.22718794643878937 -0.24635113775730133 0.15448077023029327 255.0 0.0 0.0
0.29109230637550354 0.036981504410505295 -0.13504701852798462 255.0 0.0 0.0
-0.27316632866859436 0.033976420760154724 -0.1336504966020584 255.0 0.0 0.0
-0.28006672859191895 0.11205413192510605 -0.32348453998565674 255.0 0.0 0.0
-0.2121061384677887 -0.39420080184936523 0.17131200432777405 255.0 0.0 0.0
0.23236361145973206 -0.2521860599517822 -0.047646861523389816 255.0 0.0 0.0
-0.13864362239837646 -0.252987265586853 0.024484964087605476 255.0 0.0 0.0
-0.22730395197868347 -0.421711266040802 0.18323661386966705 255.0 0.0 0.0
-0.1840347945690155 -0.18934333324432373 0.1573682576417923 255.0 0.0 0.0
-0.19790750741958618 0.3212474286556244 -0.3552052080631256 255.0 0.0 0.0
-0.2263670414686203 0.13504455983638763 0.15053242444992065 255.0 0.0 0.0
0.2563227713108063 0.15411880612373352 0.15308092534542084 255.0 0.0 0.0
-0.0686061829328537 0.1606532633304596 0.1662895679473877 255.0 0.0 0.0
0.04763476550579071 0.20706242322921753 -0.16337139904499054 255.0 0.0 0.0
-0.13851313292980194 -0.25289100408554077 -0.007012715097516775 255.0 0.0 0.0
0.2523927390575409 0.3233380615711212 -0.038550157099962234 255.0 0.0 0.0
0.2831368148326874 0.21008093655109406 0.15632209181785583 255.0 0.0 0.0
0.29456132650375366 -0.0719694048166275 0.1558600217103958 255.0 0.0 0.0
-0.22820286452770233 0.2273806482553482 -0.12975305318832397 255.0 0.0 0.0
-0.2643156051635742 0.22667928040027618 -0.06361854076385498 255.0 0.0 0.0
-0.27001699805259705 -0.2215214967727661 -0.13425473868846893 255.0 0.0 0.0
-0.22460125386714935 0.4688580632209778 0.09814158827066422 255.0 0.0 0.0
0.06260301172733307 0.17351678013801575 -0.13358940184116364 255.0 0.0 0.0
-0.17206989228725433 -0.24834708869457245 -0.13030965626239777 255.0 0.0 0.0
0.14738741517066956 -0.42896756529808044 0.15138481557369232 255.0 0.0 0.0
0.1967661827802658 0.227433979511261 -0.13486060500144958 255.0 0.0 0.0
-0.1333596557378769 -0.24858982861042023 0.13960863649845123 255.0 0.0 0.0
-0.2365637868642807 0.30968910455703735 -0.008369560353457928 255.0 0.0 0.0
-0.00507377739995718 -0.2493881732225418 0.1495041847229004 255.0 0.0 0.0
0.23808205127716064 0.5021858215332031 -0.04419538378715515 255.0 0.0 0.0
-0.15656544268131256 -0.23168691992759705 -0.13506805896759033 255.0 0.0 0.0
-0.26569274067878723 0.15753372013568878 -0.13506805896759033 255.0 0.0 0.0
0.2619040906429291 -0.33961817622184753 -0.06768893450498581 255.0 0.0 0.0
0.20780296623706818 0.3136628270149231 -0.02240748703479767 255.0 0.0 0.0
-0.25325167179107666 0.05385733023285866 -0.25809764862060547 255.0 0.0 0.0
-0.2034546434879303 -0.27276626229286194 0.0767945945262909 255.0 0.0 0.0
0.29817354679107666 -0.04176412895321846 -0.117459736764431 255.0 0.0 0.0
0.2959722578525543 -0.09423594921827316 -0.1363520473241806 255.0 0.0 0.0
-0.02609875239431858 0.25836431980133057 -0.22119781374931335 255.0 0.0 0.0
0.27901631593704224 0.04694989323616028 0.1579231321811676 255.0 0.0 0.0
-0.2056245654821396 0.3342207372188568 -0.3326450288295746 255.0 0.0 0.0
-0.2562010586261749 0.25389963388442993 -0.32289180159568787 255.0 0.0 0.0
-0.24652977287769318 -0.3919701874256134 0.20263388752937317 255.0 0.0 0.0
0.25883686542510986 0.2750730812549591 0.027402887120842934 255.0 0.0 0.0
0.20523934066295624 0.32215189933776855 -0.022912627086043358 255.0 0.0 0.0
-0.16693352162837982 0.433603972196579 0.10309316962957382 255.0 0.0 0.0
-0.07812201231718063 0.3118044137954712 -0.29448091983795166 255.0 0.0 0.0
0.01644236408174038 0.22400552034378052 0.15607576072216034 255.0 0.0 0.0
-0.2722170948982239 -0.23858940601348877 0.03440682217478752 255.0 0.0 0.0
-0.27761930227279663 -0.40663495659828186 -0.09094220399856567 255.0 0.0 0.0
-0.16356749832630157 0.31721803545951843 -0.3497036397457123 255.0 0.0 0.0
0.22406131029129028 0.22888866066932678 -0.12494803220033646 255.0 0.0 0.0
-0.24775853753089905 0.3233943581581116 0.01780412159860134 255.0 0.0 0.0
-0.09720216691493988 0.16395406424999237 0.16325949132442474 255.0 0.0 0.0
-0.09322816133499146 -0.2501772940158844 0.1390451341867447 255.0 0.0 0.0
-0.25231486558914185 -0.0219559483230114 -0.30492860078811646 255.0 0.0 0.0
-0.23386342823505402 -0.2600998282432556 0.022872474044561386 255.0 0.0 0.0
-0.26969006657600403 0.17423821985721588 -0.11743847280740738 255.0 0.0 0.0
-0.2566545903682709 0.16239070892333984 0.15632209181785583 255.0 0.0 0.0
-0.21027341485023499 0.233541801571846 0.05197795107960701 255.0 0.0 0.0
0.2957005500793457 -0.11999517679214478 0.15622812509536743 255.0 0.0 0.0
0.15319111943244934 -0.4416504204273224 -0.01144875306636095 255.0 0.0 0.0
-0.2335377186536789 -0.04638730734586716 0.1555611938238144 255.0 0.0 0.0
0.14725126326084137 -0.43566763401031494 -0.019511863589286804 255.0 0.0 0.0
0.1404661238193512 0.16364355385303497 0.1619848757982254 255.0 0.0 0.0
0.19625797867774963 -0.26354822516441345 -0.041446514427661896 255.0 0.0 0.0
-0.2730436325073242 0.008347764611244202 0.15027983486652374 255.0 0.0 0.0
-0.258747398853302 -0.0025700002443045378 -0.13660979270935059 255.0 0.0 0.0
0.24657981097698212 0.444834440946579 -0.08641517907381058 255.0 0.0 0.0
0.19199877977371216 0.15075114369392395 0.16932807862758636 255.0 0.0 0.0
0.28816020488739014 -0.1747412234544754 -0.13518905639648438 255.0 0.0 0.0
0.26092687249183655 0.2297258824110031 -0.03183405101299286 255.0 0.0 0.0
-0.2187497317790985 -0.41350364685058594 0.17800435423851013 255.0 0.0 0.0
-0.32076296210289 -0.40898141264915466 -0.06815199553966522 255.0 0.0 0.0
-0.2630084753036499 0.3476950228214264 0.04267888516187668 255.0 0.0 0.0
-0.05268865078687668 0.15546680986881256 0.16577062010765076 255.0 0.0 0.0
-0.18186810612678528 0.22719597816467285 -0.13125286996364594 255.0 0.0 0.0
-0.09532211720943451 0.3245113790035248 -0.2977544963359833 255.0 0.0 0.0
0.22727902233600616 -0.16737990081310272 0.16934683918952942 255.0 0.0 0.0
0.10009411722421646 -0.20500126481056213 0.15568137168884277 255.0 0.0 0.0
0.21252600848674774 0.5045811533927917 0.0978962853550911 255.0 0.0 0.0
-0.2652457654476166 0.25665339827537537 -0.35957425832748413 255.0 0.0 0.0
-0.2717433571815491 -0.2443675845861435 -0.039333175867795944 255.0 0.0 0.0
0.2736857235431671 0.33445361256599426 -0.0495414175093174 255.0 0.0 0.0
-0.004379501566290855 0.2513478696346283 -0.26202523708343506 255.0 0.0 0.0
-0.3295847177505493 -0.41040363907814026 -0.0548480786383152 255.0 0.0 0.0
-0.26217108964920044 0.4172767698764801 0.10598548501729965 255.0 0.0 0.0
0.21857737004756927 0.35274738073349 0.11867190897464752 255.0 0.0 0.0
0.2219611257314682 0.48813560605049133 0.11755630373954773 255.0 0.0 0.0
0.2750971019268036 0.4094547927379608 0.12007483839988708 255.0 0.0 0.0
-0.23799647390842438 -0.4763277471065521 -0.02608894370496273 255.0 0.0 0.0
0.06021103635430336 0.15458780527114868 -0.1422000229358673 255.0 0.0 0.0
-0.21559973061084747 -0.24951855838298798 0.14176392555236816 255.0 0.0 0.0
-0.17650744318962097 0.1568780392408371 0.16850003600120544 255.0 0.0 0.0
-0.22187381982803345 -0.17005057632923126 0.1646035611629486 255.0 0.0 0.0
0.06903417408466339 -0.23634791374206543 0.15857179462909698 255.0 0.0 0.0
0.24772951006889343 0.5144867300987244 0.006425515748560429 255.0 0.0 0.0
0.29573962092399597 -0.07636503875255585 -0.13241124153137207 255.0 0.0 0.0
-0.1545632779598236 0.3640698790550232 0.03453301265835762 255.0 0.0 0.0
0.2828996777534485 0.06945140659809113 0.1578967571258545 255.0 0.0 0.0
0.29909858107566833 -0.0207196231931448 0.14920422434806824 255.0 0.0 0.0
0.2827713191509247 0.49220335483551025 0.0662473812699318 255.0 0.0 0.0
-0.25460055470466614 0.008511940948665142 -0.30041155219078064 255.0 0.0 0.0
-0.26379483938217163 0.432210236787796 0.10098286718130112 255.0 0.0 0.0
0.19437354803085327 0.49465253949165344 0.08425741642713547 255.0 0.0 0.0
-0.2233406901359558 -0.410061240196228 0.18485702574253082 255.0 0.0 0.0
0.2888009548187256 -0.25049594044685364 -0.011761950328946114 255.0 0.0 0.0
0.21455000340938568 0.16020971536636353 0.16785785555839539 255.0 0.0 0.0
-0.18719005584716797 0.4520259499549866 0.08920846879482269 255.0 0.0 0.0
-0.22059287130832672 0.12780310213565826 0.16822129487991333 255.0 0.0 0.0
-0.21820417046546936 0.32276684045791626 -0.351149320602417 255.0 0.0 0.0
-0.227333202958107 0.10376258939504623 0.1533574014902115 255.0 0.0 0.0
-0.20919345319271088 -0.10913807898759842 0.17140692472457886 255.0 0.0 0.0
-0.27979418635368347 -0.008233623579144478 -0.2337571084499359 255.0 0.0 0.0
0.11051223427057266 0.15022556483745575 0.16933074593544006 255.0 0.0 0.0
-0.17124256491661072 0.22956673800945282 0.14820009469985962 255.0 0.0 0.0
0.2902589738368988 0.17484968900680542 0.15631753206253052 255.0 0.0 0.0
0.2769160866737366 0.22827750444412231 -0.035234857350587845 255.0 0.0 0.0
0.036898329854011536 -0.19405367970466614 0.15054696798324585 255.0 0.0 0.0
-0.024724416434764862 0.11453348398208618 -0.18884453177452087 255.0 0.0 0.0
-0.2547536790370941 -0.25230661034584045 0.03872336819767952 255.0 0.0 0.0
0.055814534425735474 -0.20037275552749634 0.15648585557937622 255.0 0.0 0.0
0.2605547606945038 0.2657608389854431 -0.012100586667656898 255.0 0.0 0.0
-0.2385503649711609 0.3911166191101074 0.10700329393148422 255.0 0.0 0.0
0.21350012719631195 -0.44196683168411255 -0.07976968586444855 255.0 0.0 0.0
0.26961591839790344 -0.44167783856391907 0.19841545820236206 255.0 0.0 0.0
-0.2647716999053955 -0.2484390288591385 -0.12564799189567566 255.0 0.0 0.0
-0.26751649379730225 0.08914396166801453 -0.13506805896759033 255.0 0.0 0.0
-0.19525174796581268 -0.25532665848731995 -0.05671297758817673 255.0 0.0 0.0
0.0539565309882164 0.21057289838790894 -0.17645516991615295 255.0 0.0 0.0
0.2976307272911072 -0.23474617302417755 -0.06357648968696594 255.0 0.0 0.0
-0.31041714549064636 -0.43882855772972107 -0.06781521439552307 255.0 0.0 0.0
-0.29654455184936523 -0.45293915271759033 -0.06578763574361801 255.0 0.0 0.0
-0.24687309563159943 0.2423890084028244 0.032083798199892044 255.0 0.0 0.0
-0.20755790174007416 0.48311683535575867 0.10899616032838821 255.0 0.0 0.0
0.23855656385421753 -0.3231879472732544 -0.08121119439601898 255.0 0.0 0.0
-0.15507115423679352 -0.26513075828552246 -0.021358761936426163 255.0 0.0 0.0
0.253652423620224 -0.2480531483888626 0.1546279788017273 255.0 0.0 0.0
0.2978013753890991 0.35222241282463074 0.03908873349428177 255.0 0.0 0.0
-0.0897710770368576 0.3097296953201294 -0.316927045583725 255.0 0.0 0.0
0.04557603970170021 0.23047444224357605 -0.2336617410182953 255.0 0.0 0.0
-0.255790650844574 0.23243597149848938 -0.35610759258270264 255.0 0.0 0.0
0.2278374433517456 0.2135048657655716 -0.13672886788845062 255.0 0.0 0.0
0.2081984430551529 0.25216731429100037 0.021955516189336777 255.0 0.0 0.0
0.29661211371421814 0.01022438146173954 -0.1316402107477188 255.0 0.0 0.0
0.022131310775876045 0.2592625617980957 -0.2628481984138489 255.0 0.0 0.0
0.3018588125705719 0.19475609064102173 0.14629162847995758 255.0 0.0 0.0
-0.18080902099609375 0.33202144503593445 -0.02567210979759693 255.0 0.0 0.0
0.2618853449821472 -0.2525443434715271 -0.003863787977024913 255.0 0.0 0.0
0.09489463269710541 -0.17906713485717773 0.1651439070701599 255.0 0.0 0.0
0.2761261463165283 0.37082478404045105 0.12743611633777618 255.0 0.0 0.0
-0.24917572736740112 0.22728490829467773 -0.019063185900449753 255.0 0.0 0.0
-0.06284137070178986 -0.18346697092056274 0.16583722829818726 255.0 0.0 0.0
-0.26115548610687256 0.09179750829935074 -0.3039054274559021 255.0 0.0 0.0
-0.2114592045545578 0.258262574672699 0.04345601052045822 255.0 0.0 0.0
-0.04147691652178764 0.17572394013404846 0.15600787103176117 255.0 0.0 0.0
0.2819661796092987 -0.44223642349243164 0.0025498075410723686 255.0 0.0 0.0
-0.2707524597644806 0.22051119804382324 0.03298461437225342 255.0 0.0 0.0
-0.24390970170497894 0.333248496055603 0.037005215883255005 255.0 0.0 0.0
-0.19417910277843475 0.4066910743713379 0.08697035163640976 255.0 0.0 0.0
0.02165624126791954 0.2726479768753052 -0.2678348124027252 255.0 0.0 0.0
0.28183290362358093 -0.1858256459236145 0.15632209181785583 255.0 0.0 0.0
-0.2397695779800415 0.4692001938819885 0.11283392459154129 255.0 0.0 0.0
-0.20224839448928833 0.49580147862434387 0.1061754897236824 255.0 0.0 0.0
-0.2707524597644806 0.20860795676708221 0.13262274861335754 255.0 0.0 0.0
0.28537240624427795 0.2284443974494934 0.05135640129446983 255.0 0.0 0.0
-0.18359670042991638 0.28462669253349304 0.019779270514845848 255.0 0.0 0.0
0.2250569611787796 0.515600323677063 0.04816567897796631 255.0 0.0 0.0
-0.26100829243659973 0.14100682735443115 0.15632209181785583 255.0 0.0 0.0
-0.27298253774642944 -0.24518941342830658 -0.05653662979602814 255.0 0.0 0.0
0.21650588512420654 0.48964622616767883 0.11366483569145203 255.0 0.0 0.0
-0.2582405209541321 0.22588373720645905 -0.31936654448509216 255.0 0.0 0.0
0.24421963095664978 -0.4416252076625824 -0.08417078852653503 255.0 0.0 0.0
0.05338079109787941 0.12776656448841095 -0.19196662306785583 255.0 0.0 0.0
0.04728930816054344 -0.18074184656143188 0.1685100495815277 255.0 0.0 0.0
-0.2609907388687134 0.04334781691431999 -0.3157922625541687 255.0 0.0 0.0
0.07498474419116974 0.23188389837741852 0.1444404125213623 255.0 0.0 0.0
-0.22319965064525604 -0.29003939032554626 0.08451149612665176 255.0 0.0 0.0
-0.2650032937526703 -0.12546856701374054 -0.13246293365955353 255.0 0.0 0.0
-0.2832445800304413 0.05570581927895546 -0.2557925879955292 255.0 0.0 0.0
0.2938162386417389 -0.19974109530448914 -0.13506805896759033 255.0 0.0 0.0
0.058347173035144806 0.22793160378932953 0.14466078579425812 255.0 0.0 0.0
0.04404193535447121 0.2309717983007431 -0.23916316032409668 255.0 0.0 0.0
0.18215052783489227 0.42141541838645935 0.11299241334199905 255.0 0.0 0.0
0.23241807520389557 0.44087907671928406 -0.08910230547189713 255.0 0.0 0.0
0.22598358988761902 -0.25348028540611267 -0.04760119318962097 255.0 0.0 0.0
0.2985289692878723 0.08731155842542648 -0.12161865830421448 255.0 0.0 0.0
0.03144893795251846 0.1045113205909729 -0.18190118670463562 255.0 0.0 0.0
0.2674020230770111 0.24955305457115173 -0.0003067513171117753 255.0 0.0 0.0
-0.25774145126342773 0.1284327358007431 -0.31278932094573975 255.0 0.0 0.0
0.20698128640651703 0.48394203186035156 0.11898718774318695 255.0 0.0 0.0
0.19325648248195648 -0.44389697909355164 -0.06074070185422897 255.0 0.0 0.0
-0.24198275804519653 -0.4808230996131897 -0.015092085115611553 255.0 0.0 0.0
0.2575989365577698 -0.3704353868961334 0.1721024066209793 255.0 0.0 0.0
-0.17598776519298553 0.22827289998531342 0.14751873910427094 255.0 0.0 0.0
-0.22648119926452637 0.1420900672674179 0.15190176665782928 255.0 0.0 0.0
-0.22100378572940826 0.3127206265926361 0.0463750846683979 255.0 0.0 0.0
-0.11879801005125046 0.3311598598957062 -0.30569884181022644 255.0 0.0 0.0
0.09336689859628677 -0.24791131913661957 0.15619415044784546 255.0 0.0 0.0
-0.2702820599079132 0.2140272706747055 0.07348238676786423 255.0 0.0 0.0
0.1745476871728897 -0.2527630031108856 0.14590229094028473 255.0 0.0 0.0
-0.22095954418182373 -0.45238760113716125 0.1299409121274948 255.0 0.0 0.0
-0.2439633458852768 0.45040351152420044 -0.05979176610708237 255.0 0.0 0.0
-0.2258290797472 0.40508291125297546 -0.0821458250284195 255.0 0.0 0.0
0.23585717380046844 0.17525997757911682 0.15118706226348877 255.0 0.0 0.0
-0.21211884915828705 -0.014701860025525093 0.1676240861415863 255.0 0.0 0.0
-0.21816951036453247 -0.2576318085193634 0.06594031304121017 255.0 0.0 0.0
-0.24677826464176178 -0.047654829919338226 -0.2791227400302887 255.0 0.0 0.0
0.2596719264984131 0.466321736574173 -0.07616577297449112 255.0 0.0 0.0
-0.23992186784744263 -0.25365492701530457 0.04876488074660301 255.0 0.0 0.0
-0.2687464654445648 -0.15700799226760864 -0.13399602472782135 255.0 0.0 0.0
-0.08060161024332047 0.3156980872154236 -0.29116538166999817 255.0 0.0 0.0
-0.21101750433444977 0.22516554594039917 0.1541706621646881 255.0 0.0 0.0
-0.22650179266929626 0.29937708377838135 -0.015329352580010891 255.0 0.0 0.0
-0.3369773030281067 -0.3626807630062103 0.12134858220815659 255.0 0.0 0.0
0.23788125813007355 -0.4456477463245392 0.20003031194210052 255.0 0.0 0.0
0.29050958156585693 0.42498978972435 0.13083577156066895 255.0 0.0 0.0
-0.18865768611431122 0.47539541125297546 -0.045622289180755615 255.0 0.0 0.0
0.2273865044116974 0.3186565041542053 -0.03766857087612152 255.0 0.0 0.0
0.2531043589115143 -0.28473329544067383 -0.055026598274707794 255.0 0.0 0.0
-0.264362633228302 0.4225716292858124 0.10937889665365219 255.0 0.0 0.0
0.0600641705095768 0.15711665153503418 -0.13546210527420044 255.0 0.0 0.0
-0.24201424419879913 -0.3022741973400116 -0.0688430666923523 255.0 0.0 0.0
0.022468235343694687 0.21857990324497223 0.15632209181785583 255.0 0.0 0.0
-0.23434297740459442 -0.2555191218852997 0.012220463715493679 255.0 0.0 0.0
0.19334043562412262 0.3834007978439331 0.10976240783929825 255.0 0.0 0.0
-0.036515358835458755 0.3072170615196228 -0.26012086868286133 255.0 0.0 0.0
0.13277965784072876 -0.2420022040605545 -0.13506805896759033 255.0 0.0 0.0
-0.17430420219898224 0.3711921274662018 0.09898144751787186 255.0 0.0 0.0
0.22499948740005493 0.36324939131736755 -0.08743057399988174 255.0 0.0 0.0
-0.2572914659976959 0.08880744874477386 -0.2889630198478699 255.0 0.0 0.0
0.19359801709651947 0.34031543135643005 -0.03834861144423485 255.0 0.0 0.0
-0.1232677474617958 -0.18645991384983063 0.1605137586593628 255.0 0.0 0.0
-0.27572524547576904 0.17844413220882416 -0.12402113527059555 255.0 0.0 0.0
-0.24590465426445007 0.2347334921360016 0.02215167135000229 255.0 0.0 0.0
-0.17860983312129974 0.22227413952350616 -0.1360214203596115 255.0 0.0 0.0
-0.2533915638923645 -0.20824921131134033 -0.13506805896759033 255.0 0.0 0.0
0.2970552444458008 -0.12628212571144104 0.15562765300273895 255.0 0.0 0.0
-0.30114325881004333 -0.44973331689834595 -0.07639911770820618 255.0 0.0 0.0
-0.244219571352005 0.2533245384693146 -0.3348611295223236 255.0 0.0 0.0
-0.33452481031417847 -0.37141183018684387 0.06019638478755951 255.0 0.0 0.0
0.21392837166786194 0.22896786034107208 0.04971691220998764 255.0 0.0 0.0
-0.07698715478181839 0.33065712451934814 -0.2949866056442261 255.0 0.0 0.0
0.04318676143884659 0.19596824049949646 -0.1566798985004425 255.0 0.0 0.0
-0.25645944476127625 -0.0744936615228653 -0.27807509899139404 255.0 0.0 0.0
-0.21871715784072876 -0.3959103524684906 0.1739339679479599 255.0 0.0 0.0
-0.21992705762386322 0.14675453305244446 0.16078916192054749 255.0 0.0 0.0
-0.21711784601211548 0.3684818744659424 -0.07581968605518341 255.0 0.0 0.0
0.16771714389324188 -0.39016807079315186 0.16644762456417084 255.0 0.0 0.0
0.16350753605365753 -0.44560325145721436 0.16724538803100586 255.0 0.0 0.0
0.28485140204429626 -0.07843226939439774 -0.1368028074502945 255.0 0.0 0.0
-0.027848586440086365 0.09873287379741669 -0.13421045243740082 255.0 0.0 0.0
0.2575600743293762 -0.3849228322505951 -0.08182671666145325 255.0 0.0 0.0
0.14992547035217285 -0.44528478384017944 0.029326409101486206 255.0 0.0 0.0
-0.03898882865905762 -0.25008299946784973 0.14070861041545868 255.0 0.0 0.0
-0.05582435429096222 -0.2395532727241516 0.15623971819877625 255.0 0.0 0.0
0.19906364381313324 0.32624906301498413 0.040210772305727005 255.0 0.0 0.0
0.2439708709716797 -0.03510748967528343 0.1669309288263321 255.0 0.0 0.0
0.2577836215496063 -0.27824535965919495 -0.04541855305433273 255.0 0.0 0.0
0.2592248320579529 0.3778946101665497 0.12006711214780807 255.0 0.0 0.0
0.2972581684589386 0.22495128214359283 0.020595422014594078 255.0 0.0 0.0
0.011259305290877819 0.2771061658859253 -0.2763914167881012 255.0 0.0 0.0
-0.24162571132183075 -0.06850691884756088 -0.26626071333885193 255.0 0.0 0.0
0.2571190893650055 0.13631084561347961 0.14954443275928497 255.0 0.0 0.0
-0.18067128956317902 0.3083552420139313 0.0175094585865736 255.0 0.0 0.0
0.2774261236190796 -0.444823294878006 0.09621310234069824 255.0 0.0 0.0
-0.18884658813476562 0.4247491657733917 -0.07429729402065277 255.0 0.0 0.0
-0.27236297726631165 0.2114802598953247 0.1382875144481659 255.0 0.0 0.0
0.24824389815330505 0.36048734188079834 0.12517160177230835 255.0 0.0 0.0
0.23100154101848602 -0.24763140082359314 0.15047359466552734 255.0 0.0 0.0
-0.225323885679245 0.2936185598373413 -0.3654298186302185 255.0 0.0 0.0
-0.3314312696456909 -0.39230984449386597 0.04220721125602722 255.0 0.0 0.0
-0.16930991411209106 0.2292262613773346 0.006320887245237827 255.0 0.0 0.0
-0.003050002036616206 0.1612851768732071 0.1671096831560135 255.0 0.0 0.0
0.26059022545814514 0.36258891224861145 -0.08389930427074432 255.0 0.0 0.0
0.2725549042224884 0.24578255414962769 0.013290401548147202 255.0 0.0 0.0
-0.26301324367523193 0.2238403707742691 -0.13490645587444305 255.0 0.0 0.0
-0.16451266407966614 0.4665931165218353 -0.022391030564904213 255.0 0.0 0.0
0.23955586552619934 0.513080894947052 -0.012937462888658047 255.0 0.0 0.0
-0.014118947088718414 -0.19818280637264252 0.1547863483428955 255.0 0.0 0.0
-0.04379235580563545 0.2866678237915039 -0.2827630043029785 255.0 0.0 0.0
-0.19116874039173126 0.2974902093410492 -0.01373627781867981 255.0 0.0 0.0
0.16205213963985443 0.22790449857711792 -0.12304843962192535 255.0 0.0 0.0
0.0002958225377369672 0.17473268508911133 0.15340028703212738 255.0 0.0 0.0
0.27049195766448975 0.2958790957927704 0.009263042360544205 255.0 0.0 0.0
0.27853459119796753 0.21610167622566223 0.15620265901088715 255.0 0.0 0.0
0.1493045538663864 -0.23994261026382446 -0.136835977435112 255.0 0.0 0.0
-0.1431627869606018 0.31711432337760925 -0.3411520719528198 255.0 0.0 0.0
-0.06676805019378662 0.2323373258113861 0.14589780569076538 255.0 0.0 0.0
0.19437995553016663 -0.4227297902107239 0.2023003101348877 255.0 0.0 0.0
-0.021295636892318726 0.17424102127552032 -0.13203009963035583 255.0 0.0 0.0
0.2940237820148468 -0.24297118186950684 -0.007751225493848324 255.0 0.0 0.0
-0.21961498260498047 0.4901696443557739 -0.04307430237531662 255.0 0.0 0.0
-0.08197589218616486 -0.24351482093334198 -0.132381409406662 255.0 0.0 0.0
0.1697917878627777 -0.2587823271751404 0.0028178473003208637 255.0 0.0 0.0
-0.25119829177856445 -0.08695584535598755 -0.23444215953350067 255.0 0.0 0.0
0.2926030457019806 0.12537714838981628 0.15853171050548553 255.0 0.0 0.0
0.26276445388793945 -0.25150349736213684 0.018543219193816185 255.0 0.0 0.0
0.11286047846078873 0.176387220621109 0.15436109900474548 255.0 0.0 0.0
-0.28376010060310364 0.012288156896829605 -0.3091079294681549 255.0 0.0 0.0
0.24513860046863556 -0.41466546058654785 -0.09113793820142746 255.0 0.0 0.0
0.16755534708499908 -0.4455660879611969 0.17559191584587097 255.0 0.0 0.0
0.014648903161287308 0.09601689130067825 -0.14838120341300964 255.0 0.0 0.0
0.03294560685753822 0.25258323550224304 -0.25828060507774353 255.0 0.0 0.0
0.2748924195766449 0.3539641499519348 0.11589542031288147 255.0 0.0 0.0
-0.2184448391199112 -0.30349406599998474 -0.06788158416748047 255.0 0.0 0.0
0.2389841377735138 -0.24981503188610077 0.13711312413215637 255.0 0.0 0.0
-0.1386399120092392 0.2279137372970581 0.14545108377933502 255.0 0.0 0.0
0.21534408628940582 -0.4178403317928314 0.20326071977615356 255.0 0.0 0.0
-0.07443541288375854 0.22755901515483856 -0.1321672797203064 255.0 0.0 0.0
-0.23352999985218048 0.29991415143013 -0.014924482442438602 255.0 0.0 0.0
-0.2311403900384903 0.38111963868141174 -0.07770894467830658 255.0 0.0 0.0
0.14023438096046448 0.14880692958831787 0.16933797299861908 255.0 0.0 0.0
0.28430137038230896 0.02850738726556301 0.15632209181785583 255.0 0.0 0.0
-0.16588054597377777 0.22346732020378113 0.15615299344062805 255.0 0.0 0.0
0.29724669456481934 0.009745468385517597 0.14109186828136444 255.0 0.0 0.0
-0.1467665284872055 -0.2014249861240387 0.15529239177703857 255.0 0.0 0.0
-0.27060434222221375 -0.24480023980140686 -0.09784761816263199 255.0 0.0 0.0
-0.030380193144083023 -0.24948342144489288 -0.1245330199599266 255.0 0.0 0.0
-0.27548760175704956 0.1329677700996399 -0.3306514024734497 255.0 0.0 0.0
-0.21394343674182892 -0.18726427853107452 0.15812046825885773 255.0 0.0 0.0
0.20175442099571228 0.40086984634399414 0.1062692180275917 255.0 0.0 0.0
-0.08669465035200119 -0.19617292284965515 0.1498117297887802 255.0 0.0 0.0
0.15281854569911957 -0.4428366422653198 -0.012066777795553207 255.0 0.0 0.0
0.16911572217941284 0.16716411709785461 0.15660589933395386 255.0 0.0 0.0
-0.21838027238845825 0.22762531042099 0.1583326905965805 255.0 0.0 0.0
-0.20809528231620789 0.47752103209495544 0.10156663507223129 255.0 0.0 0.0
0.30060482025146484 -0.06000831723213196 0.1466013491153717 255.0 0.0 0.0
0.23421943187713623 -0.2893105149269104 -0.06714276224374771 255.0 0.0 0.0
-0.16106046736240387 0.2220618724822998 -0.13494032621383667 255.0 0.0 0.0
0.11215570569038391 0.1722322553396225 0.14968355000019073 255.0 0.0 0.0
0.2960584759712219 0.10484915226697922 0.1454119235277176 255.0 0.0 0.0
0.21024776995182037 0.29930201172828674 0.02615496516227722 255.0 0.0 0.0
-0.21514271199703217 -0.4202442765235901 0.16599734127521515 255.0 0.0 0.0
-0.21177810430526733 -0.18518255650997162 0.1632288694381714 255.0 0.0 0.0
0.18213118612766266 0.21909409761428833 0.15632209181785583 255.0 0.0 0.0
0.2370511293411255 -0.1892084777355194 0.15756440162658691 255.0 0.0 0.0
0.1404639333486557 -0.441983699798584 0.05934491381049156 255.0 0.0 0.0
-0.1926458328962326 -0.41390854120254517 0.10959184914827347 255.0 0.0 0.0
0.2349061667919159 -0.44284191727638245 -0.07725118100643158 255.0 0.0 0.0
0.2839709520339966 -0.40567469596862793 0.1818864494562149 255.0 0.0 0.0
0.20579794049263 -0.2471960037946701 -0.13392190635204315 255.0 0.0 0.0
0.032028984278440475 0.21777595579624176 -0.23706592619419098 255.0 0.0 0.0
-0.20961755514144897 -0.2890579402446747 0.07886704802513123 255.0 0.0 0.0
-0.21427199244499207 0.39243078231811523 0.09186414629220963 255.0 0.0 0.0
-0.21733316779136658 -0.4366365671157837 0.15614010393619537 255.0 0.0 0.0
-0.26385459303855896 0.11175807565450668 -0.2865172028541565 255.0 0.0 0.0
0.2473927140235901 0.2689230740070343 -0.018583523109555244 255.0 0.0 0.0
0.04426471143960953 0.2539327144622803 -0.21526145935058594 255.0 0.0 0.0
-0.014261199161410332 0.17021870613098145 -0.13200430572032928 255.0 0.0 0.0
-0.14933063089847565 -0.2567114233970642 0.03678795322775841 255.0 0.0 0.0
-0.2569218873977661 -0.2418726086616516 0.15632209181785583 255.0 0.0 0.0
0.28930068016052246 -0.16827704012393951 0.1568835824728012 255.0 0.0 0.0
-0.21122384071350098 0.17044755816459656 0.15369945764541626 255.0 0.0 0.0
-0.03411218896508217 -0.24800537526607513 0.1545599102973938 255.0 0.0 0.0
0.2853970229625702 -0.24915587902069092 0.048420242965221405 255.0 0.0 0.0
-0.17578022181987762 -0.2520484924316406 -0.12362313270568848 255.0 0.0 0.0
0.17115436494350433 -0.2528562545776367 0.042805902659893036 255.0 0.0 0.0
-0.18154294788837433 0.39631080627441406 0.0907355323433876 255.0 0.0 0.0
-0.18967831134796143 0.3382680416107178 -0.33251914381980896 255.0 0.0 0.0
0.2524532973766327 -0.17930708825588226 0.15118274092674255 255.0 0.0 0.0
-0.2705495059490204 0.09259316325187683 -0.13366709649562836 255.0 0.0 0.0
0.24049244821071625 -0.2596994936466217 0.07018116861581802 255.0 0.0 0.0
-0.3291368782520294 -0.343239426612854 0.13696175813674927 255.0 0.0 0.0
0.24500633776187897 0.47090086340904236 -0.07680919766426086 255.0 0.0 0.0
0.2545802593231201 -0.44011226296424866 0.20215480029582977 255.0 0.0 0.0
-0.05555588752031326 -0.23675666749477386 -0.13361771404743195 255.0 0.0 0.0
0.03005993738770485 -0.1886688619852066 0.1583491563796997 255.0 0.0 0.0
-0.2549026310443878 0.46356573700904846 0.11544126272201538 255.0 0.0 0.0
-0.20232293009757996 0.17563936114311218 0.149253249168396 255.0 0.0 0.0
-0.27101272344589233 0.21173834800720215 -0.05001971498131752 255.0 0.0 0.0
-0.03212999552488327 0.18442241847515106 -0.16041076183319092 255.0 0.0 0.0
-0.27868860960006714 0.17581568658351898 -0.303455114364624 255.0 0.0 0.0
-0.20955222845077515 -0.289676696062088 -0.06468722224235535 255.0 0.0 0.0
-0.33478859066963196 -0.3651260435581207 0.12065636366605759 255.0 0.0 0.0
-0.230233833193779 0.2787395119667053 -0.014923467300832272 255.0 0.0 0.0
-0.2679280936717987 0.08889683336019516 -0.32032930850982666 255.0 0.0 0.0
0.25660625100135803 0.5104333162307739 -0.014716661535203457 255.0 0.0 0.0
0.09031884372234344 0.15202753245830536 0.17257197201251984 255.0 0.0 0.0
-0.27145645022392273 -0.02077755704522133 -0.12756212055683136 255.0 0.0 0.0
-0.2890844941139221 0.003947875462472439 -0.24611783027648926 255.0 0.0 0.0
0.23041339218616486 0.5168418884277344 0.048572469502687454 255.0 0.0 0.0
-0.25534239411354065 -0.05231303721666336 0.15631766617298126 255.0 0.0 0.0
-0.2556867301464081 -0.2530120313167572 0.013817357830703259 255.0 0.0 0.0
-0.24889235198497772 0.2452402412891388 0.020512880757451057 255.0 0.0 0.0
-0.22975632548332214 -0.2563888132572174 -0.02440149337053299 255.0 0.0 0.0
-0.33118072152137756 -0.3499656617641449 0.12139474600553513 255.0 0.0 0.0
0.2748412489891052 0.3493168354034424 0.10575501620769501 255.0 0.0 0.0
0.2847391963005066 0.2277291715145111 0.09944499284029007 255.0 0.0 0.0
0.02800188958644867 0.22546741366386414 0.14604884386062622 255.0 0.0 0.0
-0.045543503016233444 0.1325647383928299 -0.13546332716941833 255.0 0.0 0.0
0.25622886419296265 -0.24492551386356354 -0.13559114933013916 255.0 0.0 0.0
0.25506967306137085 -0.25275641679763794 0.06899838149547577 255.0 0.0 0.0
-0.2230263501405716 0.012201778590679169 0.15529175102710724 255.0 0.0 0.0
0.29545411467552185 -0.2501707375049591 0.07880520820617676 255.0 0.0 0.0
0.208770751953125 0.290406197309494 0.011933489702641964 255.0 0.0 0.0
-0.1877717226743698 0.40182849764823914 0.08903995901346207 255.0 0.0 0.0
0.21184861660003662 0.40298697352409363 -0.08798740059137344 255.0 0.0 0.0
-0.25662001967430115 0.22608183324337006 -0.1318894773721695 255.0 0.0 0.0
0.06368318945169449 0.14216817915439606 -0.13506805896759033 255.0 0.0 0.0
0.29630836844444275 0.06370382010936737 0.1491219848394394 255.0 0.0 0.0
0.14917774498462677 0.22839562594890594 0.15103688836097717 255.0 0.0 0.0
0.1568523496389389 -0.4357086718082428 -0.03965480625629425 255.0 0.0 0.0
-0.2759919762611389 -0.05144532024860382 -0.2229582518339157 255.0 0.0 0.0
-0.246442973613739 0.324314147233963 -0.005550071131438017 255.0 0.0 0.0
-0.23683872818946838 0.26426130533218384 0.026915384456515312 255.0 0.0 0.0
0.29133638739585876 -0.12735649943351746 -0.13506805896759033 255.0 0.0 0.0
0.2817336320877075 0.07121068239212036 0.15505674481391907 255.0 0.0 0.0
-0.24868467450141907 -0.2521226406097412 0.02543085813522339 255.0 0.0 0.0
-0.2667770981788635 -0.06120207905769348 0.14896616339683533 255.0 0.0 0.0
0.18889667093753815 0.3443060517311096 -0.03481494262814522 255.0 0.0 0.0
0.06799013167619705 0.14323019981384277 -0.13506805896759033 255.0 0.0 0.0
-0.14308111369609833 -0.25414374470710754 0.014707755297422409 255.0 0.0 0.0
0.10292837023735046 0.22677379846572876 0.15049786865711212 255.0 0.0 0.0
-0.10557559877634048 0.16622039675712585 0.15761785209178925 255.0 0.0 0.0
0.29619723558425903 -0.13760609924793243 0.1561838984489441 255.0 0.0 0.0
0.24814346432685852 -0.17326760292053223 0.16009393334388733 255.0 0.0 0.0
0.20868143439292908 0.22610385715961456 0.014027141034603119 255.0 0.0 0.0
0.1661512553691864 0.22728797793388367 0.14334765076637268 255.0 0.0 0.0
-0.07759440690279007 0.22072620689868927 0.15632209181785583 255.0 0.0 0.0
0.2378826141357422 -0.2789197266101837 -0.05707576498389244 255.0 0.0 0.0
0.25543344020843506 0.26670193672180176 -0.01614072360098362 255.0 0.0 0.0
-0.27112478017807007 -0.17074814438819885 -0.128493994474411 255.0 0.0 0.0
-0.17754292488098145 0.47762808203697205 0.10535335540771484 255.0 0.0 0.0
-0.2596277892589569 -0.05590799078345299 -0.22207553684711456 255.0 0.0 0.0
0.03715088590979576 -0.24202598631381989 0.15650373697280884 255.0 0.0 0.0
0.2972283661365509 0.18813011050224304 0.14792951941490173 255.0 0.0 0.0
-0.19874800741672516 -0.24320705235004425 -0.13677439093589783 255.0 0.0 0.0
0.25689685344696045 0.21714341640472412 -0.13414499163627625 255.0 0.0 0.0
-0.034254059195518494 0.1421573907136917 -0.18951690196990967 255.0 0.0 0.0
-0.2624996602535248 0.22594231367111206 0.08077815920114517 255.0 0.0 0.0
-0.2468883991241455 -0.04096111282706261 -0.2828274369239807 255.0 0.0 0.0
-0.2174965888261795 -0.3263894021511078 -0.07623077183961868 255.0 0.0 0.0
-0.00242358585819602 0.29748207330703735 -0.2848193943500519 255.0 0.0 0.0
-0.02730436623096466 0.18716676533222198 -0.15148356556892395 255.0 0.0 0.0
-0.25994402170181274 -0.04172166436910629 0.15632209181785583 255.0 0.0 0.0
0.030474785715341568 0.1082351803779602 -0.1329432725906372 255.0 0.0 0.0
-0.049532026052474976 0.3268291652202606 -0.2990213930606842 255.0 0.0 0.0
-0.26881933212280273 -0.07987004518508911 -0.2200641930103302 255.0 0.0 0.0
0.25048425793647766 -0.14434674382209778 0.1576249599456787 255.0 0.0 0.0
-0.23032169044017792 -0.09010791033506393 0.15240655839443207 255.0 0.0 0.0
-0.22927705943584442 -0.3303862512111664 -0.0836368128657341 255.0 0.0 0.0
-0.17002235352993011 0.22679738700389862 -0.01933293230831623 255.0 0.0 0.0
-0.313850462436676 -0.3989816904067993 -0.07471024990081787 255.0 0.0 0.0
-0.2037970870733261 0.25044021010398865 0.04946165531873703 255.0 0.0 0.0
0.04853920638561249 0.21504512429237366 -0.23163646459579468 255.0 0.0 0.0
0.2929023206233978 0.22697216272354126 0.1170496866106987 255.0 0.0 0.0
-0.24435174465179443 -0.24986152350902557 0.014048034325242043 255.0 0.0 0.0
0.29573243856430054 0.220783069729805 0.15194302797317505 255.0 0.0 0.0
0.2685081958770752 -0.3392738401889801 0.11611705273389816 255.0 0.0 0.0
-0.2731826603412628 -0.23734761774539948 0.009790043346583843 255.0 0.0 0.0
-0.23501193523406982 -0.23280419409275055 0.15632209181785583 255.0 0.0 0.0
0.17015911638736725 -0.2513229250907898 0.04835040494799614 255.0 0.0 0.0
0.266252726316452 0.24637803435325623 -0.013008875772356987 255.0 0.0 0.0
-0.23316437005996704 0.0669867992401123 0.15389421582221985 255.0 0.0 0.0
0.035165660083293915 0.2565845847129822 -0.2543478310108185 255.0 0.0 0.0
0.2824270725250244 -0.25006669759750366 0.11328621208667755 255.0 0.0 0.0
-0.039553139358758926 0.30073150992393494 -0.2562866806983948 255.0 0.0 0.0
-0.25775113701820374 -0.08998902887105942 -0.23271410167217255 255.0 0.0 0.0
-0.26704826951026917 -0.22062323987483978 0.15630516409873962 255.0 0.0 0.0
-0.053058553487062454 -0.2497318834066391 0.14413894712924957 255.0 0.0 0.0
-0.2120279222726822 0.5044535398483276 0.07377159595489502 255.0 0.0 0.0
0.285226047039032 0.020433630794286728 -0.13476985692977905 255.0 0.0 0.0
0.12744148075580597 0.17681601643562317 0.15466086566448212 255.0 0.0 0.0
-0.08095326274633408 0.22754397988319397 -0.12778939306735992 255.0 0.0 0.0
-0.2360127717256546 -0.02139805443584919 0.15407444536685944 255.0 0.0 0.0
-0.30042019486427307 -0.41736000776290894 -0.08847107738256454 255.0 0.0 0.0
-0.27378568053245544 0.20777150988578796 -0.3496246635913849 255.0 0.0 0.0
0.2588992118835449 -0.4382994472980499 -0.07932107895612717 255.0 0.0 0.0
-0.25970450043678284 0.45344045758247375 0.10287950932979584 255.0 0.0 0.0
0.13429512083530426 -0.4376561939716339 0.08710785955190659 255.0 0.0 0.0
-0.18253126740455627 0.46668022871017456 0.10310013592243195 255.0 0.0 0.0
0.27703121304512024 -0.4449772536754608 0.1334998905658722 255.0 0.0 0.0
-0.19035498797893524 0.22256140410900116 -0.1353761851787567 255.0 0.0 0.0
0.02675442025065422 -0.20527176558971405 0.15395691990852356 255.0 0.0 0.0
-0.00790911354124546 0.22778892517089844 -0.1798776090145111 255.0 0.0 0.0
0.030830804258584976 -0.17259874939918518 0.1676536351442337 255.0 0.0 0.0
-0.17588628828525543 0.4866839349269867 0.0018244409002363682 255.0 0.0 0.0
-0.1938963681459427 0.4976098835468292 0.08955943584442139 255.0 0.0 0.0
-0.2900879979133606 -0.4579196572303772 -0.07319093495607376 255.0 0.0 0.0
0.2656732499599457 0.25811564922332764 0.005006003193557262 255.0 0.0 0.0
0.023522162809967995 0.11587807536125183 -0.20657075941562653 255.0 0.0 0.0
-0.17427845299243927 -0.2568684220314026 0.06362784653902054 255.0 0.0 0.0
-0.2706403136253357 0.21155203878879547 -0.1251601278781891 255.0 0.0 0.0
0.1573774814605713 0.22873955965042114 -0.1227327510714531 255.0 0.0 0.0
-0.134275421500206 -0.24150267243385315 0.15632209181785583 255.0 0.0 0.0
-0.0829615518450737 -0.16887812316417694 0.16683712601661682 255.0 0.0 0.0
-0.25641077756881714 0.2100006490945816 -0.3262442350387573 255.0 0.0 0.0
-0.16259901225566864 0.18046332895755768 0.15664616227149963 255.0 0.0 0.0
0.2257140427827835 -0.4400641918182373 0.2056901901960373 255.0 0.0 0.0
-0.2230840027332306 -0.43346965312957764 0.1705467253923416 255.0 0.0 0.0
0.056658219546079636 0.1379249393939972 -0.193976029753685 255.0 0.0 0.0
-0.2615533173084259 -0.025134770199656487 -0.3008421063423157 255.0 0.0 0.0
0.058195509016513824 0.1830352544784546 -0.16181713342666626 255.0 0.0 0.0
-0.27235230803489685 -0.18066079914569855 -0.12617012858390808 255.0 0.0 0.0
-0.01935151033103466 0.15800151228904724 -0.2096477895975113 255.0 0.0 0.0
0.18547400832176208 -0.18742990493774414 0.16015097498893738 255.0 0.0 0.0
0.23066020011901855 -0.3066605031490326 -0.07097448408603668 255.0 0.0 0.0
0.28681156039237976 -0.1558239609003067 -0.13709516823291779 255.0 0.0 0.0
-0.2718513011932373 0.005983864888548851 -0.13396373391151428 255.0 0.0 0.0
-0.2553783655166626 0.20279428362846375 -0.13506805896759033 255.0 0.0 0.0
0.0659482553601265 0.1424473226070404 -0.1422223597764969 255.0 0.0 0.0
0.26585379242897034 0.2628374993801117 -0.00283359014429152 255.0 0.0 0.0
-0.1639581024646759 0.3740631341934204 0.09341356158256531 255.0 0.0 0.0
-0.2257564216852188 -0.45392680168151855 0.12499862164258957 255.0 0.0 0.0
0.23257355391979218 0.2777971029281616 -0.0223093144595623 255.0 0.0 0.0
0.21493981778621674 0.39478299021720886 0.10282021760940552 255.0 0.0 0.0
0.2837456166744232 -0.3858402371406555 0.1590973436832428 255.0 0.0 0.0
-0.2713037431240082 -0.23556192219257355 -0.023277750238776207 255.0 0.0 0.0
0.24529044330120087 -0.0896618440747261 0.1645481288433075 255.0 0.0 0.0
-0.027545135468244553 0.2206159383058548 -0.1861988753080368 255.0 0.0 0.0
-0.15081404149532318 0.22660738229751587 0.145504891872406 255.0 0.0 0.0
-0.2720564901828766 0.22589850425720215 0.05998481437563896 255.0 0.0 0.0
-0.04314306750893593 0.3001156151294708 -0.3028697669506073 255.0 0.0 0.0
0.027234766632318497 0.18240861594676971 -0.13914696872234344 255.0 0.0 0.0
0.02094029076397419 0.21283069252967834 0.1552267223596573 255.0 0.0 0.0
-0.2433728128671646 -0.2511780858039856 0.03853174299001694 255.0 0.0 0.0
0.053451135754585266 0.1596709042787552 -0.13506805896759033 255.0 0.0 0.0
0.29397445917129517 0.226531982421875 0.1458563655614853 255.0 0.0 0.0
0.28743597865104675 -0.4408300518989563 0.13865159451961517 255.0 0.0 0.0
-0.1604122668504715 0.22689080238342285 0.02129499800503254 255.0 0.0 0.0
0.2972526550292969 0.042856812477111816 -0.11761163920164108 255.0 0.0 0.0
0.21909822523593903 0.43355053663253784 0.09999175369739532 255.0 0.0 0.0
-0.31069421768188477 -0.4010624885559082 -0.07795694470405579 255.0 0.0 0.0
0.29640838503837585 -0.23040278255939484 0.14512383937835693 255.0 0.0 0.0
0.04853231832385063 0.22853291034698486 -0.12030868232250214 255.0 0.0 0.0
-0.2622186541557312 0.2598467767238617 -0.35893383622169495 255.0 0.0 0.0
0.28787145018577576 0.035874005407094955 -0.13252438604831696 255.0 0.0 0.0
-0.3341388404369354 -0.391874760389328 -0.014580396004021168 255.0 0.0 0.0
0.2872390151023865 -0.14620494842529297 -0.13506805896759033 255.0 0.0 0.0
-0.18589721620082855 0.22946646809577942 0.05386355146765709 255.0 0.0 0.0
-0.287003755569458 0.1177012100815773 -0.30857545137405396 255.0 0.0 0.0
-0.2633543312549591 -0.2498679757118225 -0.04003556817770004 255.0 0.0 0.0
0.1945611834526062 -0.4417586028575897 -0.07227250933647156 255.0 0.0 0.0
-0.22032375633716583 -0.16716521978378296 0.1620417833328247 255.0 0.0 0.0
-0.13520990312099457 -0.23680545389652252 0.15647748112678528 255.0 0.0 0.0
0.29526373744010925 -0.10511203855276108 0.14396034181118011 255.0 0.0 0.0
-0.2507786750793457 -0.2519729435443878 0.008053972385823727 255.0 0.0 0.0
-0.27465465664863586 0.2198922038078308 -0.07568570226430893 255.0 0.0 0.0
-0.17231397330760956 0.3428475856781006 0.050602126866579056 255.0 0.0 0.0
-0.1703079640865326 0.23072846233844757 0.01561108510941267 255.0 0.0 0.0
-0.258515864610672 -0.235923171043396 0.15911370515823364 255.0 0.0 0.0
-0.273377001285553 -0.2336030900478363 -0.049275610595941544 255.0 0.0 0.0
-0.24911095201969147 0.42320743203163147 -0.06451103091239929 255.0 0.0 0.0
-0.19019809365272522 -0.2584109604358673 0.07212737202644348 255.0 0.0 0.0
-0.17878346145153046 0.2285565584897995 -0.13005615770816803 255.0 0.0 0.0
0.1541506052017212 -0.44531068205833435 0.14562582969665527 255.0 0.0 0.0
0.2174544632434845 0.24867628514766693 0.03691718354821205 255.0 0.0 0.0
0.05632011219859123 0.11996548622846603 -0.17841322720050812 255.0 0.0 0.0
0.18153801560401917 -0.255759060382843 0.0473925843834877 255.0 0.0 0.0
-0.2678048610687256 0.05669770389795303 -0.13506755232810974 255.0 0.0 0.0
-0.1505173295736313 0.22226251661777496 -0.1344502717256546 255.0 0.0 0.0
0.2570263743400574 0.35155266523361206 -0.07712063938379288 255.0 0.0 0.0
-0.2707524597644806 0.21591010689735413 0.010759980417788029 255.0 0.0 0.0
-0.23456425964832306 -0.2931242883205414 0.08614986389875412 255.0 0.0 0.0
-0.33439332246780396 -0.36367297172546387 0.1354772299528122 255.0 0.0 0.0
-0.1978992521762848 0.4902535676956177 0.10598243772983551 255.0 0.0 0.0
0.26879480481147766 0.2387746423482895 0.025157244876027107 255.0 0.0 0.0
0.23468345403671265 0.21889972686767578 0.1531553566455841 255.0 0.0 0.0
0.21673113107681274 0.468881756067276 -0.07312342524528503 255.0 0.0 0.0
0.21922753751277924 0.15748849511146545 0.17116259038448334 255.0 0.0 0.0
0.048566173762083054 0.11345023661851883 -0.13506805896759033 255.0 0.0 0.0
0.19914406538009644 -0.44603845477104187 0.1888362020254135 255.0 0.0 0.0
-0.28572022914886475 0.11575006693601608 -0.3086816072463989 255.0 0.0 0.0
0.2987113296985626 0.22169971466064453 -0.0034861285239458084 255.0 0.0 0.0
0.293265163898468 -0.19126872718334198 0.15631316602230072 255.0 0.0 0.0
-0.23459912836551666 0.34124496579170227 -0.05120934173464775 255.0 0.0 0.0
0.14272558689117432 -0.19295457005500793 0.15199801325798035 255.0 0.0 0.0
0.2105647176504135 0.5082787871360779 0.08494043350219727 255.0 0.0 0.0
0.22552619874477386 -0.24847014248371124 0.14368264377117157 255.0 0.0 0.0
0.20044413208961487 -0.2350417822599411 -0.13572168350219727 255.0 0.0 0.0
-0.15295515954494476 0.3192177414894104 -0.3303859233856201 255.0 0.0 0.0
-0.1549524962902069 0.35762861371040344 0.02164674550294876 255.0 0.0 0.0
-0.013779804110527039 0.20061354339122772 -0.16161513328552246 255.0 0.0 0.0
0.2647312581539154 0.3621317744255066 -0.08126083761453629 255.0 0.0 0.0
0.263166606426239 -0.43924927711486816 -0.06433894485235214 255.0 0.0 0.0
0.2551610767841339 0.16096381843090057 0.15536078810691833 255.0 0.0 0.0
-0.2105143815279007 0.47594889998435974 -0.062115445733070374 255.0 0.0 0.0
-0.015903212130069733 0.27207571268081665 -0.2224990427494049 255.0 0.0 0.0
0.2835342586040497 -0.21771946549415588 -0.1328829973936081 255.0 0.0 0.0
