-0.26493242383003235 -0.09677482396364212 -0.2601958215236664 255.0 0.0 0.0
-0.26876866817474365 0.0866955891251564 -0.2700309753417969 255.0 0.0 0.0
0.28318387269973755 0.22834064066410065 -0.0003839039127342403 255.0 0.0 0.0
0.15246914327144623 -0.4135063886642456 0.170712411403656 255.0 0.0 0.0
0.18754442036151886 0.3453395366668701 0.07289475202560425 255.0 0.0 0.0
0.2907695472240448 0.10803414136171341 -0.13506805896759033 255.0 0.0 0.0
0.22982396185398102 0.14930492639541626 0.16976825892925262 255.0 0.0 0.0
-0.24074183404445648 -0.2515423893928528 -0.007346924860030413 255.0 0.0 0.0
-0.18209311366081238 0.17190906405448914 0.15293923020362854 255.0 0.0 0.0
-0.29500436782836914 -0.36774343252182007 0.2078789323568344 255.0 0.0 0.0
0.24344249069690704 0.49517822265625 -0.0572034977376461 255.0 0.0 0.0
-0.06608044356107712 0.22752432525157928 -0.12911081314086914 255.0 0.0 0.0
0.2962115705013275 -0.23655055463314056 -0.09239233285188675 255.0 0.0 0.0
-0.26965993642807007 0.22270822525024414 -0.08501473814249039 255.0 0.0 0.0
-0.2655028998851776 -0.20450140535831451 0.1511639803647995 255.0 0.0 0.0
0.23221634328365326 0.04657047986984253 0.16940195858478546 255.0 0.0 0.0
-0.2683139145374298 0.22571615874767303 -0.3553101420402527 255.0 0.0 0.0
0.2000521868467331 0.4646695554256439 0.11282932758331299 255.0 0.0 0.0
-0.216356560587883 0.39492928981781006 -0.08255597203969955 255.0 0.0 0.0
-0.22976194322109222 -0.45804983377456665 0.11975938826799393 255.0 0.0 0.0
0.2902371883392334 -0.4292283058166504 0.164503812789917 255.0 0.0 0.0
-0.3390331566333771 -0.3938760459423065 0.008016860112547874 255.0 0.0 0.0
-0.2260662019252777 0.35335075855255127 0.10651955753564835 255.0 0.0 0.0
-0.21424600481987 0.005621808581054211 0.1709543913602829 255.0 0.0 0.0
0.2507356107234955 0.1584942638874054 0.15658444166183472 255.0 0.0 0.0
0.2144438773393631 -0.26068979501724243 -0.05392841622233391 255.0 0.0 0.0
0.28301990032196045 0.478976309299469 0.12951138615608215 255.0 0.0 0.0
0.29216083884239197 -0.24866552650928497 -0.10318057239055634 255.0 0.0 0.0
0.19152851402759552 0.39989858865737915 0.11609342694282532 255.0 0.0 0.0
-0.31054994463920593 -0.421267032623291 -0.08396248519420624 255.0 0.0 0.0
-0.03190422058105469 0.17284418642520905 -0.14367711544036865 255.0 0.0 0.0
0.25169825553894043 -0.292007714509964 -0.05596308037638664 255.0 0.0 0.0
0.08915996551513672 -0.17010286450386047 0.16977910697460175 255.0 0.0 0.0
-0.2609746754169464 -0.005985473282635212 -0.30868980288505554 255.0 0.0 0.0
0.24653513729572296 0.34082210063934326 -0.0701511800289154 255.0 0.0 0.0
0.09997012466192245 -0.1824413686990738 0.16707758605480194 255.0 0.0 0.0
-0.14294658601284027 -0.24955831468105316 -0.11812882870435715 255.0 0.0 0.0
0.026070134714245796 0.2226288616657257 0.15575392544269562 255.0 0.0 0.0
-0.26158004999160767 0.4505443871021271 0.11300531029701233 255.0 0.0 0.0
-0.012069346383213997 0.2783665060997009 -0.22406354546546936 255.0 0.0 0.0
-0.00014715864381287247 0.11690769344568253 -0.20590455830097198 255.0 0.0 0.0
-0.23808832466602325 -0.2977585792541504 0.09019487351179123 255.0 0.0 0.0
-0.22278596460819244 0.27614662051200867 0.039081599563360214 255.0 0.0 0.0
0.2972581684589386 -0.24333655834197998 0.10442794859409332 255.0 0.0 0.0
-0.039824292063713074 0.14175103604793549 -0.14702022075653076 255.0 0.0 0.0
0.2780306041240692 -0.43423542380332947 -0.0470002144575119 255.0 0.0 0.0
0.238913431763649 -0.2412327229976654 0.15646502375602722 255.0 0.0 0.0
-0.1453797072172165 -0.19437268376350403 0.1500225067138672 255.0 0.0 0.0
-0.3406606912612915 -0.3616560399532318 0.12416868656873703 255.0 0.0 0.0
0.28032901883125305 0.35267966985702515 -0.05670086294412613 255.0 0.0 0.0
-0.010958189144730568 -0.18717852234840393 0.16175168752670288 255.0 0.0 0.0
-0.24086575210094452 0.31789523363113403 -0.34257614612579346 255.0 0.0 0.0
-0.17124491930007935 0.4609909653663635 0.09673092514276505 255.0 0.0 0.0
-0.2604999542236328 0.347706139087677 0.03900732100009918 255.0 0.0 0.0
0.24902284145355225 0.07399013638496399 0.15682381391525269 255.0 0.0 0.0
0.2986006438732147 -0.24144364893436432 0.14323844015598297 255.0 0.0 0.0
0.21121801435947418 0.29716578125953674 0.02955068275332451 255.0 0.0 0.0
-0.17753966152668 0.24697214365005493 0.0186526570469141 255.0 0.0 0.0
-0.015371235087513924 0.2917111814022064 -0.24155780673027039 255.0 0.0 0.0
0.1636064201593399 -0.4321165978908539 -0.04902345687150955 255.0 0.0 0.0
-0.25975728034973145 0.05959014222025871 -0.31238293647766113 255.0 0.0 0.0
0.2819269299507141 -0.22338703274726868 0.15632209181785583 255.0 0.0 0.0
-0.0741182342171669 0.22930370271205902 0.14645330607891083 255.0 0.0 0.0
-0.26422977447509766 0.0714661031961441 -0.3175916075706482 255.0 0.0 0.0
0.28816020488739014 -0.1747412234544754 -0.13518905639648438 255.0 0.0 0.0
-0.21676158905029297 -0.09229754656553268 0.1665903478860855 255.0 0.0 0.0
-0.27117621898651123 0.25672435760498047 -0.3292604684829712 255.0 0.0 0.0
0.05932532995939255 0.1433292031288147 -0.19502322375774384 255.0 0.0 0.0
0.2724108099937439 0.22256995737552643 0.15628178417682648 255.0 0.0 0.0
0.27593398094177246 0.4340927004814148 -0.0757601335644722 255.0 0.0 0.0
0.19925400614738464 -0.2517086863517761 0.06485506892204285 255.0 0.0 0.0
-0.2630573511123657 0.2883230149745941 -0.3390785753726959 255.0 0.0 0.0
0.24707402288913727 -0.11615052819252014 0.15741895139217377 255.0 0.0 0.0
-0.2213083654642105 -0.3370073735713959 -0.07973384112119675 255.0 0.0 0.0
-0.22108224034309387 -0.2430426925420761 -0.13596943020820618 255.0 0.0 0.0
0.20325802266597748 -0.4461212158203125 0.18909446895122528 255.0 0.0 0.0
-0.19437512755393982 0.4210135042667389 0.08746998012065887 255.0 0.0 0.0
0.28870195150375366 0.04655145853757858 -0.13506805896759033 255.0 0.0 0.0
0.2789214253425598 0.22816956043243408 -0.03935539722442627 255.0 0.0 0.0
0.19588302075862885 0.49580565094947815 0.08529473841190338 255.0 0.0 0.0
0.2972581684589386 0.2161446213722229 -0.10046740621328354 255.0 0.0 0.0
0.29724565148353577 0.16174791753292084 -0.12022550404071808 255.0 0.0 0.0
-0.24309270083904266 0.24474890530109406 -0.016471197828650475 255.0 0.0 0.0
0.03990565985441208 0.1268014758825302 -0.2055903822183609 255.0 0.0 0.0
0.1553046703338623 0.16413548588752747 0.1612461358308792 255.0 0.0 0.0
-0.28847795724868774 -0.40761008858680725 -0.09278561919927597 255.0 0.0 0.0
0.15894195437431335 -0.25316378474235535 0.0074062650091946125 255.0 0.0 0.0
0.29717808961868286 0.0796884149312973 0.15212322771549225 255.0 0.0 0.0
0.2290739119052887 0.45322227478027344 -0.08481543511152267 255.0 0.0 0.0
0.2290218323469162 0.14533227682113647 0.16985562443733215 255.0 0.0 0.0
-0.2611093819141388 0.44212332367897034 0.1149522140622139 255.0 0.0 0.0
0.2838969826698303 -0.4241381585597992 0.1882859319448471 255.0 0.0 0.0
0.194541797041893 -0.2697421908378601 -0.04526671767234802 255.0 0.0 0.0
-0.1749466508626938 0.4756585657596588 0.10437445342540741 255.0 0.0 0.0
0.18132299184799194 0.21201257407665253 0.1581685096025467 255.0 0.0 0.0
-0.26929140090942383 -0.01632959023118019 0.15636511147022247 255.0 0.0 0.0
0.29487091302871704 -0.012031212449073792 -0.1281164139509201 255.0 0.0 0.0
0.2828959822654724 0.2278890460729599 -0.06438585370779037 255.0 0.0 0.0
-0.28450366854667664 0.087657131254673 -0.312957763671875 255.0 0.0 0.0
-0.25736841559410095 -0.028315426781773567 -0.30082619190216064 255.0 0.0 0.0
-0.2865644693374634 0.21221835911273956 -0.32737791538238525 255.0 0.0 0.0
0.15374159812927246 -0.24813339114189148 0.14088645577430725 255.0 0.0 0.0
-0.21958908438682556 0.48466330766677856 -0.04603803902864456 255.0 0.0 0.0
-0.16690702736377716 -0.2540247142314911 0.05937143415212631 255.0 0.0 0.0
0.27858051657676697 0.228248730301857 -0.030187688767910004 255.0 0.0 0.0
0.14111076295375824 0.22522349655628204 -0.12048815190792084 255.0 0.0 0.0
0.23334597051143646 0.1455780267715454 0.16882644593715668 255.0 0.0 0.0
-0.20578262209892273 0.41457611322402954 -0.08364692330360413 255.0 0.0 0.0
0.06953945755958557 0.14608079195022583 -0.13506805896759033 255.0 0.0 0.0
-0.28830811381340027 0.028962399810552597 -0.2530713677406311 255.0 0.0 0.0
-0.0248576570302248 -0.2510175108909607 0.14492428302764893 255.0 0.0 0.0
-0.22675521671772003 0.4043622612953186 0.09284598380327225 255.0 0.0 0.0
-0.16853339970111847 -0.24703621864318848 0.15383891761302948 255.0 0.0 0.0
0.29500532150268555 -0.2501188814640045 -0.06112971156835556 255.0 0.0 0.0
-0.2839900553226471 -0.00897638127207756 -0.30447113513946533 255.0 0.0 0.0
-0.19621607661247253 0.33636870980262756 -0.34091615676879883 255.0 0.0 0.0
-0.007783873472362757 0.2214534729719162 0.15764562785625458 255.0 0.0 0.0
-0.15769827365875244 -0.2951304018497467 7.576138159492984e-05 255.0 0.0 0.0
0.052181944251060486 -0.23355430364608765 -0.13353563845157623 255.0 0.0 0.0
-0.25106731057167053 0.22574615478515625 -0.3503401577472687 255.0 0.0 0.0
-0.22392821311950684 -0.47542861104011536 0.010932660661637783 255.0 0.0 0.0
-0.26320651173591614 0.021340634673833847 0.154326930642128 255.0 0.0 0.0
-0.06911050528287888 0.216717928647995 -0.13506805896759033 255.0 0.0 0.0
-0.22843776643276215 -0.00942573044449091 0.15054048597812653 255.0 0.0 0.0
-0.13751813769340515 -0.24614854156970978 0.15398412942886353 255.0 0.0 0.0
-0.262527197599411 0.2242158055305481 -0.06891406327486038 255.0 0.0 0.0
-0.06331480294466019 -0.24256457388401031 0.15632209181785583 255.0 0.0 0.0
0.1973048448562622 0.49133965373039246 -0.01589789241552353 255.0 0.0 0.0
0.2660546600818634 0.2595708668231964 -0.002717899391427636 255.0 0.0 0.0
0.26695388555526733 0.3053150177001953 0.03515462204813957 255.0 0.0 0.0
-0.11131662875413895 0.3200938403606415 -0.3357868790626526 255.0 0.0 0.0
0.10974003374576569 -0.23060543835163116 0.1607012152671814 255.0 0.0 0.0
-0.2888122797012329 0.06597109884023666 -0.27145493030548096 255.0 0.0 0.0
0.29623943567276 0.22577165067195892 -0.10138171166181564 255.0 0.0 0.0
0.28677868843078613 0.16559888422489166 0.15486890077590942 255.0 0.0 0.0
-0.02568877302110195 0.11775650084018707 -0.19315007328987122 255.0 0.0 0.0
-0.03185518458485603 -0.1702459156513214 0.16755074262619019 255.0 0.0 0.0
-0.032698146998882294 0.2760474383831024 -0.25755566358566284 255.0 0.0 0.0
-0.22685417532920837 -0.12986382842063904 0.1497415006160736 255.0 0.0 0.0
-0.2790515422821045 0.14029228687286377 -0.3312804102897644 255.0 0.0 0.0
-0.10816090553998947 0.21538449823856354 -0.13506805896759033 255.0 0.0 0.0
0.14215420186519623 -0.4418189525604248 0.14292798936367035 255.0 0.0 0.0
-0.19345206022262573 0.27500349283218384 -0.012977120466530323 255.0 0.0 0.0
-0.011651141569018364 0.22012384235858917 -0.13680990040302277 255.0 0.0 0.0
-0.27341029047966003 -0.4673781991004944 -0.053307514637708664 255.0 0.0 0.0
-0.1737954169511795 -0.2537006437778473 -0.05706878751516342 255.0 0.0 0.0
0.2011510133743286 0.4923208951950073 0.11010301858186722 255.0 0.0 0.0
0.28576546907424927 0.018469640985131264 0.15632209181785583 255.0 0.0 0.0
0.21223074197769165 0.39256346225738525 0.10381969064474106 255.0 0.0 0.0
0.2888093888759613 0.18688444793224335 0.1562543511390686 255.0 0.0 0.0
-0.20871801674365997 -0.08974327892065048 0.1692925989627838 255.0 0.0 0.0
0.05103404074907303 0.22099517285823822 -0.18049006164073944 255.0 0.0 0.0
0.02688061259686947 0.18232926726341248 -0.13455317914485931 255.0 0.0 0.0
0.20153947174549103 0.5000239610671997 0.008489512838423252 255.0 0.0 0.0
-0.2141043245792389 0.05602084472775459 0.1700868159532547 255.0 0.0 0.0
-0.27645522356033325 0.15714998543262482 -0.29915720224380493 255.0 0.0 0.0
-0.17703545093536377 0.3231283724308014 -0.0019952955190092325 255.0 0.0 0.0
0.29505062103271484 0.22718341648578644 -0.039996758103370667 255.0 0.0 0.0
-0.10438290983438492 0.14714637398719788 0.1693464070558548 255.0 0.0 0.0
-0.21711602807044983 -0.06592404097318649 0.16638697683811188 255.0 0.0 0.0
-0.2410793900489807 -0.2566750645637512 0.054407961666584015 255.0 0.0 0.0
0.24143625795841217 -0.37229764461517334 -0.0917312428355217 255.0 0.0 0.0
0.2829894423484802 0.023159002885222435 0.15650399029254913 255.0 0.0 0.0
0.24071507155895233 0.35549163818359375 -0.08423300832509995 255.0 0.0 0.0
-0.031601179391145706 0.26243355870246887 -0.25603345036506653 255.0 0.0 0.0
-0.2706981301307678 -0.2010028213262558 0.15100888907909393 255.0 0.0 0.0
-0.057885292917490005 -0.2445443868637085 0.15392592549324036 255.0 0.0 0.0
0.1572888344526291 -0.2503855228424072 0.027961229905486107 255.0 0.0 0.0
-0.004204647149890661 0.14770105481147766 0.16832879185676575 255.0 0.0 0.0
-0.1908162236213684 0.36575886607170105 -0.06972850114107132 255.0 0.0 0.0
0.0333181694149971 0.19000205397605896 -0.13598963618278503 255.0 0.0 0.0
-0.0983748659491539 0.14775079488754272 0.16986121237277985 255.0 0.0 0.0
0.1123492568731308 -0.19034358859062195 0.1559135913848877 255.0 0.0 0.0
-0.24489429593086243 0.25479423999786377 -0.34035763144493103 255.0 0.0 0.0
-0.2839052677154541 0.14811855554580688 -0.3324725925922394 255.0 0.0 0.0
-0.26960113644599915 -0.24674244225025177 0.148177370429039 255.0 0.0 0.0
-0.26695722341537476 -0.004340567626059055 -0.1189303994178772 255.0 0.0 0.0
-0.03697182983160019 0.16323837637901306 0.16035549342632294 255.0 0.0 0.0
-0.2764844000339508 0.20616766810417175 0.145332932472229 255.0 0.0 0.0
0.2915937006473541 -0.4299646317958832 0.02387111634016037 255.0 0.0 0.0
-0.02912774868309498 0.2216392159461975 -0.19124294817447662 255.0 0.0 0.0
-0.2591947317123413 0.3585643768310547 0.08028370141983032 255.0 0.0 0.0
0.1912376582622528 -0.24491247534751892 -0.13752783834934235 255.0 0.0 0.0
-0.2688629925251007 -0.1306682676076889 -0.1389811784029007 255.0 0.0 0.0
-0.23213830590248108 0.4021228551864624 -0.07987906783819199 255.0 0.0 0.0
-0.047124139964580536 0.31712302565574646 -0.3099275231361389 255.0 0.0 0.0
-0.16754509508609772 0.2266053557395935 0.1498613953590393 255.0 0.0 0.0
-0.2518450915813446 0.23994478583335876 -0.3446434438228607 255.0 0.0 0.0
-0.21388138830661774 0.3119019865989685 0.04399827867746353 255.0 0.0 0.0
-0.2845909893512726 -0.38256460428237915 -0.08943090587854385 255.0 0.0 0.0
0.28073564171791077 0.33986327052116394 0.07143193483352661 255.0 0.0 0.0
-0.18978042900562286 -0.2732623219490051 0.06764540821313858 255.0 0.0 0.0
0.049573708325624466 0.2278800755739212 0.14694182574748993 255.0 0.0 0.0
-0.23378661274909973 -0.4619978964328766 0.0954362004995346 255.0 0.0 0.0
0.059281546622514725 0.1237155944108963 -0.18118683993816376 255.0 0.0 0.0
-0.12845584750175476 -0.1967979371547699 0.15070198476314545 255.0 0.0 0.0
-0.22301851212978363 -0.46755915880203247 0.05981919541954994 255.0 0.0 0.0
-0.056643929332494736 -0.24600930511951447 -0.13506805896759033 255.0 0.0 0.0
0.20471495389938354 0.2145790457725525 -0.13316775858402252 255.0 0.0 0.0
0.24161244928836823 0.16632799804210663 0.15858127176761627 255.0 0.0 0.0
0.14300595223903656 -0.4479420781135559 0.04660481587052345 255.0 0.0 0.0
0.2828856110572815 -0.2519696056842804 -0.04718117415904999 255.0 0.0 0.0
-0.2568742334842682 -0.03964722901582718 -0.29730620980262756 255.0 0.0 0.0
0.158194437623024 -0.4082229435443878 0.17451085150241852 255.0 0.0 0.0
0.1391199827194214 -0.4404221475124359 0.048870474100112915 255.0 0.0 0.0
0.28538864850997925 0.22764290869235992 -0.09003395587205887 255.0 0.0 0.0
-0.27356186509132385 0.19757702946662903 -0.3091546595096588 255.0 0.0 0.0
-0.24161206185817719 -0.273933082818985 0.04776221141219139 255.0 0.0 0.0
-0.26876547932624817 -0.20548471808433533 0.1507503092288971 255.0 0.0 0.0
0.24373047053813934 0.23058496415615082 0.05562731623649597 255.0 0.0 0.0
-0.16908518970012665 0.46041861176490784 0.10179195553064346 255.0 0.0 0.0
-0.010493599809706211 0.18182113766670227 -0.13630026578903198 255.0 0.0 0.0
0.19880634546279907 0.42122283577919006 0.10439962893724442 255.0 0.0 0.0
0.045856159180402756 0.17771868407726288 -0.13841436803340912 255.0 0.0 0.0
-0.2661841809749603 0.22682732343673706 -0.09363584220409393 255.0 0.0 0.0
-0.09747542440891266 0.33577802777290344 -0.30565381050109863 255.0 0.0 0.0
-0.08794799447059631 0.3234926164150238 -0.32521820068359375 255.0 0.0 0.0
-0.1760021150112152 0.4790646731853485 -0.02359672449529171 255.0 0.0 0.0
-0.27074921131134033 0.08391144126653671 0.13772229850292206 255.0 0.0 0.0
-0.23767298460006714 -0.44684454798698425 0.12540650367736816 255.0 0.0 0.0
-0.23529863357543945 -0.47116851806640625 0.042407624423503876 255.0 0.0 0.0
-0.032071225345134735 0.20210863649845123 -0.20431360602378845 255.0 0.0 0.0
-0.19207465648651123 0.46024686098098755 0.09295336157083511 255.0 0.0 0.0
-0.25103119015693665 -0.08148761093616486 -0.26166561245918274 255.0 0.0 0.0
0.2901223301887512 0.22850613296031952 0.121320940554142 255.0 0.0 0.0
-0.18713527917861938 0.48762035369873047 0.11076270788908005 255.0 0.0 0.0
-0.2707524597644806 0.21734772622585297 0.12516841292381287 255.0 0.0 0.0
-0.2710086405277252 0.04182182252407074 0.14698746800422668 255.0 0.0 0.0
-0.2827312648296356 -0.06139234080910683 -0.2745918333530426 255.0 0.0 0.0
-0.20774203538894653 0.3524450659751892 -0.06357935070991516 255.0 0.0 0.0
-0.22967250645160675 0.3396555781364441 -0.047405604273080826 255.0 0.0 0.0
0.2857600748538971 0.4311225712299347 -0.07049516588449478 255.0 0.0 0.0
0.29591184854507446 0.016116978600621223 -0.12329575419425964 255.0 0.0 0.0
0.19053469598293304 -0.24087774753570557 0.15632209181785583 255.0 0.0 0.0
0.2951272130012512 0.2251047044992447 0.14909885823726654 255.0 0.0 0.0
0.003635816043242812 0.2802751660346985 -0.2769891321659088 255.0 0.0 0.0
-0.23627668619155884 0.2633180618286133 -0.008335992693901062 255.0 0.0 0.0
0.20463232696056366 0.3550580143928528 0.10803811252117157 255.0 0.0 0.0
-0.2303653061389923 -0.3077956736087799 0.09624890983104706 255.0 0.0 0.0
-0.3228610157966614 -0.4241698384284973 -0.07729610800743103 255.0 0.0 0.0
-0.21105153858661652 0.3712325096130371 -0.07732511311769485 255.0 0.0 0.0
-0.22641709446907043 0.48584964871406555 -0.040432900190353394 255.0 0.0 0.0
0.29020124673843384 0.34208473563194275 -0.03389723598957062 255.0 0.0 0.0
-0.2707524597644806 0.2237219214439392 -0.00696848938241601 255.0 0.0 0.0
-0.28535813093185425 -0.0399981364607811 -0.2911108434200287 255.0 0.0 0.0
-0.19436167180538177 0.18667957186698914 0.15494784712791443 255.0 0.0 0.0
-0.2574406862258911 0.2107076644897461 -0.3487335741519928 255.0 0.0 0.0
-0.22387368977069855 0.10343139618635178 0.15077358484268188 255.0 0.0 0.0
0.29950281977653503 -0.1638074666261673 -0.13196255266666412 255.0 0.0 0.0
0.2903040945529938 -0.21125271916389465 -0.13451533019542694 255.0 0.0 0.0
-0.2831261157989502 0.08766922354698181 -0.3141160011291504 255.0 0.0 0.0
-0.2662214934825897 -0.18965868651866913 0.15127988159656525 255.0 0.0 0.0
0.2627706825733185 0.25350451469421387 -0.01366234477609396 255.0 0.0 0.0
0.028410891070961952 -0.24854737520217896 -0.13104821741580963 255.0 0.0 0.0
0.025486020371317863 -0.2539594769477844 -0.11903989315032959 255.0 0.0 0.0
0.20008642971515656 -0.24186787009239197 -0.13506805896759033 255.0 0.0 0.0
0.06153768673539162 -0.20440182089805603 0.1556989848613739 255.0 0.0 0.0
0.2650291621685028 -0.3645155429840088 -0.07515358179807663 255.0 0.0 0.0
-0.24355968832969666 0.22661718726158142 0.05478229746222496 255.0 0.0 0.0
-0.18048585951328278 0.36493930220603943 0.10222458839416504 255.0 0.0 0.0
-0.21003879606723785 0.49922212958335876 0.08050940930843353 255.0 0.0 0.0
-0.33955201506614685 -0.3459142744541168 0.14218385517597198 255.0 0.0 0.0
0.06834908574819565 0.2277948558330536 -0.12665793299674988 255.0 0.0 0.0
-0.2695009112358093 0.04482122138142586 -0.12757301330566406 255.0 0.0 0.0
-0.2581830620765686 0.13862530887126923 -0.13663744926452637 255.0 0.0 0.0
0.10356292128562927 -0.18156416714191437 0.1679270714521408 255.0 0.0 0.0
-0.13371466100215912 0.3198658227920532 -0.3193082809448242 255.0 0.0 0.0
-0.2154080867767334 0.29444533586502075 -0.35240083932876587 255.0 0.0 0.0
0.22357377409934998 0.5099309086799622 -0.01895647682249546 255.0 0.0 0.0
0.29790806770324707 0.22489413619041443 0.07878492027521133 255.0 0.0 0.0
-0.3003089725971222 -0.32853904366493225 0.1814708113670349 255.0 0.0 0.0
-0.23226289451122284 -0.1925273835659027 0.1569364368915558 255.0 0.0 0.0
0.041155893355607986 0.11288133263587952 -0.19020786881446838 255.0 0.0 0.0
0.2268979400396347 0.3599192202091217 0.12344019114971161 255.0 0.0 0.0
-0.21366295218467712 -0.17631752789020538 0.16893774271011353 255.0 0.0 0.0
-0.25970450043678284 0.45344045758247375 0.10287950932979584 255.0 0.0 0.0
0.2957005500793457 -0.11999517679214478 0.15622812509536743 255.0 0.0 0.0
-0.2713662385940552 0.2150300145149231 0.09025861322879791 255.0 0.0 0.0
-0.26952826976776123 -0.24273516237735748 -0.09897048771381378 255.0 0.0 0.0
0.03841475397348404 0.19688482582569122 -0.15161879360675812 255.0 0.0 0.0
0.2789469361305237 0.3642951250076294 0.1206464171409607 255.0 0.0 0.0
0.2728404998779297 0.4158982038497925 0.11091648787260056 255.0 0.0 0.0
-0.2699679434299469 -0.0592796690762043 0.14467979967594147 255.0 0.0 0.0
-0.14420878887176514 0.23015600442886353 0.15099701285362244 255.0 0.0 0.0
0.2121243178844452 0.4017695486545563 0.10161815583705902 255.0 0.0 0.0
0.2724074721336365 0.3858555853366852 0.1270214021205902 255.0 0.0 0.0
0.2811610996723175 0.350718230009079 -0.06093493476510048 255.0 0.0 0.0
-0.24730174243450165 0.24398382008075714 -0.34499213099479675 255.0 0.0 0.0
-0.028374096378684044 0.22614747285842896 -0.19667604565620422 255.0 0.0 0.0
0.25782787799835205 0.4915720224380493 0.12198900431394577 255.0 0.0 0.0
0.2603922188282013 0.22589507699012756 -0.12476316839456558 255.0 0.0 0.0
0.2600562870502472 0.283847838640213 0.036603692919015884 255.0 0.0 0.0
0.13925187289714813 0.2275567203760147 -0.12881605327129364 255.0 0.0 0.0
-0.2888953685760498 0.08484182506799698 -0.3007887005805969 255.0 0.0 0.0
-0.2512871325016022 0.04190642759203911 -0.25881466269493103 255.0 0.0 0.0
-0.2722516655921936 -0.23593196272850037 -0.13047657907009125 255.0 0.0 0.0
-0.2707524597644806 0.21250124275684357 -0.054805196821689606 255.0 0.0 0.0
0.21628086268901825 0.3146633505821228 -0.028255632147192955 255.0 0.0 0.0
-0.20395609736442566 0.3544654846191406 0.10704278945922852 255.0 0.0 0.0
0.29371073842048645 0.19265922904014587 0.15481136739253998 255.0 0.0 0.0
0.027869414538145065 0.10142778605222702 -0.14429962635040283 255.0 0.0 0.0
0.024849755689501762 0.25180405378341675 -0.2590688467025757 255.0 0.0 0.0
-0.0892348513007164 0.3163462281227112 -0.32832780480384827 255.0 0.0 0.0
0.21084055304527283 -0.4439249038696289 -0.07781235873699188 255.0 0.0 0.0
-0.1503741443157196 -0.26965972781181335 0.026855593547225 255.0 0.0 0.0
-0.2741802930831909 0.051267895847558975 -0.24613313376903534 255.0 0.0 0.0
-0.20799557864665985 -0.2413611114025116 0.15632209181785583 255.0 0.0 0.0
-0.2776049077510834 0.00022742175497114658 -0.23079249262809753 255.0 0.0 0.0
-0.18296760320663452 0.2531769275665283 0.032371826469898224 255.0 0.0 0.0
-0.32790452241897583 -0.35376593470573425 0.17232750356197357 255.0 0.0 0.0
0.022264476865530014 0.1810791939496994 -0.13691957294940948 255.0 0.0 0.0
-0.2710018754005432 -0.09048642963171005 -0.24182742834091187 255.0 0.0 0.0
0.04335525259375572 0.16870306432247162 0.15462681651115417 255.0 0.0 0.0
-0.02908141165971756 0.2856189012527466 -0.28486311435699463 255.0 0.0 0.0
-0.2578985095024109 -0.25086307525634766 0.002741985721513629 255.0 0.0 0.0
0.26382696628570557 0.2530512511730194 -0.0027133594267070293 255.0 0.0 0.0
0.21495003998279572 -0.2742585837841034 0.07720493525266647 255.0 0.0 0.0
-0.15107569098472595 -0.2544672191143036 -0.014312961138784885 255.0 0.0 0.0
-0.2637890577316284 0.11058837920427322 -0.28220608830451965 255.0 0.0 0.0
0.26961126923561096 0.28859755396842957 0.023972809314727783 255.0 0.0 0.0
-0.03812946751713753 0.28009527921676636 -0.2635131776332855 255.0 0.0 0.0
-0.26818251609802246 0.21964332461357117 0.14524592459201813 255.0 0.0 0.0
-0.26887962222099304 0.05007784068584442 -0.1350017488002777 255.0 0.0 0.0
-0.27086442708969116 0.2721388339996338 -0.33837637305259705 255.0 0.0 0.0
-0.24947144091129303 -0.010255920700728893 -0.297807514667511 255.0 0.0 0.0
0.2619771957397461 0.48391592502593994 -0.056016065180301666 255.0 0.0 0.0
-0.24819739162921906 -0.4809209704399109 -0.008577900938689709 255.0 0.0 0.0
0.06418009847402573 -0.2437107264995575 -0.13512979447841644 255.0 0.0 0.0
-0.17304418981075287 0.34006649255752563 0.048674795776605606 255.0 0.0 0.0
0.1430470198392868 -0.44156619906425476 0.021518683061003685 255.0 0.0 0.0
0.2520297169685364 -0.13922925293445587 0.15379391610622406 255.0 0.0 0.0
-0.2546333968639374 -0.09443340450525284 -0.2583812475204468 255.0 0.0 0.0
-0.2799709141254425 0.20674636960029602 -0.31523391604423523 255.0 0.0 0.0
-0.26420512795448303 0.18730521202087402 -0.13163821399211884 255.0 0.0 0.0
0.03020394966006279 -0.25134822726249695 -0.12020552903413773 255.0 0.0 0.0
-0.2576620876789093 -0.3664664924144745 0.19426687061786652 255.0 0.0 0.0
0.2900882363319397 0.2277301698923111 0.10232628136873245 255.0 0.0 0.0
-0.04837906360626221 0.21500304341316223 -0.13764578104019165 255.0 0.0 0.0
0.03647676855325699 0.24506105482578278 -0.24946145713329315 255.0 0.0 0.0
0.2822995185852051 0.2260502725839615 0.06774032860994339 255.0 0.0 0.0
-0.282084196805954 0.0003255467745475471 -0.30848973989486694 255.0 0.0 0.0
0.2817571461200714 0.41603758931159973 0.11843694001436234 255.0 0.0 0.0
-0.051988597959280014 0.3027879595756531 -0.2694615125656128 255.0 0.0 0.0
0.2963610589504242 -0.11536994576454163 0.15652237832546234 255.0 0.0 0.0
0.24956843256950378 0.33316636085510254 -0.057687316089868546 255.0 0.0 0.0
0.297238290309906 0.006812937557697296 -0.12296804785728455 255.0 0.0 0.0
-0.22351492941379547 0.10223027318716049 0.15178701281547546 255.0 0.0 0.0
-0.2574588656425476 -0.12605512142181396 -0.13281840085983276 255.0 0.0 0.0
-0.11759963631629944 -0.2370428889989853 -0.14184293150901794 255.0 0.0 0.0
-0.21221418678760529 0.5056780576705933 0.04246130958199501 255.0 0.0 0.0
0.02564452402293682 0.22089862823486328 -0.24525900185108185 255.0 0.0 0.0
-0.18556860089302063 0.4260563850402832 0.08770855516195297 255.0 0.0 0.0
0.24994724988937378 0.03905410319566727 0.1572514921426773 255.0 0.0 0.0
0.2612474858760834 0.03133149817585945 0.15681007504463196 255.0 0.0 0.0
-0.00507377739995718 -0.2493881732225418 0.1495041847229004 255.0 0.0 0.0
0.24209636449813843 0.24353572726249695 0.050326552242040634 255.0 0.0 0.0
0.1510206013917923 -0.44297629594802856 0.1525595337152481 255.0 0.0 0.0
-0.23751476407051086 0.29469552636146545 -0.3296262323856354 255.0 0.0 0.0
-0.25306612253189087 0.02303250879049301 -0.30726945400238037 255.0 0.0 0.0
-0.23736684024333954 0.34464001655578613 -0.06554046273231506 255.0 0.0 0.0
-0.22693923115730286 -0.10061942785978317 0.15039019286632538 255.0 0.0 0.0
-0.16628257930278778 0.3369801938533783 -0.3199392557144165 255.0 0.0 0.0
-0.2424459606409073 0.3271214962005615 -0.01868557184934616 255.0 0.0 0.0
-0.06244340166449547 0.3244193494319916 -0.308960884809494 255.0 0.0 0.0
0.25095847249031067 0.4298858344554901 -0.0911654531955719 255.0 0.0 0.0
0.29541483521461487 0.21623167395591736 -0.13397911190986633 255.0 0.0 0.0
-0.16596761345863342 -0.26794007420539856 0.05359390377998352 255.0 0.0 0.0
-0.2747834026813507 -0.37820497155189514 0.20355994999408722 255.0 0.0 0.0
-0.23621031641960144 0.3104146420955658 -0.3307322859764099 255.0 0.0 0.0
0.14642299711704254 0.17138729989528656 0.15522755682468414 255.0 0.0 0.0
-0.1445273607969284 0.3199591338634491 -0.3504740595817566 255.0 0.0 0.0
-0.2759260833263397 0.07185526192188263 -0.2607094943523407 255.0 0.0 0.0
0.29166194796562195 -0.12293283641338348 0.15348385274410248 255.0 0.0 0.0
0.29332274198532104 0.22118300199508667 0.06047806888818741 255.0 0.0 0.0
-0.28812551498413086 -0.31296393275260925 0.14124439656734467 255.0 0.0 0.0
-0.03570618852972984 0.2145174741744995 -0.1353258341550827 255.0 0.0 0.0
0.02276439405977726 0.268389493227005 -0.2646077573299408 255.0 0.0 0.0
-0.25905898213386536 -0.06943665444850922 -0.21862217783927917 255.0 0.0 0.0
-0.15180392563343048 -0.2554175555706024 -0.013342156074941158 255.0 0.0 0.0
-0.26923954486846924 -0.24941901862621307 -0.09028688818216324 255.0 0.0 0.0
0.0035724216140806675 0.29374584555625916 -0.27217283844947815 255.0 0.0 0.0
0.17834432423114777 -0.24931517243385315 0.14668110013008118 255.0 0.0 0.0
-0.12148799747228622 -0.24997830390930176 0.1535041630268097 255.0 0.0 0.0
0.2818317115306854 0.3373348116874695 0.06075281649827957 255.0 0.0 0.0
0.27971750497817993 -0.4420386254787445 -0.01626291312277317 255.0 0.0 0.0
-0.2472672313451767 0.3236389756202698 -0.004733487032353878 255.0 0.0 0.0
-0.1992993950843811 0.3958132266998291 0.08998745679855347 255.0 0.0 0.0
0.1932305097579956 0.3550141751766205 -0.04492542892694473 255.0 0.0 0.0
-0.25271478295326233 0.4376790523529053 0.11516331136226654 255.0 0.0 0.0
0.2891153395175934 -0.4399242699146271 0.14408867061138153 255.0 0.0 0.0
-0.05133642256259918 0.17134714126586914 0.1516464501619339 255.0 0.0 0.0
-0.2725282609462738 -0.09483105689287186 -0.11475976556539536 255.0 0.0 0.0
-0.02931869402527809 0.13272503018379211 -0.1976926177740097 255.0 0.0 0.0
0.21662813425064087 0.221855029463768 -0.13722574710845947 255.0 0.0 0.0
0.18104714155197144 -0.4408077001571655 0.1959373503923416 255.0 0.0 0.0
-0.24908092617988586 0.22844932973384857 -0.03413772210478783 255.0 0.0 0.0
0.2979036271572113 0.22697994112968445 0.10988178849220276 255.0 0.0 0.0
0.16599403321743011 -0.4424930810928345 0.18448065221309662 255.0 0.0 0.0
0.253964900970459 0.2635277807712555 -0.01733141951262951 255.0 0.0 0.0
-0.016259102150797844 0.20837998390197754 -0.22916138172149658 255.0 0.0 0.0
-0.2654375731945038 0.0296592079102993 0.15395808219909668 255.0 0.0 0.0
-0.03786434978246689 0.2831632196903229 -0.2776607275009155 255.0 0.0 0.0
0.29251691699028015 0.41106903553009033 0.11834366619586945 255.0 0.0 0.0
0.08385112136602402 -0.2512330114841461 0.14749181270599365 255.0 0.0 0.0
-0.21719904243946075 -0.4617082178592682 0.0735604465007782 255.0 0.0 0.0
-0.24204577505588531 -0.31006118655204773 0.1097334697842598 255.0 0.0 0.0
-0.23554232716560364 0.22769998013973236 -0.12280545383691788 255.0 0.0 0.0
-0.014261199161410332 0.17021870613098145 -0.13200430572032928 255.0 0.0 0.0
0.26895299553871155 0.46374452114105225 -0.07024291902780533 255.0 0.0 0.0
-0.19652555882930756 0.3785848915576935 0.11063588410615921 255.0 0.0 0.0
0.24785631895065308 0.2229997217655182 0.15683913230895996 255.0 0.0 0.0
-0.2609896957874298 -0.25049662590026855 -0.03815582022070885 255.0 0.0 0.0
-0.0596386194229126 0.32669660449028015 -0.29240360856056213 255.0 0.0 0.0
-0.27069327235221863 0.15554165840148926 -0.2959413528442383 255.0 0.0 0.0
-0.24564266204833984 0.036333117634058 -0.2727896571159363 255.0 0.0 0.0
0.11533284187316895 0.23002180457115173 0.14080378413200378 255.0 0.0 0.0
-0.19007129967212677 0.46849381923675537 0.09966921806335449 255.0 0.0 0.0
-0.22409687936306 -0.4412662982940674 0.16264553368091583 255.0 0.0 0.0
0.17483340203762054 0.22403982281684875 -0.12522238492965698 255.0 0.0 0.0
-0.0910644605755806 0.16062995791435242 0.16632238030433655 255.0 0.0 0.0
-0.1594664454460144 0.4075736999511719 0.0913417786359787 255.0 0.0 0.0
-0.23378628492355347 0.0729026198387146 0.14842429757118225 255.0 0.0 0.0
0.27386632561683655 0.4296288788318634 -0.07953335344791412 255.0 0.0 0.0
-0.2618485391139984 0.2292582094669342 0.03728564456105232 255.0 0.0 0.0
-0.27559298276901245 0.220156729221344 -0.3152879476547241 255.0 0.0 0.0
0.18871410191059113 0.42807674407958984 0.11540330201387405 255.0 0.0 0.0
-0.23947098851203918 -0.4572412967681885 0.08130577951669693 255.0 0.0 0.0
0.2609976828098297 0.37830543518066406 -0.08743138611316681 255.0 0.0 0.0
0.21168236434459686 0.5138163566589355 0.019238436594605446 255.0 0.0 0.0
-0.26328444480895996 0.17616161704063416 -0.33912813663482666 255.0 0.0 0.0
0.27133554220199585 0.3025727868080139 0.020489763468503952 255.0 0.0 0.0
0.27769964933395386 0.4377921223640442 0.11668550223112106 255.0 0.0 0.0
-0.008187953382730484 0.08901088684797287 -0.13712385296821594 255.0 0.0 0.0
-0.17881448566913605 -0.2567974030971527 -0.0505746565759182 255.0 0.0 0.0
0.25451186299324036 -0.4199317693710327 0.20218287408351898 255.0 0.0 0.0
-0.23920972645282745 0.30921098589897156 -0.008245331235229969 255.0 0.0 0.0
-0.09311206638813019 0.22783571481704712 -0.12172288447618484 255.0 0.0 0.0
-0.2521993815898895 -0.002712319139391184 -0.23760640621185303 255.0 0.0 0.0
-0.21250313520431519 -0.04425405338406563 0.16917070746421814 255.0 0.0 0.0
-0.13333359360694885 0.34157469868659973 -0.3326280415058136 255.0 0.0 0.0
-0.14294229447841644 -0.18000788986682892 0.16764742136001587 255.0 0.0 0.0
-0.24462924897670746 0.4378301501274109 0.10458102822303772 255.0 0.0 0.0
-0.21781809628009796 0.2277037352323532 0.14881354570388794 255.0 0.0 0.0
-0.2587410509586334 0.22569839656352997 0.14482925832271576 255.0 0.0 0.0
-0.2309546321630478 -0.2497589886188507 -0.05614456534385681 255.0 0.0 0.0
-0.2466430962085724 -0.47567927837371826 -0.01758747175335884 255.0 0.0 0.0
0.22546246647834778 0.2915501892566681 -0.01926092430949211 255.0 0.0 0.0
0.22924070060253143 0.5068811774253845 0.10976586490869522 255.0 0.0 0.0
0.2628057301044464 0.22777529060840607 -0.12198098003864288 255.0 0.0 0.0
0.25365567207336426 0.37152931094169617 -0.08724131435155869 255.0 0.0 0.0
0.2894958257675171 -0.1637791097164154 0.15642596781253815 255.0 0.0 0.0
0.27981969714164734 -0.44339776039123535 0.031067468225955963 255.0 0.0 0.0
0.2972276210784912 -0.07278000563383102 0.14820034801959991 255.0 0.0 0.0
-0.22807157039642334 -0.24674323201179504 -0.13483652472496033 255.0 0.0 0.0
0.0714530199766159 -0.2520642578601837 0.14087603986263275 255.0 0.0 0.0
-0.02151627466082573 0.1078457236289978 -0.1669955998659134 255.0 0.0 0.0
0.23901234567165375 0.09697900712490082 0.17229634523391724 255.0 0.0 0.0
0.03460688516497612 0.17841210961341858 -0.13545028865337372 255.0 0.0 0.0
-0.24687309563159943 0.2423890084028244 0.032083798199892044 255.0 0.0 0.0
-0.15525148808956146 0.38054072856903076 0.05238861218094826 255.0 0.0 0.0
-0.3320378065109253 -0.349040687084198 0.1160641461610794 255.0 0.0 0.0
0.2823592722415924 -0.15763859450817108 -0.13692326843738556 255.0 0.0 0.0
-0.13196881115436554 0.3404647707939148 -0.3170109987258911 255.0 0.0 0.0
0.25600871443748474 -0.2563643753528595 0.01100330799818039 255.0 0.0 0.0
0.24007518589496613 -0.25099968910217285 0.06769394129514694 255.0 0.0 0.0
-0.22297537326812744 0.26439547538757324 -0.020858436822891235 255.0 0.0 0.0
-0.2713719606399536 -0.1174532100558281 0.15571418404579163 255.0 0.0 0.0
-0.027124449610710144 0.2776872217655182 -0.2810477912425995 255.0 0.0 0.0
-0.16302308440208435 -0.26562175154685974 -0.03398783504962921 255.0 0.0 0.0
-0.24512678384780884 -0.4653586149215698 -0.048629481345415115 255.0 0.0 0.0
0.2534501552581787 -0.3281724452972412 0.11610262095928192 255.0 0.0 0.0
0.2837718725204468 -0.4241178333759308 -0.019552111625671387 255.0 0.0 0.0
-0.024221189320087433 0.19580183923244476 -0.15857984125614166 255.0 0.0 0.0
0.270137220621109 0.35136473178863525 0.11296011507511139 255.0 0.0 0.0
0.23193563520908356 0.4935535490512848 -0.054019831120967865 255.0 0.0 0.0
0.2068478763103485 -0.2514621913433075 0.077394038438797 255.0 0.0 0.0
-0.23859983682632446 -0.2532457113265991 -0.048441872000694275 255.0 0.0 0.0
-0.23383581638336182 0.25497087836265564 0.04343508929014206 255.0 0.0 0.0
-0.2635557949542999 -0.04095710441470146 -0.2982211112976074 255.0 0.0 0.0
0.2258475124835968 -0.4325926601886749 -0.09171517938375473 255.0 0.0 0.0
0.0491357184946537 0.19033631682395935 -0.13282130658626556 255.0 0.0 0.0
0.2862967848777771 -0.20792600512504578 -0.13177238404750824 255.0 0.0 0.0
-0.23152607679367065 0.00841207429766655 0.14814423024654388 255.0 0.0 0.0
-0.2740305960178375 0.2202019840478897 -0.03074699454009533 255.0 0.0 0.0
0.1495160311460495 -0.44488415122032166 0.09595517814159393 255.0 0.0 0.0
-0.040812090039253235 0.2883330285549164 -0.2854475677013397 255.0 0.0 0.0
-0.26325902342796326 -0.1278529316186905 -0.13864438235759735 255.0 0.0 0.0
-0.21369881927967072 0.11518030613660812 0.16913220286369324 255.0 0.0 0.0
0.058007415384054184 -0.24653805792331696 0.14978264272212982 255.0 0.0 0.0
-0.2722632586956024 0.21539901196956635 -0.0665021687746048 255.0 0.0 0.0
0.2500000596046448 -0.10435250401496887 0.1608225405216217 255.0 0.0 0.0
-0.25622180104255676 0.0842994749546051 -0.2988910675048828 255.0 0.0 0.0
-0.2877003848552704 -0.3705040216445923 -0.08224141597747803 255.0 0.0 0.0
0.21175500750541687 0.1540001928806305 0.16732771694660187 255.0 0.0 0.0
0.23028148710727692 0.48542526364326477 0.10887965559959412 255.0 0.0 0.0
0.10735618323087692 0.22677460312843323 -0.13263405859470367 255.0 0.0 0.0
-0.2148207277059555 -0.4608595073223114 0.06317529827356339 255.0 0.0 0.0
0.07455839961767197 -0.25403958559036255 0.1543431580066681 255.0 0.0 0.0
-0.2493923306465149 0.4917827546596527 0.057536691427230835 255.0 0.0 0.0
-0.032751474529504776 -0.1712217926979065 0.17222774028778076 255.0 0.0 0.0
-0.2707335352897644 -0.02913914993405342 0.1435880810022354 255.0 0.0 0.0
-0.146519735455513 -0.24149876832962036 0.15632209181785583 255.0 0.0 0.0
0.2910548448562622 -0.43272876739501953 0.012622312642633915 255.0 0.0 0.0
-0.28354504704475403 0.0021743723191320896 -0.30640608072280884 255.0 0.0 0.0
-0.22863343358039856 -0.18832805752754211 0.15397821366786957 255.0 0.0 0.0
0.2880692481994629 0.3696131408214569 0.11448226869106293 255.0 0.0 0.0
0.2056976556777954 0.39070242643356323 0.11057360470294952 255.0 0.0 0.0
0.11677675694227219 0.22921618819236755 0.15268152952194214 255.0 0.0 0.0
0.08496391028165817 0.18002253770828247 0.15397225320339203 255.0 0.0 0.0
-0.2729977071285248 0.26105621457099915 -0.3446546196937561 255.0 0.0 0.0
0.011051266454160213 0.18119315803050995 0.15244626998901367 255.0 0.0 0.0
-0.2100578099489212 0.29585909843444824 -0.020210666581988335 255.0 0.0 0.0
0.29709774255752563 -0.24906474351882935 -0.029726648703217506 255.0 0.0 0.0
-0.1461004912853241 0.22780081629753113 -0.12660399079322815 255.0 0.0 0.0
-0.25291526317596436 0.4252277612686157 -0.059260301291942596 255.0 0.0 0.0
0.23476624488830566 0.5118780136108398 -0.014582712203264236 255.0 0.0 0.0
0.20106077194213867 -0.4368512034416199 -0.07998446375131607 255.0 0.0 0.0
-0.2177543193101883 0.22987990081310272 0.06907503306865692 255.0 0.0 0.0
0.1960311383008957 0.3388230800628662 0.06467560678720474 255.0 0.0 0.0
-0.033509764820337296 0.17943091690540314 -0.13506805896759033 255.0 0.0 0.0
-0.2573356032371521 -0.3945806622505188 0.20831404626369476 255.0 0.0 0.0
0.21675080060958862 0.2923261821269989 0.034786347299814224 255.0 0.0 0.0
-0.21596659719944 0.17662106454372406 0.15455612540245056 255.0 0.0 0.0
-0.2639321982860565 -0.3413527011871338 -0.08463451266288757 255.0 0.0 0.0
0.06273242086172104 0.12760169804096222 -0.15065667033195496 255.0 0.0 0.0
0.039232004433870316 0.10413741320371628 -0.1584291011095047 255.0 0.0 0.0
0.18560166656970978 -0.43169674277305603 0.19846943020820618 255.0 0.0 0.0
-0.140274316072464 0.17344996333122253 0.1475912630558014 255.0 0.0 0.0
-0.22087836265563965 -0.45710790157318115 0.10646460205316544 255.0 0.0 0.0
-0.22585532069206238 -0.46931400895118713 0.07307151705026627 255.0 0.0 0.0
-0.270274817943573 -0.23998038470745087 -0.02215326391160488 255.0 0.0 0.0
-0.04179467260837555 0.23227892816066742 0.1475968211889267 255.0 0.0 0.0
-0.058404214680194855 0.22494159638881683 0.15486231446266174 255.0 0.0 0.0
-0.271030068397522 0.21292920410633087 0.09427233040332794 255.0 0.0 0.0
-0.2805975675582886 -0.035218387842178345 -0.29474180936813354 255.0 0.0 0.0
0.06799013167619705 0.14323019981384277 -0.13506805896759033 255.0 0.0 0.0
-0.3020416498184204 -0.3892418146133423 -0.0849878266453743 255.0 0.0 0.0
-0.25490710139274597 0.10152890533208847 -0.29176709055900574 255.0 0.0 0.0
0.2083088457584381 0.28613394498825073 0.0021932078525424004 255.0 0.0 0.0
-0.26963335275650024 0.09149689227342606 0.15686294436454773 255.0 0.0 0.0
-0.20425358414649963 -0.2471543401479721 -0.13322146236896515 255.0 0.0 0.0
-0.19938978552818298 -0.1802106499671936 0.16871485114097595 255.0 0.0 0.0
-0.22932307422161102 -0.4676441550254822 0.07165735214948654 255.0 0.0 0.0
0.19482992589473724 0.3383485972881317 0.06874850392341614 255.0 0.0 0.0
0.22325018048286438 0.2933237850666046 -0.016343748196959496 255.0 0.0 0.0
0.26931917667388916 -0.4157432019710541 0.19927962124347687 255.0 0.0 0.0
-0.28432056307792664 -0.46464115381240845 -0.05997617542743683 255.0 0.0 0.0
-0.26268625259399414 -0.08464056998491287 0.15632209181785583 255.0 0.0 0.0
-0.261726051568985 0.020951032638549805 -0.134053573012352 255.0 0.0 0.0
-0.26646938920021057 -0.05823877081274986 -0.13181233406066895 255.0 0.0 0.0
0.2898009717464447 -0.4366314113140106 0.10498825460672379 255.0 0.0 0.0
0.21095895767211914 0.30033138394355774 -0.0051582432352006435 255.0 0.0 0.0
0.208624467253685 -0.19144700467586517 0.15430888533592224 255.0 0.0 0.0
-0.25570282340049744 0.018712984398007393 0.15731872618198395 255.0 0.0 0.0
-0.28598976135253906 -0.014427687041461468 -0.23560361564159393 255.0 0.0 0.0
0.2571960985660553 0.05953302979469299 0.15203040838241577 255.0 0.0 0.0
0.2946035861968994 0.15421609580516815 0.15629492700099945 255.0 0.0 0.0
0.22956211864948273 -0.42093056440353394 -0.0902172178030014 255.0 0.0 0.0
-0.21983063220977783 -0.2459741085767746 -0.12707392871379852 255.0 0.0 0.0
-0.21343886852264404 -0.44407349824905396 0.1350887417793274 255.0 0.0 0.0
-0.1022118479013443 -0.186671644449234 0.15844504535198212 255.0 0.0 0.0
0.07255149632692337 0.21933163702487946 0.15792879462242126 255.0 0.0 0.0
0.03543661907315254 -0.2508508265018463 -0.12493113428354263 255.0 0.0 0.0
0.24905827641487122 0.44197025895118713 -0.08861545473337173 255.0 0.0 0.0
0.23707924783229828 0.18580438196659088 0.1559460312128067 255.0 0.0 0.0
0.15283457934856415 -0.42901936173439026 -0.03620939701795578 255.0 0.0 0.0
-0.27059343457221985 0.22498980164527893 -0.010365055873990059 255.0 0.0 0.0
0.2972451150417328 -0.0965457558631897 -0.1204223558306694 255.0 0.0 0.0
0.23998907208442688 -0.2512924075126648 -0.06452254951000214 255.0 0.0 0.0
-0.2572660446166992 0.1967821717262268 -0.3388023376464844 255.0 0.0 0.0
-0.337491899728775 -0.3850499093532562 0.0531640462577343 255.0 0.0 0.0
0.18739406764507294 -0.2516409754753113 -0.034342627972364426 255.0 0.0 0.0
-0.07630419731140137 0.3121476173400879 -0.2943352460861206 255.0 0.0 0.0
0.2798554003238678 -0.44461536407470703 0.09870477765798569 255.0 0.0 0.0
-0.23792928457260132 -0.24888019263744354 0.15101586282253265 255.0 0.0 0.0
-0.1853942573070526 0.29488831758499146 0.023185433819890022 255.0 0.0 0.0
-0.21335074305534363 -0.28598204255104065 0.0804339349269867 255.0 0.0 0.0
-0.2586483359336853 0.3639223277568817 0.09158995747566223 255.0 0.0 0.0
0.055706460028886795 0.20467479526996613 -0.21379849314689636 255.0 0.0 0.0
-0.26937854290008545 0.22649388015270233 -0.04148698225617409 255.0 0.0 0.0
0.2957714796066284 0.15715663135051727 0.15622247755527496 255.0 0.0 0.0
0.019339589402079582 -0.23726731538772583 -0.13562333583831787 255.0 0.0 0.0
-0.1952841877937317 0.3369103968143463 -0.33841508626937866 255.0 0.0 0.0
0.2506229281425476 0.4928843379020691 0.12520618736743927 255.0 0.0 0.0
-0.26384153962135315 -0.015019143931567669 -0.30681848526000977 255.0 0.0 0.0
-0.2635793089866638 0.002019108971580863 -0.22949419915676117 255.0 0.0 0.0
-0.26840904355049133 -0.24699437618255615 -0.12456902116537094 255.0 0.0 0.0
0.2954256534576416 -0.03249187394976616 -0.13500837981700897 255.0 0.0 0.0
0.2907050549983978 -0.05752219259738922 -0.12125250697135925 255.0 0.0 0.0
-0.2910524308681488 -0.37994828820228577 -0.08604941517114639 255.0 0.0 0.0
0.25909096002578735 0.11502032727003098 0.15776947140693665 255.0 0.0 0.0
-0.19448643922805786 0.21884694695472717 -0.13528522849082947 255.0 0.0 0.0
0.02492046356201172 0.1939270794391632 -0.13801579177379608 255.0 0.0 0.0
0.20591853559017181 -0.24422462284564972 -0.13506805896759033 255.0 0.0 0.0
0.051601625978946686 0.22871120274066925 0.13929131627082825 255.0 0.0 0.0
0.25678858160972595 -0.32577529549598694 0.11230427026748657 255.0 0.0 0.0
-0.16747193038463593 0.4704035222530365 0.09054023027420044 255.0 0.0 0.0
0.20726920664310455 0.3519718647003174 -0.06696765869855881 255.0 0.0 0.0
0.17584364116191864 -0.25362417101860046 -0.006963666062802076 255.0 0.0 0.0
-0.029645219445228577 0.3149150311946869 -0.27174970507621765 255.0 0.0 0.0
-0.09852967411279678 0.2265947312116623 -0.13239696621894836 255.0 0.0 0.0
-0.26475921273231506 0.030910491943359375 -0.23888887465000153 255.0 0.0 0.0
-0.21572445333003998 0.32973039150238037 -0.33914539217948914 255.0 0.0 0.0
0.20635980367660522 0.4789978861808777 0.11597098410129547 255.0 0.0 0.0
0.27540266513824463 0.358720600605011 0.11734554916620255 255.0 0.0 0.0
-0.26974180340766907 0.1416553109884262 -0.2912169396877289 255.0 0.0 0.0
0.07771995663642883 -0.1825764775276184 0.16693361103534698 255.0 0.0 0.0
0.2230806201696396 0.5034052729606628 0.11048532277345657 255.0 0.0 0.0
-0.22116851806640625 -0.2769010663032532 -0.05989693105220795 255.0 0.0 0.0
-0.2701426148414612 -0.09392787516117096 0.14391346275806427 255.0 0.0 0.0
-0.2145685851573944 0.34438732266426086 -0.061256058514118195 255.0 0.0 0.0
0.1663801372051239 0.20925860106945038 -0.13506805896759033 255.0 0.0 0.0
-0.23731179535388947 -0.4562893509864807 0.08777882158756256 255.0 0.0 0.0
-0.20363710820674896 -0.17508889734745026 0.16917063295841217 255.0 0.0 0.0
-0.009687764570116997 0.2999206483364105 -0.28523221611976624 255.0 0.0 0.0
-0.19843266904354095 0.46219196915626526 0.0885590985417366 255.0 0.0 0.0
-0.030598659068346024 0.16948430240154266 -0.20581930875778198 255.0 0.0 0.0
-0.013869013637304306 0.2741236388683319 -0.28063976764678955 255.0 0.0 0.0
-0.1750204861164093 0.2315414994955063 0.029281938448548317 255.0 0.0 0.0
-0.14052438735961914 0.21356916427612305 -0.13421760499477386 255.0 0.0 0.0
0.2954258918762207 0.030595563352108 0.15410210192203522 255.0 0.0 0.0
0.2909494936466217 -0.43245038390159607 0.06776544451713562 255.0 0.0 0.0
0.2834374010562897 -0.23843780159950256 0.15555725991725922 255.0 0.0 0.0
-0.23620843887329102 0.324419766664505 -0.01926311105489731 255.0 0.0 0.0
-0.04126140847802162 0.28556498885154724 -0.27755090594291687 255.0 0.0 0.0
-0.16982261836528778 0.22867104411125183 -0.012614156119525433 255.0 0.0 0.0
-0.004879715386778116 0.30060920119285583 -0.28164801001548767 255.0 0.0 0.0
0.18556785583496094 0.221385195851326 0.15730787813663483 255.0 0.0 0.0
0.04321226850152016 0.18260174989700317 -0.21954140067100525 255.0 0.0 0.0
0.2665991187095642 0.2292480766773224 0.05137886106967926 255.0 0.0 0.0
0.18845497071743011 -0.25860264897346497 -0.028346439823508263 255.0 0.0 0.0
-0.2515695095062256 0.34872865676879883 -0.04342128336429596 255.0 0.0 0.0
-0.19122259318828583 0.307684063911438 0.036236006766557693 255.0 0.0 0.0
0.17893165349960327 0.3360724449157715 0.008871898055076599 255.0 0.0 0.0
-0.2502578794956207 0.433968186378479 0.11542458087205887 255.0 0.0 0.0
-0.33254778385162354 -0.3964115083217621 -0.03741207718849182 255.0 0.0 0.0
0.2975403368473053 -0.24681411683559418 0.021229205653071404 255.0 0.0 0.0
0.19923605024814606 -0.1909898817539215 0.15017902851104736 255.0 0.0 0.0
-0.2913224995136261 0.06162580847740173 -0.2678905129432678 255.0 0.0 0.0
-0.2701477110385895 0.22121389210224152 -0.006981195416301489 255.0 0.0 0.0
0.0890449583530426 0.15949583053588867 0.16756980121135712 255.0 0.0 0.0
-0.23287193477153778 0.3603501617908478 0.11254296451807022 255.0 0.0 0.0
