-0.2508050501346588 0.040706977248191833 -0.2593514621257782 255.0 0.0 0.0
-0.15586799383163452 0.3180583715438843 -0.32824334502220154 255.0 0.0 0.0
0.04701347276568413 0.19012093544006348 -0.13429860770702362 255.0 0.0 0.0
-0.2819369435310364 -0.318673312664032 0.14883345365524292 255.0 0.0 0.0
-0.20690979063510895 -0.235365092754364 0.1522860825061798 255.0 0.0 0.0
0.0245610810816288 0.12156787514686584 -0.21268053352832794 255.0 0.0 0.0
0.21497249603271484 0.4157944917678833 0.10138373076915741 255.0 0.0 0.0
0.292178213596344 -0.432258665561676 0.03221208229660988 255.0 0.0 0.0
-0.31293419003486633 -0.3249886631965637 0.17653001844882965 255.0 0.0 0.0
-0.2761237919330597 -0.08271507918834686 -0.23659107089042664 255.0 0.0 0.0
0.054219432175159454 0.21145763993263245 -0.1854747086763382 255.0 0.0 0.0
-0.11077553778886795 0.31821563839912415 -0.3354104459285736 255.0 0.0 0.0
-0.2742932140827179 -0.11743418127298355 0.14963331818580627 255.0 0.0 0.0
-0.2515674829483032 0.22712373733520508 0.1508392095565796 255.0 0.0 0.0
-0.03128901124000549 0.2670292556285858 -0.2571672201156616 255.0 0.0 0.0
-0.21909087896347046 0.4517052173614502 -0.07482840120792389 255.0 0.0 0.0
0.22258220613002777 0.22800880670547485 -0.11908967792987823 255.0 0.0 0.0
0.25759661197662354 -0.244455024600029 0.15790614485740662 255.0 0.0 0.0
-0.26854121685028076 0.16887934505939484 0.1505264937877655 255.0 0.0 0.0
0.09866688400506973 0.22804595530033112 0.13959945738315582 255.0 0.0 0.0
0.016362683847546577 0.21540258824825287 0.15493018925189972 255.0 0.0 0.0
0.27265456318855286 -0.34308376908302307 0.11843360960483551 255.0 0.0 0.0
0.21080465614795685 0.3684804141521454 -0.07824172079563141 255.0 0.0 0.0
-0.33617013692855835 -0.35140281915664673 0.17698310315608978 255.0 0.0 0.0
0.08466815948486328 0.2149806022644043 -0.13466951251029968 255.0 0.0 0.0
0.25843346118927 0.5014063715934753 -0.03703783079981804 255.0 0.0 0.0
-0.26028382778167725 0.20250599086284637 -0.34672293066978455 255.0 0.0 0.0
-0.2662019729614258 -0.053571850061416626 -0.2916826903820038 255.0 0.0 0.0
-0.22291430830955505 -0.16215215623378754 0.15837129950523376 255.0 0.0 0.0
-0.20862500369548798 0.33506372570991516 -0.040408626198768616 255.0 0.0 0.0
-0.2572355568408966 -0.24934789538383484 -0.10966440290212631 255.0 0.0 0.0
0.03829211741685867 0.1970115751028061 -0.15367113053798676 255.0 0.0 0.0
-0.2650884687900543 0.02215266041457653 -0.23413707315921783 255.0 0.0 0.0
0.2917344868183136 -0.24926643073558807 -0.09143096953630447 255.0 0.0 0.0
0.2834374010562897 -0.23843780159950256 0.15555725991725922 255.0 0.0 0.0
0.22873547673225403 0.25672051310539246 -0.020225312560796738 255.0 0.0 0.0
-0.25945302844047546 0.1661495566368103 -0.31751981377601624 255.0 0.0 0.0
0.23945118486881256 0.3083481192588806 -0.029609039425849915 255.0 0.0 0.0
-0.3079976439476013 -0.35668477416038513 0.20145569741725922 255.0 0.0 0.0
-0.22783434391021729 0.10967885702848434 0.15450738370418549 255.0 0.0 0.0
0.20350702106952667 0.32322970032691956 -0.020357050001621246 255.0 0.0 0.0
0.2888201177120209 0.3399941623210907 -0.035580798983573914 255.0 0.0 0.0
0.24320316314697266 0.4965856075286865 -0.05563166365027428 255.0 0.0 0.0
-0.22142882645130157 0.4631738066673279 0.0940074473619461 255.0 0.0 0.0
0.2750917077064514 0.3290286064147949 0.05709735304117203 255.0 0.0 0.0
-0.2969728708267212 0.018231678754091263 -0.2993323802947998 255.0 0.0 0.0
0.1620328277349472 -0.18715834617614746 0.16054587066173553 255.0 0.0 0.0
0.008667964488267899 0.18880179524421692 -0.13828465342521667 255.0 0.0 0.0
0.18090218305587769 0.3347942531108856 0.005688849370926619 255.0 0.0 0.0
0.2959825098514557 0.41079363226890564 0.11277418583631516 255.0 0.0 0.0
0.18840187788009644 -0.4453568458557129 0.1982942372560501 255.0 0.0 0.0
0.24529936909675598 0.22332003712654114 0.15823020040988922 255.0 0.0 0.0
-0.22294537723064423 0.42047297954559326 -0.07653400301933289 255.0 0.0 0.0
-0.23108237981796265 0.007299355231225491 0.15470363199710846 255.0 0.0 0.0
-0.13805192708969116 -0.19173185527324677 0.15389463305473328 255.0 0.0 0.0
0.13502725958824158 0.1671471893787384 0.15606218576431274 255.0 0.0 0.0
-0.2552890479564667 0.217946857213974 -0.3499225676059723 255.0 0.0 0.0
0.25897297263145447 0.1143048107624054 0.1590719074010849 255.0 0.0 0.0
-0.2228725552558899 0.22784806787967682 -0.1233459860086441 255.0 0.0 0.0
-0.21588502824306488 0.1725650429725647 0.1494504064321518 255.0 0.0 0.0
0.21878133714199066 0.2569345533847809 0.03564392030239105 255.0 0.0 0.0
0.24797627329826355 0.3057287633419037 -0.02873043902218342 255.0 0.0 0.0
-0.1109427884221077 0.1670779585838318 0.1620732545852661 255.0 0.0 0.0
0.2424836903810501 -0.25188130140304565 -0.03839009627699852 255.0 0.0 0.0
0.2683994174003601 -0.2537534534931183 -0.01806739903986454 255.0 0.0 0.0
-0.2694430351257324 0.16026967763900757 -0.3387008607387543 255.0 0.0 0.0
0.29723450541496277 -0.10179830342531204 -0.12438016384840012 255.0 0.0 0.0
-0.27069327235221863 0.15554165840148926 -0.2959413528442383 255.0 0.0 0.0
0.26286494731903076 0.230373814702034 -0.0287758968770504 255.0 0.0 0.0
0.25439703464508057 0.11560911685228348 0.14960940182209015 255.0 0.0 0.0
-0.2759326100349426 0.23138867318630219 -0.35264232754707336 255.0 0.0 0.0
0.19274719059467316 -0.25268059968948364 -0.04427370801568031 255.0 0.0 0.0
-0.03717227652668953 0.15227966010570526 -0.13338930904865265 255.0 0.0 0.0
0.24421685934066772 -0.19644847512245178 0.15237662196159363 255.0 0.0 0.0
0.04848940670490265 -0.23681814968585968 -0.134953573346138 255.0 0.0 0.0
-0.26130157709121704 0.12063007056713104 -0.29967251420021057 255.0 0.0 0.0
-0.1845322996377945 0.2874108552932739 0.015525261871516705 255.0 0.0 0.0
0.2232157289981842 0.5095168948173523 0.10471154749393463 255.0 0.0 0.0
0.27014851570129395 0.22759868204593658 0.1516570895910263 255.0 0.0 0.0
-0.25383204221725464 0.20941312611103058 -0.3344033360481262 255.0 0.0 0.0
-0.22836801409721375 -0.11528623104095459 0.1517280638217926 255.0 0.0 0.0
-0.3336094319820404 -0.3620474636554718 0.13624224066734314 255.0 0.0 0.0
-0.30382588505744934 -0.31606289744377136 0.1411295235157013 255.0 0.0 0.0
0.23816914856433868 0.0763629749417305 0.1697365790605545 255.0 0.0 0.0
0.2151802033185959 0.3048309087753296 -0.01512916199862957 255.0 0.0 0.0
0.28715696930885315 0.2273465096950531 -0.03400091081857681 255.0 0.0 0.0
-0.13452015817165375 -0.25262656807899475 0.0025978167541325092 255.0 0.0 0.0
0.2518558204174042 0.5061059594154358 -0.027172233909368515 255.0 0.0 0.0
-0.23315145075321198 0.25171953439712524 0.04139436408877373 255.0 0.0 0.0
0.2484605610370636 0.1199132576584816 0.1607028692960739 255.0 0.0 0.0
0.2891389727592468 0.2277027666568756 -0.08779739588499069 255.0 0.0 0.0
0.11425260454416275 -0.18464912474155426 0.1648108810186386 255.0 0.0 0.0
0.2603922188282013 0.22589507699012756 -0.12476316839456558 255.0 0.0 0.0
0.12730911374092102 -0.23805364966392517 0.15449132025241852 255.0 0.0 0.0
0.21170929074287415 0.5071940422058105 0.08918320387601852 255.0 0.0 0.0
-0.26335838437080383 0.025434907525777817 -0.31749898195266724 255.0 0.0 0.0
0.18965907394886017 -0.24933330714702606 -0.12854938209056854 255.0 0.0 0.0
0.2770256996154785 -0.4000716805458069 0.19021552801132202 255.0 0.0 0.0
-0.25755730271339417 0.18012002110481262 -0.3324585556983948 255.0 0.0 0.0
-0.1859508752822876 0.3347422182559967 -0.3443142771720886 255.0 0.0 0.0
0.2957714796066284 0.15715663135051727 0.15622247755527496 255.0 0.0 0.0
0.2558445632457733 -0.02790803089737892 0.1527349203824997 255.0 0.0 0.0
0.2475404292345047 -0.43455109000205994 -0.08762547373771667 255.0 0.0 0.0
-0.2746179699897766 -0.06347967684268951 -0.22341322898864746 255.0 0.0 0.0
-0.2078576534986496 0.08776185661554337 0.17081069946289062 255.0 0.0 0.0
-0.23859983682632446 -0.2532457113265991 -0.048441872000694275 255.0 0.0 0.0
-0.24261097609996796 -0.4783070981502533 -0.012373769655823708 255.0 0.0 0.0
-0.25495630502700806 -0.008351667784154415 -0.23379072546958923 255.0 0.0 0.0
-0.25848132371902466 0.0949673056602478 -0.28660696744918823 255.0 0.0 0.0
0.06509730964899063 -0.1950007528066635 0.15262918174266815 255.0 0.0 0.0
0.28461241722106934 0.04231463000178337 -0.1361231803894043 255.0 0.0 0.0
-0.24625901877880096 0.3443271815776825 -0.04680865630507469 255.0 0.0 0.0
0.2346593737602234 0.4948020875453949 -0.06237105280160904 255.0 0.0 0.0
-0.2623026669025421 -0.005271242931485176 -0.30826568603515625 255.0 0.0 0.0
-0.28471994400024414 0.1863470822572708 -0.31449779868125916 255.0 0.0 0.0
0.2466035932302475 0.08321990072727203 0.16451101005077362 255.0 0.0 0.0
-0.2462092787027359 0.26286935806274414 0.007960999384522438 255.0 0.0 0.0
-0.18846406042575836 0.2730501890182495 0.03551354259252548 255.0 0.0 0.0
0.23383834958076477 0.22815079987049103 -0.12828761339187622 255.0 0.0 0.0
-0.21784882247447968 -0.06637632846832275 0.17050497233867645 255.0 0.0 0.0
0.22193554043769836 -0.2402224987745285 0.15531013906002045 255.0 0.0 0.0
0.28537240624427795 0.2284443974494934 0.05135640129446983 255.0 0.0 0.0
-0.26808908581733704 0.19460158050060272 -0.34841182827949524 255.0 0.0 0.0
-0.03837253898382187 0.3200448155403137 -0.2883293032646179 255.0 0.0 0.0
-0.05382406339049339 0.22309765219688416 -0.13494770228862762 255.0 0.0 0.0
0.29931607842445374 0.18624891340732574 -0.1287342607975006 255.0 0.0 0.0
-0.21177810430526733 -0.18518255650997162 0.1632288694381714 255.0 0.0 0.0
0.20619669556617737 -0.25338488817214966 0.06679639220237732 255.0 0.0 0.0
-0.010460768826305866 0.17511041462421417 -0.13506805896759033 255.0 0.0 0.0
-0.33871057629585266 -0.3627912104129791 0.09701737016439438 255.0 0.0 0.0
0.24888621270656586 -0.24302364885807037 -0.13343720138072968 255.0 0.0 0.0
-0.2302226573228836 -0.2636118531227112 0.04928235337138176 255.0 0.0 0.0
-0.24547365307807922 -0.020395858213305473 -0.2507433295249939 255.0 0.0 0.0
-0.2854886054992676 -0.34326764941215515 0.19332623481750488 255.0 0.0 0.0
-0.1109323725104332 0.31911319494247437 -0.33351626992225647 255.0 0.0 0.0
-0.027877960354089737 0.22946986556053162 -0.13089855015277863 255.0 0.0 0.0
0.017236189916729927 0.10861508548259735 -0.19946524500846863 255.0 0.0 0.0
-0.2683720588684082 0.07582569122314453 0.1562807708978653 255.0 0.0 0.0
-0.21018441021442413 -0.14833585917949677 0.1692453771829605 255.0 0.0 0.0
0.25559788942337036 -0.01236859429627657 0.15209800004959106 255.0 0.0 0.0
-0.27117589116096497 -0.19584232568740845 -0.11950168758630753 255.0 0.0 0.0
0.29079487919807434 0.3503064215183258 -0.03843580186367035 255.0 0.0 0.0
-0.20315539836883545 0.2819417417049408 0.03901344910264015 255.0 0.0 0.0
0.03291784226894379 -0.17600440979003906 0.16919846832752228 255.0 0.0 0.0
-0.20953670144081116 -0.24035413563251495 -0.13896583020687103 255.0 0.0 0.0
0.17230871319770813 -0.2417672574520111 0.15632209181785583 255.0 0.0 0.0
0.2335023581981659 0.37459295988082886 -0.0887933000922203 255.0 0.0 0.0
-0.10398242622613907 0.33001017570495605 -0.3264637887477875 255.0 0.0 0.0
-0.27074095606803894 0.1570529192686081 0.14081218838691711 255.0 0.0 0.0
-0.27148497104644775 -0.027330486103892326 0.15026980638504028 255.0 0.0 0.0
0.210065096616745 -0.25857236981391907 0.06828303635120392 255.0 0.0 0.0
0.24275033175945282 -0.2489609271287918 -0.12741422653198242 255.0 0.0 0.0
-0.27067360281944275 0.2138352245092392 0.06329044699668884 255.0 0.0 0.0
1.194437027152162e-05 0.11272972077131271 -0.19762185215950012 255.0 0.0 0.0
0.2799126207828522 0.23603935539722443 0.02792535349726677 255.0 0.0 0.0
0.2304258793592453 0.4901786148548126 0.11166103184223175 255.0 0.0 0.0
-0.26488393545150757 0.11706503480672836 -0.2856054902076721 255.0 0.0 0.0
0.21450628340244293 0.4769057631492615 0.10879011452198029 255.0 0.0 0.0
-0.22444236278533936 -0.3337174355983734 -0.08226793259382248 255.0 0.0 0.0
0.14438124001026154 0.2276577651500702 -0.1303992122411728 255.0 0.0 0.0
-0.1865665763616562 0.16820989549160004 0.15534400939941406 255.0 0.0 0.0
0.2003730982542038 -0.19281858205795288 0.1523142009973526 255.0 0.0 0.0
-0.23443090915679932 -0.47503048181533813 -0.021392762660980225 255.0 0.0 0.0
-0.27550727128982544 -0.3907008767127991 0.20779481530189514 255.0 0.0 0.0
-0.21992084383964539 -0.4700908958911896 0.0630665048956871 255.0 0.0 0.0
0.21120288968086243 0.35248956084251404 -0.07573261857032776 255.0 0.0 0.0
-0.2839052677154541 0.14811855554580688 -0.3324725925922394 255.0 0.0 0.0
0.1880984604358673 0.344698965549469 0.06606730818748474 255.0 0.0 0.0
-0.0018323842668905854 0.22432613372802734 -0.12624983489513397 255.0 0.0 0.0
-0.2623122036457062 0.16039453446865082 -0.33225134015083313 255.0 0.0 0.0
0.2628819942474365 -0.4431617259979248 -0.0764654129743576 255.0 0.0 0.0
0.26062652468681335 0.39822348952293396 0.10824517160654068 255.0 0.0 0.0
0.1515517383813858 -0.3794216811656952 0.13290798664093018 255.0 0.0 0.0
0.2663227617740631 -0.2513156235218048 -0.009287325665354729 255.0 0.0 0.0
0.13023895025253296 0.17363160848617554 0.14576107263565063 255.0 0.0 0.0
-0.27421268820762634 0.2572533190250397 -0.33491209149360657 255.0 0.0 0.0
0.22679778933525085 -0.25393882393836975 0.0779956802725792 255.0 0.0 0.0
-0.26630792021751404 0.19605541229248047 0.1552456170320511 255.0 0.0 0.0
0.287619411945343 -0.43299463391304016 0.008040618151426315 255.0 0.0 0.0
0.23061221837997437 -0.29608434438705444 0.09357422590255737 255.0 0.0 0.0
-0.2707194983959198 -0.020443232730031013 -0.12756934762001038 255.0 0.0 0.0
-0.18118244409561157 0.37439200282096863 0.10061966627836227 255.0 0.0 0.0
0.20374663174152374 0.33866360783576965 -0.04852445423603058 255.0 0.0 0.0
0.21558234095573425 0.40733733773231506 -0.08575425297021866 255.0 0.0 0.0
0.27652013301849365 0.42629876732826233 0.11453303694725037 255.0 0.0 0.0
0.17861270904541016 0.39584314823150635 0.10376914590597153 255.0 0.0 0.0
-0.11242156475782394 -0.19769777357578278 0.1525614708662033 255.0 0.0 0.0
-0.2165755033493042 0.3614088296890259 0.11356627196073532 255.0 0.0 0.0
0.20904108881950378 0.46469637751579285 0.10354939103126526 255.0 0.0 0.0
0.1995973438024521 0.3116976022720337 0.02538827620446682 255.0 0.0 0.0
0.21477393805980682 0.3410070538520813 0.09769435971975327 255.0 0.0 0.0
-0.2240900993347168 0.292890727519989 -0.36556026339530945 255.0 0.0 0.0
-0.2865292429924011 -0.05737895891070366 -0.24689172208309174 255.0 0.0 0.0
-0.17414380609989166 0.48515957593917847 0.0003822875733021647 255.0 0.0 0.0
-0.25715285539627075 0.08122167736291885 -0.30954521894454956 255.0 0.0 0.0
0.29724594950675964 -0.136521577835083 0.14137032628059387 255.0 0.0 0.0
-0.12282596528530121 0.3217489421367645 -0.3159753680229187 255.0 0.0 0.0
-0.011523199267685413 -0.2425495833158493 -0.1396590769290924 255.0 0.0 0.0
-0.2398197054862976 0.22774742543697357 -0.13613268733024597 255.0 0.0 0.0
-0.1895303726196289 -0.2703312039375305 0.07075857371091843 255.0 0.0 0.0
-0.1890754997730255 0.3801378607749939 -0.0733594000339508 255.0 0.0 0.0
-0.3007766902446747 -0.34814849495887756 0.19954295456409454 255.0 0.0 0.0
0.23069578409194946 0.4447731077671051 -0.09004591405391693 255.0 0.0 0.0
-0.13339412212371826 -0.2009107619524002 0.15696141123771667 255.0 0.0 0.0
0.02617296203970909 -0.20143245160579681 0.15687298774719238 255.0 0.0 0.0
-0.2522786557674408 -0.3671506643295288 -0.09515807032585144 255.0 0.0 0.0
-0.03401113674044609 0.13206908106803894 -0.18798227608203888 255.0 0.0 0.0
0.1510206013917923 -0.44297629594802856 0.1525595337152481 255.0 0.0 0.0
-0.2205522060394287 -0.12425247579813004 0.16127364337444305 255.0 0.0 0.0
-0.2414940744638443 -0.3113936185836792 0.10608696192502975 255.0 0.0 0.0
-0.026220643892884254 -0.18481595814228058 0.16395242512226105 255.0 0.0 0.0
-0.2562010586261749 0.25389963388442993 -0.32289180159568787 255.0 0.0 0.0
-0.2526971995830536 0.026602238416671753 -0.2462684065103531 255.0 0.0 0.0
0.27829787135124207 0.39786458015441895 0.12819716334342957 255.0 0.0 0.0
0.2957783639431 0.13957345485687256 -0.13058488070964813 255.0 0.0 0.0
0.21661928296089172 0.25697559118270874 0.0341353565454483 255.0 0.0 0.0
-0.1863902509212494 0.49768495559692383 0.08231808245182037 255.0 0.0 0.0
-0.11675618588924408 -0.1839745193719864 0.1690240204334259 255.0 0.0 0.0
-0.2070201337337494 -0.26243653893470764 -0.05411609634757042 255.0 0.0 0.0
-0.25284069776535034 0.05301756411790848 -0.2755497694015503 255.0 0.0 0.0
0.280752956867218 -0.44387108087539673 0.10383342206478119 255.0 0.0 0.0
0.20680205523967743 -0.19456958770751953 0.15564022958278656 255.0 0.0 0.0
-0.18146972358226776 -0.2614019811153412 0.06831618398427963 255.0 0.0 0.0
0.24949966371059418 -0.02905764803290367 0.15272116661071777 255.0 0.0 0.0
0.29713520407676697 -0.01743844524025917 -0.12647919356822968 255.0 0.0 0.0
-0.3193851411342621 -0.3311653137207031 0.18730169534683228 255.0 0.0 0.0
-0.2761007249355316 0.12090771645307541 -0.3306283950805664 255.0 0.0 0.0
0.2308938205242157 0.028966348618268967 0.16940195858478546 255.0 0.0 0.0
-0.18890179693698883 0.32026639580726624 0.04144557565450668 255.0 0.0 0.0
-0.20842258632183075 0.45157063007354736 -0.07518063485622406 255.0 0.0 0.0
0.297148734331131 -0.03476373478770256 0.14631254971027374 255.0 0.0 0.0
-0.00886835902929306 0.1717754304409027 -0.22143714129924774 255.0 0.0 0.0
0.02606746181845665 0.267252117395401 -0.26260536909103394 255.0 0.0 0.0
0.12486501783132553 -0.17241346836090088 0.1702856421470642 255.0 0.0 0.0
0.2791922986507416 -0.2502940893173218 0.0918932631611824 255.0 0.0 0.0
0.024254141375422478 -0.24756449460983276 0.15410837531089783 255.0 0.0 0.0
-0.254529744386673 0.07127727568149567 -0.2999245822429657 255.0 0.0 0.0
0.2065996378660202 0.3950398564338684 0.10570010542869568 255.0 0.0 0.0
0.29713085293769836 -0.24153412878513336 0.10556212067604065 255.0 0.0 0.0
-0.2287188321352005 -0.11363451927900314 0.15116000175476074 255.0 0.0 0.0
0.28482213616371155 -0.24895232915878296 -0.044536102563142776 255.0 0.0 0.0
-0.21975058317184448 0.3187137544155121 -0.028481975197792053 255.0 0.0 0.0
-0.2390853464603424 -0.47227609157562256 0.03519687056541443 255.0 0.0 0.0
-0.15610282123088837 0.4085751175880432 0.08745826035737991 255.0 0.0 0.0
-0.2204424887895584 0.33025869727134705 -0.0420670285820961 255.0 0.0 0.0
-0.16368845105171204 0.3343816101551056 -0.32090774178504944 255.0 0.0 0.0
0.028410891070961952 -0.24854737520217896 -0.13104821741580963 255.0 0.0 0.0
-0.2233191281557083 0.12756255269050598 0.15614749491214752 255.0 0.0 0.0
-0.26861703395843506 -0.23375220596790314 0.08914767950773239 255.0 0.0 0.0
0.2287314087152481 0.31058716773986816 0.05255682021379471 255.0 0.0 0.0
-0.2707248032093048 0.12943366169929504 -0.12558431923389435 255.0 0.0 0.0
0.27016589045524597 0.23251758515834808 0.04204732924699783 255.0 0.0 0.0
0.16075654327869415 0.15430951118469238 0.16920717060565948 255.0 0.0 0.0
0.16441430151462555 -0.18117624521255493 0.16628043353557587 255.0 0.0 0.0
0.2509579062461853 0.5074459910392761 0.1129264160990715 255.0 0.0 0.0
0.2556425631046295 -0.2660401463508606 -0.02537272311747074 255.0 0.0 0.0
0.2794125974178314 0.23190313577651978 0.0332692451775074 255.0 0.0 0.0
-0.2312178760766983 0.07573152333498001 0.1534416377544403 255.0 0.0 0.0
-0.06776952743530273 -0.17651529610157013 0.16904479265213013 255.0 0.0 0.0
-0.2616269290447235 0.0017671952955424786 -0.13506805896759033 255.0 0.0 0.0
-0.10215737670660019 0.21863988041877747 0.15632209181785583 255.0 0.0 0.0
-0.2891100347042084 -0.05646957457065582 -0.2481389343738556 255.0 0.0 0.0
-0.2191629856824875 0.028296716511249542 0.16384738683700562 255.0 0.0 0.0
-0.031156787648797035 0.2571755647659302 -0.23993827402591705 255.0 0.0 0.0
-0.12576857209205627 0.16281399130821228 0.1621932089328766 255.0 0.0 0.0
-0.2602313458919525 0.42655616998672485 0.11686792969703674 255.0 0.0 0.0
-0.26266276836395264 -0.25050413608551025 0.05405111610889435 255.0 0.0 0.0
0.2972581684589386 -0.2350316196680069 0.02822015807032585 255.0 0.0 0.0
0.17960505187511444 0.3461209237575531 0.0025510021951049566 255.0 0.0 0.0
0.02902434952557087 -0.24684977531433105 -0.1347796469926834 255.0 0.0 0.0
-0.23390531539916992 0.22758542001247406 -0.12704114615917206 255.0 0.0 0.0
-0.20291095972061157 0.15509073436260223 0.1672934740781784 255.0 0.0 0.0
0.2779613137245178 0.4892486035823822 0.1202792376279831 255.0 0.0 0.0
-0.26510441303253174 0.22419628500938416 -0.35587072372436523 255.0 0.0 0.0
-0.21558550000190735 -0.25315210223197937 -0.06193385645747185 255.0 0.0 0.0
-0.2708268463611603 -0.053386140614748 0.14314277470111847 255.0 0.0 0.0
-0.20756900310516357 0.5029220581054688 -0.006045511458069086 255.0 0.0 0.0
-0.2230840027332306 -0.43346965312957764 0.1705467253923416 255.0 0.0 0.0
0.2980096638202667 -0.04861021041870117 -0.11995667964220047 255.0 0.0 0.0
-0.19230803847312927 0.4473274052143097 0.0890602245926857 255.0 0.0 0.0
0.13725098967552185 0.21719518303871155 -0.13506805896759033 255.0 0.0 0.0
-0.20332907140254974 0.5033177137374878 -0.0007459817570634186 255.0 0.0 0.0
-0.04320075362920761 0.22621236741542816 -0.13281945884227753 255.0 0.0 0.0
-0.061945874243974686 -0.24858342111110687 -0.1305851936340332 255.0 0.0 0.0
0.22208736836910248 -0.4443623721599579 -0.07342619448900223 255.0 0.0 0.0
-0.15001168847084045 -0.19094300270080566 0.1550418734550476 255.0 0.0 0.0
-0.259814977645874 -0.24562332034111023 0.1549665331840515 255.0 0.0 0.0
0.2891414165496826 -0.4354294240474701 0.030596794560551643 255.0 0.0 0.0
-0.2363528460264206 0.31617581844329834 -0.018655847758054733 255.0 0.0 0.0
0.23433241248130798 0.33648303151130676 -0.06795821338891983 255.0 0.0 0.0
0.015646297484636307 0.2633562982082367 -0.2682124972343445 255.0 0.0 0.0
-0.1470322161912918 0.2236514538526535 0.15387146174907684 255.0 0.0 0.0
0.23106417059898376 0.4975290298461914 -0.05170994624495506 255.0 0.0 0.0
0.04509449005126953 0.22698834538459778 0.15538063645362854 255.0 0.0 0.0
0.1711871176958084 -0.25658684968948364 0.013843727298080921 255.0 0.0 0.0
0.06814537197351456 -0.24747547507286072 -0.1375114768743515 255.0 0.0 0.0
-0.2700391411781311 0.039684850722551346 0.15597891807556152 255.0 0.0 0.0
0.2969418168067932 -0.23614855110645294 -0.06595500558614731 255.0 0.0 0.0
0.256664901971817 -0.12014029920101166 0.14965930581092834 255.0 0.0 0.0
-0.30078572034835815 -0.3158631920814514 0.1360417902469635 255.0 0.0 0.0
0.05890795588493347 0.18680624663829803 -0.17263327538967133 255.0 0.0 0.0
-0.28743526339530945 -0.04780687019228935 -0.2880173921585083 255.0 0.0 0.0
-0.230233833193779 0.2787395119667053 -0.014923467300832272 255.0 0.0 0.0
-0.19359466433525085 0.25972801446914673 -0.015747368335723877 255.0 0.0 0.0
-0.10556312650442123 -0.20587660372257233 0.1559818536043167 255.0 0.0 0.0
-0.2707524597644806 0.22299356758594513 -0.06246249005198479 255.0 0.0 0.0
0.22477778792381287 0.22883518040180206 -0.03729496896266937 255.0 0.0 0.0
0.06687287241220474 0.1670560985803604 0.15702199935913086 255.0 0.0 0.0
-0.33196327090263367 -0.4020712971687317 -0.04773055389523506 255.0 0.0 0.0
-0.3334645926952362 -0.39929625391960144 0.015726879239082336 255.0 0.0 0.0
-0.20339423418045044 0.002066255547106266 0.16792328655719757 255.0 0.0 0.0
-0.16456656157970428 0.34046757221221924 -0.3233620822429657 255.0 0.0 0.0
-0.23635900020599365 0.30154359340667725 -0.006525742821395397 255.0 0.0 0.0
-0.28751203417778015 -0.34943506121635437 0.1998884379863739 255.0 0.0 0.0
0.07655923813581467 0.14505496621131897 -0.1372094303369522 255.0 0.0 0.0
-0.26245832443237305 -0.020123140886425972 -0.22415630519390106 255.0 0.0 0.0
-0.19512000679969788 0.3549303412437439 -0.06654394418001175 255.0 0.0 0.0
0.2484799325466156 0.24241892993450165 0.04834521561861038 255.0 0.0 0.0
-0.12540937960147858 0.33245983719825745 -0.33189642429351807 255.0 0.0 0.0
0.18596282601356506 -0.19777384400367737 0.1526605635881424 255.0 0.0 0.0
-0.28638115525245667 0.0576685406267643 -0.3134457767009735 255.0 0.0 0.0
-0.15932278335094452 0.15537138283252716 0.16449452936649323 255.0 0.0 0.0
0.18478529155254364 0.3951297402381897 0.10833802074193954 255.0 0.0 0.0
-0.2533915638923645 -0.20824921131134033 -0.13506805896759033 255.0 0.0 0.0
0.28787410259246826 -0.39403632283210754 0.15765829384326935 255.0 0.0 0.0
-0.016534732654690742 0.22837406396865845 -0.1851634532213211 255.0 0.0 0.0
0.2971566617488861 -0.1541450470685959 -0.1311529278755188 255.0 0.0 0.0
0.22744321823120117 0.3358805179595947 -0.06292729079723358 255.0 0.0 0.0
0.1818109005689621 -0.249531552195549 -0.12131354957818985 255.0 0.0 0.0
-0.2255730777978897 0.3185425102710724 -0.3516002595424652 255.0 0.0 0.0
0.20970197021961212 -0.24283619225025177 0.15632209181785583 255.0 0.0 0.0
-0.10866078734397888 0.3289482593536377 -0.33116093277931213 255.0 0.0 0.0
0.26143214106559753 0.13615411520004272 0.155470073223114 255.0 0.0 0.0
-0.24811847507953644 -0.3708947002887726 -0.09387975931167603 255.0 0.0 0.0
0.25084710121154785 0.12341702729463577 0.15157148241996765 255.0 0.0 0.0
-0.2705981731414795 -0.17878946661949158 -0.13234809041023254 255.0 0.0 0.0
0.2524944841861725 0.22528067231178284 -0.03685148060321808 255.0 0.0 0.0
-0.25313088297843933 0.029322609305381775 -0.25225937366485596 255.0 0.0 0.0
0.23078539967536926 0.381298303604126 0.1069827750325203 255.0 0.0 0.0
0.2889845669269562 0.22958658635616302 0.03454577550292015 255.0 0.0 0.0
-0.2596110701560974 -0.20729556679725647 -0.1357276886701584 255.0 0.0 0.0
0.11638806760311127 -0.1942947953939438 0.1527521312236786 255.0 0.0 0.0
-0.16312751173973083 0.3357149660587311 -0.3372267484664917 255.0 0.0 0.0
0.24270577728748322 -0.06652981042861938 0.16906318068504333 255.0 0.0 0.0
-0.27074331045150757 -0.21769334375858307 0.13908042013645172 255.0 0.0 0.0
-0.2568110227584839 -0.3715961277484894 0.1982496678829193 255.0 0.0 0.0
-0.11099705100059509 0.22197039425373077 -0.13506805896759033 255.0 0.0 0.0
-0.12379284203052521 -0.25101813673973083 0.14239062368869781 255.0 0.0 0.0
0.21278321743011475 0.4120253324508667 0.10086419433355331 255.0 0.0 0.0
-0.2707406282424927 -0.1694289892911911 -0.1175118237733841 255.0 0.0 0.0
0.2906759977340698 -0.43306419253349304 0.08048335462808609 255.0 0.0 0.0
-0.2856726050376892 0.10194490104913712 -0.28907543420791626 255.0 0.0 0.0
-0.24724958837032318 -0.24434250593185425 0.14637497067451477 255.0 0.0 0.0
0.2419857382774353 -0.08107461780309677 0.1672540307044983 255.0 0.0 0.0
-0.26157718896865845 -0.08560917526483536 -0.22267082333564758 255.0 0.0 0.0
0.20420432090759277 -0.2512994110584259 0.07458660751581192 255.0 0.0 0.0
0.29225096106529236 -0.1374266892671585 -0.13401469588279724 255.0 0.0 0.0
0.033157289028167725 0.10868025571107864 -0.19665798544883728 255.0 0.0 0.0
0.1742335557937622 -0.25264614820480347 0.0005479592364281416 255.0 0.0 0.0
0.22499948740005493 0.36324939131736755 -0.08743057399988174 255.0 0.0 0.0
0.2706684172153473 0.3122422397136688 -0.006008770316839218 255.0 0.0 0.0
-0.27013877034187317 -0.09442686289548874 -0.2487505078315735 255.0 0.0 0.0
0.24860818684101105 0.22688479721546173 -0.12837953865528107 255.0 0.0 0.0
-0.2625197172164917 0.19704684615135193 0.15739478170871735 255.0 0.0 0.0
0.26145821809768677 0.4523022174835205 -0.08124527335166931 255.0 0.0 0.0
0.18977110087871552 -0.25379645824432373 0.05075656250119209 255.0 0.0 0.0
0.25499221682548523 -0.25065141916275024 0.05459087714552879 255.0 0.0 0.0
-0.2371034026145935 -0.4259604811668396 0.18662385642528534 255.0 0.0 0.0
-0.033470284193754196 0.1778484731912613 0.1571281999349594 255.0 0.0 0.0
-0.23771029710769653 0.27282726764678955 -0.008006254211068153 255.0 0.0 0.0
0.1914505660533905 0.34841427206993103 0.06470987200737 255.0 0.0 0.0
0.17490531504154205 -0.2512289583683014 0.03027462027966976 255.0 0.0 0.0
-0.24676360189914703 -0.4725281894207001 0.005761708132922649 255.0 0.0 0.0
-0.25372815132141113 -0.19628271460533142 0.15433351695537567 255.0 0.0 0.0
-0.2855159342288971 0.02017703838646412 -0.24263085424900055 255.0 0.0 0.0
0.2857469618320465 -0.4365060031414032 0.18361563980579376 255.0 0.0 0.0
0.2290739119052887 0.45322227478027344 -0.08481543511152267 255.0 0.0 0.0
0.047434303909540176 0.10945212095975876 -0.13486051559448242 255.0 0.0 0.0
-0.27000224590301514 0.01575019583106041 -0.1260669231414795 255.0 0.0 0.0
-0.06730476021766663 0.30680516362190247 -0.3199215531349182 255.0 0.0 0.0
0.2810991704463959 0.024822097271680832 0.1563149392604828 255.0 0.0 0.0
0.25576263666152954 -0.30095240473747253 -0.059725936502218246 255.0 0.0 0.0
-0.20796260237693787 -0.4209262430667877 0.15630291402339935 255.0 0.0 0.0
0.1822492480278015 0.22244058549404144 -0.136355459690094 255.0 0.0 0.0
0.2273249477148056 -0.3078751564025879 -0.07683052867650986 255.0 0.0 0.0
-0.337392121553421 -0.35603752732276917 0.15354777872562408 255.0 0.0 0.0
0.10102275013923645 0.22780141234397888 -0.12659861147403717 255.0 0.0 0.0
-0.1975417137145996 0.47690320014953613 -0.05337309092283249 255.0 0.0 0.0
-0.03842810541391373 0.13316033780574799 -0.13951632380485535 255.0 0.0 0.0
-0.23163805902004242 -0.4668184816837311 0.07496246695518494 255.0 0.0 0.0
-0.23020142316818237 -0.1567080020904541 0.1560382843017578 255.0 0.0 0.0
0.23636294901371002 -0.3236358165740967 0.11573601514101028 255.0 0.0 0.0
0.2764829397201538 0.22837182879447937 -0.13329997658729553 255.0 0.0 0.0
0.04720987379550934 0.20833632349967957 -0.2241026759147644 255.0 0.0 0.0
-0.27675768733024597 -0.0897548496723175 -0.24676765501499176 255.0 0.0 0.0
-0.1281532347202301 0.3188285827636719 -0.33264973759651184 255.0 0.0 0.0
-0.173183873295784 -0.25023436546325684 -0.12169478088617325 255.0 0.0 0.0
-0.014464838430285454 -0.24916276335716248 -0.12807777523994446 255.0 0.0 0.0
-0.03368188440799713 0.1385573148727417 -0.1361057311296463 255.0 0.0 0.0
-0.27179378271102905 -0.1929675191640854 0.1469050794839859 255.0 0.0 0.0
-0.27499228715896606 0.09743324667215347 -0.276185005903244 255.0 0.0 0.0
-0.25863176584243774 -0.2956632971763611 0.07410988211631775 255.0 0.0 0.0
-0.26073718070983887 -0.2476034164428711 0.11507342755794525 255.0 0.0 0.0
0.27266108989715576 -0.36821994185447693 0.15469543635845184 255.0 0.0 0.0
0.042436446994543076 0.11904764920473099 -0.20382755994796753 255.0 0.0 0.0
0.18600185215473175 0.21261882781982422 0.15717826783657074 255.0 0.0 0.0
-0.2658684551715851 -0.0057575395330786705 -0.3101324737071991 255.0 0.0 0.0
0.036898329854011536 -0.19405367970466614 0.15054696798324585 255.0 0.0 0.0
-0.2173609733581543 0.44949182868003845 -0.07599231600761414 255.0 0.0 0.0
0.20850291848182678 0.22812457382678986 -0.01636030152440071 255.0 0.0 0.0
-0.2815540134906769 -0.056709107011556625 -0.2320743054151535 255.0 0.0 0.0
0.29996541142463684 -0.0686880350112915 0.15245726704597473 255.0 0.0 0.0
-0.3219854235649109 -0.3566037118434906 0.19845576584339142 255.0 0.0 0.0
-0.29144933819770813 0.05790530890226364 -0.26272347569465637 255.0 0.0 0.0
-0.2544722557067871 0.22660645842552185 0.0351996049284935 255.0 0.0 0.0
0.2848456799983978 0.22590507566928864 -0.02042660489678383 255.0 0.0 0.0
0.24957336485385895 0.23635214567184448 -0.030482623726129532 255.0 0.0 0.0
0.01612437516450882 0.28154653310775757 -0.2700473666191101 255.0 0.0 0.0
0.2749103307723999 -0.4296272099018097 -0.059310510754585266 255.0 0.0 0.0
-0.2595386207103729 0.16551020741462708 -0.31700754165649414 255.0 0.0 0.0
-0.13406115770339966 0.22643977403640747 -0.13633176684379578 255.0 0.0 0.0
0.056481149047613144 0.17913690209388733 -0.15343435108661652 255.0 0.0 0.0
0.11589247733354568 -0.17777380347251892 0.1691313534975052 255.0 0.0 0.0
0.2451806515455246 -0.2768678367137909 0.07812851667404175 255.0 0.0 0.0
-0.23999938368797302 0.48975738883018494 0.10142382234334946 255.0 0.0 0.0
0.19504550099372864 -0.44472604990005493 0.19796964526176453 255.0 0.0 0.0
-0.22549431025981903 0.2335571050643921 0.05240543559193611 255.0 0.0 0.0
0.2412024885416031 -0.25463852286338806 0.06397681683301926 255.0 0.0 0.0
-0.16250522434711456 0.4491654634475708 0.09678791463375092 255.0 0.0 0.0
-0.18520060181617737 0.3665482699871063 -0.07109810411930084 255.0 0.0 0.0
0.2953203618526459 0.09796129167079926 0.15622931718826294 255.0 0.0 0.0
0.2130693942308426 0.271327942609787 0.0036993594840168953 255.0 0.0 0.0
0.09150523692369461 0.22805050015449524 -0.12376337498426437 255.0 0.0 0.0
0.2971738576889038 -0.19165301322937012 -0.1306963413953781 255.0 0.0 0.0
0.2332487851381302 -0.15974703431129456 0.1693839132785797 255.0 0.0 0.0
0.22357136011123657 0.2407299429178238 -0.02513996884226799 255.0 0.0 0.0
0.19053469598293304 -0.24087774753570557 0.15632209181785583 255.0 0.0 0.0
-0.2660326063632965 0.29020243883132935 -0.3364098072052002 255.0 0.0 0.0
-0.038102030754089355 0.156084805727005 0.16567930579185486 255.0 0.0 0.0
-0.10987143963575363 0.1633927971124649 0.1671445369720459 255.0 0.0 0.0
0.21393416821956635 0.24735170602798462 -0.016687624156475067 255.0 0.0 0.0
0.04726635292172432 0.1914367526769638 -0.21860219538211823 255.0 0.0 0.0
-0.2393028736114502 0.39519041776657104 -0.07476726174354553 255.0 0.0 0.0
-0.18434365093708038 0.33718743920326233 -0.3314748704433441 255.0 0.0 0.0
-0.21767430007457733 0.3409879207611084 -0.057067692279815674 255.0 0.0 0.0
-0.1613161265850067 -0.1852107048034668 0.164454847574234 255.0 0.0 0.0
0.24625277519226074 0.348721444606781 0.11880102008581161 255.0 0.0 0.0
-0.1617046445608139 0.41087573766708374 0.09793654084205627 255.0 0.0 0.0
0.2924083173274994 0.16073092818260193 0.15799975395202637 255.0 0.0 0.0
-0.24561606347560883 -0.3613376021385193 -0.09274653345346451 255.0 0.0 0.0
0.2499879002571106 -0.24928154051303864 -0.11886409670114517 255.0 0.0 0.0
-0.33757397532463074 -0.36049869656562805 0.10618952661752701 255.0 0.0 0.0
0.15426293015480042 -0.43178433179855347 -0.034651923924684525 255.0 0.0 0.0
-0.21666580438613892 0.227567657828331 -0.12826918065547943 255.0 0.0 0.0
0.20219622552394867 -0.24708768725395203 0.15419600903987885 255.0 0.0 0.0
-0.2481369972229004 -0.05063344165682793 -0.2766166031360626 255.0 0.0 0.0
-0.11556226015090942 -0.19725675880908966 0.14887690544128418 255.0 0.0 0.0
0.2881108522415161 -0.11754082143306732 0.15786710381507874 255.0 0.0 0.0
0.2851949632167816 -0.02590392902493477 0.15288148820400238 255.0 0.0 0.0
-0.2720976769924164 0.13425947725772858 -0.11831407248973846 255.0 0.0 0.0
-0.28648531436920166 0.005759431980550289 -0.2373177856206894 255.0 0.0 0.0
0.06762422621250153 0.16295844316482544 0.15888087451457977 255.0 0.0 0.0
0.2951570749282837 -0.15626125037670135 -0.1200837567448616 255.0 0.0 0.0
-0.23024579882621765 0.4165233075618744 0.09487568587064743 255.0 0.0 0.0
0.2232205867767334 0.4864356219768524 -0.06396917998790741 255.0 0.0 0.0
-0.19623374938964844 0.4891541004180908 -0.03404424339532852 255.0 0.0 0.0
0.1979282647371292 0.1451360583305359 0.16819556057453156 255.0 0.0 0.0
-0.22321747243404388 0.024832123890519142 0.1602388322353363 255.0 0.0 0.0
-0.22099046409130096 0.439028263092041 -0.07780440896749496 255.0 0.0 0.0
0.18541871011257172 -0.2522847652435303 0.0456521175801754 255.0 0.0 0.0
0.0341583788394928 0.26240095496177673 -0.23555901646614075 255.0 0.0 0.0
-0.27908647060394287 -0.45969051122665405 -0.07651687413454056 255.0 0.0 0.0
-0.2853855490684509 0.03208769112825394 -0.31246334314346313 255.0 0.0 0.0
-0.2728194296360016 0.22464211285114288 0.05624742805957794 255.0 0.0 0.0
-0.20412428677082062 -0.2467341274023056 0.15413501858711243 255.0 0.0 0.0
-0.2707039713859558 0.020079996436834335 -0.31598976254463196 255.0 0.0 0.0
0.19235490262508392 0.16783049702644348 0.15612061321735382 255.0 0.0 0.0
0.1782190501689911 -0.17906531691551208 0.16908235847949982 255.0 0.0 0.0
-0.26410824060440063 -0.17985063791275024 -0.13506805896759033 255.0 0.0 0.0
0.25142455101013184 0.42751801013946533 -0.091018445789814 255.0 0.0 0.0
0.09013756364583969 -0.2488580346107483 0.15043798089027405 255.0 0.0 0.0
0.2149369865655899 0.326647013425827 -0.03809966892004013 255.0 0.0 0.0
-0.2707154154777527 0.03233988955616951 -0.1290995329618454 255.0 0.0 0.0
0.059694819152355194 0.16951532661914825 -0.15061184763908386 255.0 0.0 0.0
-0.2700071334838867 -0.3959330916404724 0.19589439034461975 255.0 0.0 0.0
-0.07081325352191925 0.21549779176712036 0.15477555990219116 255.0 0.0 0.0
0.28507018089294434 0.2277996689081192 -0.13165274262428284 255.0 0.0 0.0
0.2838840186595917 -0.25321298837661743 0.04926874488592148 255.0 0.0 0.0
0.18837711215019226 0.1743869036436081 0.1524701863527298 255.0 0.0 0.0
-0.2720153033733368 -0.2009332925081253 0.15291817486286163 255.0 0.0 0.0
0.15999247133731842 -0.2484925240278244 -0.0008036194485612214 255.0 0.0 0.0
0.2366356998682022 0.1704854518175125 0.1526566743850708 255.0 0.0 0.0
0.026071010157465935 0.18641190230846405 -0.1396368145942688 255.0 0.0 0.0
-0.20749019086360931 -0.13549603521823883 0.1693219095468521 255.0 0.0 0.0
0.2547985911369324 0.4680319130420685 0.10900505632162094 255.0 0.0 0.0
0.2855972349643707 0.13759416341781616 0.15632209181785583 255.0 0.0 0.0
-0.27797484397888184 0.10405829548835754 -0.27801230549812317 255.0 0.0 0.0
0.03411311283707619 0.22938483953475952 -0.12461795657873154 255.0 0.0 0.0
-0.21760156750679016 -0.1001841127872467 0.1663176566362381 255.0 0.0 0.0
0.10513711720705032 -0.19522283971309662 0.1496915966272354 255.0 0.0 0.0
-0.19570192694664001 0.36335912346839905 0.10981719940900803 255.0 0.0 0.0
-0.3023325204849243 -0.32337686419487 0.17785555124282837 255.0 0.0 0.0
-0.26522281765937805 0.10353676229715347 0.15760193765163422 255.0 0.0 0.0
-0.2700047194957733 0.1930062472820282 -0.1317119598388672 255.0 0.0 0.0
-0.19828778505325317 -0.4255000948905945 0.11816994845867157 255.0 0.0 0.0
-0.2212926149368286 0.1490159034729004 0.16633453965187073 255.0 0.0 0.0
0.1559305042028427 -0.44498321413993835 0.01758456416428089 255.0 0.0 0.0
-0.20071196556091309 -0.4110400080680847 0.13799914717674255 255.0 0.0 0.0
-0.2108405977487564 -0.4622674882411957 0.0639013946056366 255.0 0.0 0.0
0.25905394554138184 -0.12680938839912415 0.1534646451473236 255.0 0.0 0.0
0.2789469361305237 0.3642951250076294 0.1206464171409607 255.0 0.0 0.0
-0.2242366075515747 -0.3714792728424072 -0.08450783044099808 255.0 0.0 0.0
0.21299536526203156 0.2719271779060364 0.024285083636641502 255.0 0.0 0.0
-0.2601042091846466 -0.07337451726198196 -0.21673566102981567 255.0 0.0 0.0
-0.09015762060880661 0.15735213458538055 0.17013873159885406 255.0 0.0 0.0
0.28381940722465515 0.23159565031528473 0.14358524978160858 255.0 0.0 0.0
0.29216083884239197 -0.24866552650928497 -0.10318057239055634 255.0 0.0 0.0
0.04911385849118233 0.2392410784959793 -0.23050668835639954 255.0 0.0 0.0
-0.2732527256011963 0.22671198844909668 0.0328211672604084 255.0 0.0 0.0
-0.03548722341656685 0.13675440847873688 -0.19519343972206116 255.0 0.0 0.0
-0.24838048219680786 -0.31020599603652954 -0.0709826722741127 255.0 0.0 0.0
-0.2587573230266571 0.05956557020545006 -0.2623446583747864 255.0 0.0 0.0
0.04850064218044281 0.1924976110458374 -0.21992367506027222 255.0 0.0 0.0
-0.21187874674797058 0.4080449640750885 0.08658155053853989 255.0 0.0 0.0
0.10269884020090103 0.2349361777305603 -0.12315816432237625 255.0 0.0 0.0
-0.20974227786064148 0.2916780114173889 -0.019358234480023384 255.0 0.0 0.0
0.18884266912937164 -0.25134435296058655 -0.047890082001686096 255.0 0.0 0.0
0.21654105186462402 0.26258736848831177 0.03206052631139755 255.0 0.0 0.0
0.17913086712360382 -0.26516589522361755 0.04548424109816551 255.0 0.0 0.0
-0.2500673532485962 -0.25082919001579285 -0.01948980800807476 255.0 0.0 0.0
0.25198861956596375 0.2749875783920288 -0.017558252438902855 255.0 0.0 0.0
-0.1502438634634018 -0.23329924046993256 0.15586312115192413 255.0 0.0 0.0
-0.2784058451652527 0.1270896941423416 -0.33213964104652405 255.0 0.0 0.0
-0.25389009714126587 -0.47460314631462097 -0.017193559557199478 255.0 0.0 0.0
0.03150177374482155 0.22895948588848114 -0.13449281454086304 255.0 0.0 0.0
-0.11966308951377869 -0.19469033181667328 0.1556999683380127 255.0 0.0 0.0
-0.2471170574426651 0.34306296706199646 0.07051945477724075 255.0 0.0 0.0
0.0018931899685412645 0.10358847677707672 -0.13408343493938446 255.0 0.0 0.0
-0.26287877559661865 0.2141197770833969 0.1530342996120453 255.0 0.0 0.0
0.2062917947769165 0.24457325041294098 0.02503933012485504 255.0 0.0 0.0
0.1597432792186737 -0.4323335886001587 -0.042080774903297424 255.0 0.0 0.0
0.291326642036438 0.22523649036884308 0.1433790624141693 255.0 0.0 0.0
0.05417308956384659 0.22335925698280334 0.15616850554943085 255.0 0.0 0.0
-0.11443591117858887 0.3399231731891632 -0.3135969340801239 255.0 0.0 0.0
-0.10202928632497787 0.22987981140613556 0.14988777041435242 255.0 0.0 0.0
0.04203719645738602 0.1788896769285202 -0.13809125125408173 255.0 0.0 0.0
-0.26770442724227905 0.0522691048681736 -0.24663016200065613 255.0 0.0 0.0
0.24872986972332 0.2287115603685379 -0.04507379233837128 255.0 0.0 0.0
0.0856599360704422 -0.246620312333107 -0.13211552798748016 255.0 0.0 0.0
0.23469959199428558 0.024212663993239403 0.1691150963306427 255.0 0.0 0.0
-0.22992074489593506 -0.45868048071861267 0.10478348284959793 255.0 0.0 0.0
0.2903139293193817 0.22766850888729095 0.05561378598213196 255.0 0.0 0.0
0.25528785586357117 0.4552460312843323 -0.08027968555688858 255.0 0.0 0.0
0.2860867977142334 0.3320354223251343 -0.0185815691947937 255.0 0.0 0.0
0.2963683009147644 -0.039375610649585724 -0.11573571711778641 255.0 0.0 0.0
0.1343858689069748 -0.2443135529756546 -0.13506805896759033 255.0 0.0 0.0
-0.2662027180194855 0.22691088914871216 -0.023814454674720764 255.0 0.0 0.0
0.1969086229801178 0.3402940034866333 -0.0444805733859539 255.0 0.0 0.0
-0.24174173176288605 -0.26427966356277466 0.042409561574459076 255.0 0.0 0.0
0.2972581684589386 0.2090991735458374 -0.06069547310471535 255.0 0.0 0.0
0.2609005570411682 0.5106725692749023 0.08720484375953674 255.0 0.0 0.0
-0.3288995921611786 -0.3372424840927124 0.15818437933921814 255.0 0.0 0.0
-0.0942813828587532 0.17134368419647217 0.15074385702610016 255.0 0.0 0.0
0.2988297641277313 0.2234659641981125 -0.011504698544740677 255.0 0.0 0.0
-0.2099047154188156 -0.2695867717266083 -0.0592586025595665 255.0 0.0 0.0
-0.20788787305355072 0.21212832629680634 0.15632209181785583 255.0 0.0 0.0
-0.21953293681144714 0.09308116137981415 0.16655182838439941 255.0 0.0 0.0
-0.25248268246650696 0.39577314257621765 0.11872819066047668 255.0 0.0 0.0
0.19071535766124725 -0.25542619824409485 -0.029022112488746643 255.0 0.0 0.0
0.27500396966934204 0.3694356083869934 0.12626750767230988 255.0 0.0 0.0
0.007722335867583752 -0.2516692280769348 -0.1248166412115097 255.0 0.0 0.0
-0.20623032748699188 0.3004680275917053 -0.019979266449809074 255.0 0.0 0.0
-0.05011243373155594 0.3005100190639496 -0.2683051526546478 255.0 0.0 0.0
-0.31514278054237366 -0.32256895303726196 0.15081240236759186 255.0 0.0 0.0
-0.16976743936538696 0.362216055393219 -0.04579491168260574 255.0 0.0 0.0
-0.18944549560546875 0.2272338569164276 -0.03760829195380211 255.0 0.0 0.0
0.24761970341205597 0.23359204828739166 -0.03413556516170502 255.0 0.0 0.0
0.17291736602783203 0.2280215620994568 0.14300096035003662 255.0 0.0 0.0
0.26785871386528015 -0.3257337510585785 0.09691587835550308 255.0 0.0 0.0
-0.2302173376083374 -0.07853082567453384 0.15352414548397064 255.0 0.0 0.0
0.01728670299053192 0.1720866858959198 0.14983175694942474 255.0 0.0 0.0
0.18457312881946564 -0.4441293179988861 -0.05817454680800438 255.0 0.0 0.0
0.01782301813364029 0.08771275728940964 -0.13261926174163818 255.0 0.0 0.0
-0.28384122252464294 0.02661898545920849 -0.3157948851585388 255.0 0.0 0.0
0.25750383734703064 0.2537105977535248 0.041609276086091995 255.0 0.0 0.0
0.29725515842437744 0.21329265832901 0.1345631331205368 255.0 0.0 0.0
-0.011085039004683495 0.10358573496341705 -0.18039768934249878 255.0 0.0 0.0
-0.19652555882930756 0.3785848915576935 0.11063588410615921 255.0 0.0 0.0
-0.25385406613349915 0.23622877895832062 -0.32786670327186584 255.0 0.0 0.0
-0.28797927498817444 0.07870586961507797 -0.2798159718513489 255.0 0.0 0.0
-0.2786904275417328 -0.08107456564903259 -0.2564578354358673 255.0 0.0 0.0
-0.21651704609394073 0.43578511476516724 -0.08121149986982346 255.0 0.0 0.0
0.05538817495107651 0.17106056213378906 -0.19906307756900787 255.0 0.0 0.0
-0.13310834765434265 0.16483066976070404 0.1602584421634674 255.0 0.0 0.0
-0.23663491010665894 0.3449024558067322 -0.050686370581388474 255.0 0.0 0.0
-0.29116472601890564 0.06935036182403564 -0.30517590045928955 255.0 0.0 0.0
-0.1988493949174881 0.33522650599479675 -0.3492790758609772 255.0 0.0 0.0
-0.2679624855518341 0.22301170229911804 -0.03189777955412865 255.0 0.0 0.0
0.17643854022026062 0.18492229282855988 0.15591537952423096 255.0 0.0 0.0
0.29724302887916565 0.04271962121129036 -0.12120652198791504 255.0 0.0 0.0
-0.2299962341785431 0.5005277991294861 0.07274046540260315 255.0 0.0 0.0
-0.33913591504096985 -0.3768641948699951 0.044422633945941925 255.0 0.0 0.0
-0.2704034745693207 -0.15142670273780823 -0.13432931900024414 255.0 0.0 0.0
-0.009753224439918995 0.17765961587429047 -0.13704802095890045 255.0 0.0 0.0
0.29601502418518066 0.4286002516746521 0.11765320599079132 255.0 0.0 0.0
0.1488785445690155 0.21782858669757843 0.15632209181785583 255.0 0.0 0.0
0.2049998939037323 0.45151081681251526 -0.07215724885463715 255.0 0.0 0.0
0.025220775976777077 0.11257173120975494 -0.19986923038959503 255.0 0.0 0.0
-0.26726406812667847 -0.38250550627708435 -0.09623466432094574 255.0 0.0 0.0
0.2970218062400818 0.001742163090966642 -0.13671188056468964 255.0 0.0 0.0
0.2492031753063202 0.003660358488559723 0.15396226942539215 255.0 0.0 0.0
0.2065666913986206 0.29026293754577637 0.0065004401840269566 255.0 0.0 0.0
-0.2643020451068878 -0.3176708519458771 0.12953992187976837 255.0 0.0 0.0
0.1902928650379181 -0.251343697309494 0.07069392502307892 255.0 0.0 0.0
-0.20492152869701385 0.1284845769405365 0.16933153569698334 255.0 0.0 0.0
-0.037055905908346176 0.27456364035606384 -0.2591830790042877 255.0 0.0 0.0
-0.24062702059745789 0.4744708240032196 0.10980479419231415 255.0 0.0 0.0
0.25714409351348877 0.2743786573410034 0.03400910645723343 255.0 0.0 0.0
0.24760311841964722 -0.3191662132740021 0.1074715405702591 255.0 0.0 0.0
-0.18624413013458252 0.23975257575511932 0.04208480939269066 255.0 0.0 0.0
-0.17836521565914154 0.2528523802757263 0.02612391486763954 255.0 0.0 0.0
-0.284249871969223 0.024618064984679222 -0.3130470812320709 255.0 0.0 0.0
-0.2698119580745697 0.022022809833288193 0.15502962470054626 255.0 0.0 0.0
-0.265813946723938 0.43156519532203674 0.10247940570116043 255.0 0.0 0.0
-0.26801908016204834 0.15223324298858643 0.156287282705307 255.0 0.0 0.0
-0.2689238488674164 -0.012781767174601555 -0.1320571005344391 255.0 0.0 0.0
0.26827600598335266 0.2275763899087906 0.15083937346935272 255.0 0.0 0.0
-0.2728646397590637 0.22508132457733154 0.0679648146033287 255.0 0.0 0.0
-0.179470032453537 0.49025413393974304 0.0789879709482193 255.0 0.0 0.0
0.2389708012342453 -0.2781912088394165 -0.05269734561443329 255.0 0.0 0.0
-0.015670811757445335 0.30176711082458496 -0.2552565932273865 255.0 0.0 0.0
0.23573461174964905 -0.11351930350065231 0.16940195858478546 255.0 0.0 0.0
0.2093116194009781 0.37411022186279297 -0.07671251893043518 255.0 0.0 0.0
-0.22481410205364227 -0.1578093022108078 0.15296903252601624 255.0 0.0 0.0
-0.2116338312625885 0.3026030659675598 -0.3634260296821594 255.0 0.0 0.0
0.003037400543689728 0.2279496043920517 0.1438639760017395 255.0 0.0 0.0
-0.02128634601831436 0.2991446852684021 -0.29447731375694275 255.0 0.0 0.0
0.15094393491744995 -0.44297030568122864 -0.02675217017531395 255.0 0.0 0.0
-0.13311520218849182 0.3234284520149231 -0.34176838397979736 255.0 0.0 0.0
-0.21686607599258423 -0.13060782849788666 0.16501857340335846 255.0 0.0 0.0
0.19548091292381287 0.41394802927970886 0.1110575944185257 255.0 0.0 0.0
0.1584169566631317 -0.3857463598251343 0.15539328753948212 255.0 0.0 0.0
0.262567400932312 -0.14047233760356903 0.15584638714790344 255.0 0.0 0.0
0.13882006704807281 -0.4376620352268219 0.048867225646972656 255.0 0.0 0.0
