-0.21912774443626404 0.4651136100292206 0.0941474512219429 255.0 0.0 0.0
0.17696548998355865 -0.252139151096344 0.030393484979867935 255.0 0.0 0.0
0.2597437798976898 -0.25125473737716675 -0.043217603117227554 255.0 0.0 0.0
0.26904135942459106 -0.3728072941303253 0.16332556307315826 255.0 0.0 0.0
-0.13096530735492706 -0.24703681468963623 -0.13451021909713745 255.0 0.0 0.0
-0.25785738229751587 0.09795921295881271 -0.3032412827014923 255.0 0.0 0.0
0.2674056887626648 0.28708016872406006 0.023073703050613403 255.0 0.0 0.0
0.26062652468681335 0.39822348952293396 0.10824517160654068 255.0 0.0 0.0
-0.2794097661972046 -0.04095057025551796 -0.22659359872341156 255.0 0.0 0.0
0.12208203226327896 0.22831422090530396 0.1452159732580185 255.0 0.0 0.0
-0.27552530169487 -0.2108374387025833 -0.11893285065889359 255.0 0.0 0.0
0.2559245526790619 -0.2896116375923157 0.07761313766241074 255.0 0.0 0.0
-0.021181434392929077 0.10568686574697495 -0.15162622928619385 255.0 0.0 0.0
0.01722012460231781 0.10478939861059189 -0.1936490386724472 255.0 0.0 0.0
0.24432940781116486 0.012062670662999153 0.16628813743591309 255.0 0.0 0.0
0.2519286274909973 0.31924042105674744 -0.03922170028090477 255.0 0.0 0.0
-0.1513054072856903 0.22678710520267487 0.14994041621685028 255.0 0.0 0.0
0.08527897298336029 -0.17525920271873474 0.17192842066287994 255.0 0.0 0.0
-0.27118831872940063 -0.23868998885154724 0.14040960371494293 255.0 0.0 0.0
-0.044480618089437485 0.22415170073509216 -0.1351538598537445 255.0 0.0 0.0
0.2794780433177948 -0.4383680820465088 0.18854640424251556 255.0 0.0 0.0
0.08299104124307632 0.22794122993946075 0.14423520863056183 255.0 0.0 0.0
0.28194698691368103 0.23087577521800995 -0.036397866904735565 255.0 0.0 0.0
-0.27074331045150757 -0.21769334375858307 0.13908042013645172 255.0 0.0 0.0
-0.21822820603847504 0.09822526574134827 0.16819265484809875 255.0 0.0 0.0
-0.24476593732833862 -0.06284285336732864 -0.24622978270053864 255.0 0.0 0.0
0.29371699690818787 0.2171061635017395 -0.12340308725833893 255.0 0.0 0.0
-0.2161862999200821 -0.10702241212129593 0.16851748526096344 255.0 0.0 0.0
0.1893651783466339 0.3670194447040558 0.09583833813667297 255.0 0.0 0.0
-0.20814546942710876 -0.3958108425140381 0.1581677347421646 255.0 0.0 0.0
0.27615097165107727 -0.24632838368415833 -0.1357419192790985 255.0 0.0 0.0
0.04965168982744217 0.16420094668865204 -0.2073548585176468 255.0 0.0 0.0
0.03631599619984627 0.23364374041557312 -0.19073131680488586 255.0 0.0 0.0
-0.037501849234104156 0.2876940369606018 -0.25075438618659973 255.0 0.0 0.0
0.23635828495025635 0.4704291820526123 0.10376802831888199 255.0 0.0 0.0
-0.1895623356103897 0.2756092846393585 0.0303619597107172 255.0 0.0 0.0
-0.24179227650165558 0.3486897349357605 -0.0536760650575161 255.0 0.0 0.0
-0.01748652569949627 0.29888060688972473 -0.2950322926044464 255.0 0.0 0.0
-0.18828776478767395 0.4574841856956482 -0.06453408300876617 255.0 0.0 0.0
-0.26093536615371704 0.2263754904270172 -0.09601221233606339 255.0 0.0 0.0
-0.31507089734077454 -0.35131457448005676 0.20149968564510345 255.0 0.0 0.0
-0.27845337986946106 -0.07969013601541519 -0.23928974568843842 255.0 0.0 0.0
-0.27067434787750244 -0.24763186275959015 0.05705558508634567 255.0 0.0 0.0
0.08037551492452621 0.21661829948425293 -0.13665255904197693 255.0 0.0 0.0
0.0500195138156414 0.11600212007761002 -0.1347908079624176 255.0 0.0 0.0
-0.2707388997077942 -0.04476241394877434 0.14157924056053162 255.0 0.0 0.0
-0.11685894429683685 0.16492962837219238 0.16011454164981842 255.0 0.0 0.0
-0.23386715352535248 -0.25278377532958984 0.07025384902954102 255.0 0.0 0.0
0.2586754858493805 -0.2642311453819275 0.0013136042980477214 255.0 0.0 0.0
-0.2657622694969177 -0.24995365738868713 -0.09281156212091446 255.0 0.0 0.0
0.25687092542648315 0.2293960005044937 0.06468460708856583 255.0 0.0 0.0
0.2922360599040985 0.3444049656391144 0.05185660719871521 255.0 0.0 0.0
0.2466772049665451 0.28384578227996826 -0.02092459797859192 255.0 0.0 0.0
-0.25153660774230957 -0.24186494946479797 0.15632209181785583 255.0 0.0 0.0
-0.24142612516880035 0.25238001346588135 -0.3565575182437897 255.0 0.0 0.0
0.17084257304668427 -0.25340524315834045 -0.0039881253615021706 255.0 0.0 0.0
-0.15295515954494476 0.3192177414894104 -0.3303859233856201 255.0 0.0 0.0
0.2576846480369568 0.13706497848033905 0.15165501832962036 255.0 0.0 0.0
0.2817072570323944 0.34043633937835693 0.08115305006504059 255.0 0.0 0.0
0.08675305545330048 -0.1811966449022293 0.16752593219280243 255.0 0.0 0.0
-0.2712620198726654 -0.3468892276287079 -0.07878485321998596 255.0 0.0 0.0
0.278317928314209 0.43065640330314636 -0.08044041693210602 255.0 0.0 0.0
0.021968860179185867 0.1192510724067688 -0.20775340497493744 255.0 0.0 0.0
-0.24748915433883667 0.43643003702163696 0.11386221647262573 255.0 0.0 0.0
0.006555250380188227 -0.2035643607378006 0.158604696393013 255.0 0.0 0.0
-0.2318633794784546 0.3479544222354889 0.09492741525173187 255.0 0.0 0.0
0.05431869253516197 0.21253563463687897 -0.17545203864574432 255.0 0.0 0.0
-0.2699422240257263 0.0011928635649383068 -0.1356004923582077 255.0 0.0 0.0
-0.25858163833618164 -0.13313572108745575 -0.1362934559583664 255.0 0.0 0.0
0.24697113037109375 -0.07425850629806519 0.1614343822002411 255.0 0.0 0.0
0.1538792848587036 -0.4444468915462494 0.16691601276397705 255.0 0.0 0.0
0.2290523499250412 -0.19742821156978607 0.15114226937294006 255.0 0.0 0.0
0.28476187586784363 -0.4373982846736908 -0.005249139852821827 255.0 0.0 0.0
-0.23601573705673218 0.27035239338874817 -0.34132710099220276 255.0 0.0 0.0
-0.024477751925587654 0.1684473156929016 0.15499871969223022 255.0 0.0 0.0
-0.18150517344474792 0.452278196811676 0.0928652212023735 255.0 0.0 0.0
0.29548829793930054 0.15636464953422546 -0.12921881675720215 255.0 0.0 0.0
-0.22996583580970764 0.28913983702659607 -0.3340764343738556 255.0 0.0 0.0
-0.25672170519828796 -0.07239896804094315 -0.22180840373039246 255.0 0.0 0.0
-0.24439528584480286 -0.40856409072875977 0.20044276118278503 255.0 0.0 0.0
0.2298821359872818 0.2147403210401535 -0.13506805896759033 255.0 0.0 0.0
-0.013311789371073246 0.209453746676445 -0.2364007532596588 255.0 0.0 0.0
-0.25835540890693665 -0.051379017531871796 -0.22176377475261688 255.0 0.0 0.0
0.23291321098804474 0.2275257706642151 0.1513882875442505 255.0 0.0 0.0
0.3000624477863312 -0.033830948173999786 -0.11901065707206726 255.0 0.0 0.0
-0.27125486731529236 0.21175739169120789 0.13897643983364105 255.0 0.0 0.0
0.2771300971508026 0.31208398938179016 0.017483359202742577 255.0 0.0 0.0
0.29229065775871277 -0.0793473869562149 0.15632209181785583 255.0 0.0 0.0
0.2373865842819214 0.5128863453865051 -0.011202236637473106 255.0 0.0 0.0
-0.0852803885936737 0.22747157514095306 -0.1295894980430603 255.0 0.0 0.0
-0.20362737774848938 0.26320573687553406 0.040269870311021805 255.0 0.0 0.0
0.16296811401844025 -0.39301031827926636 0.1715029925107956 255.0 0.0 0.0
0.22586257755756378 -0.25905919075012207 -0.04914180561900139 255.0 0.0 0.0
0.16077212989330292 -0.19252438843250275 0.15274205803871155 255.0 0.0 0.0
0.16193267703056335 -0.43527185916900635 0.1841299831867218 255.0 0.0 0.0
0.04752873256802559 0.22548548877239227 0.1424572616815567 255.0 0.0 0.0
-0.24049675464630127 0.409516841173172 0.10016785562038422 255.0 0.0 0.0
0.21205279231071472 0.5097060799598694 0.0061675929464399815 255.0 0.0 0.0
0.29324108362197876 0.10116326063871384 -0.13382785022258759 255.0 0.0 0.0
-0.26379451155662537 0.147792249917984 -0.12108222395181656 255.0 0.0 0.0
-0.2346937656402588 0.07487836480140686 0.15569248795509338 255.0 0.0 0.0
-0.2624649405479431 0.010096853598952293 -0.13726288080215454 255.0 0.0 0.0
-0.17290547490119934 -0.1986018270254135 0.15414388477802277 255.0 0.0 0.0
-0.08623942732810974 0.32214853167533875 -0.323165625333786 255.0 0.0 0.0
-0.07620956748723984 -0.24956516921520233 0.14682409167289734 255.0 0.0 0.0
-0.22956453263759613 -0.4790365397930145 0.019440200179815292 255.0 0.0 0.0
-0.2628866732120514 -0.4642590582370758 -0.06049933284521103 255.0 0.0 0.0
0.29259154200553894 0.34266650676727295 0.05203663557767868 255.0 0.0 0.0
0.2472299039363861 0.33931758999824524 0.112997867166996 255.0 0.0 0.0
-0.16516897082328796 0.4817601144313812 0.004712010268121958 255.0 0.0 0.0
-0.22356164455413818 0.4538768231868744 -0.07260075956583023 255.0 0.0 0.0
-0.28737592697143555 0.08150090277194977 -0.2814055383205414 255.0 0.0 0.0
-0.13756775856018066 0.3167019486427307 -0.34460994601249695 255.0 0.0 0.0
-0.22700680792331696 -0.17844614386558533 0.14938420057296753 255.0 0.0 0.0
0.2024528831243515 0.226769357919693 0.0364503376185894 255.0 0.0 0.0
-0.25212353467941284 -0.36590176820755005 -0.09368634223937988 255.0 0.0 0.0
-0.09980349242687225 -0.2509990930557251 0.14757153391838074 255.0 0.0 0.0
0.2906759977340698 -0.4310004413127899 0.07603252679109573 255.0 0.0 0.0
-0.2714352607727051 -0.027497392147779465 0.15367285907268524 255.0 0.0 0.0
-0.1874196082353592 0.48751595616340637 -0.031849540770053864 255.0 0.0 0.0
-0.21464772522449493 0.176693856716156 0.15052033960819244 255.0 0.0 0.0
-0.2507099509239197 0.36708301305770874 0.1136169508099556 255.0 0.0 0.0
0.14065775275230408 -0.4348812997341156 0.11668242514133453 255.0 0.0 0.0
0.2997809946537018 0.09871082752943039 -0.12605814635753632 255.0 0.0 0.0
-0.2721867859363556 0.015265989117324352 0.1440565288066864 255.0 0.0 0.0
-0.14827784895896912 -0.2668963074684143 0.003321573371067643 255.0 0.0 0.0
0.14829573035240173 -0.18529284000396729 0.16078722476959229 255.0 0.0 0.0
0.2782800495624542 0.49188467860221863 0.11398231238126755 255.0 0.0 0.0
0.1472298502922058 0.22678978741168976 0.1429840475320816 255.0 0.0 0.0
-0.2705068588256836 -0.18553608655929565 -0.13236315548419952 255.0 0.0 0.0
-0.23130978643894196 -0.4446071982383728 0.13968686759471893 255.0 0.0 0.0
-0.25980404019355774 0.050319869071245193 0.1556348204612732 255.0 0.0 0.0
0.2638623118400574 -0.34237009286880493 0.13225404918193817 255.0 0.0 0.0
-0.27157607674598694 0.21749268472194672 0.11739706248044968 255.0 0.0 0.0
-0.2894364893436432 0.0770585760474205 -0.2757549583911896 255.0 0.0 0.0
-0.27886849641799927 0.22959864139556885 -0.32376691699028015 255.0 0.0 0.0
0.19169218838214874 -0.19094610214233398 0.15271130204200745 255.0 0.0 0.0
-0.16129283607006073 0.40075021982192993 0.09630455821752548 255.0 0.0 0.0
0.22760538756847382 0.22657331824302673 0.058503855019807816 255.0 0.0 0.0
-0.2734214663505554 0.12934041023254395 -0.329698771238327 255.0 0.0 0.0
0.23926307260990143 0.51726895570755 0.0654049813747406 255.0 0.0 0.0
0.02339605987071991 -0.24274347722530365 -0.13506805896759033 255.0 0.0 0.0
0.25062042474746704 -0.2618005573749542 -0.026123186573386192 255.0 0.0 0.0
0.19997422397136688 0.22936518490314484 0.034470319747924805 255.0 0.0 0.0
0.1878000795841217 0.21842169761657715 0.15312112867832184 255.0 0.0 0.0
0.2295382022857666 0.22001710534095764 -0.13482441008090973 255.0 0.0 0.0
-0.2856215238571167 -0.037910230457782745 -0.23597541451454163 255.0 0.0 0.0
-0.10981031507253647 0.17336879670619965 0.15357477962970734 255.0 0.0 0.0
0.04763476550579071 0.20706242322921753 -0.16337139904499054 255.0 0.0 0.0
-0.1506689190864563 0.15520858764648438 0.1704968959093094 255.0 0.0 0.0
-0.022814836353063583 0.19527006149291992 -0.22247150540351868 255.0 0.0 0.0
0.22361284494400024 0.4724806845188141 0.1029270738363266 255.0 0.0 0.0
0.2967752516269684 0.01872091367840767 -0.13460476696491241 255.0 0.0 0.0
0.18094857037067413 -0.2521602511405945 0.05724041908979416 255.0 0.0 0.0
0.2970709204673767 -0.1914040595293045 -0.13545863330364227 255.0 0.0 0.0
0.16662092506885529 -0.2563967704772949 0.018937688320875168 255.0 0.0 0.0
0.26215824484825134 0.4272189736366272 -0.08767534792423248 255.0 0.0 0.0
0.09586330503225327 -0.24751606583595276 0.14776861667633057 255.0 0.0 0.0
-0.18150873482227325 0.223100483417511 -0.13048510253429413 255.0 0.0 0.0
-0.19522057473659515 0.24006079137325287 0.04654623195528984 255.0 0.0 0.0
-0.07931766659021378 -0.2436009794473648 -0.13506805896759033 255.0 0.0 0.0
-0.2686976492404938 -0.11294431984424591 -0.1292102187871933 255.0 0.0 0.0
0.2309952825307846 -0.20028893649578094 0.15301725268363953 255.0 0.0 0.0
0.29522645473480225 0.013117640279233456 0.14354638755321503 255.0 0.0 0.0
0.12129045277833939 -0.18732430040836334 0.16030453145503998 255.0 0.0 0.0
0.266252726316452 0.24637803435325623 -0.013008875772356987 255.0 0.0 0.0
0.010986546985805035 0.28557413816452026 -0.23928490281105042 255.0 0.0 0.0
0.2864692211151123 0.1358385533094406 0.15313316881656647 255.0 0.0 0.0
-0.28488877415657043 0.06363055109977722 -0.2587980628013611 255.0 0.0 0.0
-0.12576857209205627 0.16281399130821228 0.1621932089328766 255.0 0.0 0.0
-0.27538204193115234 -0.34805792570114136 -0.08351067453622818 255.0 0.0 0.0
-0.2707373797893524 -0.210279181599617 -0.11867450922727585 255.0 0.0 0.0
-0.15247678756713867 -0.2532668113708496 -0.031122935935854912 255.0 0.0 0.0
0.28485140204429626 -0.07843226939439774 -0.1368028074502945 255.0 0.0 0.0
-0.26938286423683167 0.07318135350942612 -0.2594601511955261 255.0 0.0 0.0
-0.22502709925174713 0.2285277247428894 -0.12980787456035614 255.0 0.0 0.0
0.29950281977653503 -0.1638074666261673 -0.13196255266666412 255.0 0.0 0.0
-0.24197663366794586 -0.28912559151649475 0.08260565996170044 255.0 0.0 0.0
0.28653547167778015 -0.22519752383232117 0.15624715387821198 255.0 0.0 0.0
0.28070542216300964 0.052896931767463684 0.15865740180015564 255.0 0.0 0.0
-0.02713785134255886 0.2209659218788147 -0.19494302570819855 255.0 0.0 0.0
-0.3347301781177521 -0.40841901302337646 -0.04598323628306389 255.0 0.0 0.0
-0.21398182213306427 -0.19219115376472473 0.14992983639240265 255.0 0.0 0.0
0.2469651848077774 0.2596472501754761 0.0402868427336216 255.0 0.0 0.0
-0.02846502512693405 0.1609060913324356 -0.13439206779003143 255.0 0.0 0.0
0.06298159062862396 -0.24085445702075958 -0.13175137341022491 255.0 0.0 0.0
0.24362137913703918 -0.3613801598548889 -0.08854592591524124 255.0 0.0 0.0
0.289237380027771 0.22542373836040497 0.1381259560585022 255.0 0.0 0.0
0.29780569672584534 -0.03493458032608032 0.15413625538349152 255.0 0.0 0.0
-0.21003666520118713 0.39182695746421814 -0.08356489986181259 255.0 0.0 0.0
-0.26614615321159363 0.21784979104995728 0.15618059039115906 255.0 0.0 0.0
-0.10467567294836044 0.21781787276268005 -0.13541388511657715 255.0 0.0 0.0
0.19174572825431824 0.39615195989608765 0.11656976491212845 255.0 0.0 0.0
-0.19455848634243011 0.32742974162101746 0.05016689747571945 255.0 0.0 0.0
0.24672284722328186 0.4790765047073364 0.10968693345785141 255.0 0.0 0.0
0.2781693637371063 0.11532019078731537 0.15629445016384125 255.0 0.0 0.0
-0.23242248594760895 0.22282209992408752 0.1562408059835434 255.0 0.0 0.0
-0.2277873009443283 -0.44707202911376953 0.15878063440322876 255.0 0.0 0.0
-0.20527517795562744 0.16236890852451324 0.1637938916683197 255.0 0.0 0.0
0.2374751716852188 -0.0019540279172360897 0.1711886078119278 255.0 0.0 0.0
-0.245050311088562 0.3897949755191803 -0.06847313791513443 255.0 0.0 0.0
-0.22541013360023499 -0.4754553437232971 0.04596231132745743 255.0 0.0 0.0
0.2964951992034912 0.22026053071022034 -0.09436171501874924 255.0 0.0 0.0
0.26500579714775085 -0.39480215311050415 -0.0758705586194992 255.0 0.0 0.0
-0.2320130467414856 -0.2844494879245758 -0.059425823390483856 255.0 0.0 0.0
0.2613348960876465 0.12219402194023132 0.1533382683992386 255.0 0.0 0.0
0.07303599268198013 0.17946556210517883 0.16177025437355042 255.0 0.0 0.0
-0.17372234165668488 -0.19308499991893768 0.15192675590515137 255.0 0.0 0.0
0.2630036771297455 -0.23410572111606598 0.15326817333698273 255.0 0.0 0.0
-0.2136821746826172 0.31902119517326355 0.049505073577165604 255.0 0.0 0.0
0.23789918422698975 0.16674956679344177 0.15545913577079773 255.0 0.0 0.0
0.027716970071196556 0.21487170457839966 -0.13506805896759033 255.0 0.0 0.0
-0.03397082909941673 -0.23093873262405396 0.1559092253446579 255.0 0.0 0.0
-0.21763260662555695 -0.45586568117141724 0.10382553935050964 255.0 0.0 0.0
-0.2608427405357361 0.15621984004974365 -0.30603548884391785 255.0 0.0 0.0
-0.17600616812705994 0.17019106447696686 0.14809618890285492 255.0 0.0 0.0
-0.2121061384677887 -0.39420080184936523 0.17131200432777405 255.0 0.0 0.0
0.29612988233566284 -0.21594864130020142 -0.13519157469272614 255.0 0.0 0.0
0.295171856880188 -0.21676531434059143 -0.13501739501953125 255.0 0.0 0.0
-0.19180966913700104 0.49373483657836914 0.10123811662197113 255.0 0.0 0.0
-0.07588106393814087 0.31926512718200684 -0.28477001190185547 255.0 0.0 0.0
-0.17426417768001556 0.3823221027851105 0.10478963702917099 255.0 0.0 0.0
0.24681717157363892 0.15812835097312927 0.16169199347496033 255.0 0.0 0.0
-0.2567983567714691 0.049014750868082047 -0.31019702553749084 255.0 0.0 0.0
-0.2214139699935913 -0.01637471653521061 0.16254271566867828 255.0 0.0 0.0
-0.18288235366344452 0.3486897349357605 0.08039326965808868 255.0 0.0 0.0
-0.2426408976316452 0.39748337864875793 0.10996629297733307 255.0 0.0 0.0
-0.24143747985363007 -0.4270574152469635 0.18478229641914368 255.0 0.0 0.0
-0.16788841784000397 0.311820387840271 -0.3386108875274658 255.0 0.0 0.0
-0.27087438106536865 -0.22427794337272644 0.14967209100723267 255.0 0.0 0.0
-0.3241503834724426 -0.33913561701774597 0.17951427400112152 255.0 0.0 0.0
0.03466980904340744 0.11188048124313354 -0.1941382735967636 255.0 0.0 0.0
-0.15973204374313354 0.4063999056816101 0.10158637166023254 255.0 0.0 0.0
-0.2027074247598648 0.024656053632497787 0.1693398505449295 255.0 0.0 0.0
-0.21334350109100342 -0.4515170156955719 0.09890145063400269 255.0 0.0 0.0
0.2672901749610901 -0.3611855208873749 -0.07367447018623352 255.0 0.0 0.0
0.22429388761520386 -0.26872962713241577 -0.05103970691561699 255.0 0.0 0.0
0.2359827607870102 -0.11909083276987076 0.17360758781433105 255.0 0.0 0.0
0.20829802751541138 0.3155359923839569 -0.017430098727345467 255.0 0.0 0.0
0.27071502804756165 0.23531033098697662 0.03739367425441742 255.0 0.0 0.0
-0.33330193161964417 -0.348491370677948 0.1453709751367569 255.0 0.0 0.0
-0.2757450342178345 -0.39077526330947876 0.20318062603473663 255.0 0.0 0.0
-0.03790603578090668 0.11778480559587479 -0.1367550939321518 255.0 0.0 0.0
-0.2399764209985733 0.2389155477285385 -0.02179129235446453 255.0 0.0 0.0
-0.23621121048927307 0.4751225411891937 -0.04691760987043381 255.0 0.0 0.0
-0.2507094144821167 0.04524223133921623 -0.2586737275123596 255.0 0.0 0.0
0.28670722246170044 0.09094952791929245 -0.13506805896759033 255.0 0.0 0.0
-0.23870734870433807 0.3454820513725281 -0.05178866907954216 255.0 0.0 0.0
0.1457410305738449 -0.4153173267841339 0.16940805315971375 255.0 0.0 0.0
0.14367440342903137 -0.24947333335876465 -0.13287639617919922 255.0 0.0 0.0
-0.2873989939689636 0.05764317512512207 -0.26423612236976624 255.0 0.0 0.0
-0.038318928331136703 0.19245126843452454 -0.20412665605545044 255.0 0.0 0.0
0.2955808937549591 0.2250913679599762 0.027829507365822792 255.0 0.0 0.0
-0.23134995996952057 0.48112621903419495 -0.04182325303554535 255.0 0.0 0.0
-0.03184004873037338 0.2175801396369934 -0.2023138552904129 255.0 0.0 0.0
0.28349006175994873 0.346163272857666 -0.051804278045892715 255.0 0.0 0.0
-0.2509373426437378 -0.06409935653209686 -0.22302260994911194 255.0 0.0 0.0
0.17425444722175598 -0.20395290851593018 0.1571456640958786 255.0 0.0 0.0
-0.016056770458817482 -0.2404782623052597 0.15632209181785583 255.0 0.0 0.0
-0.2147214114665985 -0.45591893792152405 0.11316542327404022 255.0 0.0 0.0
0.2758803069591522 0.2097400426864624 -0.13728967308998108 255.0 0.0 0.0
0.257941871881485 0.3901512026786804 -0.08991390466690063 255.0 0.0 0.0
-0.18579742312431335 -0.2418670654296875 0.15632209181785583 255.0 0.0 0.0
-0.28409647941589355 -0.45130181312561035 -0.0834638848900795 255.0 0.0 0.0
-0.21627436578273773 -0.12689347565174103 0.16644643247127533 255.0 0.0 0.0
0.23656392097473145 0.3727112114429474 -0.08828657120466232 255.0 0.0 0.0
-0.23748226463794708 0.32592809200286865 0.04428675025701523 255.0 0.0 0.0
-0.024936499074101448 -0.24858012795448303 0.14665523171424866 255.0 0.0 0.0
-0.21716174483299255 -0.16054688394069672 0.1567806452512741 255.0 0.0 0.0
0.268123984336853 0.4719246029853821 0.12000720947980881 255.0 0.0 0.0
-0.2456950694322586 0.35130733251571655 -0.055215395987033844 255.0 0.0 0.0
-0.16673927009105682 0.3422790467739105 0.04000086709856987 255.0 0.0 0.0
0.16441430151462555 -0.18117624521255493 0.16628043353557587 255.0 0.0 0.0
0.29722729325294495 0.01352375466376543 -0.12706421315670013 255.0 0.0 0.0
-0.21959303319454193 0.31467947363853455 0.046589940786361694 255.0 0.0 0.0
0.007711286190897226 0.16263629496097565 0.16303932666778564 255.0 0.0 0.0
-0.16852602362632751 0.3218992352485657 -0.3549633324146271 255.0 0.0 0.0
0.13916310667991638 0.21452681720256805 0.15632209181785583 255.0 0.0 0.0
0.2697314918041229 0.42810526490211487 -0.08233202993869781 255.0 0.0 0.0
-0.20487987995147705 -0.19006988406181335 0.1514519900083542 255.0 0.0 0.0
-0.2846986651420593 0.16889798641204834 -0.3103977143764496 255.0 0.0 0.0
0.26228123903274536 0.3638365864753723 0.12955404818058014 255.0 0.0 0.0
-0.12358404695987701 0.33509010076522827 -0.31096959114074707 255.0 0.0 0.0
0.037052277475595474 0.17093528807163239 0.14994868636131287 255.0 0.0 0.0
0.29043421149253845 0.014594092965126038 0.15632209181785583 255.0 0.0 0.0
0.052181944251060486 -0.23355430364608765 -0.13353563845157623 255.0 0.0 0.0
-0.18641875684261322 0.3360142707824707 -0.03449598327279091 255.0 0.0 0.0
0.2972581684589386 0.21407188475131989 0.07751297205686569 255.0 0.0 0.0
-0.21353201568126678 -0.44339680671691895 0.11574762314558029 255.0 0.0 0.0
-0.26048019528388977 -0.15962256491184235 -0.13008713722229004 255.0 0.0 0.0
-0.26623111963272095 -0.06091073527932167 -0.21546193957328796 255.0 0.0 0.0
-0.23760417103767395 0.440528929233551 0.09883235394954681 255.0 0.0 0.0
0.1931844800710678 0.49183255434036255 0.05416799336671829 255.0 0.0 0.0
0.15181277692317963 -0.44522643089294434 0.14043238759040833 255.0 0.0 0.0
-0.2339055985212326 0.10577675700187683 0.15757575631141663 255.0 0.0 0.0
-0.08002821356058121 0.15707488358020782 0.1691133677959442 255.0 0.0 0.0
-0.22918474674224854 -0.4775468707084656 0.023733248934149742 255.0 0.0 0.0
-0.2219439595937729 0.3076742887496948 -0.3615493178367615 255.0 0.0 0.0
-0.2550048828125 0.22797872126102448 0.011710385791957378 255.0 0.0 0.0
-0.290391206741333 0.04114196076989174 -0.26307958364486694 255.0 0.0 0.0
0.0435275137424469 0.2103567272424698 -0.16974957287311554 255.0 0.0 0.0
-0.22600187361240387 -0.11116747558116913 0.16048425436019897 255.0 0.0 0.0
0.23275551199913025 0.22924768924713135 0.06459631770849228 255.0 0.0 0.0
-0.2647208571434021 0.25210434198379517 -0.3213121294975281 255.0 0.0 0.0
-0.20079044997692108 0.49500349164009094 0.10381195694208145 255.0 0.0 0.0
-0.26390838623046875 -0.01879988983273506 -0.22431474924087524 255.0 0.0 0.0
-0.26262015104293823 0.2543198764324188 -0.32357412576675415 255.0 0.0 0.0
-0.24329151213169098 0.3365135192871094 0.05606626346707344 255.0 0.0 0.0
0.22897522151470184 0.5057644844055176 0.10934657603502274 255.0 0.0 0.0
0.1409333199262619 -0.42751792073249817 0.124651238322258 255.0 0.0 0.0
-0.026762347668409348 0.10883302986621857 -0.15299011766910553 255.0 0.0 0.0
-0.16185717284679413 0.351529061794281 -0.01927066221833229 255.0 0.0 0.0
-0.19573974609375 0.3263823688030243 -0.32867684960365295 255.0 0.0 0.0
0.1846618503332138 0.3798155188560486 0.10386088490486145 255.0 0.0 0.0
0.210776224732399 0.3232993483543396 0.052206359803676605 255.0 0.0 0.0
-0.0025340199936181307 0.29624202847480774 -0.2879560589790344 255.0 0.0 0.0
0.1563240885734558 -0.4448484182357788 0.13607752323150635 255.0 0.0 0.0
-0.26964083313941956 0.19165962934494019 -0.34620171785354614 255.0 0.0 0.0
0.2704874873161316 0.22746217250823975 0.14431843161582947 255.0 0.0 0.0
0.08300957828760147 0.2074277400970459 -0.13506805896759033 255.0 0.0 0.0
-0.0241884496062994 0.11193443089723587 -0.15649768710136414 255.0 0.0 0.0
-0.21777129173278809 -0.16607515513896942 0.1663597822189331 255.0 0.0 0.0
0.24596522748470306 -0.28248754143714905 -0.058356814086437225 255.0 0.0 0.0
-0.25403931736946106 -0.2509412467479706 0.13286881148815155 255.0 0.0 0.0
0.06436055153608322 -0.23639245331287384 -0.13479448854923248 255.0 0.0 0.0
0.11051223427057266 0.15022556483745575 0.16933074593544006 255.0 0.0 0.0
0.25810301303863525 -0.31166356801986694 0.08917193114757538 255.0 0.0 0.0
0.16966499388217926 -0.1913933902978897 0.15438684821128845 255.0 0.0 0.0
-0.18324369192123413 0.2756616473197937 0.0043118358589708805 255.0 0.0 0.0
-0.17466354370117188 -0.17771299183368683 0.16532909870147705 255.0 0.0 0.0
0.26662999391555786 -0.429518461227417 0.20086880028247833 255.0 0.0 0.0
-0.141433447599411 0.2271878570318222 0.1513669341802597 255.0 0.0 0.0
-0.05723029747605324 -0.24752302467823029 0.15190458297729492 255.0 0.0 0.0
-0.012459112331271172 0.3008987009525299 -0.2525601089000702 255.0 0.0 0.0
-0.2671406865119934 -0.0999574214220047 -0.12360934168100357 255.0 0.0 0.0
-0.24111923575401306 -0.42699217796325684 0.1888660490512848 255.0 0.0 0.0
0.17487451434135437 -0.25141406059265137 -0.02928861789405346 255.0 0.0 0.0
-0.19158883392810822 0.4864659905433655 -0.03629045560956001 255.0 0.0 0.0
-0.03612184897065163 0.262411504983902 -0.2407383918762207 255.0 0.0 0.0
0.2835342586040497 -0.21771946549415588 -0.1328829973936081 255.0 0.0 0.0
-0.03088739886879921 0.09980776160955429 -0.13506805896759033 255.0 0.0 0.0
0.28173744678497314 0.22988706827163696 0.04693993180990219 255.0 0.0 0.0
0.27930471301078796 0.4121040105819702 -0.0753907561302185 255.0 0.0 0.0
0.291855126619339 -0.2514165937900543 -0.1001863032579422 255.0 0.0 0.0
-0.24235899746418 0.35088402032852173 0.0876963883638382 255.0 0.0 0.0
-0.08167925477027893 0.3195694088935852 -0.324164479970932 255.0 0.0 0.0
0.01841811276972294 0.18132634460926056 0.15654800832271576 255.0 0.0 0.0
-0.03153519704937935 0.21456606686115265 -0.21114273369312286 255.0 0.0 0.0
-0.14379100501537323 0.33683568239212036 -0.3344384431838989 255.0 0.0 0.0
0.24503174424171448 0.239018052816391 0.05036959424614906 255.0 0.0 0.0
-0.26195934414863586 0.057452019304037094 -0.3143065869808197 255.0 0.0 0.0
0.08364889025688171 -0.23693566024303436 -0.13599474728107452 255.0 0.0 0.0
0.205159530043602 0.30844977498054504 -0.011719981208443642 255.0 0.0 0.0
0.10375421494245529 -0.2338975965976715 0.16086556017398834 255.0 0.0 0.0
-0.18342064321041107 0.3295934796333313 -0.022518983110785484 255.0 0.0 0.0
0.2564796805381775 0.2277456820011139 0.14900371432304382 255.0 0.0 0.0
0.11506287008523941 -0.1807170957326889 0.16606824100017548 255.0 0.0 0.0
-0.23530498147010803 -0.1514698714017868 0.1561919003725052 255.0 0.0 0.0
-0.23159120976924896 0.232544407248497 0.04846443235874176 255.0 0.0 0.0
-0.21281638741493225 -0.4280787706375122 0.15833665430545807 255.0 0.0 0.0
0.19235943257808685 0.3913728594779968 0.11449514329433441 255.0 0.0 0.0
0.29536566138267517 0.017569711431860924 -0.1310461312532425 255.0 0.0 0.0
0.2819693386554718 0.3472827970981598 -0.05726754292845726 255.0 0.0 0.0
0.28880566358566284 0.224456325173378 0.02727261558175087 255.0 0.0 0.0
-0.3235663175582886 -0.4293501377105713 -0.058970026671886444 255.0 0.0 0.0
-0.13476456701755524 0.33627504110336304 -0.3310841917991638 255.0 0.0 0.0
0.2544558346271515 0.501587986946106 0.12371401488780975 255.0 0.0 0.0
-0.28638115525245667 0.0576685406267643 -0.3134457767009735 255.0 0.0 0.0
0.2909582853317261 0.3368261456489563 -0.034007586538791656 255.0 0.0 0.0
0.259473979473114 0.3511354625225067 0.11823178082704544 255.0 0.0 0.0
-0.2659531831741333 0.06292274594306946 -0.3174501359462738 255.0 0.0 0.0
0.2786658704280853 -0.44390174746513367 0.0703902468085289 255.0 0.0 0.0
0.020456986501812935 0.21335196495056152 0.1570349782705307 255.0 0.0 0.0
-0.23638392984867096 0.48215141892433167 0.11587104946374893 255.0 0.0 0.0
-0.18496690690517426 0.21261881291866302 0.15632209181785583 255.0 0.0 0.0
-0.2716831564903259 -0.24240833520889282 0.05025237426161766 255.0 0.0 0.0
0.06023361533880234 0.1544359177350998 -0.1329764872789383 255.0 0.0 0.0
-0.28676143288612366 -0.3654526174068451 0.20658078789710999 255.0 0.0 0.0
0.24607710540294647 0.1693069338798523 0.15374858677387238 255.0 0.0 0.0
0.274522989988327 -0.4293502867221832 -0.05626717582345009 255.0 0.0 0.0
0.25672024488449097 0.24234765768051147 0.04284445196390152 255.0 0.0 0.0
-0.21209149062633514 0.5085058212280273 0.05033835396170616 255.0 0.0 0.0
0.22949917614459991 -0.4313611090183258 0.20597334206104279 255.0 0.0 0.0
0.29920151829719543 -0.08549465984106064 0.14525455236434937 255.0 0.0 0.0
-0.2528497874736786 0.30551305413246155 -0.3515658378601074 255.0 0.0 0.0
-0.26287129521369934 -0.1723233014345169 -0.136835515499115 255.0 0.0 0.0
-0.22502082586288452 -0.010712471790611744 0.15122611820697784 255.0 0.0 0.0
-0.1793043315410614 0.4133199155330658 0.09049591422080994 255.0 0.0 0.0
0.03834351897239685 0.1977299451828003 -0.15447144210338593 255.0 0.0 0.0
0.2972244620323181 -0.03409697860479355 0.14937402307987213 255.0 0.0 0.0
-0.2636798918247223 0.07323141396045685 -0.2647888958454132 255.0 0.0 0.0
-0.32532501220703125 -0.3591969907283783 0.18597492575645447 255.0 0.0 0.0
-0.22659176588058472 -0.28094911575317383 0.07976783812046051 255.0 0.0 0.0
0.03150177374482155 0.22895948588848114 -0.13449281454086304 255.0 0.0 0.0
-0.22830574214458466 0.3090989589691162 -0.32921525835990906 255.0 0.0 0.0
0.2803412079811096 -0.24125845730304718 -0.13278934359550476 255.0 0.0 0.0
-0.1462024599313736 -0.25049373507499695 0.05634790286421776 255.0 0.0 0.0
-0.2655790448188782 -0.016810055822134018 0.15145239233970642 255.0 0.0 0.0
-0.11781740933656693 0.3283563554286957 -0.3224888741970062 255.0 0.0 0.0
0.2612953782081604 -0.18661628663539886 0.1593213677406311 255.0 0.0 0.0
-0.029029926285147667 0.1792476624250412 -0.14572025835514069 255.0 0.0 0.0
0.2255362570285797 -0.27531152963638306 0.07782141119241714 255.0 0.0 0.0
0.21805858612060547 0.21522408723831177 0.15685001015663147 255.0 0.0 0.0
0.28380003571510315 -0.24957481026649475 0.011968866921961308 255.0 0.0 0.0
0.025434907525777817 0.2779940068721771 -0.25858306884765625 255.0 0.0 0.0
-0.2829466164112091 0.22825391590595245 -0.32514244318008423 255.0 0.0 0.0
0.2920263409614563 0.04966489225625992 -0.13506805896759033 255.0 0.0 0.0
0.2794125974178314 0.23190313577651978 0.0332692451775074 255.0 0.0 0.0
-0.14424078166484833 -0.23974891006946564 -0.13340742886066437 255.0 0.0 0.0
-0.2556307315826416 0.048703983426094055 -0.31362536549568176 255.0 0.0 0.0
0.18480481207370758 -0.4264709949493408 -0.07141468673944473 255.0 0.0 0.0
0.2904665470123291 0.22899781167507172 -0.09456224739551544 255.0 0.0 0.0
-0.21183067560195923 0.4075581133365631 0.08778084814548492 255.0 0.0 0.0
-0.016100052744150162 -0.2319553792476654 0.15604425966739655 255.0 0.0 0.0
0.27057239413261414 -0.3424561023712158 0.116668701171875 255.0 0.0 0.0
-0.20747563242912292 -0.11692410707473755 0.17074042558670044 255.0 0.0 0.0
-0.2497342824935913 0.3506094217300415 -0.052142009139060974 255.0 0.0 0.0
0.24695321917533875 0.16164620220661163 0.16167572140693665 255.0 0.0 0.0
0.2439175397157669 -0.16879433393478394 0.1626943051815033 255.0 0.0 0.0
-0.2137083262205124 -0.25781160593032837 -0.04926189035177231 255.0 0.0 0.0
-0.042751673609018326 -0.204830601811409 0.15353360772132874 255.0 0.0 0.0
-0.24437883496284485 0.34678739309310913 -0.05099218338727951 255.0 0.0 0.0
-0.24275274574756622 -0.3260227143764496 -0.08078807592391968 255.0 0.0 0.0
-0.26835060119628906 0.27373871207237244 -0.3480764329433441 255.0 0.0 0.0
0.19159094989299774 0.3626572787761688 0.10373354703187943 255.0 0.0 0.0
-0.24682530760765076 0.24363398551940918 0.025174813345074654 255.0 0.0 0.0
0.29718390107154846 0.22254489362239838 0.04138072207570076 255.0 0.0 0.0
0.2972581684589386 0.2246166169643402 -0.06670133024454117 255.0 0.0 0.0
0.29612597823143005 0.08986882865428925 -0.12445193529129028 255.0 0.0 0.0
-0.26177844405174255 0.22879914939403534 -0.06645894795656204 255.0 0.0 0.0
0.15638384222984314 -0.44016531109809875 0.10925356298685074 255.0 0.0 0.0
0.20637325942516327 0.23051312565803528 0.04206424206495285 255.0 0.0 0.0
0.05440789461135864 0.22737354040145874 -0.20393328368663788 255.0 0.0 0.0
0.29457271099090576 -0.24841277301311493 0.1435651034116745 255.0 0.0 0.0
0.20199717581272125 0.31556236743927 0.02620021626353264 255.0 0.0 0.0
-0.23573017120361328 0.47917187213897705 -0.03889671340584755 255.0 0.0 0.0
0.16186068952083588 0.1479591727256775 0.1693422794342041 255.0 0.0 0.0
-0.20722272992134094 -0.07666068524122238 0.1704714596271515 255.0 0.0 0.0
0.22257398068904877 0.289153516292572 0.034718066453933716 255.0 0.0 0.0
0.2697601318359375 0.2816118001937866 0.016088655218482018 255.0 0.0 0.0
0.013520513661205769 0.10355623811483383 -0.18785971403121948 255.0 0.0 0.0
0.0006498589646071196 0.20948700606822968 -0.13708196580410004 255.0 0.0 0.0
-0.09026166051626205 0.31370407342910767 -0.30499881505966187 255.0 0.0 0.0
0.22980639338493347 0.3738079071044922 0.11225128173828125 255.0 0.0 0.0
0.29749876260757446 -0.22911226749420166 0.14449842274188995 255.0 0.0 0.0
0.2049998939037323 0.45151081681251526 -0.07215724885463715 255.0 0.0 0.0
-0.24405637383460999 -0.4763420522212982 0.008728830143809319 255.0 0.0 0.0
-0.2828750014305115 0.10962022095918655 -0.2881758213043213 255.0 0.0 0.0
-0.22884812951087952 0.292863130569458 -0.3671052157878876 255.0 0.0 0.0
-0.2707524597644806 -0.24324384331703186 -0.07210692763328552 255.0 0.0 0.0
0.2930881381034851 0.3608575761318207 0.09016352891921997 255.0 0.0 0.0
-0.2633543312549591 -0.2498679757118225 -0.04003556817770004 255.0 0.0 0.0
-0.05332319065928459 0.18488535284996033 0.1559142768383026 255.0 0.0 0.0
0.23479437828063965 -0.24712763726711273 -0.13569891452789307 255.0 0.0 0.0
-0.2593739926815033 -0.006700478028506041 -0.23078151047229767 255.0 0.0 0.0
-0.03321130946278572 0.2671073079109192 -0.2514260709285736 255.0 0.0 0.0
0.2972027659416199 0.07552209496498108 -0.1299256682395935 255.0 0.0 0.0
-0.22648119926452637 0.1420900672674179 0.15190176665782928 255.0 0.0 0.0
-0.2233571857213974 -0.2568761110305786 0.06294082850217819 255.0 0.0 0.0
0.2243434637784958 -0.27723851799964905 0.08148850500583649 255.0 0.0 0.0
-0.2557295262813568 0.2856041193008423 -0.32742032408714294 255.0 0.0 0.0
-0.26765018701553345 -0.24183957278728485 0.05192486196756363 255.0 0.0 0.0
-0.2600823640823364 0.4498451054096222 0.11672352254390717 255.0 0.0 0.0
-0.20759598910808563 0.3174973726272583 -0.3270772695541382 255.0 0.0 0.0
0.00536676961928606 0.17390768229961395 0.15012364089488983 255.0 0.0 0.0
0.256269246339798 -0.17401497066020966 0.15456056594848633 255.0 0.0 0.0
0.2804296612739563 0.46507924795150757 0.1298648715019226 255.0 0.0 0.0
-0.2571627199649811 0.07045337557792664 -0.2720644176006317 255.0 0.0 0.0
-0.030077539384365082 0.21821220219135284 -0.21596062183380127 255.0 0.0 0.0
-0.011520241387188435 0.28942960500717163 -0.29180437326431274 255.0 0.0 0.0
-0.2552436590194702 -0.06440317630767822 0.15552861988544464 255.0 0.0 0.0
-0.27087610960006714 0.22436325252056122 0.03375854715704918 255.0 0.0 0.0
0.19779683649539948 -0.2463487982749939 0.07812725007534027 255.0 0.0 0.0
-0.1908254325389862 0.3517838716506958 0.10406767576932907 255.0 0.0 0.0
0.2748924195766449 0.3539641499519348 0.11589542031288147 255.0 0.0 0.0
0.2971540689468384 0.212988018989563 -0.05225875973701477 255.0 0.0 0.0
-0.23297111690044403 0.5003869533538818 0.017581574618816376 255.0 0.0 0.0
-0.08401689678430557 0.22763001918792725 -0.1281522959470749 255.0 0.0 0.0
0.29230448603630066 0.22493284940719604 -0.12634122371673584 255.0 0.0 0.0
-0.15477436780929565 0.3472151458263397 0.033268582075834274 255.0 0.0 0.0
0.01389683224260807 0.16105182468891144 0.16196756064891815 255.0 0.0 0.0
-0.2448546141386032 -0.0630560964345932 -0.2500461935997009 255.0 0.0 0.0
-0.23287370800971985 -0.2404564470052719 0.1540626734495163 255.0 0.0 0.0
-0.289170503616333 -0.05029664561152458 -0.24185442924499512 255.0 0.0 0.0
-0.16631768643856049 0.3928906321525574 0.10156376659870148 255.0 0.0 0.0
-0.2629924714565277 0.08687788248062134 -0.3181144595146179 255.0 0.0 0.0
-0.2703644037246704 0.0816255658864975 -0.1348450779914856 255.0 0.0 0.0
0.2965613305568695 -0.10381189733743668 0.1445883959531784 255.0 0.0 0.0
0.27266108989715576 -0.36821994185447693 0.15469543635845184 255.0 0.0 0.0
-0.25806745886802673 -0.016068581491708755 -0.13196581602096558 255.0 0.0 0.0
0.21600446105003357 -0.24966523051261902 0.14595089852809906 255.0 0.0 0.0
-0.03321843966841698 0.12252022325992584 -0.17702926695346832 255.0 0.0 0.0
0.24209079146385193 0.18051724135875702 0.155545175075531 255.0 0.0 0.0
0.2424251139163971 -0.24561357498168945 0.15534143149852753 255.0 0.0 0.0
0.2966958284378052 -0.20826348662376404 -0.13269728422164917 255.0 0.0 0.0
0.2926822304725647 -0.42211678624153137 0.16589388251304626 255.0 0.0 0.0
-0.07919944077730179 0.22259272634983063 0.15399444103240967 255.0 0.0 0.0
0.28579020500183105 -0.42391687631607056 -0.003955886699259281 255.0 0.0 0.0
0.057272642850875854 0.12433242797851562 -0.18938112258911133 255.0 0.0 0.0
0.23844440281391144 0.15766453742980957 0.16905368864536285 255.0 0.0 0.0
-0.17328590154647827 0.34416908025741577 0.06306367367506027 255.0 0.0 0.0
0.28008127212524414 0.08781582117080688 -0.13553231954574585 255.0 0.0 0.0
-0.22992074489593506 -0.45868048071861267 0.10478348284959793 255.0 0.0 0.0
-0.25111398100852966 0.007660081144422293 -0.2980189323425293 255.0 0.0 0.0
0.2972581684589386 0.21255981922149658 0.023924341425299644 255.0 0.0 0.0
-0.22568103671073914 -0.09217114746570587 0.156472846865654 255.0 0.0 0.0
0.024493757635354996 0.12046042084693909 -0.2080337107181549 255.0 0.0 0.0
0.29953229427337646 0.059255681931972504 0.14659173786640167 255.0 0.0 0.0
0.13895535469055176 -0.4400677978992462 0.05456960201263428 255.0 0.0 0.0
0.012854035012423992 0.10053988546133041 -0.18099281191825867 255.0 0.0 0.0
0.04430655762553215 0.21800267696380615 -0.13506805896759033 255.0 0.0 0.0
-0.2721096873283386 -0.08275928348302841 0.15773816406726837 255.0 0.0 0.0
0.2534754276275635 0.5081625580787659 0.10889927297830582 255.0 0.0 0.0
0.2670578062534332 0.22986750304698944 -0.12017175555229187 255.0 0.0 0.0
0.19053469598293304 -0.24087774753570557 0.15632209181785583 255.0 0.0 0.0
-0.17893260717391968 0.257447212934494 0.006747583393007517 255.0 0.0 0.0
0.07590537518262863 0.22734971344470978 -0.13069355487823486 255.0 0.0 0.0
-0.2173609733581543 0.44949182868003845 -0.07599231600761414 255.0 0.0 0.0
-0.281340628862381 -0.31607627868652344 0.14157149195671082 255.0 0.0 0.0
-0.2940272092819214 -0.3153700828552246 0.14605070650577545 255.0 0.0 0.0
0.13787919282913208 -0.24008746445178986 0.15755942463874817 255.0 0.0 0.0
0.25387778878211975 -0.4252803921699524 0.20683011412620544 255.0 0.0 0.0
-0.27040040493011475 0.21430625021457672 0.0004616952210199088 255.0 0.0 0.0
0.26135361194610596 -0.4215940237045288 -0.08027645945549011 255.0 0.0 0.0
-0.15586799383163452 0.3180583715438843 -0.32824334502220154 255.0 0.0 0.0
0.2103908807039261 0.5087644457817078 0.0797489732503891 255.0 0.0 0.0
-0.26111292839050293 -0.47475743293762207 -0.04957370087504387 255.0 0.0 0.0
-0.2643020451068878 -0.3176708519458771 0.12953992187976837 255.0 0.0 0.0
0.25633278489112854 -0.34756237268447876 0.13584540784358978 255.0 0.0 0.0
0.29505062103271484 0.22718341648578644 -0.039996758103370667 255.0 0.0 0.0
-0.25457149744033813 0.09126895666122437 -0.13791748881340027 255.0 0.0 0.0
-0.14152775704860687 0.18082194030284882 0.15557393431663513 255.0 0.0 0.0
0.2698366940021515 0.24237672984600067 -0.015963077545166016 255.0 0.0 0.0
-0.17999649047851562 -0.19630442559719086 0.14910918474197388 255.0 0.0 0.0
-0.2574043869972229 -0.19064953923225403 0.15374188125133514 255.0 0.0 0.0
-0.26396670937538147 -0.24965719878673553 0.12144039571285248 255.0 0.0 0.0
-0.1797134280204773 0.22132718563079834 0.1575937271118164 255.0 0.0 0.0
0.21875718235969543 -0.23403236269950867 0.15387791395187378 255.0 0.0 0.0
0.28907808661460876 0.13861732184886932 -0.13376829028129578 255.0 0.0 0.0
-0.0700879842042923 0.16895942389965057 0.15620151162147522 255.0 0.0 0.0
0.2478882223367691 0.5076001882553101 -0.024824684485793114 255.0 0.0 0.0
-0.03656349703669548 0.13542497158050537 -0.19031603634357452 255.0 0.0 0.0
0.24458611011505127 0.04810293763875961 0.16582757234573364 255.0 0.0 0.0
-0.19163519144058228 0.4974585771560669 0.08626773208379745 255.0 0.0 0.0
-0.25821730494499207 0.4232795536518097 0.12029512971639633 255.0 0.0 0.0
-0.2576058506965637 0.02114756405353546 0.15596023201942444 255.0 0.0 0.0
0.19117049872875214 0.3550763726234436 0.09841140359640121 255.0 0.0 0.0
0.21382935345172882 0.3642502427101135 -0.07936292141675949 255.0 0.0 0.0
-0.04173804074525833 0.30062198638916016 -0.25703495740890503 255.0 0.0 0.0
-0.2589576840400696 0.17466005682945251 -0.31998389959335327 255.0 0.0 0.0
-0.2520776093006134 -0.24592497944831848 0.15483742952346802 255.0 0.0 0.0
-0.17977608740329742 0.25961166620254517 0.007008778862655163 255.0 0.0 0.0
-0.2707221806049347 -0.21220360696315765 -0.12586545944213867 255.0 0.0 0.0
0.24780696630477905 0.48000791668891907 0.11244761943817139 255.0 0.0 0.0
0.2869912385940552 -0.4361587166786194 0.18357127904891968 255.0 0.0 0.0
0.1332014948129654 0.22641386091709137 0.14560163021087646 255.0 0.0 0.0
-0.17197881639003754 0.24344834685325623 0.007140539586544037 255.0 0.0 0.0
-0.17263981699943542 0.23112405836582184 0.030199332162737846 255.0 0.0 0.0
-0.06285232305526733 0.1647491157054901 0.16037704050540924 255.0 0.0 0.0
-0.024614466354250908 0.10537243634462357 -0.13881346583366394 255.0 0.0 0.0
0.2534677982330322 0.5081101059913635 0.1179463192820549 255.0 0.0 0.0
0.271068811416626 -0.3483423590660095 0.136270210146904 255.0 0.0 0.0
0.2630751132965088 0.4019579291343689 -0.0894862711429596 255.0 0.0 0.0
-0.24875469505786896 -0.4764651656150818 -0.007399547845125198 255.0 0.0 0.0
0.21301138401031494 0.2474251240491867 0.039283353835344315 255.0 0.0 0.0
-0.23710274696350098 -0.2566806674003601 0.0023941860999912024 255.0 0.0 0.0
-0.17995502054691315 0.2503242492675781 -0.004333456512540579 255.0 0.0 0.0
-0.2678634226322174 0.21693626046180725 -0.006008483935147524 255.0 0.0 0.0
0.16980032622814178 -0.2629304528236389 0.017443252727389336 255.0 0.0 0.0
-0.21932142972946167 0.21530935168266296 0.15634660422801971 255.0 0.0 0.0
-0.25674930214881897 0.15636326372623444 -0.1344517469406128 255.0 0.0 0.0
0.18030351400375366 0.4153251349925995 0.10338348895311356 255.0 0.0 0.0
-0.19791333377361298 -0.2639082074165344 0.07363812625408173 255.0 0.0 0.0
-0.26913711428642273 0.11587902158498764 0.14004428684711456 255.0 0.0 0.0
0.20333914458751678 0.17557469010353088 0.1533171683549881 255.0 0.0 0.0
-0.029662752524018288 0.2469269186258316 -0.2324579507112503 255.0 0.0 0.0
0.23712244629859924 0.5180014371871948 0.01147691160440445 255.0 0.0 0.0
0.29998478293418884 -0.14443273842334747 -0.11953575909137726 255.0 0.0 0.0
0.2701132297515869 0.3080213665962219 -0.010516955517232418 255.0 0.0 0.0
-0.23383581638336182 0.25497087836265564 0.04343508929014206 255.0 0.0 0.0
-0.17628450691699982 0.3511631488800049 -0.04583742842078209 255.0 0.0 0.0
0.20749080181121826 -0.247206911444664 -0.13387160003185272 255.0 0.0 0.0
-0.2707524597644806 0.2217675745487213 0.0809435173869133 255.0 0.0 0.0
0.0674087330698967 -0.24525098502635956 0.15602557361125946 255.0 0.0 0.0
0.19558101892471313 -0.25156307220458984 -0.04603786766529083 255.0 0.0 0.0
-0.031596001237630844 0.12234152108430862 -0.18185928463935852 255.0 0.0 0.0
-0.1281532347202301 0.3188285827636719 -0.33264973759651184 255.0 0.0 0.0
0.25197604298591614 0.06472219526767731 0.15073572099208832 255.0 0.0 0.0
0.29956692457199097 0.22858178615570068 0.07072635740041733 255.0 0.0 0.0
0.02606746181845665 0.267252117395401 -0.26260536909103394 255.0 0.0 0.0
-0.31263044476509094 -0.42533352971076965 -0.08333922177553177 255.0 0.0 0.0
0.2957783639431 0.13957345485687256 -0.13058488070964813 255.0 0.0 0.0
-0.27025237679481506 -0.1821919083595276 -0.13427676260471344 255.0 0.0 0.0
0.037478093057870865 0.22946307063102722 -0.24417786300182343 255.0 0.0 0.0
0.2957068979740143 0.3502541780471802 0.04929574951529503 255.0 0.0 0.0
-0.18460755050182343 0.29168999195098877 0.0021657454781234264 255.0 0.0 0.0
0.2580181360244751 -0.3260560929775238 0.10987652838230133 255.0 0.0 0.0
0.1356174498796463 -0.4247190058231354 0.10512669384479523 255.0 0.0 0.0
-0.24143560230731964 -0.114194855093956 0.15629622340202332 255.0 0.0 0.0
-0.19947640597820282 0.3672291338443756 0.11277112364768982 255.0 0.0 0.0
-0.21959759294986725 -0.10038914531469345 0.16378211975097656 255.0 0.0 0.0
-0.23170121014118195 0.2780757546424866 -0.33640754222869873 255.0 0.0 0.0
0.23088069260120392 0.3587697148323059 0.12461774051189423 255.0 0.0 0.0
0.1606132537126541 -0.4441787600517273 0.17794382572174072 255.0 0.0 0.0
-0.29000571370124817 0.06949126720428467 -0.30828508734703064 255.0 0.0 0.0
0.23507820069789886 0.12017670273780823 0.17083050310611725 255.0 0.0 0.0
-0.27528393268585205 0.03546043485403061 -0.24024896323680878 255.0 0.0 0.0
-0.16253817081451416 0.4154975414276123 0.10022692382335663 255.0 0.0 0.0
-0.00032725362689234316 -0.19438841938972473 0.15120653808116913 255.0 0.0 0.0
-0.23093397915363312 -0.4470614194869995 0.12124701589345932 255.0 0.0 0.0
-0.2400592416524887 -0.26977041363716125 0.02786729671061039 255.0 0.0 0.0
0.21318654716014862 0.48687729239463806 -0.053437910974025726 255.0 0.0 0.0
-0.20967289805412292 -0.24823306500911713 -0.12028469890356064 255.0 0.0 0.0
0.2847665548324585 0.11370895057916641 -0.13557292520999908 255.0 0.0 0.0
0.2827658951282501 -0.24453964829444885 -0.13044092059135437 255.0 0.0 0.0
-0.2625677287578583 -0.03242610767483711 -0.22216767072677612 255.0 0.0 0.0
-0.17067793011665344 0.38503211736679077 0.10158608108758926 255.0 0.0 0.0
-0.2746179699897766 -0.06347967684268951 -0.22341322898864746 255.0 0.0 0.0
-0.2650771141052246 0.17315441370010376 -0.13579317927360535 255.0 0.0 0.0
0.21831855177879333 0.3424413800239563 -0.06779743731021881 255.0 0.0 0.0
-0.2670169770717621 -0.05014251172542572 -0.2951720058917999 255.0 0.0 0.0
-0.2119019478559494 0.30456456542015076 0.04384676367044449 255.0 0.0 0.0
-0.2124072164297104 0.43729352951049805 -0.07685508579015732 255.0 0.0 0.0
-0.20777449011802673 0.3147375285625458 0.04639825224876404 255.0 0.0 0.0
-0.10744165629148483 0.2262144237756729 -0.1216793954372406 255.0 0.0 0.0
0.1862417757511139 0.35063108801841736 0.07539785653352737 255.0 0.0 0.0
-0.2285594493150711 -0.10645387321710587 0.15237265825271606 255.0 0.0 0.0
-0.2680327296257019 -0.001013819593936205 0.14377379417419434 255.0 0.0 0.0
-0.010760021395981312 0.12319821864366531 -0.20546159148216248 255.0 0.0 0.0
-0.27341029047966003 -0.4673781991004944 -0.053307514637708664 255.0 0.0 0.0
0.238435298204422 -0.40502309799194336 0.19980846345424652 255.0 0.0 0.0
-0.28293299674987793 0.2163742184638977 -0.3295924663543701 255.0 0.0 0.0
-0.14308111369609833 -0.25414374470710754 0.014707755297422409 255.0 0.0 0.0
-0.054934922605752945 0.21249334514141083 0.15851743519306183 255.0 0.0 0.0
-0.04441797360777855 0.3211725950241089 -0.2843162417411804 255.0 0.0 0.0
-0.1966729760169983 0.23323772847652435 -0.029707159847021103 255.0 0.0 0.0
-0.1687169224023819 0.22879450023174286 0.019306259229779243 255.0 0.0 0.0
0.030379600822925568 0.2714978754520416 -0.24924476444721222 255.0 0.0 0.0
-0.21767722070217133 0.04612244665622711 0.1665724515914917 255.0 0.0 0.0
-0.2707414925098419 0.13405969738960266 -0.11935177445411682 255.0 0.0 0.0
-0.33090412616729736 -0.34534767270088196 0.18968650698661804 255.0 0.0 0.0
-0.17066225409507751 -0.19248461723327637 0.15107911825180054 255.0 0.0 0.0
-0.039913732558488846 0.1545475274324417 -0.1587001085281372 255.0 0.0 0.0
