-0.24025896191596985 0.2991887629032135 0.0038125496357679367 255.0 0.0 0.0
0.01769733428955078 0.19600030779838562 -0.13613472878932953 255.0 0.0 0.0
-0.2614383399486542 -0.3834364116191864 -0.09634235501289368 255.0 0.0 0.0
-0.21964344382286072 0.47515669465065 0.10441788285970688 255.0 0.0 0.0
-0.15570171177387238 0.33955931663513184 -0.3303884267807007 255.0 0.0 0.0
0.13141432404518127 -0.24018971621990204 -0.13506805896759033 255.0 0.0 0.0
0.2506712079048157 0.029085200279951096 0.15457947552204132 255.0 0.0 0.0
0.2609979510307312 0.2893321216106415 -0.01434310246258974 255.0 0.0 0.0
-0.27791622281074524 -0.4653765559196472 -0.062285203486680984 255.0 0.0 0.0
0.22251346707344055 -0.44604381918907166 0.18718545138835907 255.0 0.0 0.0
0.040003325790166855 -0.2523714005947113 0.1439925581216812 255.0 0.0 0.0
-0.03846992552280426 0.1248403936624527 -0.13506805896759033 255.0 0.0 0.0
-0.22680111229419708 -0.16273385286331177 0.14982765913009644 255.0 0.0 0.0
-0.2888122797012329 0.06597109884023666 -0.27145493030548096 255.0 0.0 0.0
-0.038768623024225235 0.3174147307872772 -0.2740534543991089 255.0 0.0 0.0
0.2358705997467041 0.3144339919090271 -0.03716741129755974 255.0 0.0 0.0
0.16907307505607605 -0.2644593119621277 0.004720681346952915 255.0 0.0 0.0
0.16444998979568481 -0.2545155882835388 0.024063915014266968 255.0 0.0 0.0
-0.25647661089897156 0.2919142246246338 -0.3499753773212433 255.0 0.0 0.0
0.05844734236598015 0.22797201573848724 0.14287185668945312 255.0 0.0 0.0
-0.2595224380493164 0.1702612191438675 -0.30893415212631226 255.0 0.0 0.0
-0.22117958962917328 -0.4741210341453552 0.021203799173235893 255.0 0.0 0.0
0.0005357844056561589 0.22766798734664917 0.14984619617462158 255.0 0.0 0.0
0.03481113165616989 -0.18797311186790466 0.15744946897029877 255.0 0.0 0.0
0.08461969345808029 -0.24939531087875366 -0.12492915242910385 255.0 0.0 0.0
0.2467462569475174 -0.2703348398208618 0.07051045447587967 255.0 0.0 0.0
-0.3382543921470642 -0.3699434995651245 0.06461472064256668 255.0 0.0 0.0
0.24923399090766907 0.34337809681892395 0.1111295223236084 255.0 0.0 0.0
-0.03721834346652031 0.1545962542295456 -0.1953427493572235 255.0 0.0 0.0
0.2972427010536194 -0.21119149029254913 -0.12132848054170609 255.0 0.0 0.0
0.1618737429380417 0.22981058061122894 -0.12084422260522842 255.0 0.0 0.0
0.254984587430954 0.09107441455125809 0.15056930482387543 255.0 0.0 0.0
0.1560455560684204 0.22634555399417877 -0.13236863911151886 255.0 0.0 0.0
-0.22023403644561768 0.16443277895450592 0.1596633940935135 255.0 0.0 0.0
-0.23278623819351196 0.28910133242607117 0.02896048314869404 255.0 0.0 0.0
-0.25890272855758667 0.34742271900177 -0.015626899898052216 255.0 0.0 0.0
0.23287391662597656 -0.2962579131126404 -0.07097994536161423 255.0 0.0 0.0
-0.2530835270881653 0.2288259118795395 0.050024595111608505 255.0 0.0 0.0
-0.25874418020248413 0.2977270185947418 -0.3462415635585785 255.0 0.0 0.0
0.21952560544013977 -0.25528743863105774 0.069534532725811 255.0 0.0 0.0
-0.2648063004016876 0.2013440728187561 -0.3489376902580261 255.0 0.0 0.0
-0.18982964754104614 0.3071593642234802 -0.3560854196548462 255.0 0.0 0.0
-0.28300631046295166 0.19723887741565704 -0.3155806064605713 255.0 0.0 0.0
-0.17384354770183563 0.2382058948278427 0.015846218913793564 255.0 0.0 0.0
-0.2753813862800598 0.0836779773235321 -0.26622292399406433 255.0 0.0 0.0
-0.2650464177131653 0.18848304450511932 -0.3076145052909851 255.0 0.0 0.0
-0.03764048591256142 0.14715594053268433 -0.13381314277648926 255.0 0.0 0.0
0.14650166034698486 -0.41414791345596313 0.1597972959280014 255.0 0.0 0.0
-0.27266591787338257 -0.23561054468154907 -0.06971414387226105 255.0 0.0 0.0
0.29908856749534607 0.22637687623500824 0.04054335504770279 255.0 0.0 0.0
0.007757339160889387 0.26071813702583313 -0.26480284333229065 255.0 0.0 0.0
0.2258475124835968 -0.4325926601886749 -0.09171517938375473 255.0 0.0 0.0
0.23240740597248077 0.4485906958580017 -0.08629466593265533 255.0 0.0 0.0
-0.244205042719841 -0.24731194972991943 -0.12543927133083344 255.0 0.0 0.0
-0.24178390204906464 0.29822349548339844 -0.002115674316883087 255.0 0.0 0.0
-0.26510709524154663 0.2305348664522171 0.04215202108025551 255.0 0.0 0.0
0.24783208966255188 0.25110602378845215 0.043856922537088394 255.0 0.0 0.0
-0.2629031240940094 0.4173659384250641 0.10109887272119522 255.0 0.0 0.0
0.04701347276568413 0.19012093544006348 -0.13429860770702362 255.0 0.0 0.0
-0.1060464009642601 0.3275141716003418 -0.3279056251049042 255.0 0.0 0.0
-0.2672739326953888 0.22111792862415314 -0.1338179111480713 255.0 0.0 0.0
-0.2694752812385559 -0.1290881335735321 -0.12735112011432648 255.0 0.0 0.0
-0.22399121522903442 -0.07326473295688629 0.15400242805480957 255.0 0.0 0.0
-0.2053747922182083 -0.1550138294696808 0.17242474853992462 255.0 0.0 0.0
0.27843570709228516 0.3357944190502167 -0.047564852982759476 255.0 0.0 0.0
0.18060699105262756 0.4202157258987427 0.10475224256515503 255.0 0.0 0.0
-0.2580910921096802 0.23159240186214447 -0.006591169163584709 255.0 0.0 0.0
-0.21030934154987335 -0.1850898712873459 0.1635778546333313 255.0 0.0 0.0
-0.23622949421405792 0.47348088026046753 -0.044259361922740936 255.0 0.0 0.0
0.2823011875152588 0.10145535320043564 0.1585828810930252 255.0 0.0 0.0
-0.026058824732899666 0.26548951864242554 -0.26801902055740356 255.0 0.0 0.0
-0.26764634251594543 0.22396063804626465 0.15310721099376678 255.0 0.0 0.0
-0.26499274373054504 0.009422162547707558 0.15632209181785583 255.0 0.0 0.0
0.04320458322763443 0.10323918610811234 -0.16700264811515808 255.0 0.0 0.0
0.23633940517902374 -0.05266833305358887 0.16940195858478546 255.0 0.0 0.0
-0.06685236096382141 -0.17765255272388458 0.16999958455562592 255.0 0.0 0.0
-0.27073633670806885 0.008384180255234241 -0.12119992077350616 255.0 0.0 0.0
0.256111204624176 0.340869665145874 -0.06736912578344345 255.0 0.0 0.0
0.2841950058937073 -0.3780352771282196 0.14399559795856476 255.0 0.0 0.0
-0.336017370223999 -0.36291778087615967 0.12426451593637466 255.0 0.0 0.0
-0.20939762890338898 0.12546929717063904 0.16923770308494568 255.0 0.0 0.0
-0.23160630464553833 -0.2857764959335327 0.0790330246090889 255.0 0.0 0.0
-0.1910795271396637 -0.2673957347869873 0.07473213970661163 255.0 0.0 0.0
-0.1727415919303894 0.22449050843715668 -0.02170283906161785 255.0 0.0 0.0
-0.2567608952522278 0.19111894071102142 -0.34088465571403503 255.0 0.0 0.0
0.26968827843666077 0.31604307889938354 -0.0184664037078619 255.0 0.0 0.0
0.14160043001174927 -0.25080177187919617 -0.13027262687683105 255.0 0.0 0.0
0.1264345794916153 0.1602889746427536 0.16678044199943542 255.0 0.0 0.0
0.25387778878211975 -0.4252803921699524 0.20683011412620544 255.0 0.0 0.0
0.2962990403175354 -0.2519536018371582 -0.11725828051567078 255.0 0.0 0.0
0.044721078127622604 0.17596490681171417 0.15453720092773438 255.0 0.0 0.0
0.2553148567676544 0.08024584501981735 0.1519373506307602 255.0 0.0 0.0
0.2362220138311386 0.47939997911453247 -0.07305756956338882 255.0 0.0 0.0
0.19199155271053314 0.3556194007396698 -0.05301991105079651 255.0 0.0 0.0
0.11286047846078873 0.176387220621109 0.15436109900474548 255.0 0.0 0.0
-0.0008370275609195232 0.16533079743385315 0.16233541071414948 255.0 0.0 0.0
-0.010460768826305866 0.17511041462421417 -0.13506805896759033 255.0 0.0 0.0
0.2929023206233978 0.22697216272354126 0.1170496866106987 255.0 0.0 0.0
-0.33487576246261597 -0.39309296011924744 -0.024928424507379532 255.0 0.0 0.0
-0.051228344440460205 -0.24933300912380219 -0.12982891499996185 255.0 0.0 0.0
0.17350327968597412 -0.24908800423145294 0.14738991856575012 255.0 0.0 0.0
-0.25672417879104614 -0.12447429448366165 -0.13188980519771576 255.0 0.0 0.0
0.03777694329619408 0.10268020629882812 -0.15179672837257385 255.0 0.0 0.0
-0.23992137610912323 0.2780136168003082 0.0009457593550905585 255.0 0.0 0.0
-0.09691227972507477 0.3148311972618103 -0.3244456946849823 255.0 0.0 0.0
-0.236460879445076 0.45081090927124023 0.09850043058395386 255.0 0.0 0.0
0.2933853566646576 -0.12341519445180893 0.1575484424829483 255.0 0.0 0.0
-0.029668740928173065 0.17769747972488403 -0.13510051369667053 255.0 0.0 0.0
0.20485852658748627 0.31386375427246094 0.028468377888202667 255.0 0.0 0.0
0.18646764755249023 0.34298089146614075 -0.027079174295067787 255.0 0.0 0.0
0.24917112290859222 -0.043116819113492966 0.15735860168933868 255.0 0.0 0.0
0.27649441361427307 -0.447476327419281 0.16234581172466278 255.0 0.0 0.0
0.2958543002605438 -0.24087563157081604 0.02720235474407673 255.0 0.0 0.0
-0.22682608664035797 -0.09723033010959625 0.14582988619804382 255.0 0.0 0.0
0.05534802004694939 -0.18782824277877808 0.16358710825443268 255.0 0.0 0.0
-0.2603219747543335 0.05280943214893341 -0.2512599229812622 255.0 0.0 0.0
-0.29109904170036316 -0.34468141198158264 0.19486981630325317 255.0 0.0 0.0
-0.013453546911478043 0.2252838909626007 -0.241119846701622 255.0 0.0 0.0
-0.2652457654476166 0.25665339827537537 -0.35957425832748413 255.0 0.0 0.0
0.29245591163635254 -0.02592458389699459 -0.13565108180046082 255.0 0.0 0.0
0.14652574062347412 -0.44159451127052307 0.01097487285733223 255.0 0.0 0.0
0.03271133825182915 0.21524010598659515 -0.2373817265033722 255.0 0.0 0.0
-0.17013539373874664 0.45654040575027466 -0.039942845702171326 255.0 0.0 0.0
-0.23799647390842438 -0.4763277471065521 -0.02608894370496273 255.0 0.0 0.0
-0.2346496880054474 0.4912325441837311 0.09854020923376083 255.0 0.0 0.0
-0.28466835618019104 0.08154287934303284 -0.3141140937805176 255.0 0.0 0.0
0.24686463177204132 0.27473345398902893 -0.018893955275416374 255.0 0.0 0.0
0.05993799492716789 0.13818800449371338 -0.18790516257286072 255.0 0.0 0.0
0.1469775140285492 -0.4094826579093933 0.16150754690170288 255.0 0.0 0.0
0.2307635396718979 0.13639026880264282 0.17209012806415558 255.0 0.0 0.0
-0.0075005036778748035 0.2701283395290375 -0.27661776542663574 255.0 0.0 0.0
0.29813364148139954 0.1811615377664566 -0.1255904585123062 255.0 0.0 0.0
-0.00401400588452816 -0.25357553362846375 -0.11906561255455017 255.0 0.0 0.0
-0.027129774913191795 0.12048757076263428 -0.1857290118932724 255.0 0.0 0.0
-0.2707524597644806 0.21445007622241974 0.10384736210107803 255.0 0.0 0.0
-0.014369075186550617 0.15412917733192444 0.1692393571138382 255.0 0.0 0.0
0.17535100877285004 -0.26484769582748413 0.03612799942493439 255.0 0.0 0.0
0.22612346708774567 0.35460174083709717 -0.08027578890323639 255.0 0.0 0.0
-0.095404252409935 0.3161960542201996 -0.33467763662338257 255.0 0.0 0.0
-0.2902679145336151 -0.38115745782852173 0.20287078619003296 255.0 0.0 0.0
-0.23800607025623322 0.24299335479736328 0.04241449013352394 255.0 0.0 0.0
0.23929235339164734 0.5123698711395264 0.10312389582395554 255.0 0.0 0.0
0.2972259521484375 0.11711597442626953 0.1488216072320938 255.0 0.0 0.0
0.28859901428222656 -0.2366507202386856 -0.1345694214105606 255.0 0.0 0.0
0.0456058643758297 0.23967041075229645 -0.23643110692501068 255.0 0.0 0.0
-0.2569218873977661 -0.2418726086616516 0.15632209181785583 255.0 0.0 0.0
0.13039390742778778 -0.2504110336303711 -0.12287820130586624 255.0 0.0 0.0
0.20071454346179962 0.3203469216823578 -0.02443382330238819 255.0 0.0 0.0
-0.16901907324790955 -0.2648996114730835 -0.03495919704437256 255.0 0.0 0.0
-0.21749183535575867 0.07439679652452469 0.1681058257818222 255.0 0.0 0.0
-0.22278720140457153 0.46424156427383423 0.09835568815469742 255.0 0.0 0.0
0.20463232696056366 0.3550580143928528 0.10803811252117157 255.0 0.0 0.0
-0.19656571745872498 -0.19088438153266907 0.15755820274353027 255.0 0.0 0.0
-0.19972047209739685 -0.24878564476966858 -0.12694726884365082 255.0 0.0 0.0
0.2736826241016388 -0.445347398519516 0.15203857421875 255.0 0.0 0.0
-0.1787264347076416 0.35154473781585693 -0.052271123975515366 255.0 0.0 0.0
-0.17830786108970642 0.32262033224105835 -0.354498952627182 255.0 0.0 0.0
-0.238443523645401 -0.266783207654953 0.003313701367005706 255.0 0.0 0.0
0.23059894144535065 0.0006417029071599245 0.16940195858478546 255.0 0.0 0.0
0.29109451174736023 -0.09280063211917877 -0.1346183866262436 255.0 0.0 0.0
0.20777112245559692 0.4960382580757141 -0.02351614087820053 255.0 0.0 0.0
0.03625361993908882 -0.24363549053668976 0.14949843287467957 255.0 0.0 0.0
0.19655384123325348 0.21937274932861328 -0.1350444108247757 255.0 0.0 0.0
-0.04202798381447792 0.28946876525878906 -0.28267669677734375 255.0 0.0 0.0
0.24946178495883942 -0.2716853618621826 -0.04874543100595474 255.0 0.0 0.0
0.2162972390651703 0.2427373081445694 0.04022197052836418 255.0 0.0 0.0
-0.26968076825141907 0.01603052020072937 -0.23229897022247314 255.0 0.0 0.0
0.15374159812927246 -0.24813339114189148 0.14088645577430725 255.0 0.0 0.0
0.22969147562980652 0.2861751616001129 -0.022347355261445045 255.0 0.0 0.0
0.21140623092651367 -0.24899660050868988 -0.12538589537143707 255.0 0.0 0.0
0.29510360956192017 -0.03659383952617645 0.15628109872341156 255.0 0.0 0.0
-0.24951966106891632 0.34467050433158875 0.07458467036485672 255.0 0.0 0.0
-0.23634402453899384 0.27309584617614746 0.02923315018415451 255.0 0.0 0.0
0.2828975021839142 -0.046957336366176605 -0.13506805896759033 255.0 0.0 0.0
0.033021945506334305 0.17844055593013763 -0.22247806191444397 255.0 0.0 0.0
0.2833438813686371 -0.4280637502670288 -0.016050029546022415 255.0 0.0 0.0
-0.29500436782836914 -0.36774343252182007 0.2078789323568344 255.0 0.0 0.0
0.2562706470489502 -0.3932499289512634 -0.08292638510465622 255.0 0.0 0.0
0.024433022364974022 -0.24639984965324402 -0.13769859075546265 255.0 0.0 0.0
-0.2563181221485138 -0.3986837863922119 0.20785312354564667 255.0 0.0 0.0
-0.037842221558094025 0.14457212388515472 0.1669754832983017 255.0 0.0 0.0
-0.18809908628463745 0.25531619787216187 -0.014636426232755184 255.0 0.0 0.0
-0.25515416264533997 0.3889099955558777 0.11225652694702148 255.0 0.0 0.0
-0.18653126060962677 0.3816574513912201 -0.0747210830450058 255.0 0.0 0.0
-0.270274817943573 -0.23998038470745087 -0.02215326391160488 255.0 0.0 0.0
0.2048339992761612 0.22812457382678986 -0.018435416743159294 255.0 0.0 0.0
-0.22084970772266388 0.2974020540714264 -0.3634372055530548 255.0 0.0 0.0
-0.028490163385868073 0.22459757328033447 0.15599077939987183 255.0 0.0 0.0
-0.22187381982803345 -0.17005057632923126 0.1646035611629486 255.0 0.0 0.0
0.29406535625457764 -0.24756772816181183 -0.06519999355077744 255.0 0.0 0.0
-0.03244868665933609 0.18958231806755066 -0.15682542324066162 255.0 0.0 0.0
0.22056585550308228 0.34744471311569214 -0.07355426996946335 255.0 0.0 0.0
0.21220965683460236 0.36875656247138977 0.11990221589803696 255.0 0.0 0.0
-0.2672964632511139 -0.4674150347709656 -0.0605430081486702 255.0 0.0 0.0
0.2782634198665619 0.33304494619369507 -0.03561914339661598 255.0 0.0 0.0
0.2260923832654953 -0.27650389075279236 0.08131255209445953 255.0 0.0 0.0
0.18643653392791748 -0.2653302848339081 -0.031516458839178085 255.0 0.0 0.0
0.29492467641830444 -0.2498835176229477 0.05660281702876091 255.0 0.0 0.0
0.18213118612766266 0.21909409761428833 0.15632209181785583 255.0 0.0 0.0
-0.16582325100898743 0.22812457382678986 0.0005940831615589559 255.0 0.0 0.0
-0.2678382992744446 0.17855969071388245 -0.13185036182403564 255.0 0.0 0.0
0.24454990029335022 -0.2464655339717865 -0.1292242407798767 255.0 0.0 0.0
-0.2707298994064331 -0.03988869488239288 -0.12367654591798782 255.0 0.0 0.0
0.26462557911872864 -0.03067938983440399 0.1566377580165863 255.0 0.0 0.0
0.24870248138904572 0.019015157595276833 0.1582268327474594 255.0 0.0 0.0
0.19212031364440918 -0.24888814985752106 -0.0364353284239769 255.0 0.0 0.0
0.16615748405456543 -0.24307802319526672 0.15696440637111664 255.0 0.0 0.0
-0.3328322768211365 -0.40984901785850525 -0.05362825095653534 255.0 0.0 0.0
-0.022052180022001266 0.21826960146427155 -0.13897868990898132 255.0 0.0 0.0
0.2679210603237152 0.33447501063346863 -0.05776265636086464 255.0 0.0 0.0
-0.24069981276988983 -0.2665419280529022 -0.013189424760639668 255.0 0.0 0.0
0.23778396844863892 0.24749456346035004 -0.02575845643877983 255.0 0.0 0.0
0.18084998428821564 0.4023341238498688 0.10203535109758377 255.0 0.0 0.0
-0.22132274508476257 0.26685062050819397 0.04383322596549988 255.0 0.0 0.0
0.010835781693458557 0.10836780816316605 -0.13506805896759033 255.0 0.0 0.0
0.2604013681411743 -0.3920442461967468 0.1912079155445099 255.0 0.0 0.0
-0.2776280343532562 0.1624428778886795 -0.33840566873550415 255.0 0.0 0.0
-0.26449722051620483 0.0087271211668849 -0.31067711114883423 255.0 0.0 0.0
0.05171685665845871 0.16995872557163239 -0.13849300146102905 255.0 0.0 0.0
0.04189154505729675 0.22796958684921265 0.14297932386398315 255.0 0.0 0.0
-0.2572355568408966 -0.24934789538383484 -0.10966440290212631 255.0 0.0 0.0
0.24938422441482544 0.05466155707836151 0.1550561636686325 255.0 0.0 0.0
-0.3288682699203491 -0.33134153485298157 0.17541804909706116 255.0 0.0 0.0
0.28312283754348755 0.04470976069569588 0.15932944416999817 255.0 0.0 0.0
0.21072693169116974 0.22909678518772125 0.04980141669511795 255.0 0.0 0.0
-0.24443084001541138 0.22658564150333405 -0.1253851354122162 255.0 0.0 0.0
-0.26392361521720886 -0.24706146121025085 -0.1155642718076706 255.0 0.0 0.0
-0.25707632303237915 -0.32416051626205444 -0.06966647505760193 255.0 0.0 0.0
-0.029418369755148888 0.21932613849639893 -0.20978818833827972 255.0 0.0 0.0
0.2006983608007431 -0.24838969111442566 -0.13002561032772064 255.0 0.0 0.0
0.2690671980381012 0.43935149908065796 0.10599030554294586 255.0 0.0 0.0
0.025088703259825706 0.16093364357948303 0.16589468717575073 255.0 0.0 0.0
-0.002861511427909136 0.2974291145801544 -0.25529882311820984 255.0 0.0 0.0
0.2308005392551422 0.0898924320936203 0.16940195858478546 255.0 0.0 0.0
-0.2721470296382904 -0.0966692864894867 -0.1313093602657318 255.0 0.0 0.0
-0.21855708956718445 -0.23047775030136108 -0.1348416656255722 255.0 0.0 0.0
0.2930881381034851 0.3608575761318207 0.09016352891921997 255.0 0.0 0.0
-0.2682294547557831 0.058001380413770676 -0.31983888149261475 255.0 0.0 0.0
-0.1959119439125061 0.48300424218177795 -0.0454101525247097 255.0 0.0 0.0
0.2976670265197754 0.13372783362865448 -0.12242267280817032 255.0 0.0 0.0
-0.27296891808509827 -0.24307745695114136 -0.10819946974515915 255.0 0.0 0.0
0.28452470898628235 0.025562971830368042 -0.13489887118339539 255.0 0.0 0.0
-0.24459077417850494 0.3547496497631073 0.09379611164331436 255.0 0.0 0.0
-0.27519020438194275 -0.04241900146007538 -0.2957971692085266 255.0 0.0 0.0
0.2733088731765747 0.3125734031200409 0.0387272834777832 255.0 0.0 0.0
-0.2716831564903259 -0.24240833520889282 0.05025237426161766 255.0 0.0 0.0
-0.20399335026741028 0.11777159571647644 0.17206025123596191 255.0 0.0 0.0
-0.22755132615566254 -0.31917619705200195 -0.07948390394449234 255.0 0.0 0.0
-0.24353599548339844 -0.06545787304639816 -0.24022707343101501 255.0 0.0 0.0
-0.18978595733642578 0.3054477572441101 -0.35860535502433777 255.0 0.0 0.0
-0.2599264979362488 -0.2525041401386261 -0.03278612717986107 255.0 0.0 0.0
-0.27572524547576904 0.17844413220882416 -0.12402113527059555 255.0 0.0 0.0
0.2972332835197449 -0.1528550088405609 -0.12483836710453033 255.0 0.0 0.0
-0.2579960525035858 0.05275844782590866 -0.13723990321159363 255.0 0.0 0.0
-0.0010987328132614493 -0.23858016729354858 -0.1350533664226532 255.0 0.0 0.0
-0.21996484696865082 -0.4413759708404541 0.13989269733428955 255.0 0.0 0.0
0.21807965636253357 -0.4408567249774933 0.20185115933418274 255.0 0.0 0.0
0.15450644493103027 0.1673167496919632 0.15806345641613007 255.0 0.0 0.0
-0.2727482318878174 0.21616508066654205 0.032171573489904404 255.0 0.0 0.0
0.2516171932220459 -0.3078295588493347 -0.068926602602005 255.0 0.0 0.0
-0.1629195660352707 0.4229344129562378 0.09872175008058548 255.0 0.0 0.0
0.2447882741689682 0.39488476514816284 0.10692877322435379 255.0 0.0 0.0
-0.23922379314899445 0.22491709887981415 0.15170377492904663 255.0 0.0 0.0
-0.23616600036621094 0.2972531318664551 0.034009188413619995 255.0 0.0 0.0
0.24364565312862396 -0.44322097301483154 0.19629107415676117 255.0 0.0 0.0
-0.2535144090652466 -0.2521050274372101 -0.07148867100477219 255.0 0.0 0.0
-0.24780036509037018 -0.3430461287498474 -0.08804086595773697 255.0 0.0 0.0
0.19757552444934845 0.3939206004142761 0.11603686958551407 255.0 0.0 0.0
-0.22269503772258759 -0.2542158365249634 -0.061194803565740585 255.0 0.0 0.0
0.06634292006492615 -0.17191171646118164 0.17268262803554535 255.0 0.0 0.0
-0.26868587732315063 0.034167755395174026 -0.13502684235572815 255.0 0.0 0.0
0.26982176303863525 -0.44432884454727173 0.008657935075461864 255.0 0.0 0.0
-0.0666961669921875 -0.24940025806427002 0.15007366240024567 255.0 0.0 0.0
0.29706573486328125 0.16941918432712555 0.14760877192020416 255.0 0.0 0.0
-0.014102601446211338 -0.2400524765253067 -0.13229015469551086 255.0 0.0 0.0
0.22268779575824738 -0.2057960033416748 0.155384823679924 255.0 0.0 0.0
-0.23787151277065277 -0.30369946360588074 0.09208639711141586 255.0 0.0 0.0
0.2865746319293976 0.2263290286064148 0.09220816940069199 255.0 0.0 0.0
-0.20649950206279755 0.11173905432224274 0.16932563483715057 255.0 0.0 0.0
-0.258515864610672 -0.235923171043396 0.15911370515823364 255.0 0.0 0.0
0.14913953840732574 -0.24967126548290253 -0.12072844803333282 255.0 0.0 0.0
-0.15327142179012299 0.317942351102829 -0.34924226999282837 255.0 0.0 0.0
0.009730818681418896 0.28670400381088257 -0.27662771940231323 255.0 0.0 0.0
-0.22973865270614624 -0.2550007402896881 0.05665627494454384 255.0 0.0 0.0
-0.2684640884399414 -0.22180266678333282 0.1561448723077774 255.0 0.0 0.0
0.23812153935432434 -0.09543237835168839 0.16776227951049805 255.0 0.0 0.0
-0.2779887616634369 0.16149204969406128 -0.33801189064979553 255.0 0.0 0.0
0.19862061738967896 0.4012606143951416 0.10931035131216049 255.0 0.0 0.0
-0.33703431487083435 -0.36494600772857666 0.06696446985006332 255.0 0.0 0.0
-0.24266593158245087 0.3452790677547455 0.07361365854740143 255.0 0.0 0.0
-0.2361471801996231 0.3919741213321686 -0.08109340816736221 255.0 0.0 0.0
-0.16678017377853394 0.466011106967926 0.09967797249555588 255.0 0.0 0.0
0.25266361236572266 0.18206171691417694 0.15569044649600983 255.0 0.0 0.0
0.05588293448090553 0.20980827510356903 -0.1393270045518875 255.0 0.0 0.0
-0.2274230569601059 -0.19305816292762756 0.14931920170783997 255.0 0.0 0.0
-0.2630786895751953 0.22850710153579712 -0.02096790075302124 255.0 0.0 0.0
-0.1583859920501709 0.32015594840049744 -0.3508158028125763 255.0 0.0 0.0
0.0043795425444841385 -0.19155946373939514 0.15414534509181976 255.0 0.0 0.0
-0.14347106218338013 0.3409634232521057 -0.31704652309417725 255.0 0.0 0.0
-0.2757250666618347 -0.07764572650194168 -0.27718526124954224 255.0 0.0 0.0
0.2929624617099762 -0.4421390891075134 0.07282085716724396 255.0 0.0 0.0
-0.0726475641131401 0.2312871813774109 -0.12951338291168213 255.0 0.0 0.0
0.29722702503204346 -0.12292680889368057 0.14841999113559723 255.0 0.0 0.0
-0.2137848138809204 0.2668641209602356 -0.016268929466605186 255.0 0.0 0.0
0.2740435302257538 0.23907646536827087 -0.0019960463978350163 255.0 0.0 0.0
0.2914591133594513 0.006375029683113098 0.15632209181785583 255.0 0.0 0.0
0.15457575023174286 0.21692004799842834 0.15636655688285828 255.0 0.0 0.0
-0.17599523067474365 -0.19567064940929413 0.14938488602638245 255.0 0.0 0.0
0.23465394973754883 -0.2743993103504181 -0.05968105420470238 255.0 0.0 0.0
-0.2135404646396637 -0.45690882205963135 0.10679455101490021 255.0 0.0 0.0
-0.2671406865119934 -0.0999574214220047 -0.12360934168100357 255.0 0.0 0.0
-0.09412114322185516 0.3308543562889099 -0.2969352602958679 255.0 0.0 0.0
-0.19791360199451447 0.2895525097846985 0.03722081333398819 255.0 0.0 0.0
0.1934795081615448 0.1779569387435913 0.15592187643051147 255.0 0.0 0.0
-0.15471884608268738 0.4163666367530823 0.08543271571397781 255.0 0.0 0.0
-0.19455218315124512 0.4458818733692169 0.08356616646051407 255.0 0.0 0.0
0.21885347366333008 0.3260990381240845 0.06153200939297676 255.0 0.0 0.0
-0.03508270904421806 0.16994498670101166 -0.13718608021736145 255.0 0.0 0.0
-0.20181918144226074 0.44084855914115906 0.08610531687736511 255.0 0.0 0.0
0.2526126801967621 0.16207925975322723 0.1523159146308899 255.0 0.0 0.0
-0.3147040605545044 -0.3208208680152893 0.14361537992954254 255.0 0.0 0.0
0.2445535808801651 0.09454707056283951 0.16061384975910187 255.0 0.0 0.0
0.28275105357170105 -0.4313662648200989 -0.03511331230401993 255.0 0.0 0.0
0.27208760380744934 -0.44528907537460327 0.18568475544452667 255.0 0.0 0.0
0.17457149922847748 0.2313367873430252 0.1428903043270111 255.0 0.0 0.0
-0.20205068588256836 0.03624642640352249 0.17027916014194489 255.0 0.0 0.0
0.21958714723587036 -0.2796996533870697 0.08335414528846741 255.0 0.0 0.0
0.24139787256717682 0.056827694177627563 0.16940195858478546 255.0 0.0 0.0
-0.32549649477005005 -0.34010007977485657 0.18974624574184418 255.0 0.0 0.0
-0.18074437975883484 0.3692963719367981 0.10587429255247116 255.0 0.0 0.0
-0.03041040524840355 -0.16596835851669312 0.1660921275615692 255.0 0.0 0.0
0.27378612756729126 0.3945939540863037 0.13189545273780823 255.0 0.0 0.0
0.265813946723938 0.37588533759117126 0.12856203317642212 255.0 0.0 0.0
0.23976534605026245 0.06538845598697662 0.17051808536052704 255.0 0.0 0.0
-0.2591065764427185 -0.25141236186027527 -0.05045172944664955 255.0 0.0 0.0
-0.2629380226135254 -0.25108033418655396 0.1460275948047638 255.0 0.0 0.0
0.19658635556697845 0.374550461769104 0.11501456797122955 255.0 0.0 0.0
-0.25083309412002563 0.09305144846439362 -0.13506805896759033 255.0 0.0 0.0
-0.1079757809638977 0.14993169903755188 0.16933225095272064 255.0 0.0 0.0
0.14368782937526703 -0.44832029938697815 0.09234569221735 255.0 0.0 0.0
0.05662587285041809 -0.24978724122047424 -0.12108761072158813 255.0 0.0 0.0
0.2972581684589386 0.21952316164970398 0.06305515021085739 255.0 0.0 0.0
0.22179226577281952 0.14913059771060944 0.16789135336875916 255.0 0.0 0.0
-0.1794692426919937 0.3086078464984894 -0.35267868638038635 255.0 0.0 0.0
0.17582058906555176 -0.2044980674982071 0.15562494099140167 255.0 0.0 0.0
0.1629709154367447 -0.3663334250450134 -0.04869689792394638 255.0 0.0 0.0
-0.25468623638153076 0.23703767359256744 -0.35118651390075684 255.0 0.0 0.0
0.2340785562992096 -0.3716791272163391 -0.08899857103824615 255.0 0.0 0.0
-0.004195079673081636 0.19898350536823273 -0.14711971580982208 255.0 0.0 0.0
0.02783883363008499 0.2449701875448227 -0.25432565808296204 255.0 0.0 0.0
0.1850324422121048 -0.43827202916145325 -0.06913729757070541 255.0 0.0 0.0
-0.2885672152042389 0.042385898530483246 -0.30624374747276306 255.0 0.0 0.0
-0.2587258219718933 0.18512052297592163 -0.32113295793533325 255.0 0.0 0.0
0.2638623118400574 -0.34237009286880493 0.13225404918193817 255.0 0.0 0.0
-0.26901793479919434 -0.14584775269031525 -0.1352614164352417 255.0 0.0 0.0
0.016410859301686287 0.1723618060350418 0.14958937466144562 255.0 0.0 0.0
-0.26758119463920593 0.16827192902565002 -0.3367694318294525 255.0 0.0 0.0
-0.19588297605514526 0.33763039112091064 -0.3330128490924835 255.0 0.0 0.0
0.22786886990070343 -0.2699297368526459 -0.05597371235489845 255.0 0.0 0.0
-0.23061013221740723 -0.41171613335609436 0.19332756102085114 255.0 0.0 0.0
-0.273896723985672 0.247227281332016 -0.33427321910858154 255.0 0.0 0.0
-0.24231500923633575 -0.01893850788474083 -0.293587863445282 255.0 0.0 0.0
0.2653796672821045 -0.251847505569458 0.14269918203353882 255.0 0.0 0.0
-0.3342207074165344 -0.36191681027412415 0.12852245569229126 255.0 0.0 0.0
0.2972581684589386 -0.23793566226959229 0.08977207541465759 255.0 0.0 0.0
0.15142808854579926 -0.4034736156463623 0.1636330783367157 255.0 0.0 0.0
-0.2663763165473938 0.11728039383888245 0.1563175618648529 255.0 0.0 0.0
0.2291596531867981 0.5086240768432617 -0.012533632107079029 255.0 0.0 0.0
0.28541913628578186 0.3422926366329193 0.07216117531061172 255.0 0.0 0.0
-0.269400417804718 -0.06159510836005211 -0.22136391699314117 255.0 0.0 0.0
-0.25399690866470337 0.4057481586933136 0.11604087799787521 255.0 0.0 0.0
-0.03513002023100853 0.18836987018585205 -0.1699732393026352 255.0 0.0 0.0
-0.19804322719573975 0.4319799244403839 0.08590462803840637 255.0 0.0 0.0
0.19717535376548767 -0.18361859023571014 0.16489017009735107 255.0 0.0 0.0
-0.1629011631011963 -0.26568812131881714 -0.029976069927215576 255.0 0.0 0.0
-0.036084841936826706 0.131588876247406 -0.18503613770008087 255.0 0.0 0.0
-0.16129283607006073 0.40075021982192993 0.09630455821752548 255.0 0.0 0.0
-0.22568103671073914 -0.09217114746570587 0.156472846865654 255.0 0.0 0.0
-0.0002508957404643297 -0.2497757077217102 0.14480005204677582 255.0 0.0 0.0
-0.21740572154521942 0.3028136193752289 -0.02282211184501648 255.0 0.0 0.0
0.22039739787578583 -0.2514256238937378 -0.058344993740320206 255.0 0.0 0.0
0.25785014033317566 -0.2516770660877228 0.027099112048745155 255.0 0.0 0.0
0.20923104882240295 0.3159416913986206 0.04444943368434906 255.0 0.0 0.0
-0.20902176201343536 0.3803231716156006 0.09738847613334656 255.0 0.0 0.0
0.04203719645738602 0.1788896769285202 -0.13809125125408173 255.0 0.0 0.0
-0.24053913354873657 0.2669833302497864 0.012105998583137989 255.0 0.0 0.0
0.23765453696250916 0.15007483959197998 0.16629460453987122 255.0 0.0 0.0
-0.031647827476263046 0.27081361413002014 -0.25391873717308044 255.0 0.0 0.0
0.024505702778697014 0.1527554839849472 0.1729063093662262 255.0 0.0 0.0
0.24997349083423615 0.1065777912735939 0.14973005652427673 255.0 0.0 0.0
-0.16865018010139465 0.48435595631599426 0.043681416660547256 255.0 0.0 0.0
0.2006073147058487 -0.24927914142608643 -0.1306590437889099 255.0 0.0 0.0
0.2965368926525116 -0.23547790944576263 -0.0596449077129364 255.0 0.0 0.0
-0.225456103682518 -0.05686519667506218 0.14800940454006195 255.0 0.0 0.0
0.19565629959106445 0.17451314628124237 0.1555284857749939 255.0 0.0 0.0
-0.21751099824905396 -0.17834438383579254 0.16676877439022064 255.0 0.0 0.0
-0.23785355687141418 0.3211742043495178 -0.01775069534778595 255.0 0.0 0.0
0.06343898922204971 0.17871420085430145 -0.13506805896759033 255.0 0.0 0.0
-0.0730675756931305 0.22626781463623047 0.15183250606060028 255.0 0.0 0.0
-0.019648104906082153 0.19955924153327942 -0.1625683307647705 255.0 0.0 0.0
0.0047522131353616714 0.09452786296606064 -0.1360730677843094 255.0 0.0 0.0
0.2243434637784958 -0.27723851799964905 0.08148850500583649 255.0 0.0 0.0
-0.09607988595962524 -0.20073725283145905 0.15126197040081024 255.0 0.0 0.0
0.1421690732240677 -0.20762331783771515 0.15507832169532776 255.0 0.0 0.0
-0.19212816655635834 0.3269695043563843 -0.02980138175189495 255.0 0.0 0.0
0.26788797974586487 0.23219777643680573 -0.03009927086532116 255.0 0.0 0.0
-0.2574043869972229 -0.19064953923225403 0.15374188125133514 255.0 0.0 0.0
-0.03436935320496559 0.27480271458625793 -0.2666180729866028 255.0 0.0 0.0
0.29873988032341003 0.22706757485866547 0.03079739212989807 255.0 0.0 0.0
-0.33665066957473755 -0.3718459904193878 0.050571609288454056 255.0 0.0 0.0
-0.23790127038955688 0.457675963640213 -0.06044183298945427 255.0 0.0 0.0
-0.02223975956439972 0.18593695759773254 -0.22126686573028564 255.0 0.0 0.0
-0.11812882125377655 -0.18124960362911224 0.16815084218978882 255.0 0.0 0.0
-0.16800932586193085 0.4356120228767395 0.10583901405334473 255.0 0.0 0.0
0.2325437217950821 0.15708261728286743 0.16911302506923676 255.0 0.0 0.0
0.145329549908638 -0.24561360478401184 0.15577922761440277 255.0 0.0 0.0
0.2841927409172058 -0.44814634323120117 0.15558978915214539 255.0 0.0 0.0
-0.10119175910949707 -0.23027336597442627 -0.13667422533035278 255.0 0.0 0.0
-0.2433839738368988 0.3548436760902405 0.09360910952091217 255.0 0.0 0.0
-0.18604929745197296 0.3487901985645294 0.09030915051698685 255.0 0.0 0.0
-0.17255067825317383 -0.17979541420936584 0.16889432072639465 255.0 0.0 0.0
-0.25617191195487976 0.22770990431308746 -0.08988091349601746 255.0 0.0 0.0
-0.2531227171421051 -0.2163970023393631 0.15535981953144073 255.0 0.0 0.0
-0.2730365991592407 -0.007999815046787262 -0.306549996137619 255.0 0.0 0.0
0.1405232846736908 -0.19383184611797333 0.15163911879062653 255.0 0.0 0.0
-0.23065383732318878 0.348237007856369 0.10162028670310974 255.0 0.0 0.0
-0.1981138288974762 0.23156319558620453 0.14733925461769104 255.0 0.0 0.0
-0.004508750978857279 -0.24917544424533844 0.14752165973186493 255.0 0.0 0.0
-0.22533917427062988 -0.13003359735012054 0.15240506827831268 255.0 0.0 0.0
-0.19711905717849731 0.2280348688364029 0.13862328231334686 255.0 0.0 0.0
0.2255362570285797 -0.27531152963638306 0.07782141119241714 255.0 0.0 0.0
-0.33616694808006287 -0.34880197048187256 0.16437287628650665 255.0 0.0 0.0
0.0552673265337944 0.2268725335597992 -0.1244218647480011 255.0 0.0 0.0
0.2833617627620697 -0.2499055415391922 0.11906829476356506 255.0 0.0 0.0
-0.2618740499019623 -0.25394001603126526 -0.0023573103826493025 255.0 0.0 0.0
0.1626126766204834 -0.32299700379371643 0.07022199779748917 255.0 0.0 0.0
-0.23805074393749237 -0.25365909934043884 0.01027635671198368 255.0 0.0 0.0
0.2975975275039673 -0.24548552930355072 -0.12133799493312836 255.0 0.0 0.0
0.031300321221351624 -0.18645524978637695 0.16075627505779266 255.0 0.0 0.0
-0.26751649379730225 0.08914396166801453 -0.13506805896759033 255.0 0.0 0.0
0.24440893530845642 -0.14137433469295502 0.1661626547574997 255.0 0.0 0.0
-0.2408977746963501 -0.26726874709129333 0.004694079048931599 255.0 0.0 0.0
-0.023819055408239365 0.09599970281124115 -0.1331050992012024 255.0 0.0 0.0
0.23041392862796783 -0.24989226460456848 0.1506984978914261 255.0 0.0 0.0
-0.26076215505599976 -0.09238944947719574 -0.22440789639949799 255.0 0.0 0.0
-0.29153114557266235 0.0597132071852684 -0.26730936765670776 255.0 0.0 0.0
0.10997983813285828 0.18239666521549225 0.1552179753780365 255.0 0.0 0.0
0.21480850875377655 0.4466431438922882 -0.07703062146902084 255.0 0.0 0.0
0.2972349226474762 0.15421727299690247 0.14547593891620636 255.0 0.0 0.0
0.2972351312637329 0.07414723932743073 0.1454005390405655 255.0 0.0 0.0
0.06784693896770477 0.17836007475852966 -0.13635997474193573 255.0 0.0 0.0
-0.21003879606723785 0.49922212958335876 0.08050940930843353 255.0 0.0 0.0
-0.25125885009765625 0.4276665449142456 0.11495741456747055 255.0 0.0 0.0
0.15108641982078552 -0.44493183493614197 0.08268937468528748 255.0 0.0 0.0
-0.030829453840851784 0.16514311730861664 -0.13506805896759033 255.0 0.0 0.0
0.020489798858761787 0.22938571870326996 0.14542034268379211 255.0 0.0 0.0
0.12110812216997147 0.2265443056821823 -0.12469549477100372 255.0 0.0 0.0
-0.2705722451210022 -0.24845314025878906 0.047664936631917953 255.0 0.0 0.0
0.2971997559070587 0.10572924464941025 -0.13000597059726715 255.0 0.0 0.0
-0.18645448982715607 0.2856875956058502 -0.005312347784638405 255.0 0.0 0.0
-0.029072940349578857 0.2576792538166046 -0.2532063126564026 255.0 0.0 0.0
0.29125621914863586 0.3692447245121002 0.10269579291343689 255.0 0.0 0.0
0.054849773645401 0.11539287865161896 -0.15395301580429077 255.0 0.0 0.0
0.18809723854064941 -0.19338014721870422 0.14988504350185394 255.0 0.0 0.0
0.21401672065258026 0.49726828932762146 0.11580001562833786 255.0 0.0 0.0
0.26604562997817993 0.50553297996521 0.11116671562194824 255.0 0.0 0.0
0.22645412385463715 -0.17830346524715424 0.17007306218147278 255.0 0.0 0.0
-0.23001661896705627 -0.4618258476257324 0.09264150261878967 255.0 0.0 0.0
-0.28174933791160583 0.17244328558444977 -0.3336253762245178 255.0 0.0 0.0
0.1357223242521286 0.2270452231168747 -0.12264536321163177 255.0 0.0 0.0
0.2844589352607727 -0.24031099677085876 -0.13485564291477203 255.0 0.0 0.0
-0.2660224139690399 0.04965002089738846 -0.24636223912239075 255.0 0.0 0.0
-0.2509599030017853 0.0385502390563488 -0.2644522488117218 255.0 0.0 0.0
0.29814475774765015 0.2151079624891281 0.12324830889701843 255.0 0.0 0.0
0.1617739200592041 -0.4293912947177887 -0.05114217847585678 255.0 0.0 0.0
0.042436446994543076 0.11904764920473099 -0.20382755994796753 255.0 0.0 0.0
-0.26876866817474365 0.0866955891251564 -0.2700309753417969 255.0 0.0 0.0
0.25465884804725647 0.48010149598121643 0.11789114773273468 255.0 0.0 0.0
-0.024423303082585335 0.10839547216892242 -0.18331816792488098 255.0 0.0 0.0
-0.22837857902050018 -0.1974186897277832 0.1527233123779297 255.0 0.0 0.0
-0.02382470853626728 0.1686611920595169 -0.13435500860214233 255.0 0.0 0.0
-0.23056913912296295 0.25794366002082825 -0.01977471075952053 255.0 0.0 0.0
-0.19133007526397705 0.32392409443855286 -0.35505056381225586 255.0 0.0 0.0
-0.09901400655508041 0.17484739422798157 0.1521787792444229 255.0 0.0 0.0
0.10513711720705032 -0.19522283971309662 0.1496915966272354 255.0 0.0 0.0
0.2876756489276886 0.34732624888420105 -0.04077336564660072 255.0 0.0 0.0
-0.17881448566913605 -0.2567974030971527 -0.0505746565759182 255.0 0.0 0.0
0.2066941261291504 0.32718464732170105 -0.032726041972637177 255.0 0.0 0.0
0.2584334909915924 0.4776952862739563 -0.06763745844364166 255.0 0.0 0.0
-0.2241009771823883 -0.29310765862464905 -0.0678420141339302 255.0 0.0 0.0
-0.19384825229644775 0.4238474369049072 0.08590137958526611 255.0 0.0 0.0
0.25163570046424866 -0.0003077258006669581 0.15279261767864227 255.0 0.0 0.0
0.29511868953704834 -0.007888727821409702 0.14425304532051086 255.0 0.0 0.0
-0.23830300569534302 0.37450018525123596 -0.06906893849372864 255.0 0.0 0.0
0.22894787788391113 0.48838287591934204 0.11747782677412033 255.0 0.0 0.0
-0.2410925030708313 0.3284197449684143 -0.02346489578485489 255.0 0.0 0.0
-0.19529709219932556 0.48309969902038574 -0.04529757797718048 255.0 0.0 0.0
-0.20708942413330078 0.4107854664325714 -0.08114022761583328 255.0 0.0 0.0
-0.1607666164636612 -0.17612165212631226 0.16919401288032532 255.0 0.0 0.0
-0.27064505219459534 0.21139635145664215 -0.12480389326810837 255.0 0.0 0.0
-0.33371686935424805 -0.3694249391555786 0.03715952858328819 255.0 0.0 0.0
-0.2728421986103058 -0.10313312709331512 -0.1161651685833931 255.0 0.0 0.0
0.25929465889930725 -0.23725174367427826 0.15632209181785583 255.0 0.0 0.0
0.17467625439167023 -0.24943113327026367 -0.11866090446710587 255.0 0.0 0.0
0.0669199600815773 0.15239843726158142 -0.1375620812177658 255.0 0.0 0.0
-0.21729393303394318 0.4219776690006256 -0.0812017023563385 255.0 0.0 0.0
-0.18074458837509155 0.30745571851730347 0.010314919985830784 255.0 0.0 0.0
0.25433534383773804 0.37562310695648193 -0.09145396947860718 255.0 0.0 0.0
-0.21354098618030548 0.36436349153518677 -0.07621189206838608 255.0 0.0 0.0
-0.1366826891899109 -0.24458137154579163 -0.13506805896759033 255.0 0.0 0.0
-0.2564994990825653 -0.0826992467045784 -0.13506805896759033 255.0 0.0 0.0
-0.19610197842121124 0.331874817609787 0.05530381575226784 255.0 0.0 0.0
-0.1587611585855484 0.44041264057159424 0.09258922934532166 255.0 0.0 0.0
-0.2707374691963196 -0.1436191201210022 0.142112135887146 255.0 0.0 0.0
0.1052011176943779 0.2175648808479309 -0.13535939157009125 255.0 0.0 0.0
-0.2662205398082733 -0.020639710128307343 -0.1334702968597412 255.0 0.0 0.0
-0.26773402094841003 0.11994805932044983 -0.28714701533317566 255.0 0.0 0.0
0.2514984607696533 0.22869239747524261 -0.047273941338062286 255.0 0.0 0.0
-0.26279357075691223 0.22473783791065216 -0.03868165612220764 255.0 0.0 0.0
-0.03294120356440544 0.2738676369190216 -0.24405251443386078 255.0 0.0 0.0
0.22764545679092407 0.25255122780799866 -0.022776180878281593 255.0 0.0 0.0
-0.25920775532722473 -0.051066044718027115 -0.22102992236614227 255.0 0.0 0.0
-0.21180257201194763 -0.12969547510147095 0.1704760193824768 255.0 0.0 0.0
-0.16396474838256836 0.4687919616699219 0.090812548995018 255.0 0.0 0.0
0.24478277564048767 0.21885240077972412 0.15776240825653076 255.0 0.0 0.0
0.006127235945314169 0.11118008941411972 -0.20257821679115295 255.0 0.0 0.0
-0.24879252910614014 -0.08751329034566879 -0.26043763756752014 255.0 0.0 0.0
-0.04318616911768913 -0.2486163228750229 -0.13061049580574036 255.0 0.0 0.0
-0.22266334295272827 0.26948490738868713 0.04162890091538429 255.0 0.0 0.0
0.02552627958357334 0.2788398861885071 -0.23910830914974213 255.0 0.0 0.0
-0.034029725939035416 0.29801300168037415 -0.3035799562931061 255.0 0.0 0.0
-0.0015883410815149546 0.18014831840991974 0.15613864362239838 255.0 0.0 0.0
0.20566585659980774 -0.4453943073749542 -0.062424447387456894 255.0 0.0 0.0
0.2878012955188751 0.2279653251171112 0.03921499475836754 255.0 0.0 0.0
-0.21280720829963684 0.11356453597545624 0.16912692785263062 255.0 0.0 0.0
-0.03786434978246689 0.2831632196903229 -0.2776607275009155 255.0 0.0 0.0
0.09403915703296661 -0.17687058448791504 0.16916561126708984 255.0 0.0 0.0
0.19740496575832367 0.15919555723667145 0.16810007393360138 255.0 0.0 0.0
0.2584742307662964 0.165432870388031 0.1579185575246811 255.0 0.0 0.0
-0.013770322315394878 0.24618612229824066 -0.2542722225189209 255.0 0.0 0.0
0.2659180760383606 -0.1568005234003067 0.15638604760169983 255.0 0.0 0.0
0.18863411247730255 0.3633432388305664 0.09600930660963058 255.0 0.0 0.0
-0.28008201718330383 0.07944577932357788 -0.31753110885620117 255.0 0.0 0.0
-0.18265673518180847 0.3877940773963928 0.10315046459436417 255.0 0.0 0.0
-0.18191801011562347 0.3046967387199402 0.0036167690996080637 255.0 0.0 0.0
-0.12845584750175476 -0.1967979371547699 0.15070198476314545 255.0 0.0 0.0
0.20196811854839325 0.49519532918930054 -0.0234453734010458 255.0 0.0 0.0
-0.2410709112882614 0.23093946278095245 -0.03695749118924141 255.0 0.0 0.0
0.01141397561877966 0.2533237040042877 -0.2680034935474396 255.0 0.0 0.0
-0.1780417412519455 0.32713210582733154 0.03827584534883499 255.0 0.0 0.0
0.19706127047538757 0.4857234060764313 0.11266025900840759 255.0 0.0 0.0
0.04426471143960953 0.2539327144622803 -0.21526145935058594 255.0 0.0 0.0
0.030165374279022217 0.22055791318416595 0.15770864486694336 255.0 0.0 0.0
0.14259637892246246 0.15550488233566284 0.16997146606445312 255.0 0.0 0.0
-0.24462924897670746 0.4378301501274109 0.10458102822303772 255.0 0.0 0.0
-0.14969979226589203 0.333757609128952 -0.3400542736053467 255.0 0.0 0.0
-0.018644724041223526 0.2053542584180832 -0.1659071296453476 255.0 0.0 0.0
-0.33525511622428894 -0.40016594529151917 -0.028640521690249443 255.0 0.0 0.0
-0.12958402931690216 -0.23440630733966827 0.15632209181785583 255.0 0.0 0.0
-0.21530874073505402 0.0925087109208107 0.16977408528327942 255.0 0.0 0.0
-0.2270081788301468 0.2329435795545578 0.05344090238213539 255.0 0.0 0.0
-0.27427926659584045 -0.4692550003528595 -0.05973488837480545 255.0 0.0 0.0
-0.20907855033874512 -0.41504624485969543 0.16065557301044464 255.0 0.0 0.0
-0.19200600683689117 -0.18709607422351837 0.16192269325256348 255.0 0.0 0.0
-0.191752627491951 -0.2519577145576477 -0.06518467515707016 255.0 0.0 0.0
0.29863595962524414 -0.229023739695549 -0.11378023773431778 255.0 0.0 0.0
-0.1946532130241394 0.36311739683151245 -0.07073734700679779 255.0 0.0 0.0
-0.27942919731140137 0.23395119607448578 -0.33208152651786804 255.0 0.0 0.0
-0.21588502824306488 0.1725650429725647 0.1494504064321518 255.0 0.0 0.0
-0.14627745747566223 -0.24796457588672638 0.14335371553897858 255.0 0.0 0.0
-0.2053813338279724 0.2854748070240021 0.044188302010297775 255.0 0.0 0.0
0.11590060591697693 0.22017830610275269 0.15632209181785583 255.0 0.0 0.0
0.300401508808136 0.1341368854045868 0.14643144607543945 255.0 0.0 0.0
0.233411505818367 0.3046746551990509 -0.026332354173064232 255.0 0.0 0.0
-0.11772235482931137 -0.19165170192718506 0.1511547714471817 255.0 0.0 0.0
-0.22383330762386322 -0.45857489109039307 0.11173065751791 255.0 0.0 0.0
-0.22150827944278717 0.37238338589668274 -0.0776437371969223 255.0 0.0 0.0
-0.256257027387619 0.06707952916622162 -0.2696693539619446 255.0 0.0 0.0
-0.16838876903057098 0.37228208780288696 0.08944281190633774 255.0 0.0 0.0
0.1729193776845932 0.15037985146045685 0.1720581203699112 255.0 0.0 0.0
0.2234804779291153 0.35830923914909363 0.12255097180604935 255.0 0.0 0.0
0.16797667741775513 0.2147769182920456 0.15753048658370972 255.0 0.0 0.0
0.25294017791748047 0.34586474299430847 -0.07052074372768402 255.0 0.0 0.0
-0.19543133676052094 0.3430018126964569 -0.054758429527282715 255.0 0.0 0.0
-0.03499816358089447 0.18045997619628906 -0.17746399343013763 255.0 0.0 0.0
-0.09567934274673462 -0.2032681703567505 0.15707673132419586 255.0 0.0 0.0
0.00434724660590291 0.1473626047372818 0.16934530436992645 255.0 0.0 0.0
-0.03278966620564461 0.22890977561473846 -0.12998440861701965 255.0 0.0 0.0
0.15604306757450104 -0.4180765151977539 0.18238867819309235 255.0 0.0 0.0
0.06735571473836899 0.14965960383415222 -0.1344331055879593 255.0 0.0 0.0
0.2900528013706207 -0.2187945395708084 0.15472349524497986 255.0 0.0 0.0
-0.2773233652114868 0.1398097425699234 -0.295742005109787 255.0 0.0 0.0
0.03960384801030159 0.17248424887657166 -0.22465917468070984 255.0 0.0 0.0
0.04359853267669678 -0.2359674870967865 0.15704946219921112 255.0 0.0 0.0
-0.2213575392961502 0.07513538002967834 0.15978164970874786 255.0 0.0 0.0
0.17846618592739105 -0.25402072072029114 -0.001987014664337039 255.0 0.0 0.0
0.10932177305221558 0.17148607969284058 0.14972874522209167 255.0 0.0 0.0
0.22473113238811493 0.28425416350364685 0.03819276764988899 255.0 0.0 0.0
-0.18795697391033173 0.43987950682640076 0.08372984081506729 255.0 0.0 0.0
0.257976233959198 -0.1057768240571022 0.15844233334064484 255.0 0.0 0.0
0.25459015369415283 0.11736675351858139 0.15950864553451538 255.0 0.0 0.0
-0.24711890518665314 0.2451227605342865 -0.35156840085983276 255.0 0.0 0.0
0.2970939874649048 -0.24452823400497437 0.14061428606510162 255.0 0.0 0.0
-0.19551444053649902 0.3079582452774048 -0.34210529923439026 255.0 0.0 0.0
-0.25935137271881104 0.10219718515872955 -0.13506805896759033 255.0 0.0 0.0
0.23560772836208344 -0.19272302091121674 0.15659888088703156 255.0 0.0 0.0
0.2922360599040985 0.3444049656391144 0.05185660719871521 255.0 0.0 0.0
0.27078619599342346 0.4108763337135315 0.11348462104797363 255.0 0.0 0.0
-0.2519473731517792 0.3526941239833832 0.08489194512367249 255.0 0.0 0.0
-0.132356658577919 -0.23271451890468597 -0.13506805896759033 255.0 0.0 0.0
0.28598350286483765 0.22955964505672455 0.07815642654895782 255.0 0.0 0.0
-0.21615086495876312 -0.4338497817516327 0.1576932817697525 255.0 0.0 0.0
0.22549402713775635 -0.43249839544296265 -0.08991234004497528 255.0 0.0 0.0
-0.152222141623497 0.326285183429718 -0.32192090153694153 255.0 0.0 0.0
0.2688791751861572 0.3129732608795166 -0.018898485228419304 255.0 0.0 0.0
0.2717810571193695 0.3177313506603241 -0.019183645024895668 255.0 0.0 0.0
0.0027457315009087324 0.1117829754948616 -0.19985546171665192 255.0 0.0 0.0
0.23392067849636078 0.019320517778396606 0.16912148892879486 255.0 0.0 0.0
-0.007050370331853628 0.19174496829509735 -0.14427654445171356 255.0 0.0 0.0
0.253964900970459 0.2635277807712555 -0.01733141951262951 255.0 0.0 0.0
-0.25096815824508667 -0.25135695934295654 0.03524124622344971 255.0 0.0 0.0
0.20676332712173462 0.3533620238304138 0.10857763141393661 255.0 0.0 0.0
-0.08690754324197769 0.1830936223268509 0.15578798949718475 255.0 0.0 0.0
0.22042565047740936 0.1650349348783493 0.1649816334247589 255.0 0.0 0.0
0.22837020456790924 -0.30421024560928345 -0.07435145229101181 255.0 0.0 0.0
-0.262483149766922 -0.25366371870040894 0.09058132022619247 255.0 0.0 0.0
-0.28046461939811707 0.0714719370007515 -0.31752365827560425 255.0 0.0 0.0
-0.2712378203868866 0.02809767611324787 -0.1334506869316101 255.0 0.0 0.0
-0.20699751377105713 0.24125805497169495 -0.030816717073321342 255.0 0.0 0.0
-0.2684943377971649 0.22680620849132538 0.03536149859428406 255.0 0.0 0.0
0.2744429409503937 0.3408089578151703 -0.05992497131228447 255.0 0.0 0.0
-0.21653436124324799 0.1559354066848755 0.1679605096578598 255.0 0.0 0.0
0.2870938181877136 -0.2168579399585724 0.15631544589996338 255.0 0.0 0.0
-0.22283892333507538 -0.47748422622680664 0.0172276571393013 255.0 0.0 0.0
-0.2711883783340454 -0.017867600545287132 -0.13331544399261475 255.0 0.0 0.0
-0.2025424689054489 0.3301805257797241 -0.3446182906627655 255.0 0.0 0.0
0.20044413208961487 -0.2350417822599411 -0.13572168350219727 255.0 0.0 0.0
0.29786843061447144 0.0109041016548872 -0.13272647559642792 255.0 0.0 0.0
-0.27074310183525085 0.09913325309753418 0.14000454545021057 255.0 0.0 0.0
-0.2724824845790863 0.10237392038106918 0.15395967662334442 255.0 0.0 0.0
-0.2070590704679489 0.3709460496902466 0.10513952374458313 255.0 0.0 0.0
-0.2661552131175995 0.22597981989383698 0.0517769493162632 255.0 0.0 0.0
0.26613497734069824 -0.2516961991786957 0.001993294572457671 255.0 0.0 0.0
