-0.2863504886627197 -0.3579358458518982 0.2041064351797104 255.0 0.0 0.0
-0.024883821606636047 0.27900537848472595 -0.27753233909606934 255.0 0.0 0.0
0.02130109816789627 -0.24927714467048645 -0.1351032704114914 255.0 0.0 0.0
-0.2449108213186264 -0.024655526503920555 -0.23843486607074738 255.0 0.0 0.0
-0.15202517807483673 -0.2672603726387024 0.032221440225839615 255.0 0.0 0.0
-0.22356164455413818 0.4538768231868744 -0.07260075956583023 255.0 0.0 0.0
-0.3174019455909729 -0.3559148907661438 0.20132498443126678 255.0 0.0 0.0
0.1741735339164734 -0.2311118096113205 0.1534883826971054 255.0 0.0 0.0
0.21236348152160645 0.3737184703350067 -0.08196324110031128 255.0 0.0 0.0
0.28869691491127014 -0.430225670337677 0.005273795686662197 255.0 0.0 0.0
-0.2291070818901062 -0.12562720477581024 0.1521272510290146 255.0 0.0 0.0
-0.2662214934825897 -0.18965868651866913 0.15127988159656525 255.0 0.0 0.0
-0.25902459025382996 0.07301015406847 -0.268690288066864 255.0 0.0 0.0
-0.006880715023726225 0.209628626704216 -0.1625751107931137 255.0 0.0 0.0
0.2472299039363861 0.33931758999824524 0.112997867166996 255.0 0.0 0.0
0.2679591178894043 0.2363230139017105 -0.01959913782775402 255.0 0.0 0.0
-0.26017138361930847 0.12875035405158997 -0.1345832198858261 255.0 0.0 0.0
-0.26217830181121826 -0.12465798854827881 -0.13520179688930511 255.0 0.0 0.0
0.2832885980606079 -0.43983837962150574 0.013097910210490227 255.0 0.0 0.0
-0.2827312648296356 -0.06139234080910683 -0.2745918333530426 255.0 0.0 0.0
-0.2630693316459656 0.12756997346878052 -0.291532963514328 255.0 0.0 0.0
-0.15709561109542847 0.4039652347564697 0.08570192009210587 255.0 0.0 0.0
-0.25975728034973145 0.05959014222025871 -0.31238293647766113 255.0 0.0 0.0
-0.2229754626750946 -0.07561372220516205 0.15678419172763824 255.0 0.0 0.0
0.13348503410816193 0.23020033538341522 -0.13134971261024475 255.0 0.0 0.0
-0.27495965361595154 0.23723694682121277 -0.34974929690361023 255.0 0.0 0.0
0.22911399602890015 0.2931147813796997 0.03803488612174988 255.0 0.0 0.0
0.28419989347457886 -0.010147051885724068 0.15590240061283112 255.0 0.0 0.0
-0.2132493555545807 -0.2612786889076233 0.0737445130944252 255.0 0.0 0.0
-0.23069603741168976 -0.04585724323987961 0.15482600033283234 255.0 0.0 0.0
-0.23338234424591064 0.31230783462524414 -0.35809701681137085 255.0 0.0 0.0
-0.0033462345600128174 0.2016860842704773 -0.13506805896759033 255.0 0.0 0.0
0.21602405607700348 0.3470523953437805 -0.07238937169313431 255.0 0.0 0.0
-0.17124256491661072 0.22956673800945282 0.14820009469985962 255.0 0.0 0.0
0.29459691047668457 0.3464721143245697 0.06224815174937248 255.0 0.0 0.0
-0.02597874402999878 0.2276526391506195 -0.19213561713695526 255.0 0.0 0.0
0.22947250306606293 -0.25092819333076477 0.08130422234535217 255.0 0.0 0.0
-0.21645189821720123 0.49490994215011597 0.10852296650409698 255.0 0.0 0.0
0.1493045538663864 -0.23994261026382446 -0.136835977435112 255.0 0.0 0.0
0.13925670087337494 -0.44075822830200195 0.04868096858263016 255.0 0.0 0.0
-0.2481423169374466 0.4313947260379791 -0.06277310848236084 255.0 0.0 0.0
-0.26467815041542053 -0.2982068359851837 0.08024455606937408 255.0 0.0 0.0
0.21857737004756927 0.35274738073349 0.11867190897464752 255.0 0.0 0.0
-0.22134137153625488 -0.1048150286078453 0.16233214735984802 255.0 0.0 0.0
-0.22912874817848206 -0.4650407135486603 0.08167162537574768 255.0 0.0 0.0
-0.24940523505210876 -0.47377875447273254 -0.0472680889070034 255.0 0.0 0.0
0.2333339899778366 0.4329463243484497 -0.09090405702590942 255.0 0.0 0.0
-0.27492186427116394 0.13266289234161377 -0.3309590518474579 255.0 0.0 0.0
-0.2404003143310547 -0.39504843950271606 0.19369731843471527 255.0 0.0 0.0
0.2112007588148117 0.5103192925453186 0.017374573275446892 255.0 0.0 0.0
-0.25189587473869324 0.23365484178066254 -0.012066683731973171 255.0 0.0 0.0
-0.27058854699134827 0.18034431338310242 -0.132609024643898 255.0 0.0 0.0
0.28715696930885315 0.2273465096950531 -0.03400091081857681 255.0 0.0 0.0
-0.2674141228199005 0.08865600824356079 -0.1228383332490921 255.0 0.0 0.0
-0.026590166613459587 0.10844980180263519 -0.15138787031173706 255.0 0.0 0.0
-0.27356186509132385 0.19757702946662903 -0.3091546595096588 255.0 0.0 0.0
0.05282290279865265 -0.24835506081581116 0.15283112227916718 255.0 0.0 0.0
0.08903824537992477 -0.2357511818408966 -0.13307330012321472 255.0 0.0 0.0
-0.336328387260437 -0.34883400797843933 0.16204464435577393 255.0 0.0 0.0
-0.022626163437962532 0.21568863093852997 -0.23371614515781403 255.0 0.0 0.0
0.21440772712230682 -0.2779397964477539 0.0777059867978096 255.0 0.0 0.0
-0.027161289006471634 0.18693199753761292 -0.15114016830921173 255.0 0.0 0.0
0.21544019877910614 0.3005470931529999 -0.014913927763700485 255.0 0.0 0.0
-0.2463594526052475 -0.2534181773662567 -0.004033865872770548 255.0 0.0 0.0
0.2540144920349121 -0.2557459771633148 -0.04352444037795067 255.0 0.0 0.0
-0.23145800828933716 -0.41431623697280884 0.1924067735671997 255.0 0.0 0.0
0.28681638836860657 0.3451814651489258 -0.04633359611034393 255.0 0.0 0.0
0.2508887052536011 0.48351916670799255 -0.06564457714557648 255.0 0.0 0.0
-0.0632827877998352 0.32735875248908997 -0.29192879796028137 255.0 0.0 0.0
-0.21752794086933136 0.0019467220408841968 0.16922788321971893 255.0 0.0 0.0
-0.25557294487953186 0.08380412310361862 -0.13180670142173767 255.0 0.0 0.0
-0.27611789107322693 -0.08308504521846771 -0.2420298159122467 255.0 0.0 0.0
-0.17490828037261963 0.4815737009048462 -0.022304784506559372 255.0 0.0 0.0
0.2972440719604492 0.049149319529533386 0.15124726295471191 255.0 0.0 0.0
0.28959545493125916 0.09423142671585083 0.15632209181785583 255.0 0.0 0.0
0.2564416527748108 -0.2530369162559509 0.061376068741083145 255.0 0.0 0.0
0.22918494045734406 0.2410106062889099 -0.028322922065854073 255.0 0.0 0.0
0.24005742371082306 -0.40946316719055176 -0.09062542766332626 255.0 0.0 0.0
0.17071418464183807 0.2280925214290619 0.1393675059080124 255.0 0.0 0.0
0.2604787349700928 -0.447773277759552 0.19098597764968872 255.0 0.0 0.0
0.17212529480457306 -0.4096226692199707 0.1866893619298935 255.0 0.0 0.0
-0.2750425338745117 0.23129774630069733 -0.32035645842552185 255.0 0.0 0.0
0.2838840186595917 -0.25321298837661743 0.04926874488592148 255.0 0.0 0.0
0.17989948391914368 0.3434309959411621 0.0005340799107216299 255.0 0.0 0.0
-0.28865256905555725 0.07744616270065308 -0.27630457282066345 255.0 0.0 0.0
-0.18664565682411194 0.2750517725944519 -0.005960423033684492 255.0 0.0 0.0
-0.03035183809697628 0.24457146227359772 -0.2281942069530487 255.0 0.0 0.0
-0.04414764419198036 0.1664772927761078 0.15615150332450867 255.0 0.0 0.0
-0.1686953753232956 -0.25171464681625366 -0.05538306385278702 255.0 0.0 0.0
0.042365893721580505 0.09451162815093994 -0.13506805896759033 255.0 0.0 0.0
-0.27980008721351624 0.014404326677322388 -0.240182563662529 255.0 0.0 0.0
-0.1935451328754425 0.4151539206504822 0.08573690801858902 255.0 0.0 0.0
0.041202422231435776 0.19125066697597504 -0.13506805896759033 255.0 0.0 0.0
0.1776125431060791 -0.2581994831562042 0.03666327893733978 255.0 0.0 0.0
0.17087087035179138 -0.18006591498851776 0.16879363358020782 255.0 0.0 0.0
0.18455377221107483 -0.2530427873134613 -0.025668896734714508 255.0 0.0 0.0
0.2883107364177704 0.3441789150238037 -0.03858286142349243 255.0 0.0 0.0
-0.2859348952770233 -0.056999605149030685 -0.24936027824878693 255.0 0.0 0.0
0.2896598279476166 -0.4304244816303253 0.07110166549682617 255.0 0.0 0.0
0.1772024929523468 -0.23353688418865204 0.15611113607883453 255.0 0.0 0.0
-0.2648099660873413 0.21252743899822235 0.15632209181785583 255.0 0.0 0.0
0.11204511672258377 0.2137952744960785 -0.13506805896759033 255.0 0.0 0.0
-0.23533882200717926 0.2726934850215912 0.0305988397449255 255.0 0.0 0.0
-0.2336374819278717 0.3106706738471985 0.03874853998422623 255.0 0.0 0.0
-0.2808789014816284 -0.3159913718700409 0.14633120596408844 255.0 0.0 0.0
-0.013963819481432438 -0.19075733423233032 0.14901287853717804 255.0 0.0 0.0
-0.22873720526695251 0.302914559841156 -0.3326740860939026 255.0 0.0 0.0
-0.25380706787109375 -0.0371384359896183 -0.13861416280269623 255.0 0.0 0.0
-0.258348286151886 0.08481983095407486 0.15745462477207184 255.0 0.0 0.0
-0.20619596540927887 0.3353261351585388 -0.035233791917562485 255.0 0.0 0.0
0.2972581684589386 0.2112945169210434 -0.03817923739552498 255.0 0.0 0.0
0.29866859316825867 0.17186865210533142 0.1513107270002365 255.0 0.0 0.0
-0.22395160794258118 0.319897323846817 0.044758353382349014 255.0 0.0 0.0
-0.2536408603191376 -0.0863795354962349 -0.26265355944633484 255.0 0.0 0.0
-0.014966421760618687 0.23874850571155548 -0.1936877816915512 255.0 0.0 0.0
-0.21959400177001953 -0.14552724361419678 0.15780691802501678 255.0 0.0 0.0
-0.26674479246139526 0.18348737061023712 -0.3063206970691681 255.0 0.0 0.0
0.06147172302007675 0.12801291048526764 -0.18496057391166687 255.0 0.0 0.0
-0.22037045657634735 -0.10079466551542282 0.1589055359363556 255.0 0.0 0.0
0.2665364146232605 0.25730249285697937 -0.008540616370737553 255.0 0.0 0.0
-0.2456977516412735 -0.06659698486328125 -0.2606094479560852 255.0 0.0 0.0
0.08299104124307632 0.22794122993946075 0.14423520863056183 255.0 0.0 0.0
-0.2849677503108978 0.15129385888576508 -0.30790966749191284 255.0 0.0 0.0
-0.24101318418979645 -0.43538418412208557 0.159557044506073 255.0 0.0 0.0
-0.21933843195438385 0.3898249864578247 -0.08116145431995392 255.0 0.0 0.0
0.18738853931427002 -0.24956022202968597 -0.04164945334196091 255.0 0.0 0.0
-0.2416033297777176 0.3730652928352356 -0.06848006695508957 255.0 0.0 0.0
-0.002109403256326914 0.2979217767715454 -0.25500980019569397 255.0 0.0 0.0
0.022332021966576576 -0.24575074017047882 -0.13593198359012604 255.0 0.0 0.0
-0.2237125039100647 0.48294875025749207 -0.04874769598245621 255.0 0.0 0.0
-0.08326451480388641 0.22144019603729248 0.15632209181785583 255.0 0.0 0.0
0.2204984873533249 0.16066677868366241 0.16293007135391235 255.0 0.0 0.0
-0.19529709219932556 0.48309969902038574 -0.04529757797718048 255.0 0.0 0.0
-0.27458691596984863 -0.00569255743175745 -0.22778131067752838 255.0 0.0 0.0
-0.2818625569343567 0.06285431236028671 -0.3195112943649292 255.0 0.0 0.0
-0.2753085792064667 0.18008467555046082 -0.34449997544288635 255.0 0.0 0.0
0.2856089472770691 -0.1383863091468811 0.15900106728076935 255.0 0.0 0.0
0.030356643721461296 0.21043649315834045 0.15632209181785583 255.0 0.0 0.0
-0.23547376692295074 -0.25235772132873535 -0.015643706545233727 255.0 0.0 0.0
-0.26005789637565613 -0.22461163997650146 0.1572779268026352 255.0 0.0 0.0
-0.26804807782173157 -0.2346322238445282 0.12453288584947586 255.0 0.0 0.0
0.20762893557548523 0.22944098711013794 0.050912074744701385 255.0 0.0 0.0
0.036898329854011536 -0.19405367970466614 0.15054696798324585 255.0 0.0 0.0
-0.06088992953300476 -0.2500811517238617 0.1405278891324997 255.0 0.0 0.0
-0.2715659737586975 0.1433313637971878 -0.11860568821430206 255.0 0.0 0.0
0.19637030363082886 0.4528197646141052 0.11316119879484177 255.0 0.0 0.0
0.1773349642753601 -0.440844863653183 -0.06401225924491882 255.0 0.0 0.0
-0.29154154658317566 0.06275366991758347 -0.2695789933204651 255.0 0.0 0.0
0.21580934524536133 0.15434618294239044 0.1694394052028656 255.0 0.0 0.0
-0.26318949460983276 -0.04766889289021492 -0.13774193823337555 255.0 0.0 0.0
0.2392299622297287 0.3406449258327484 -0.07469390332698822 255.0 0.0 0.0
-0.17384354770183563 0.2382058948278427 0.015846218913793564 255.0 0.0 0.0
0.299266517162323 0.2215324491262436 0.016646742820739746 255.0 0.0 0.0
-0.2616676390171051 0.25293561816215515 -0.32378682494163513 255.0 0.0 0.0
0.09908384084701538 -0.2487582117319107 -0.12943227589130402 255.0 0.0 0.0
-0.2124072164297104 0.43729352951049805 -0.07685508579015732 255.0 0.0 0.0
-0.21193359792232513 -0.20694437623023987 0.15529440343379974 255.0 0.0 0.0
-0.22244468331336975 -0.09651258587837219 0.15532751381397247 255.0 0.0 0.0
-0.21658475697040558 -0.25198760628700256 -0.04981711879372597 255.0 0.0 0.0
-0.239174023270607 0.023403195664286613 0.15601815283298492 255.0 0.0 0.0
-0.11473212391138077 -0.23860202729701996 -0.13531403243541718 255.0 0.0 0.0
-0.2908390164375305 -0.38039103150367737 0.20283232629299164 255.0 0.0 0.0
-0.18728481233119965 0.3246341645717621 -0.020829282701015472 255.0 0.0 0.0
-0.03211197257041931 0.24565821886062622 -0.21965135633945465 255.0 0.0 0.0
-0.14452163875102997 -0.2537618577480316 -0.005461249966174364 255.0 0.0 0.0
-0.207127183675766 0.3906555771827698 0.09104828536510468 255.0 0.0 0.0
-0.1695644110441208 0.359624981880188 -0.04349825531244278 255.0 0.0 0.0
0.06375861167907715 -0.23178750276565552 0.15632103383541107 255.0 0.0 0.0
-0.2581571340560913 -0.24976690113544464 0.1233859658241272 255.0 0.0 0.0
-0.2581281363964081 0.1549561470746994 -0.31864818930625916 255.0 0.0 0.0
-0.2553030848503113 0.43772852420806885 0.12057822197675705 255.0 0.0 0.0
0.2535950541496277 0.336961030960083 -0.06614487618207932 255.0 0.0 0.0
0.14897581934928894 -0.24722163379192352 -0.13643620908260345 255.0 0.0 0.0
-0.2753813862800598 0.0836779773235321 -0.26622292399406433 255.0 0.0 0.0
0.23736518621444702 -0.01428899634629488 0.16793856024742126 255.0 0.0 0.0
-0.2740646004676819 -0.05643964186310768 -0.22245679795742035 255.0 0.0 0.0
0.2631649672985077 0.141099750995636 0.15590615570545197 255.0 0.0 0.0
-0.16916264593601227 0.46975114941596985 0.09968999773263931 255.0 0.0 0.0
-0.2386988401412964 0.3655048608779907 0.10853531211614609 255.0 0.0 0.0
-0.2204534262418747 0.4649398624897003 0.09529802948236465 255.0 0.0 0.0
-0.0094299903139472 0.18698766827583313 -0.13698391616344452 255.0 0.0 0.0
0.2693203091621399 -0.44748881459236145 -0.005130547098815441 255.0 0.0 0.0
0.2625660002231598 -0.34974461793899536 0.13835017383098602 255.0 0.0 0.0
0.07042979449033737 -0.19857031106948853 0.15412184596061707 255.0 0.0 0.0
-0.013685500249266624 0.21036064624786377 0.15420934557914734 255.0 0.0 0.0
-0.019490770995616913 -0.1968727707862854 0.15082058310508728 255.0 0.0 0.0
0.2903292179107666 0.22401928901672363 -0.1349664181470871 255.0 0.0 0.0
-0.1809757947921753 -0.18271669745445251 0.16678486764431 255.0 0.0 0.0
-0.2663387060165405 0.22544942796230316 0.07463130354881287 255.0 0.0 0.0
0.29837509989738464 -0.0077753798104822636 0.1537771224975586 255.0 0.0 0.0
-0.2296086996793747 -0.2498164027929306 -0.04157133772969246 255.0 0.0 0.0
0.29556670784950256 0.047003354877233505 0.15638265013694763 255.0 0.0 0.0
-0.26269784569740295 -0.025218818336725235 -0.30347684025764465 255.0 0.0 0.0
-0.2123776227235794 0.32252299785614014 0.05148714780807495 255.0 0.0 0.0
0.17913086712360382 -0.26516589522361755 0.04548424109816551 255.0 0.0 0.0
-0.19830136001110077 0.4365878403186798 0.08552637696266174 255.0 0.0 0.0
-0.24699810147285461 -0.022214077413082123 -0.2872416377067566 255.0 0.0 0.0
0.11489499360322952 0.15539628267288208 0.16918516159057617 255.0 0.0 0.0
-0.2403433471918106 -0.3968402147293091 0.1974213719367981 255.0 0.0 0.0
0.24339883029460907 -0.33082908391952515 -0.08106755465269089 255.0 0.0 0.0
-0.16982941329479218 -0.23426012694835663 -0.13736912608146667 255.0 0.0 0.0
-0.2167515754699707 0.10009531676769257 0.17086395621299744 255.0 0.0 0.0
0.2918868958950043 0.22766849398612976 -0.019977640360593796 255.0 0.0 0.0
0.26533207297325134 -0.3822982907295227 -0.07749977707862854 255.0 0.0 0.0
-0.26359760761260986 0.1551494002342224 -0.33601003885269165 255.0 0.0 0.0
-0.27274176478385925 -0.09190090745687485 -0.13301581144332886 255.0 0.0 0.0
-0.27182814478874207 0.06084318086504936 -0.11932794004678726 255.0 0.0 0.0
0.0433049201965332 -0.18894068896770477 0.15797275304794312 255.0 0.0 0.0
-0.02478279359638691 0.170067697763443 -0.21321803331375122 255.0 0.0 0.0
0.2971838116645813 0.21263226866722107 0.1021895632147789 255.0 0.0 0.0
-0.26158377528190613 0.16774289309978485 -0.3128853738307953 255.0 0.0 0.0
0.25682783126831055 -0.01752634160220623 0.15716880559921265 255.0 0.0 0.0
0.22035035490989685 0.16694456338882446 0.1585199385881424 255.0 0.0 0.0
0.2661592364311218 0.27299395203590393 0.004741436801850796 255.0 0.0 0.0
0.0339556485414505 0.18091192841529846 0.15427081286907196 255.0 0.0 0.0
0.2273116409778595 0.48976847529411316 0.11743196099996567 255.0 0.0 0.0
-0.17049197852611542 0.16344806551933289 0.16226917505264282 255.0 0.0 0.0
0.23187847435474396 0.025275317952036858 0.16940195858478546 255.0 0.0 0.0
-0.24654413759708405 -0.3112310469150543 0.1109597310423851 255.0 0.0 0.0
0.07195601612329483 0.17566518485546112 0.15074896812438965 255.0 0.0 0.0
0.24902699887752533 0.019228694960474968 0.15831992030143738 255.0 0.0 0.0
-0.22446143627166748 0.31588611006736755 0.044354408979415894 255.0 0.0 0.0
-0.22981829941272736 -0.030476760119199753 0.1539909988641739 255.0 0.0 0.0
-0.2232881784439087 0.32354044914245605 0.05089343339204788 255.0 0.0 0.0
-0.18521465361118317 0.2877243459224701 -0.002577501814812422 255.0 0.0 0.0
-0.25085026025772095 0.29990407824516296 -0.35190314054489136 255.0 0.0 0.0
0.2996397018432617 0.21243540942668915 -0.04813050478696823 255.0 0.0 0.0
0.06090264767408371 0.23192232847213745 0.14227032661437988 255.0 0.0 0.0
-0.26491761207580566 0.4234645664691925 0.10965203493833542 255.0 0.0 0.0
-0.21232256293296814 0.4761802554130554 0.10147172957658768 255.0 0.0 0.0
0.23710015416145325 -0.44484445452690125 -0.0895637720823288 255.0 0.0 0.0
-0.28602999448776245 0.009186005219817162 -0.3106187880039215 255.0 0.0 0.0
-0.21936112642288208 0.0867692157626152 0.16245010495185852 255.0 0.0 0.0
0.08480436354875565 -0.24674566090106964 0.15853914618492126 255.0 0.0 0.0
0.2440875917673111 0.4001305401325226 -0.09255602210760117 255.0 0.0 0.0
-0.2510179579257965 0.3852703273296356 0.11709396541118622 255.0 0.0 0.0
-0.22403033077716827 -0.02549869753420353 0.15482990443706512 255.0 0.0 0.0
0.26807743310928345 0.4283657968044281 -0.08294225484132767 255.0 0.0 0.0
0.13502725958824158 0.1671471893787384 0.15606218576431274 255.0 0.0 0.0
-0.274201363325119 0.037258367985486984 -0.31916090846061707 255.0 0.0 0.0
0.04360510781407356 0.1694648116827011 -0.1344689279794693 255.0 0.0 0.0
0.06265220791101456 -0.24652372300624847 0.15603415668010712 255.0 0.0 0.0
-0.26521047949790955 -0.09111122786998749 -0.22788645327091217 255.0 0.0 0.0
0.12878380715847015 -0.24801500141620636 0.15319858491420746 255.0 0.0 0.0
-0.3222388029098511 -0.42872685194015503 -0.07196693867444992 255.0 0.0 0.0
0.24642294645309448 -0.27953290939331055 -0.0553511418402195 255.0 0.0 0.0
-0.03957681730389595 0.12566222250461578 -0.14715304970741272 255.0 0.0 0.0
0.29008859395980835 -0.3849034905433655 0.14124934375286102 255.0 0.0 0.0
0.007019558921456337 0.223033145070076 0.15860462188720703 255.0 0.0 0.0
-0.31048133969306946 -0.3380538821220398 0.1935996562242508 255.0 0.0 0.0
0.22971327602863312 0.015640778467059135 0.1724960058927536 255.0 0.0 0.0
-0.23408451676368713 0.29960039258003235 -0.01282914076000452 255.0 0.0 0.0
0.2991073727607727 0.06761287897825241 0.1465378850698471 255.0 0.0 0.0
-0.16742229461669922 0.31980881094932556 -0.3556062579154968 255.0 0.0 0.0
-0.22345632314682007 0.2255147248506546 0.14716941118240356 255.0 0.0 0.0
0.053936515003442764 0.22573356330394745 -0.19608739018440247 255.0 0.0 0.0
-0.024311941117048264 0.24929821491241455 -0.2566288709640503 255.0 0.0 0.0
-0.22598128020763397 0.4778450131416321 -0.05128824710845947 255.0 0.0 0.0
0.2945486605167389 0.22624413669109344 -0.128211110830307 255.0 0.0 0.0
0.1728215366601944 -0.25285330414772034 0.015444706194102764 255.0 0.0 0.0
0.21477210521697998 0.4809366464614868 -0.06214189901947975 255.0 0.0 0.0
-0.2632889449596405 0.0887649804353714 -0.1349981129169464 255.0 0.0 0.0
0.2903139293193817 0.22766850888729095 0.05561378598213196 255.0 0.0 0.0
0.14511102437973022 -0.23701180517673492 -0.13506805896759033 255.0 0.0 0.0
0.24633175134658813 0.262241929769516 0.04112561419606209 255.0 0.0 0.0
-0.26989129185676575 -0.034349068999290466 0.15046246349811554 255.0 0.0 0.0
0.2930867671966553 0.22764381766319275 -0.01100500300526619 255.0 0.0 0.0
0.2688162326812744 0.23328498005867004 -0.020240936428308487 255.0 0.0 0.0
-0.2796626389026642 0.24146151542663574 -0.3261093497276306 255.0 0.0 0.0
-0.2481181025505066 -0.08555716276168823 -0.2532021999359131 255.0 0.0 0.0
-0.22437775135040283 0.49169012904167175 -0.029225043952465057 255.0 0.0 0.0
-0.03026747517287731 0.22365595400333405 -0.20087449252605438 255.0 0.0 0.0
-0.3247345983982086 -0.40702906250953674 -0.06222002953290939 255.0 0.0 0.0
-0.23096048831939697 0.27909278869628906 -0.3416486084461212 255.0 0.0 0.0
0.2536599636077881 0.2636776864528656 0.03808914124965668 255.0 0.0 0.0
0.28376638889312744 -0.4425506293773651 0.08685922622680664 255.0 0.0 0.0
0.29512253403663635 -0.1702069640159607 -0.12212846428155899 255.0 0.0 0.0
-0.24909041821956635 -0.316150963306427 -0.07702861726284027 255.0 0.0 0.0
0.269087553024292 -0.38353806734085083 0.17828501760959625 255.0 0.0 0.0
0.2764318287372589 0.3891385793685913 -0.07236209511756897 255.0 0.0 0.0
-0.3340514302253723 -0.3366980254650116 0.16953124105930328 255.0 0.0 0.0
-0.33982744812965393 -0.3847029507160187 0.014586453326046467 255.0 0.0 0.0
-0.2297573685646057 -0.2546551823616028 -0.01571427471935749 255.0 0.0 0.0
-0.04689542576670647 -0.2484162300825119 -0.12923970818519592 255.0 0.0 0.0
0.14368782937526703 -0.44832029938697815 0.09234569221735 255.0 0.0 0.0
0.278949111700058 -0.36935707926750183 0.14326056838035583 255.0 0.0 0.0
0.2578078806400299 0.2883710265159607 0.03654026985168457 255.0 0.0 0.0
-0.2698616087436676 -0.23867295682430267 0.0254649817943573 255.0 0.0 0.0
0.23126722872257233 0.2324664443731308 0.05264309048652649 255.0 0.0 0.0
0.08023751527070999 0.22107848525047302 0.15632209181785583 255.0 0.0 0.0
-0.25257158279418945 0.18712076544761658 -0.13506805896759033 255.0 0.0 0.0
0.2065996378660202 0.3950398564338684 0.10570010542869568 255.0 0.0 0.0
-0.0401969850063324 0.14635063707828522 -0.13659465312957764 255.0 0.0 0.0
-0.33371829986572266 -0.3632293939590454 0.14337119460105896 255.0 0.0 0.0
-0.21617160737514496 0.48280781507492065 0.11067317426204681 255.0 0.0 0.0
0.26143214106559753 0.13615411520004272 0.155470073223114 255.0 0.0 0.0
0.20819410681724548 0.3607487380504608 0.11530216038227081 255.0 0.0 0.0
-0.17176586389541626 0.3246300518512726 -0.3272697329521179 255.0 0.0 0.0
-0.2728194296360016 0.22464211285114288 0.05624742805957794 255.0 0.0 0.0
-0.2236384004354477 -0.023442326113581657 0.15348660945892334 255.0 0.0 0.0
0.22887174785137177 0.5120266675949097 -0.015129891224205494 255.0 0.0 0.0
-0.1433839350938797 0.32884809374809265 -0.317059725522995 255.0 0.0 0.0
0.2970726490020752 -0.1499747335910797 -0.13338953256607056 255.0 0.0 0.0
-0.2742748260498047 -0.35090872645378113 0.1982915848493576 255.0 0.0 0.0
0.2992836534976959 -0.23227854073047638 0.012916703708469868 255.0 0.0 0.0
-0.24766935408115387 0.47857561707496643 0.1117456927895546 255.0 0.0 0.0
0.3003705143928528 -0.24136267602443695 0.11250373721122742 255.0 0.0 0.0
0.2881292402744293 -0.4369727671146393 0.01039427611976862 255.0 0.0 0.0
-0.22950661182403564 0.2760211229324341 -0.3533816635608673 255.0 0.0 0.0
-0.2643953561782837 0.04569966346025467 -0.1326473355293274 255.0 0.0 0.0
-0.18928897380828857 0.47012966871261597 -0.05456830561161041 255.0 0.0 0.0
-0.19937698543071747 0.2958446443080902 0.033551283180713654 255.0 0.0 0.0
-0.2462092787027359 0.26286935806274414 0.007960999384522438 255.0 0.0 0.0
-0.2600926458835602 0.08425915986299515 0.15936647355556488 255.0 0.0 0.0
0.08715331554412842 0.17348258197307587 0.15138286352157593 255.0 0.0 0.0
-0.2184033989906311 -0.4561595916748047 0.10212095826864243 255.0 0.0 0.0
-0.26191246509552 0.11994297802448273 -0.28959959745407104 255.0 0.0 0.0
-0.27390509843826294 -0.00023889874864835292 -0.3112715482711792 255.0 0.0 0.0
0.054516445845365524 -0.18156598508358002 0.16776375472545624 255.0 0.0 0.0
0.2888205051422119 0.06571446359157562 0.15616314113140106 255.0 0.0 0.0
-0.028906797990202904 0.2991794943809509 -0.25241801142692566 255.0 0.0 0.0
-0.260021835565567 0.36194291710853577 0.08357018232345581 255.0 0.0 0.0
0.18708457052707672 0.16380834579467773 0.16174522042274475 255.0 0.0 0.0
-0.20692899823188782 0.5055130124092102 0.052069541066884995 255.0 0.0 0.0
-0.18356411159038544 0.2958458662033081 0.0024499730207026005 255.0 0.0 0.0
-0.25872933864593506 0.16558262705802917 -0.13641227781772614 255.0 0.0 0.0
0.17307782173156738 -0.2645898163318634 0.033302344381809235 255.0 0.0 0.0
0.2559938132762909 0.3208125829696655 -0.03760148584842682 255.0 0.0 0.0
-0.20583653450012207 0.3453057110309601 -0.06250681728124619 255.0 0.0 0.0
-0.235696479678154 -0.4613875150680542 0.09359438717365265 255.0 0.0 0.0
0.21158066391944885 0.22796382009983063 0.14323531091213226 255.0 0.0 0.0
0.28859901428222656 -0.2366507202386856 -0.1345694214105606 255.0 0.0 0.0
0.2989981472492218 0.2234058380126953 0.06082147732377052 255.0 0.0 0.0
-0.19178301095962524 0.16251593828201294 0.16399484872817993 255.0 0.0 0.0
0.18354275822639465 0.21715258061885834 0.15761421620845795 255.0 0.0 0.0
0.04964706301689148 0.10694772005081177 -0.1564347892999649 255.0 0.0 0.0
0.24822895228862762 -0.26799142360687256 -0.03430483117699623 255.0 0.0 0.0
0.26174280047416687 -0.017359256744384766 0.15576410293579102 255.0 0.0 0.0
0.0575263611972332 0.13605272769927979 -0.1936766505241394 255.0 0.0 0.0
-0.22360792756080627 -0.47290584444999695 0.039590708911418915 255.0 0.0 0.0
-0.19300556182861328 -0.25492098927497864 -0.06109631806612015 255.0 0.0 0.0
0.23658201098442078 -0.3258512020111084 -0.08013833314180374 255.0 0.0 0.0
-0.20045959949493408 0.48571714758872986 0.11236216127872467 255.0 0.0 0.0
0.184696227312088 -0.24713966250419617 -0.13434793055057526 255.0 0.0 0.0
-0.23529985547065735 0.3511020243167877 0.1020464301109314 255.0 0.0 0.0
-0.1532672494649887 0.3153558373451233 -0.33959075808525085 255.0 0.0 0.0
0.23216770589351654 0.13852551579475403 0.1693902164697647 255.0 0.0 0.0
-0.2706981301307678 -0.2010028213262558 0.15100888907909393 255.0 0.0 0.0
-0.16358833014965057 0.44347867369651794 0.09734839200973511 255.0 0.0 0.0
-0.25770479440689087 0.3534581959247589 0.06512818485498428 255.0 0.0 0.0
-0.17719583213329315 0.2298356294631958 0.03766345605254173 255.0 0.0 0.0
-0.1244465783238411 0.19818106293678284 -0.13506805896759033 255.0 0.0 0.0
-0.22206240892410278 -0.006610403768718243 0.15847572684288025 255.0 0.0 0.0
0.2577836215496063 -0.27824535965919495 -0.04541855305433273 255.0 0.0 0.0
0.22019648551940918 -0.2667742967605591 0.07263442128896713 255.0 0.0 0.0
0.21078528463840485 0.3848443925380707 0.10744134336709976 255.0 0.0 0.0
-0.2208172231912613 -0.33497923612594604 0.11074165999889374 255.0 0.0 0.0
0.29722800850868225 -0.12003300338983536 0.14805994927883148 255.0 0.0 0.0
-0.16930991411209106 0.2292262613773346 0.006320887245237827 255.0 0.0 0.0
0.11425260454416275 -0.18464912474155426 0.1648108810186386 255.0 0.0 0.0
-0.20533138513565063 0.4024573564529419 0.08793153613805771 255.0 0.0 0.0
0.26486948132514954 0.26649072766304016 0.02514222450554371 255.0 0.0 0.0
-0.2790515422821045 0.14029228687286377 -0.3312804102897644 255.0 0.0 0.0
-0.2312743067741394 0.33754560351371765 -0.04720217362046242 255.0 0.0 0.0
0.294643759727478 -0.22733470797538757 0.15611840784549713 255.0 0.0 0.0
-0.2093478888273239 0.23673607409000397 -0.03283362463116646 255.0 0.0 0.0
0.24364565312862396 -0.44322097301483154 0.19629107415676117 255.0 0.0 0.0
-0.23754727840423584 -0.44202545285224915 0.15803363919258118 255.0 0.0 0.0
-0.2001153975725174 0.32279089093208313 -0.32747146487236023 255.0 0.0 0.0
-0.25706109404563904 0.22732612490653992 0.040326278656721115 255.0 0.0 0.0
-0.25815528631210327 0.18349424004554749 -0.3279605507850647 255.0 0.0 0.0
0.11367995291948318 -0.23998774588108063 0.15367165207862854 255.0 0.0 0.0
-0.013453546911478043 0.2252838909626007 -0.241119846701622 255.0 0.0 0.0
-0.2472221851348877 0.3426287770271301 0.06870009750127792 255.0 0.0 0.0
0.14542709290981293 0.23224718868732452 -0.1299096643924713 255.0 0.0 0.0
-0.1798701137304306 0.33895912766456604 -0.32726478576660156 255.0 0.0 0.0
0.25598496198654175 0.28939101099967957 -0.01766970381140709 255.0 0.0 0.0
-0.23039846122264862 -0.44187748432159424 0.16155414283275604 255.0 0.0 0.0
-0.2600748836994171 0.09569049626588821 -0.29469913244247437 255.0 0.0 0.0
0.03458959981799126 0.10664635896682739 -0.13506805896759033 255.0 0.0 0.0
-0.22921805083751678 -0.2544994652271271 0.050442494451999664 255.0 0.0 0.0
0.2889043092727661 0.3515445590019226 -0.0403376929461956 255.0 0.0 0.0
0.26634204387664795 0.2766651511192322 0.028712289407849312 255.0 0.0 0.0
0.2929719090461731 0.17858561873435974 -0.13323692977428436 255.0 0.0 0.0
0.17422203719615936 -0.2658040523529053 -0.016278045251965523 255.0 0.0 0.0
0.2993541955947876 -0.2342461794614792 0.12763509154319763 255.0 0.0 0.0
0.18353591859340668 -0.25795602798461914 -0.024860689416527748 255.0 0.0 0.0
-0.15306591987609863 -0.24794970452785492 -0.1309773027896881 255.0 0.0 0.0
-0.2569297254085541 -0.36656445264816284 -0.09655528515577316 255.0 0.0 0.0
-0.045599110424518585 0.2264297604560852 -0.13351558148860931 255.0 0.0 0.0
0.2872595489025116 -0.41232848167419434 0.17877882719039917 255.0 0.0 0.0
0.2981465756893158 -0.24436727166175842 0.09859281778335571 255.0 0.0 0.0
-0.26347583532333374 0.1610645055770874 -0.3380001485347748 255.0 0.0 0.0
0.18547400832176208 -0.18742990493774414 0.16015097498893738 255.0 0.0 0.0
0.2391805648803711 0.34623461961746216 -0.07713578641414642 255.0 0.0 0.0
0.24798522889614105 0.17371955513954163 0.1548723727464676 255.0 0.0 0.0
0.001199475023895502 0.20192375779151917 -0.1542031466960907 255.0 0.0 0.0
-0.2167118638753891 -0.2537427842617035 0.0749446377158165 255.0 0.0 0.0
-0.2535688877105713 0.23003703355789185 -0.32414117455482483 255.0 0.0 0.0
0.276542603969574 0.3217393159866333 0.036902349442243576 255.0 0.0 0.0
-0.24814757704734802 0.4234790503978729 0.11492589116096497 255.0 0.0 0.0
0.24686463177204132 0.27473345398902893 -0.018893955275416374 255.0 0.0 0.0
0.1644352227449417 -0.25146183371543884 0.0212115328758955 255.0 0.0 0.0
0.28765347599983215 -0.08125283569097519 -0.1361691802740097 255.0 0.0 0.0
0.1821676641702652 -0.20296205580234528 0.155534029006958 255.0 0.0 0.0
-0.3084262013435364 -0.33697667717933655 0.19457046687602997 255.0 0.0 0.0
-0.26964738965034485 -0.30206823348999023 0.09881081432104111 255.0 0.0 0.0
0.280626505613327 -0.19338248670101166 0.15706627070903778 255.0 0.0 0.0
-0.25443875789642334 -0.08258604258298874 -0.2654721140861511 255.0 0.0 0.0
0.2225213646888733 0.3339521586894989 -0.057344067841768265 255.0 0.0 0.0
-0.22448553144931793 0.38238945603370667 -0.07900156080722809 255.0 0.0 0.0
-0.2533944845199585 -0.046171389520168304 -0.22824791073799133 255.0 0.0 0.0
-0.08794799447059631 0.3234926164150238 -0.32521820068359375 255.0 0.0 0.0
-0.2536921501159668 0.22873416543006897 -0.009580209851264954 255.0 0.0 0.0
0.004349920433014631 0.2625597417354584 -0.2691676914691925 255.0 0.0 0.0
-0.23174117505550385 0.45775651931762695 -0.06832017749547958 255.0 0.0 0.0
-0.28395459055900574 -0.024163905531167984 -0.23225684463977814 255.0 0.0 0.0
-0.2435832917690277 -0.37623119354248047 -0.09239409863948822 255.0 0.0 0.0
0.17580577731132507 -0.19847740232944489 0.15400943160057068 255.0 0.0 0.0
-0.2541012167930603 -0.06866104900836945 -0.2811279594898224 255.0 0.0 0.0
-0.03153342381119728 0.24493449926376343 -0.23615841567516327 255.0 0.0 0.0
-0.25545361638069153 0.2275112420320511 0.13734585046768188 255.0 0.0 0.0
0.20199166238307953 -0.42996057868003845 0.20399577915668488 255.0 0.0 0.0
-0.12641608715057373 0.21735779941082 -0.1342659592628479 255.0 0.0 0.0
-0.24333123862743378 0.22120527923107147 -0.1353660225868225 255.0 0.0 0.0
-0.2645723819732666 -0.24189037084579468 -0.133024662733078 255.0 0.0 0.0
-0.23327308893203735 0.32257723808288574 -0.023468326777219772 255.0 0.0 0.0
0.22889479994773865 0.5119113922119141 -0.010735874995589256 255.0 0.0 0.0
-0.21814320981502533 0.3082353472709656 -0.33371320366859436 255.0 0.0 0.0
-0.2562662959098816 0.023501962423324585 -0.24368953704833984 255.0 0.0 0.0
0.19880634546279907 0.42122283577919006 0.10439962893724442 255.0 0.0 0.0
-0.020151415839791298 0.13544240593910217 -0.20698678493499756 255.0 0.0 0.0
0.2008972465991974 0.3159140646457672 0.013903262093663216 255.0 0.0 0.0
-0.2856465280056 0.17290590703487396 -0.322893887758255 255.0 0.0 0.0
0.236845463514328 0.09750942140817642 0.16850025951862335 255.0 0.0 0.0
0.24516157805919647 -0.3248654007911682 -0.07320928573608398 255.0 0.0 0.0
-0.21437008678913116 -0.253219336271286 0.08870925009250641 255.0 0.0 0.0
0.29526472091674805 -0.07849857211112976 0.15482108294963837 255.0 0.0 0.0
0.2889738082885742 -0.04178854450583458 0.15339672565460205 255.0 0.0 0.0
0.25590282678604126 -0.25541430711746216 0.03483404219150543 255.0 0.0 0.0
-0.2789859473705292 0.1185559630393982 -0.2849481701850891 255.0 0.0 0.0
0.16634956002235413 -0.41779518127441406 0.1869153380393982 255.0 0.0 0.0
0.04592481628060341 -0.23373310267925262 -0.13431143760681152 255.0 0.0 0.0
-0.22733598947525024 0.3022752106189728 0.04094136133790016 255.0 0.0 0.0
-0.2396715134382248 0.2367722988128662 0.060376159846782684 255.0 0.0 0.0
-0.2198682725429535 0.4032004773616791 0.09260526299476624 255.0 0.0 0.0
-0.2659335136413574 -0.2514919340610504 -0.030443357303738594 255.0 0.0 0.0
-0.1794758141040802 0.3389453589916229 0.050396133214235306 255.0 0.0 0.0
-0.199812114238739 0.40645724534988403 0.08757524192333221 255.0 0.0 0.0
-0.2715880572795868 -0.011105254292488098 -0.1315760612487793 255.0 0.0 0.0
0.2584398686885834 -0.3256741166114807 -0.06930052489042282 255.0 0.0 0.0
-0.16916051506996155 -0.26412057876586914 -0.04256250709295273 255.0 0.0 0.0
-0.2598780393600464 0.06493209302425385 -0.2609193027019501 255.0 0.0 0.0
-0.22243447601795197 0.3021644651889801 -0.3352107107639313 255.0 0.0 0.0
-0.09957429766654968 -0.19686664640903473 0.14784009754657745 255.0 0.0 0.0
-0.19461554288864136 0.3852636218070984 0.09256164729595184 255.0 0.0 0.0
-0.2726314067840576 -0.005813666619360447 -0.22683635354042053 255.0 0.0 0.0
-0.15066345036029816 0.334229975938797 -0.33965346217155457 255.0 0.0 0.0
-0.2582423985004425 0.08128658682107925 -0.306056946516037 255.0 0.0 0.0
-0.22281001508235931 0.24126896262168884 0.05040109530091286 255.0 0.0 0.0
-0.27868860960006714 0.17581568658351898 -0.303455114364624 255.0 0.0 0.0
0.27643120288848877 -0.24900595843791962 0.14102803170681 255.0 0.0 0.0
-0.1442486047744751 -0.2367987334728241 0.15632209181785583 255.0 0.0 0.0
-0.24159303307533264 -0.3801308572292328 0.19717693328857422 255.0 0.0 0.0
-0.22057154774665833 0.03687568008899689 0.16131176054477692 255.0 0.0 0.0
-0.21030494570732117 0.38747620582580566 0.09763284027576447 255.0 0.0 0.0
-0.20920825004577637 0.31658506393432617 0.04790586233139038 255.0 0.0 0.0
0.08385112136602402 -0.2512330114841461 0.14749181270599365 255.0 0.0 0.0
0.15966862440109253 -0.44614967703819275 -0.016606613993644714 255.0 0.0 0.0
-0.2157876044511795 0.33382561802864075 0.059744615107774734 255.0 0.0 0.0
-0.06321664899587631 0.33185359835624695 -0.29280799627304077 255.0 0.0 0.0
-0.21558550000190735 -0.25315210223197937 -0.06193385645747185 255.0 0.0 0.0
-0.12777668237686157 0.31738024950027466 -0.34197917580604553 255.0 0.0 0.0
0.19729511439800262 -0.42791393399238586 0.19900229573249817 255.0 0.0 0.0
-0.08374815434217453 0.16819101572036743 0.1539294570684433 255.0 0.0 0.0
-0.0615851916372776 0.2106497436761856 0.1568901240825653 255.0 0.0 0.0
-0.16711090505123138 -0.2610614597797394 -0.034058455377817154 255.0 0.0 0.0
-0.09636908024549484 -0.19688187539577484 0.15242284536361694 255.0 0.0 0.0
-0.20333139598369598 0.46417954564094543 -0.06635073572397232 255.0 0.0 0.0
-0.2740611433982849 -0.18009662628173828 0.14183326065540314 255.0 0.0 0.0
-0.13572435081005096 -0.25267475843429565 0.021568460389971733 255.0 0.0 0.0
0.13838008046150208 -0.4255214333534241 0.13541024923324585 255.0 0.0 0.0
-0.2529841959476471 0.24389204382896423 -0.32677486538887024 255.0 0.0 0.0
0.2049998939037323 0.45151081681251526 -0.07215724885463715 255.0 0.0 0.0
-0.28432056307792664 -0.46464115381240845 -0.05997617542743683 255.0 0.0 0.0
0.2911992371082306 -0.42944517731666565 0.04369113966822624 255.0 0.0 0.0
0.2581876814365387 0.23884999752044678 0.0431472547352314 255.0 0.0 0.0
0.26576048135757446 0.5087792277336121 0.10417697578668594 255.0 0.0 0.0
-0.26976901292800903 0.05303671583533287 -0.24260006844997406 255.0 0.0 0.0
0.19044415652751923 0.39590850472450256 0.11407085508108139 255.0 0.0 0.0
-0.1883171945810318 0.3114127218723297 -0.004004932940006256 255.0 0.0 0.0
0.28673455119132996 0.38971447944641113 0.12682335078716278 255.0 0.0 0.0
-0.2765210270881653 -0.3674878776073456 -0.0906740128993988 255.0 0.0 0.0
-0.2788591980934143 -0.004527561832219362 -0.30860456824302673 255.0 0.0 0.0
-0.0632876381278038 0.2269439995288849 -0.12275238335132599 255.0 0.0 0.0
-0.25253111124038696 0.04579462483525276 -0.2517932057380676 255.0 0.0 0.0
0.27853649854660034 0.46191224455833435 0.12722143530845642 255.0 0.0 0.0
0.21509325504302979 -0.2516821324825287 -0.05231405794620514 255.0 0.0 0.0
-0.2396872490644455 -0.4760221540927887 -0.031842589378356934 255.0 0.0 0.0
0.21949341893196106 -0.25662457942962646 0.07013958692550659 255.0 0.0 0.0
0.04176000878214836 0.1575774997472763 -0.21364496648311615 255.0 0.0 0.0
-0.16054823994636536 -0.19951288402080536 0.1509982943534851 255.0 0.0 0.0
0.2633884847164154 0.2583131194114685 0.0041834511794149876 255.0 0.0 0.0
0.2568618655204773 0.07040579617023468 0.15451955795288086 255.0 0.0 0.0
-0.2542109787464142 -0.321904718875885 -0.07614241540431976 255.0 0.0 0.0
-0.22070449590682983 -0.4520626366138458 0.12739603221416473 255.0 0.0 0.0
-0.057885292917490005 -0.2445443868637085 0.15392592549324036 255.0 0.0 0.0
0.043585311621427536 0.20676197111606598 -0.16549865901470184 255.0 0.0 0.0
0.05588972195982933 0.2138759046792984 -0.20862364768981934 255.0 0.0 0.0
-0.2853855490684509 0.03208769112825394 -0.31246334314346313 255.0 0.0 0.0
-0.21851086616516113 0.22478489577770233 0.15596389770507812 255.0 0.0 0.0
-0.21514271199703217 -0.4202442765235901 0.16599734127521515 255.0 0.0 0.0
-0.2898425757884979 -0.0023522479459643364 -0.29981836676597595 255.0 0.0 0.0
-0.26719269156455994 -0.06303387880325317 -0.22060708701610565 255.0 0.0 0.0
-0.26602205634117126 -0.22339358925819397 0.1550784707069397 255.0 0.0 0.0
-0.25656449794769287 -0.2501300275325775 -0.010637754574418068 255.0 0.0 0.0
-0.22347557544708252 0.30848321318626404 0.044815778732299805 255.0 0.0 0.0
-0.0683668777346611 0.21288885176181793 -0.13859032094478607 255.0 0.0 0.0
-0.26905325055122375 -0.13020117580890656 0.15088224411010742 255.0 0.0 0.0
-0.22759971022605896 -0.4598666727542877 0.10361335426568985 255.0 0.0 0.0
-0.2555852234363556 0.0569380559027195 -0.30575963854789734 255.0 0.0 0.0
0.2885447144508362 0.11049468070268631 0.15632209181785583 255.0 0.0 0.0
-0.2416938990354538 -0.25579944252967834 -0.028932547196745872 255.0 0.0 0.0
-0.01815221644937992 0.10425789654254913 -0.1530904918909073 255.0 0.0 0.0
0.2339303195476532 0.47283387184143066 0.1044803112745285 255.0 0.0 0.0
0.29063940048217773 -0.2501090168952942 0.08866960555315018 255.0 0.0 0.0
-0.21220651268959045 -0.4025968015193939 0.16686780750751495 255.0 0.0 0.0
-0.005309563595801592 0.18111909925937653 -0.22496451437473297 255.0 0.0 0.0
0.037048738449811935 -0.186339870095253 0.16374951601028442 255.0 0.0 0.0
-0.1663840413093567 0.17187191545963287 0.1569385677576065 255.0 0.0 0.0
0.2634780704975128 0.3556707203388214 0.12308651953935623 255.0 0.0 0.0
0.06509730964899063 -0.1950007528066635 0.15262918174266815 255.0 0.0 0.0
0.1717122197151184 -0.2710254192352295 -0.014804144389927387 255.0 0.0 0.0
0.27065926790237427 0.30322331190109253 -0.004901763517409563 255.0 0.0 0.0
0.2130763679742813 0.2965143024921417 0.03151329606771469 255.0 0.0 0.0
0.2961611747741699 -0.24398206174373627 0.11810167133808136 255.0 0.0 0.0
0.24905911087989807 -0.24889403581619263 0.14613312482833862 255.0 0.0 0.0
0.2287513166666031 0.22877679765224457 -0.042571403086185455 255.0 0.0 0.0
0.1738981157541275 -0.23973819613456726 0.1535077542066574 255.0 0.0 0.0
0.23207883536815643 -0.0754629373550415 0.16920936107635498 255.0 0.0 0.0
0.0366627536714077 0.10499616712331772 -0.18228265643119812 255.0 0.0 0.0
-0.15984663367271423 0.22818754613399506 0.018194658681750298 255.0 0.0 0.0
0.22179226577281952 0.14913059771060944 0.16789135336875916 255.0 0.0 0.0
0.28024619817733765 0.0702567771077156 0.159947469830513 255.0 0.0 0.0
-0.19790273904800415 -0.2635699212551117 0.073563352227211 255.0 0.0 0.0
-0.26881933212280273 -0.07987004518508911 -0.2200641930103302 255.0 0.0 0.0
-0.2691091001033783 -0.23917941749095917 0.04085182398557663 255.0 0.0 0.0
0.2753709852695465 0.22127586603164673 -0.1353485882282257 255.0 0.0 0.0
0.2619698643684387 -0.24411939084529877 -0.13184086978435516 255.0 0.0 0.0
0.28303757309913635 0.4013431668281555 0.1321723610162735 255.0 0.0 0.0
-0.14413169026374817 -0.23433884978294373 0.15632209181785583 255.0 0.0 0.0
0.05632907524704933 0.19912897050380707 -0.20416373014450073 255.0 0.0 0.0
-0.17999520897865295 0.2421913594007492 -0.004913900978863239 255.0 0.0 0.0
-0.2672678828239441 -0.073573537170887 -0.1346811056137085 255.0 0.0 0.0
0.23100154101848602 -0.24763140082359314 0.15047359466552734 255.0 0.0 0.0
0.28396695852279663 -0.20514294505119324 -0.13483524322509766 255.0 0.0 0.0
-0.2581031322479248 0.21516020596027374 -0.13463735580444336 255.0 0.0 0.0
-0.23625746369361877 0.2327881157398224 -0.02423243038356304 255.0 0.0 0.0
0.24243773519992828 -0.05353232100605965 0.16772134602069855 255.0 0.0 0.0
-0.020227959379553795 -0.2534233331680298 -0.12225797027349472 255.0 0.0 0.0
0.04502633959054947 0.11258237063884735 -0.13447988033294678 255.0 0.0 0.0
-0.22789515554904938 0.2552504539489746 -0.022625518962740898 255.0 0.0 0.0
-0.2634643614292145 0.07900430262088776 -0.13506805896759033 255.0 0.0 0.0
-0.207408145070076 0.39549851417541504 0.09055867791175842 255.0 0.0 0.0
-0.013059157878160477 0.1025649756193161 -0.16463644802570343 255.0 0.0 0.0
-0.26224371790885925 0.22633273899555206 0.07942712306976318 255.0 0.0 0.0
0.2021516114473343 0.31317824125289917 0.025475269183516502 255.0 0.0 0.0
-0.25607553124427795 0.2917604148387909 -0.35236841440200806 255.0 0.0 0.0
-0.004379501566290855 0.2513478696346283 -0.26202523708343506 255.0 0.0 0.0
-0.17516157031059265 0.37098070979118347 0.10173891484737396 255.0 0.0 0.0
0.2926703691482544 -0.10310949385166168 -0.13506805896759033 255.0 0.0 0.0
-0.21960918605327606 0.2534831464290619 0.04691113159060478 255.0 0.0 0.0
0.1569383591413498 -0.3378262519836426 0.08105669170618057 255.0 0.0 0.0
0.2015385627746582 0.23052646219730377 0.021897420287132263 255.0 0.0 0.0
-0.2640761733055115 -0.3086857497692108 0.11221905052661896 255.0 0.0 0.0
0.29206982254981995 0.42035990953445435 0.12805119156837463 255.0 0.0 0.0
0.21190835535526276 -0.25118425488471985 -0.05461451783776283 255.0 0.0 0.0
-0.0007433638675138354 0.10143361985683441 -0.15176616609096527 255.0 0.0 0.0
0.2543611228466034 0.4692206084728241 0.10993519425392151 255.0 0.0 0.0
0.28354933857917786 -0.43959465622901917 0.006149641703814268 255.0 0.0 0.0
0.1286882758140564 0.2276996225118637 -0.13239112496376038 255.0 0.0 0.0
0.003462943946942687 0.16972382366657257 0.1519368588924408 255.0 0.0 0.0
-0.3030422627925873 -0.4453354477882385 -0.08747915178537369 255.0 0.0 0.0
-0.2852742075920105 0.172371506690979 -0.3258259892463684 255.0 0.0 0.0
-0.18617086112499237 0.2672169506549835 -0.009995761327445507 255.0 0.0 0.0
-0.3138185441493988 -0.36532458662986755 0.18953929841518402 255.0 0.0 0.0
0.2824995517730713 0.22644492983818054 -0.020304309204220772 255.0 0.0 0.0
-0.1847788244485855 0.30789193511009216 -0.0019648587331175804 255.0 0.0 0.0
0.03997139260172844 0.10299764573574066 -0.15001890063285828 255.0 0.0 0.0
-0.2650246322154999 0.06160052493214607 -0.25360792875289917 255.0 0.0 0.0
0.25247687101364136 0.48145318031311035 -0.06350702792406082 255.0 0.0 0.0
-0.09367207437753677 -0.2431359887123108 -0.13679802417755127 255.0 0.0 0.0
-0.26801908016204834 0.15223324298858643 0.156287282705307 255.0 0.0 0.0
0.011973079293966293 -0.1960713118314743 0.1497042030096054 255.0 0.0 0.0
-0.23687145113945007 0.29985034465789795 -0.3319168984889984 255.0 0.0 0.0
0.1665336936712265 -0.3998100459575653 0.1725546419620514 255.0 0.0 0.0
0.13366876542568207 0.2273135781288147 0.14349718391895294 255.0 0.0 0.0
-0.2647208571434021 0.25210434198379517 -0.3213121294975281 255.0 0.0 0.0
-0.24408791959285736 -0.4761909544467926 -0.036086492240428925 255.0 0.0 0.0
0.16101256012916565 -0.4354242980480194 -0.04447254166007042 255.0 0.0 0.0
-0.24470385909080505 0.3161732852458954 0.0012576674344018102 255.0 0.0 0.0
0.21561209857463837 0.2236260622739792 0.1444953829050064 255.0 0.0 0.0
-0.2806701064109802 -0.46961233019828796 -0.05859149992465973 255.0 0.0 0.0
-0.2650884687900543 0.02215266041457653 -0.23413707315921783 255.0 0.0 0.0
0.04919073358178139 0.2419811487197876 -0.22152793407440186 255.0 0.0 0.0
-0.2685948312282562 0.2623577415943146 -0.3264091908931732 255.0 0.0 0.0
0.2366846799850464 -0.23784729838371277 -0.13692650198936462 255.0 0.0 0.0
-0.20334304869174957 0.49103692173957825 -0.027331961318850517 255.0 0.0 0.0
0.29006853699684143 0.2300320863723755 0.13123293220996857 255.0 0.0 0.0
-0.17316901683807373 0.23432393372058868 0.0013383716577664018 255.0 0.0 0.0
-0.22759413719177246 -0.12751807272434235 0.14937083423137665 255.0 0.0 0.0
-0.19564363360404968 0.2415785938501358 0.04817299544811249 255.0 0.0 0.0
-0.0917922630906105 0.17512081563472748 0.14923684298992157 255.0 0.0 0.0
0.2962658405303955 0.21620509028434753 -0.02163868211209774 255.0 0.0 0.0
-0.2654981017112732 -0.2510751187801361 0.03401941806077957 255.0 0.0 0.0
0.24888621270656586 -0.24302364885807037 -0.13343720138072968 255.0 0.0 0.0
-0.2456328570842743 0.4360135793685913 0.10886883735656738 255.0 0.0 0.0
-0.18210577964782715 0.30607736110687256 -0.0061997538432478905 255.0 0.0 0.0
-0.20079044997692108 0.49500349164009094 0.10381195694208145 255.0 0.0 0.0
0.2826490104198456 -0.40010353922843933 0.18035756051540375 255.0 0.0 0.0
-0.3152353763580322 -0.3411054015159607 0.195804625749588 255.0 0.0 0.0
0.20183417201042175 -0.43778204917907715 -0.08001227676868439 255.0 0.0 0.0
-0.23555102944374084 0.47087791562080383 -0.05345015600323677 255.0 0.0 0.0
-0.18922053277492523 0.2886947691440582 -0.007427744567394257 255.0 0.0 0.0
-0.2712336778640747 -0.03206336498260498 -0.1328556388616562 255.0 0.0 0.0
-0.2851904332637787 0.0849030390381813 -0.3103960454463959 255.0 0.0 0.0
0.010713216848671436 0.28973597288131714 -0.26855674386024475 255.0 0.0 0.0
-0.19067057967185974 0.5001115798950195 0.060326527804136276 255.0 0.0 0.0
0.2925044596195221 0.1678774356842041 -0.13392728567123413 255.0 0.0 0.0
0.23395247757434845 0.32632678747177124 -0.03684891015291214 255.0 0.0 0.0
-0.2754697799682617 0.0754590556025505 -0.3195067048072815 255.0 0.0 0.0
0.2220367193222046 -0.42422711849212646 -0.08932074904441833 255.0 0.0 0.0
-0.26073718070983887 -0.2476034164428711 0.11507342755794525 255.0 0.0 0.0
-0.27020835876464844 0.04421544820070267 -0.12288036197423935 255.0 0.0 0.0
0.047043561935424805 0.18380166590213776 -0.21817898750305176 255.0 0.0 0.0
-0.24614255130290985 0.24194300174713135 -0.3544865548610687 255.0 0.0 0.0
0.1545146256685257 -0.4001040458679199 0.16154241561889648 255.0 0.0 0.0
-0.007176928222179413 0.2703530788421631 -0.2207164466381073 255.0 0.0 0.0
0.287808358669281 -0.37615808844566345 0.13284914195537567 255.0 0.0 0.0
-0.19677221775054932 -0.23843367397785187 -0.13506805896759033 255.0 0.0 0.0
-0.2680407762527466 -0.050496701151132584 -0.21875059604644775 255.0 0.0 0.0
-0.13753899931907654 0.34042757749557495 -0.3227812349796295 255.0 0.0 0.0
-0.05985403060913086 -0.19943316280841827 0.15106390416622162 255.0 0.0 0.0
