-0.21687257289886475 -0.45703861117362976 0.09376638382673264 255.0 0.0 0.0
0.06461171805858612 0.1476232409477234 -0.1416589915752411 255.0 0.0 0.0
-0.24492765963077545 -0.3128299117088318 -0.07351337373256683 255.0 0.0 0.0
-0.24778339266777039 -0.3881223499774933 0.2008310705423355 255.0 0.0 0.0
-0.2691769003868103 -0.2501542866230011 -0.004886672366410494 255.0 0.0 0.0
0.16093116998672485 -0.4389936625957489 -0.042084719985723495 255.0 0.0 0.0
-0.095404252409935 0.3161960542201996 -0.33467763662338257 255.0 0.0 0.0
0.28922656178474426 -0.08713723719120026 0.1546757072210312 255.0 0.0 0.0
0.15573306381702423 0.22689753770828247 -0.13223013281822205 255.0 0.0 0.0
0.27159857749938965 0.38030195236206055 -0.0834658294916153 255.0 0.0 0.0
0.2854473292827606 -0.1592283993959427 0.15632209181785583 255.0 0.0 0.0
0.06298713386058807 0.13021831214427948 -0.15240007638931274 255.0 0.0 0.0
0.008352523669600487 0.28820210695266724 -0.23757357895374298 255.0 0.0 0.0
0.23287054896354675 -0.30408766865730286 0.1012306734919548 255.0 0.0 0.0
0.28253650665283203 -0.24802030622959137 -0.05067294463515282 255.0 0.0 0.0
0.17762894928455353 -0.25476157665252686 -0.011929190717637539 255.0 0.0 0.0
-0.2559044659137726 0.22778551280498505 -0.027828259393572807 255.0 0.0 0.0
0.05292651429772377 0.21574577689170837 -0.18703734874725342 255.0 0.0 0.0
-0.18237045407295227 -0.2923565208911896 0.06882665306329727 255.0 0.0 0.0
0.18927548825740814 0.1747439056634903 0.15510642528533936 255.0 0.0 0.0
-0.03652390092611313 0.22717490792274475 0.15316568315029144 255.0 0.0 0.0
0.27258893847465515 0.4763699173927307 0.12886185944080353 255.0 0.0 0.0
-0.26381760835647583 -0.24870692193508148 -0.12048786878585815 255.0 0.0 0.0
-0.23539523780345917 -0.2616144120693207 0.00457189092412591 255.0 0.0 0.0
0.07368691265583038 -0.2493238002061844 -0.12583611905574799 255.0 0.0 0.0
0.2875326871871948 0.054512571543455124 -0.13352787494659424 255.0 0.0 0.0
-0.21729911863803864 -0.4205959141254425 0.17116039991378784 255.0 0.0 0.0
-0.20675557851791382 0.3306286334991455 -0.33111751079559326 255.0 0.0 0.0
-0.2461521029472351 -0.4839184582233429 -0.025040583685040474 255.0 0.0 0.0
0.258169561624527 0.12205500155687332 0.15514351427555084 255.0 0.0 0.0
-0.2918412387371063 -0.3838387131690979 0.19065777957439423 255.0 0.0 0.0
-0.27305686473846436 -0.23842085897922516 0.051125865429639816 255.0 0.0 0.0
0.291068971157074 -0.1537681668996811 0.1572868674993515 255.0 0.0 0.0
0.29250094294548035 -0.43198978900909424 0.11193452775478363 255.0 0.0 0.0
-0.23360072076320648 -0.14913752675056458 0.15745988488197327 255.0 0.0 0.0
0.19534359872341156 0.23098035156726837 0.01494054775685072 255.0 0.0 0.0
-0.25763651728630066 0.11850275099277496 -0.13047799468040466 255.0 0.0 0.0
-0.10437821596860886 0.18007609248161316 0.1603977382183075 255.0 0.0 0.0
-0.2707524597644806 -0.24428680539131165 -0.02113570086658001 255.0 0.0 0.0
0.22544658184051514 -0.44024908542633057 -0.08595988154411316 255.0 0.0 0.0
0.2370511293411255 -0.1892084777355194 0.15756440162658691 255.0 0.0 0.0
0.02682780660688877 0.27689051628112793 -0.25575125217437744 255.0 0.0 0.0
0.2679591178894043 0.2363230139017105 -0.01959913782775402 255.0 0.0 0.0
-0.2563783526420593 0.3391023874282837 0.04017224535346031 255.0 0.0 0.0
0.0321296826004982 0.24682897329330444 -0.19767379760742188 255.0 0.0 0.0
-0.012247390113770962 0.15854550898075104 0.1690167486667633 255.0 0.0 0.0
0.24785631895065308 0.2229997217655182 0.15683913230895996 255.0 0.0 0.0
-0.02390911802649498 0.29607078433036804 -0.29613983631134033 255.0 0.0 0.0
0.297556608915329 0.01635850965976715 0.1529136449098587 255.0 0.0 0.0
-0.20085541903972626 0.33439168334007263 0.06205134838819504 255.0 0.0 0.0
-0.21322044730186462 -0.3967198431491852 -0.06953072547912598 255.0 0.0 0.0
0.03452542796730995 0.2661367654800415 -0.25368207693099976 255.0 0.0 0.0
-0.02527935616672039 0.17117534577846527 -0.1343952864408493 255.0 0.0 0.0
-0.22091101109981537 -0.18779262900352478 0.15601259469985962 255.0 0.0 0.0
-0.213271364569664 0.16694225370883942 0.15711650252342224 255.0 0.0 0.0
-0.24437883496284485 0.34678739309310913 -0.05099218338727951 255.0 0.0 0.0
0.17215940356254578 -0.19553972780704498 0.1521184891462326 255.0 0.0 0.0
-0.23690083622932434 0.2446357160806656 -0.02569137141108513 255.0 0.0 0.0
-0.2156144231557846 0.5027241110801697 0.0032485350966453552 255.0 0.0 0.0
0.022131310775876045 0.2592625617980957 -0.2628481984138489 255.0 0.0 0.0
-0.2559022009372711 0.2281479835510254 -0.10600436478853226 255.0 0.0 0.0
0.0193520225584507 -0.20815925300121307 0.15589280426502228 255.0 0.0 0.0
0.2243279069662094 0.253268301486969 -0.01556733250617981 255.0 0.0 0.0
0.24361617863178253 -0.07865429669618607 0.16754050552845 255.0 0.0 0.0
-0.19623374938964844 0.4891541004180908 -0.03404424339532852 255.0 0.0 0.0
0.25228050351142883 -0.3216301202774048 -0.0742368996143341 255.0 0.0 0.0
-0.225456103682518 -0.05686519667506218 0.14800940454006195 255.0 0.0 0.0
-0.25515657663345337 0.22038502991199493 -0.3249431550502777 255.0 0.0 0.0
-0.2695009112358093 0.04482122138142586 -0.12757301330566406 255.0 0.0 0.0
-0.28084656596183777 0.21210125088691711 -0.32841455936431885 255.0 0.0 0.0
-0.20239391922950745 0.1662401556968689 0.1518058478832245 255.0 0.0 0.0
0.29362156987190247 -0.24433913826942444 -0.13028596341609955 255.0 0.0 0.0
-0.23247765004634857 -0.2562406361103058 -0.030173487961292267 255.0 0.0 0.0
0.09267169237136841 0.2224244475364685 0.1567659080028534 255.0 0.0 0.0
0.21546205878257751 -0.43333056569099426 -0.0885375365614891 255.0 0.0 0.0
0.019525768235325813 0.2773555815219879 -0.23559124767780304 255.0 0.0 0.0
-0.019738564267754555 0.21944034099578857 -0.1751551777124405 255.0 0.0 0.0
0.27887624502182007 0.22695468366146088 0.1540219783782959 255.0 0.0 0.0
0.25890058279037476 -0.3492439389228821 -0.07619965821504593 255.0 0.0 0.0
-0.13497211039066315 0.32500481605529785 -0.3455863296985626 255.0 0.0 0.0
-0.24049675464630127 0.409516841173172 0.10016785562038422 255.0 0.0 0.0
-0.14658337831497192 -0.23829850554466248 0.15517735481262207 255.0 0.0 0.0
-0.27869877219200134 -0.46505507826805115 -0.06101936846971512 255.0 0.0 0.0
0.1737380176782608 -0.25394439697265625 0.006816467270255089 255.0 0.0 0.0
-0.16588054597377777 0.22346732020378113 0.15615299344062805 255.0 0.0 0.0
0.24270810186862946 -0.046852655708789825 0.1644715815782547 255.0 0.0 0.0
-0.22588446736335754 -0.2899927496910095 0.08479449898004532 255.0 0.0 0.0
-0.2665637731552124 0.10428821295499802 -0.13506805896759033 255.0 0.0 0.0
-0.2009659707546234 0.47314873337745667 0.099001944065094 255.0 0.0 0.0
-0.015486123040318489 0.2876480519771576 -0.23740679025650024 255.0 0.0 0.0
0.2972424626350403 0.15995129942893982 0.14266468584537506 255.0 0.0 0.0
-0.018629802390933037 0.18542993068695068 -0.13584698736667633 255.0 0.0 0.0
0.25592121481895447 -0.15664014220237732 0.15293395519256592 255.0 0.0 0.0
-0.24275274574756622 -0.3260227143764496 -0.08078807592391968 255.0 0.0 0.0
-0.22700092196464539 0.4025874435901642 0.09269819408655167 255.0 0.0 0.0
-0.21899396181106567 0.011324561201035976 0.16416050493717194 255.0 0.0 0.0
0.23459455370903015 0.5060998201370239 0.12133116275072098 255.0 0.0 0.0
-0.21763499081134796 -0.11797641962766647 0.1666376143693924 255.0 0.0 0.0
0.18160516023635864 -0.24514248967170715 -0.13784199953079224 255.0 0.0 0.0
0.059776682406663895 -0.20481234788894653 0.1558082103729248 255.0 0.0 0.0
0.29022201895713806 -0.4265378415584564 0.14030292630195618 255.0 0.0 0.0
0.2417031079530716 0.08652320504188538 0.1719467043876648 255.0 0.0 0.0
0.16318432986736298 -0.4404073655605316 0.1726531833410263 255.0 0.0 0.0
0.2914401888847351 0.20599870383739471 0.15632209181785583 255.0 0.0 0.0
0.21460169553756714 -0.25388944149017334 -0.047124605625867844 255.0 0.0 0.0
-0.27072858810424805 0.005524323787540197 0.145424485206604 255.0 0.0 0.0
0.20302699506282806 -0.2475629448890686 0.14758728444576263 255.0 0.0 0.0
-0.27053117752075195 -0.048534125089645386 -0.13416339457035065 255.0 0.0 0.0
-0.21223627030849457 0.3755284547805786 0.09907152503728867 255.0 0.0 0.0
0.2114984691143036 0.27356165647506714 -0.00016561130178160965 255.0 0.0 0.0
0.1077859178185463 0.22554077208042145 0.15340304374694824 255.0 0.0 0.0
-0.18584057688713074 0.46622368693351746 0.10138805210590363 255.0 0.0 0.0
-0.04944594204425812 0.29782602190971375 -0.29562246799468994 255.0 0.0 0.0
0.12840315699577332 -0.24798698723316193 0.15396113693714142 255.0 0.0 0.0
0.24211479723453522 -0.251418799161911 -0.05824955552816391 255.0 0.0 0.0
-0.2824157178401947 -0.0014238357543945312 -0.3063269257545471 255.0 0.0 0.0
0.18973547220230103 -0.25433820486068726 -0.036618608981370926 255.0 0.0 0.0
0.24454990029335022 -0.2464655339717865 -0.1292242407798767 255.0 0.0 0.0
0.2542584240436554 0.4780668616294861 0.10973892360925674 255.0 0.0 0.0
-0.20759236812591553 0.3357749879360199 0.06587832421064377 255.0 0.0 0.0
0.24710384011268616 -0.27760905027389526 -0.05252571776509285 255.0 0.0 0.0
0.21602405607700348 0.3470523953437805 -0.07238937169313431 255.0 0.0 0.0
-0.23284761607646942 0.23138856887817383 0.14249320328235626 255.0 0.0 0.0
0.29702991247177124 -0.24687597155570984 -0.025641722604632378 255.0 0.0 0.0
-0.23217275738716125 0.4092748165130615 -0.0801546648144722 255.0 0.0 0.0
0.27437207102775574 0.41252389550209045 -0.07550883293151855 255.0 0.0 0.0
0.14493443071842194 0.22758421301841736 0.14368785917758942 255.0 0.0 0.0
0.2462632954120636 -0.11710594594478607 0.17118115723133087 255.0 0.0 0.0
-0.2185630202293396 0.29610684514045715 -0.3511965870857239 255.0 0.0 0.0
-0.2699679434299469 -0.0592796690762043 0.14467979967594147 255.0 0.0 0.0
0.2830280661582947 -0.38752317428588867 0.1784863919019699 255.0 0.0 0.0
0.2835342586040497 -0.21771946549415588 -0.1328829973936081 255.0 0.0 0.0
-0.2679482102394104 -0.08054332435131073 -0.22171644866466522 255.0 0.0 0.0
-0.18147362768650055 0.3097779452800751 -0.35324758291244507 255.0 0.0 0.0
0.10695724934339523 -0.19601435959339142 0.1496439129114151 255.0 0.0 0.0
0.0575263611972332 0.13605272769927979 -0.1936766505241394 255.0 0.0 0.0
0.2083088457584381 0.28613394498825073 0.0021932078525424004 255.0 0.0 0.0
-0.1572776585817337 0.43013569712638855 0.08509494364261627 255.0 0.0 0.0
0.06355380266904831 0.13628138601779938 -0.14886459708213806 255.0 0.0 0.0
-0.2095612734556198 0.31462210416793823 -0.3308989107608795 255.0 0.0 0.0
-0.2713051438331604 0.22185178101062775 0.017819205299019814 255.0 0.0 0.0
0.25700417160987854 -0.08082998543977737 0.15481455624103546 255.0 0.0 0.0
-0.021026309579610825 0.23444734513759613 -0.1898634284734726 255.0 0.0 0.0
0.29585787653923035 0.22921697795391083 0.0925399512052536 255.0 0.0 0.0
0.2589539885520935 -0.14304672181606293 0.15351776778697968 255.0 0.0 0.0
0.03731204941868782 0.19321146607398987 -0.22732889652252197 255.0 0.0 0.0
0.06461646407842636 0.1317923218011856 -0.14159750938415527 255.0 0.0 0.0
-0.1607409566640854 -0.2604365944862366 -0.02759985625743866 255.0 0.0 0.0
0.28394925594329834 -0.22425107657909393 0.15377838909626007 255.0 0.0 0.0
0.26501280069351196 0.47511714696884155 0.1195746511220932 255.0 0.0 0.0
0.28959545493125916 0.09423142671585083 0.15632209181785583 255.0 0.0 0.0
-0.25535741448402405 0.2798194885253906 -0.32664212584495544 255.0 0.0 0.0
-0.2852745056152344 -0.044309500604867935 -0.2331005483865738 255.0 0.0 0.0
-0.017668187618255615 0.10421217232942581 -0.1566523313522339 255.0 0.0 0.0
0.02688061259686947 0.18232926726341248 -0.13455317914485931 255.0 0.0 0.0
0.20814408361911774 0.44589391350746155 0.10216786712408066 255.0 0.0 0.0
0.27175331115722656 0.20959646999835968 0.15632209181785583 255.0 0.0 0.0
0.007932057604193687 0.2932901680469513 -0.2614377737045288 255.0 0.0 0.0
0.2650909125804901 0.28312620520591736 0.031807899475097656 255.0 0.0 0.0
-0.011157091706991196 0.2921454608440399 -0.2932058572769165 255.0 0.0 0.0
-0.1234477236866951 0.3167187571525574 -0.3356528878211975 255.0 0.0 0.0
-0.2339055985212326 0.10577675700187683 0.15757575631141663 255.0 0.0 0.0
-0.21817727386951447 -0.41263729333877563 0.17547611892223358 255.0 0.0 0.0
-0.3354586958885193 -0.37327802181243896 0.03259275108575821 255.0 0.0 0.0
-0.2660573422908783 -0.1426943689584732 -0.13375702500343323 255.0 0.0 0.0
-0.1888677179813385 0.5006023645401001 0.020530154928565025 255.0 0.0 0.0
-0.2029179483652115 0.32078519463539124 -0.32896775007247925 255.0 0.0 0.0
-0.2062438279390335 -0.23292338848114014 0.1565336436033249 255.0 0.0 0.0
-0.002373626222833991 0.18664760887622833 -0.14215055108070374 255.0 0.0 0.0
-0.23308469355106354 -0.26186180114746094 -0.015475657768547535 255.0 0.0 0.0
0.22207747399806976 -0.26415953040122986 0.07149713486433029 255.0 0.0 0.0
0.0749097689986229 -0.24871866405010223 -0.12993653118610382 255.0 0.0 0.0
0.1462143063545227 -0.4463290274143219 0.04156968742609024 255.0 0.0 0.0
-0.21437008678913116 -0.253219336271286 0.08870925009250641 255.0 0.0 0.0
-0.2609548568725586 0.41223832964897156 0.1120053082704544 255.0 0.0 0.0
-0.10055285692214966 -0.23605872690677643 0.15632209181785583 255.0 0.0 0.0
0.20419107377529144 0.36521923542022705 0.11535665392875671 255.0 0.0 0.0
0.297245055437088 -0.21776869893074036 -0.1196814477443695 255.0 0.0 0.0
-0.1998906433582306 0.16096322238445282 0.16307932138442993 255.0 0.0 0.0
0.1482284814119339 -0.23791462182998657 0.15446947515010834 255.0 0.0 0.0
-0.2713209390640259 -0.24136610329151154 0.06202918291091919 255.0 0.0 0.0
-0.2217312902212143 -0.4104022979736328 0.17943508923053741 255.0 0.0 0.0
-0.25253716111183167 0.3500613570213318 -0.03294982388615608 255.0 0.0 0.0
-0.22652611136436462 0.48990949988365173 -0.033385343849658966 255.0 0.0 0.0
0.2637748122215271 0.3694522976875305 -0.08435925841331482 255.0 0.0 0.0
0.051775719970464706 0.18050868809223175 -0.20781250298023224 255.0 0.0 0.0
-0.2178417593240738 -0.42426368594169617 0.17341098189353943 255.0 0.0 0.0
-0.17813310027122498 0.33386480808258057 -0.3220023810863495 255.0 0.0 0.0
-0.2623250186443329 -0.2499755471944809 -0.08400377631187439 255.0 0.0 0.0
-0.2637830376625061 -0.22293734550476074 0.15179190039634705 255.0 0.0 0.0
0.2841425836086273 0.37172332406044006 0.12279652804136276 255.0 0.0 0.0
0.24106065928936005 0.2292402684688568 0.1495925933122635 255.0 0.0 0.0
-0.224844291806221 0.4741487503051758 0.10256054997444153 255.0 0.0 0.0
-0.24966467916965485 -0.25042468309402466 0.011935239657759666 255.0 0.0 0.0
-0.2720000445842743 0.21237854659557343 0.08115366846323013 255.0 0.0 0.0
-0.1475745588541031 -0.2544640004634857 0.02790682390332222 255.0 0.0 0.0
0.2447260618209839 -0.2691480815410614 0.07100174576044083 255.0 0.0 0.0
-0.26261258125305176 -0.2062310427427292 -0.13479802012443542 255.0 0.0 0.0
0.0645643025636673 0.21542517840862274 0.15632209181785583 255.0 0.0 0.0
0.2064066082239151 0.4112788736820221 0.10111768543720245 255.0 0.0 0.0
0.25692445039749146 0.33505716919898987 -0.06776991486549377 255.0 0.0 0.0
0.21304436028003693 0.22888536751270294 0.016589267179369926 255.0 0.0 0.0
-0.22590342164039612 0.3622347414493561 -0.07385247945785522 255.0 0.0 0.0
0.06014904007315636 0.18462562561035156 -0.20226435363292694 255.0 0.0 0.0
0.06398054957389832 0.13013647496700287 -0.13714599609375 255.0 0.0 0.0
0.15143941342830658 -0.20569303631782532 0.1605091542005539 255.0 0.0 0.0
-0.26749444007873535 -0.2123095840215683 -0.13368304073810577 255.0 0.0 0.0
-0.28288474678993225 -0.36271438002586365 0.2050042450428009 255.0 0.0 0.0
0.29545411467552185 -0.2501707375049591 0.07880520820617676 255.0 0.0 0.0
-0.14504991471767426 0.1494802087545395 0.1693345606327057 255.0 0.0 0.0
0.2086195945739746 0.4016910195350647 0.10322276502847672 255.0 0.0 0.0
-0.26786670088768005 0.20452216267585754 -0.35135990381240845 255.0 0.0 0.0
-0.12750650942325592 0.17494262754917145 0.1519286185503006 255.0 0.0 0.0
0.2961221933364868 -0.08016986399888992 0.15619070827960968 255.0 0.0 0.0
0.21947751939296722 0.4885803163051605 0.11720738559961319 255.0 0.0 0.0
0.27055567502975464 0.22853699326515198 -0.03856884688138962 255.0 0.0 0.0
0.20075611770153046 0.2266746461391449 -0.13296158611774445 255.0 0.0 0.0
0.14475737512111664 -0.37826669216156006 0.12648442387580872 255.0 0.0 0.0
-0.0062980446964502335 -0.18894895911216736 0.1579418033361435 255.0 0.0 0.0
0.08557244390249252 0.17905713617801666 0.1553305834531784 255.0 0.0 0.0
-0.2337796688079834 0.38549524545669556 0.11519429832696915 255.0 0.0 0.0
0.29551374912261963 0.03534610942006111 0.14988017082214355 255.0 0.0 0.0
0.2830413281917572 0.030620597302913666 0.15632209181785583 255.0 0.0 0.0
0.014417165890336037 0.2138202041387558 -0.13184915482997894 255.0 0.0 0.0
-0.22434493899345398 0.22476813197135925 -0.13495159149169922 255.0 0.0 0.0
-0.27072441577911377 0.0030818278901278973 0.14698663353919983 255.0 0.0 0.0
-0.27727264165878296 0.13908275961875916 -0.29164695739746094 255.0 0.0 0.0
-0.25291770696640015 0.4808637499809265 0.0807020291686058 255.0 0.0 0.0
-0.22333312034606934 0.2781085968017578 0.04039943963289261 255.0 0.0 0.0
0.2955808937549591 0.2250913679599762 0.027829507365822792 255.0 0.0 0.0
0.2832757830619812 -0.424397736787796 0.1917121857404709 255.0 0.0 0.0
-0.26664090156555176 0.22361916303634644 -0.05591500550508499 255.0 0.0 0.0
-0.01456381194293499 0.16405555605888367 -0.1356249302625656 255.0 0.0 0.0
0.030437983572483063 0.11738146096467972 -0.2045225352048874 255.0 0.0 0.0
-0.13671591877937317 0.22471687197685242 -0.13398197293281555 255.0 0.0 0.0
-0.2877003848552704 -0.3705040216445923 -0.08224141597747803 255.0 0.0 0.0
0.25788334012031555 0.12777267396450043 0.1514199823141098 255.0 0.0 0.0
0.05431932583451271 0.15221534669399261 -0.13174013793468475 255.0 0.0 0.0
0.2970747947692871 0.20073609054088593 0.15199343860149384 255.0 0.0 0.0
-0.2655028998851776 -0.20450140535831451 0.1511639803647995 255.0 0.0 0.0
0.29098400473594666 -0.1681891679763794 0.15526698529720306 255.0 0.0 0.0
0.21335770189762115 -0.43027669191360474 0.20332449674606323 255.0 0.0 0.0
0.24129407107830048 0.2666248679161072 0.03925841674208641 255.0 0.0 0.0
0.2372778356075287 0.3674691617488861 0.11844490468502045 255.0 0.0 0.0
0.21103233098983765 0.2727591395378113 0.013430717401206493 255.0 0.0 0.0
-0.03169070929288864 0.22105732560157776 0.15632209181785583 255.0 0.0 0.0
-0.3419749140739441 -0.3904695212841034 0.007281697355210781 255.0 0.0 0.0
-0.12402667105197906 0.15845519304275513 0.1703280657529831 255.0 0.0 0.0
0.2824722230434418 -0.43206846714019775 -0.013510092161595821 255.0 0.0 0.0
-0.25119829177856445 -0.08695584535598755 -0.23444215953350067 255.0 0.0 0.0
0.022335896268486977 -0.18775716423988342 0.16128750145435333 255.0 0.0 0.0
-0.2637597322463989 -0.25022923946380615 0.08317560702562332 255.0 0.0 0.0
0.0430203452706337 0.2275429219007492 -0.12894141674041748 255.0 0.0 0.0
0.22441628575325012 -0.4433661103248596 0.19708150625228882 255.0 0.0 0.0
-0.18842341005802155 0.4192620813846588 -0.07659845054149628 255.0 0.0 0.0
-0.270988792181015 -0.08641760796308517 -0.23787516355514526 255.0 0.0 0.0
-0.028201820328831673 0.17462874948978424 -0.2081577181816101 255.0 0.0 0.0
0.054549094289541245 0.1684732288122177 -0.2077593207359314 255.0 0.0 0.0
0.2940104305744171 0.22506912052631378 0.008452766574919224 255.0 0.0 0.0
-0.187552809715271 0.23069413006305695 0.05778953433036804 255.0 0.0 0.0
-0.2713973820209503 -0.059131886810064316 0.14122134447097778 255.0 0.0 0.0
-0.25675344467163086 -0.1398150622844696 0.1559157818555832 255.0 0.0 0.0
-0.23103345930576324 0.3329698443412781 0.06289809942245483 255.0 0.0 0.0
-0.2433846890926361 0.36510592699050903 -0.06327361613512039 255.0 0.0 0.0
0.25483301281929016 -0.14632606506347656 0.1503048539161682 255.0 0.0 0.0
-0.22825445234775543 -0.25049710273742676 0.15352404117584229 255.0 0.0 0.0
-0.289523720741272 0.025309471413493156 -0.30522122979164124 255.0 0.0 0.0
-0.32749083638191223 -0.3441190719604492 0.1898396909236908 255.0 0.0 0.0
-0.06608044356107712 0.22752432525157928 -0.12911081314086914 255.0 0.0 0.0
0.2465015947818756 -0.00922438595443964 0.16230426728725433 255.0 0.0 0.0
-0.24092082679271698 -0.24630206823349 -0.12264110893011093 255.0 0.0 0.0
-0.2695872485637665 0.11290293186903 -0.13665033876895905 255.0 0.0 0.0
-0.2705513834953308 -0.3827441930770874 0.20682929456233978 255.0 0.0 0.0
0.26502862572669983 0.02187701128423214 0.15598976612091064 255.0 0.0 0.0
0.25425902009010315 0.4893076717853546 0.1159968227148056 255.0 0.0 0.0
0.26348480582237244 0.016246985644102097 0.15592050552368164 255.0 0.0 0.0
0.26610854268074036 0.271235853433609 0.013987566344439983 255.0 0.0 0.0
-0.3339517414569855 -0.39962857961654663 -0.0015949592925608158 255.0 0.0 0.0
0.26569074392318726 0.45569977164268494 0.10898017138242722 255.0 0.0 0.0
-0.037747349590063095 0.3186286687850952 -0.2793912887573242 255.0 0.0 0.0
-0.27225300669670105 -0.07112792879343033 -0.12811271846294403 255.0 0.0 0.0
0.06264711916446686 0.1677846759557724 -0.13506805896759033 255.0 0.0 0.0
-0.2530835270881653 0.2288259118795395 0.050024595111608505 255.0 0.0 0.0
0.05534802004694939 -0.18782824277877808 0.16358710825443268 255.0 0.0 0.0
0.2135038673877716 0.4820781946182251 -0.058327753096818924 255.0 0.0 0.0
-0.136985182762146 -0.2534010112285614 -0.013040093705058098 255.0 0.0 0.0
-0.2624674141407013 0.04678003489971161 0.15935978293418884 255.0 0.0 0.0
-0.1612994223833084 0.22301900386810303 -0.00014969342737458646 255.0 0.0 0.0
0.23635828495025635 0.4704291820526123 0.10376802831888199 255.0 0.0 0.0
-0.26563072204589844 0.005655036773532629 -0.23005317151546478 255.0 0.0 0.0
0.19022579491138458 -0.2678937613964081 -0.039570748805999756 255.0 0.0 0.0
-0.251924604177475 0.1853918880224228 -0.1356884241104126 255.0 0.0 0.0
0.274516224861145 0.20854517817497253 0.15661168098449707 255.0 0.0 0.0
0.0720522403717041 0.22784222662448883 0.14795686304569244 255.0 0.0 0.0
0.19614753127098083 0.3749205768108368 0.11752397567033768 255.0 0.0 0.0
0.09493806958198547 -0.1977936178445816 0.14881545305252075 255.0 0.0 0.0
-0.1723029762506485 0.22318534553050995 0.15338295698165894 255.0 0.0 0.0
-0.16537827253341675 0.3245580494403839 -0.3539659380912781 255.0 0.0 0.0
-0.17585228383541107 0.4011251628398895 0.09596294164657593 255.0 0.0 0.0
0.2910260558128357 -0.022551529109477997 -0.13595493137836456 255.0 0.0 0.0
-0.1898505985736847 0.24461053311824799 0.041433364152908325 255.0 0.0 0.0
-0.1234288141131401 0.2236301153898239 -0.1404116302728653 255.0 0.0 0.0
-0.2707524597644806 -0.24299047887325287 -0.0974154993891716 255.0 0.0 0.0
0.2308938205242157 0.028966348618268967 0.16940195858478546 255.0 0.0 0.0
-0.26666751503944397 -0.01238639559596777 -0.13596461713314056 255.0 0.0 0.0
-0.24189795553684235 0.4871816039085388 0.005047127604484558 255.0 0.0 0.0
0.05091167241334915 0.2296016663312912 -0.12764838337898254 255.0 0.0 0.0
-0.2805975675582886 -0.035218387842178345 -0.29474180936813354 255.0 0.0 0.0
-0.0380045548081398 0.12192974239587784 -0.15451687574386597 255.0 0.0 0.0
-0.20138633251190186 0.27329927682876587 0.03954554349184036 255.0 0.0 0.0
0.24856579303741455 -0.42730313539505005 0.2060651332139969 255.0 0.0 0.0
-0.22723256051540375 0.10171887278556824 0.14870494604110718 255.0 0.0 0.0
0.02861241064965725 0.21100758016109467 -0.13285084068775177 255.0 0.0 0.0
0.2657938599586487 -0.40805962681770325 0.19793742895126343 255.0 0.0 0.0
0.01993836835026741 0.15770012140274048 0.1681506335735321 255.0 0.0 0.0
-0.2610478103160858 0.3568780720233917 0.05831588804721832 255.0 0.0 0.0
-0.2156856209039688 -0.05290047079324722 0.17325459420681 255.0 0.0 0.0
0.26524242758750916 0.5079584717750549 0.10109364986419678 255.0 0.0 0.0
-0.27073630690574646 -0.1941845715045929 -0.11933694034814835 255.0 0.0 0.0
0.25328853726387024 -0.4437282979488373 -0.08051759004592896 255.0 0.0 0.0
-0.029083287343382835 0.12817507982254028 -0.19332623481750488 255.0 0.0 0.0
-0.23765024542808533 0.3355472981929779 0.05811871215701103 255.0 0.0 0.0
0.25338393449783325 -0.07509475201368332 0.16117534041404724 255.0 0.0 0.0
-0.03401113674044609 0.13206908106803894 -0.18798227608203888 255.0 0.0 0.0
0.2064371109008789 0.2591969072818756 0.017993923276662827 255.0 0.0 0.0
0.23790155351161957 -0.05055729299783707 0.16940195858478546 255.0 0.0 0.0
0.056563764810562134 0.11380740255117416 -0.15311087667942047 255.0 0.0 0.0
0.18933022022247314 0.4477520287036896 0.11567096412181854 255.0 0.0 0.0
-0.3085721433162689 -0.31630608439445496 0.1605813354253769 255.0 0.0 0.0
-0.2603796124458313 0.22856110334396362 -0.3534965217113495 255.0 0.0 0.0
0.03449154645204544 -0.23758746683597565 -0.13506805896759033 255.0 0.0 0.0
-0.02983645349740982 -0.1877964437007904 0.16037409007549286 255.0 0.0 0.0
-0.2707524597644806 -0.2411206066608429 0.12257765233516693 255.0 0.0 0.0
-0.24492007493972778 -0.04817664623260498 -0.23920534551143646 255.0 0.0 0.0
-0.20613019168376923 0.3204941749572754 -0.3571777939796448 255.0 0.0 0.0
0.2837042510509491 0.36958712339401245 -0.06533461809158325 255.0 0.0 0.0
0.09959475696086884 0.16274350881576538 0.15872123837471008 255.0 0.0 0.0
-0.2376405894756317 -0.23142847418785095 0.15587928891181946 255.0 0.0 0.0
0.059355635195970535 0.20259714126586914 -0.18492501974105835 255.0 0.0 0.0
-0.27071839570999146 0.11306212842464447 -0.12797696888446808 255.0 0.0 0.0
0.2645825147628784 -0.4104531407356262 0.1951388567686081 255.0 0.0 0.0
-0.0613752119243145 0.23298309743404388 0.15298786759376526 255.0 0.0 0.0
-0.21335074305534363 -0.28598204255104065 0.0804339349269867 255.0 0.0 0.0
0.03784633055329323 0.19862636923789978 -0.1587083488702774 255.0 0.0 0.0
-0.23251377046108246 0.07672712206840515 0.1536952257156372 255.0 0.0 0.0
-0.2833515405654907 -0.07727354764938354 -0.26290157437324524 255.0 0.0 0.0
0.29667940735816956 0.055421389639377594 0.15599234402179718 255.0 0.0 0.0
0.23458877205848694 0.22564326226711273 -0.13453790545463562 255.0 0.0 0.0
0.26303830742836 0.3086918890476227 -0.018457304686307907 255.0 0.0 0.0
0.24092325568199158 -0.26130151748657227 -0.049890417605638504 255.0 0.0 0.0
-0.23687756061553955 0.38414791226387024 0.11639837175607681 255.0 0.0 0.0
0.1669340431690216 -0.3895764648914337 0.16155049204826355 255.0 0.0 0.0
0.1458895206451416 -0.435378760099411 -0.011938623152673244 255.0 0.0 0.0
-0.16356749832630157 0.31721803545951843 -0.3497036397457123 255.0 0.0 0.0
-0.2556419372558594 -0.30924147367477417 0.09534551203250885 255.0 0.0 0.0
-0.235071063041687 0.44275790452957153 -0.06840619444847107 255.0 0.0 0.0
0.22886517643928528 0.4793523848056793 -0.06916619092226028 255.0 0.0 0.0
-0.03026747517287731 0.22365595400333405 -0.20087449252605438 255.0 0.0 0.0
0.16328132152557373 -0.1930409073829651 0.15795254707336426 255.0 0.0 0.0
-0.21360038220882416 -0.2582845687866211 -0.049563389271497726 255.0 0.0 0.0
0.2336522340774536 -0.24919582903385162 -0.12256959080696106 255.0 0.0 0.0
0.17650654911994934 -0.25675496459007263 0.03397833928465843 255.0 0.0 0.0
-0.25866448879241943 0.39854371547698975 0.10937193036079407 255.0 0.0 0.0
-0.26969006657600403 0.17423821985721588 -0.11743847280740738 255.0 0.0 0.0
-0.1851460039615631 0.23989783227443695 0.04016325995326042 255.0 0.0 0.0
-0.13076864182949066 -0.19834080338478088 0.1537264883518219 255.0 0.0 0.0
-0.06821030378341675 -0.24915815889835358 0.14666880667209625 255.0 0.0 0.0
-0.2907808721065521 -0.31120365858078003 0.12519657611846924 255.0 0.0 0.0
-0.2212851494550705 0.32792529463768005 0.054509054869413376 255.0 0.0 0.0
0.28053903579711914 0.21146884560585022 -0.13506805896759033 255.0 0.0 0.0
0.2681545615196228 0.339903861284256 -0.06633974611759186 255.0 0.0 0.0
-0.23830856382846832 0.37747079133987427 0.12022879719734192 255.0 0.0 0.0
-0.25856778025627136 0.09150181710720062 -0.2997044622898102 255.0 0.0 0.0
0.29682835936546326 0.21404260396957397 0.11394166946411133 255.0 0.0 0.0
-0.16001085937023163 0.4253148138523102 0.09635137021541595 255.0 0.0 0.0
0.26134660840034485 0.2853037118911743 0.03460012376308441 255.0 0.0 0.0
-0.26574423909187317 0.2298399806022644 0.0756310373544693 255.0 0.0 0.0
-0.024590138345956802 0.18975187838077545 -0.15246987342834473 255.0 0.0 0.0
-0.0957646444439888 -0.23885002732276917 0.1540687084197998 255.0 0.0 0.0
-0.27070382237434387 0.005706053227186203 0.15081626176834106 255.0 0.0 0.0
0.19773979485034943 0.319960355758667 0.010033008642494678 255.0 0.0 0.0
0.29700425267219543 -0.11157555133104324 0.15311037003993988 255.0 0.0 0.0
0.22962161898612976 0.2501978576183319 0.04117864370346069 255.0 0.0 0.0
-0.03924091160297394 0.22489356994628906 0.15768097341060638 255.0 0.0 0.0
-0.24249309301376343 0.28795790672302246 -0.3304159343242645 255.0 0.0 0.0
-0.1631976217031479 0.4550175964832306 0.09430196136236191 255.0 0.0 0.0
-0.2017563432455063 0.34266799688339233 -0.056320253759622574 255.0 0.0 0.0
0.2971007227897644 0.009401085786521435 0.14333981275558472 255.0 0.0 0.0
-0.33330193161964417 -0.348491370677948 0.1453709751367569 255.0 0.0 0.0
-0.2898688018321991 -0.022234443575143814 -0.2450435757637024 255.0 0.0 0.0
0.24478277564048767 0.21885240077972412 0.15776240825653076 255.0 0.0 0.0
-0.21383747458457947 -0.25328943133354187 -0.06150944530963898 255.0 0.0 0.0
-0.23466910421848297 -0.2849510908126831 0.07802002131938934 255.0 0.0 0.0
-0.01983245089650154 -0.19773253798484802 0.15316547453403473 255.0 0.0 0.0
0.2906509041786194 0.23140880465507507 -0.08670204877853394 255.0 0.0 0.0
0.20760808885097504 0.35800257325172424 0.11283886432647705 255.0 0.0 0.0
0.02965383045375347 0.1205255314707756 -0.20594625174999237 255.0 0.0 0.0
0.2795562148094177 -0.24883735179901123 -0.12109993398189545 255.0 0.0 0.0
-0.21837784349918365 0.43452998995780945 -0.07948016375303268 255.0 0.0 0.0
0.06258246302604675 -0.1930692195892334 0.1519497185945511 255.0 0.0 0.0
-0.2707194685935974 -0.1251475065946579 -0.1275799721479416 255.0 0.0 0.0
-0.03768482804298401 -0.2358301281929016 0.1572006791830063 255.0 0.0 0.0
-0.2392527163028717 -0.06302938610315323 -0.2540174126625061 255.0 0.0 0.0
0.25053244829177856 0.2304801642894745 0.06530588865280151 255.0 0.0 0.0
0.2588992118835449 -0.4382994472980499 -0.07932107895612717 255.0 0.0 0.0
0.20738987624645233 0.358340859413147 0.11361604928970337 255.0 0.0 0.0
0.2958662807941437 -0.2503686845302582 0.04661140590906143 255.0 0.0 0.0
-0.18499630689620972 0.28522658348083496 0.014641805551946163 255.0 0.0 0.0
0.054561953991651535 0.21969342231750488 -0.19761355221271515 255.0 0.0 0.0
-0.26287129521369934 -0.1723233014345169 -0.136835515499115 255.0 0.0 0.0
0.28358346223831177 0.23059606552124023 -0.0644432082772255 255.0 0.0 0.0
0.2969055771827698 -0.25072118639945984 -0.07396748661994934 255.0 0.0 0.0
0.23516565561294556 0.31855475902557373 -0.03675711527466774 255.0 0.0 0.0
-0.21370376646518707 -0.278654545545578 -0.06275879591703415 255.0 0.0 0.0
-0.2707291841506958 0.021653175354003906 -0.12394721060991287 255.0 0.0 0.0
0.28592202067375183 0.23235121369361877 0.12441801279783249 255.0 0.0 0.0
0.032319147139787674 0.18538758158683777 0.15590979158878326 255.0 0.0 0.0
0.024952325969934464 0.271546334028244 -0.23191799223423004 255.0 0.0 0.0
0.2959519028663635 -0.2525290846824646 0.10975552350282669 255.0 0.0 0.0
-0.0315459743142128 0.182980477809906 0.15355284512043 255.0 0.0 0.0
-0.2565497159957886 0.060412947088479996 0.15632209181785583 255.0 0.0 0.0
0.18075180053710938 -0.256287544965744 -0.014129459857940674 255.0 0.0 0.0
0.29909592866897583 -0.03591643646359444 -0.1275041103363037 255.0 0.0 0.0
0.24402377009391785 0.13476020097732544 0.16681022942066193 255.0 0.0 0.0
-0.026982082054018974 0.177499920129776 0.15383900701999664 255.0 0.0 0.0
-0.25250881910324097 0.06936913728713989 -0.2898653745651245 255.0 0.0 0.0
0.28653547167778015 -0.22519752383232117 0.15624715387821198 255.0 0.0 0.0
0.17931228876113892 -0.26478639245033264 0.04905637726187706 255.0 0.0 0.0
-0.07467176765203476 0.31093788146972656 -0.2915368378162384 255.0 0.0 0.0
-0.17539627850055695 0.32796719670295715 -0.3279775381088257 255.0 0.0 0.0
-0.2729320228099823 -0.3998746871948242 -0.09556420892477036 255.0 0.0 0.0
-0.3376536965370178 -0.384179025888443 0.025490863248705864 255.0 0.0 0.0
-0.26783084869384766 -0.1839580088853836 0.1616256833076477 255.0 0.0 0.0
-0.2420322597026825 -0.27466753125190735 0.008049958385527134 255.0 0.0 0.0
-0.22651171684265137 -0.07828589528799057 0.15204738080501556 255.0 0.0 0.0
-0.00864696130156517 0.2279064804315567 -0.1229732409119606 255.0 0.0 0.0
0.2928968071937561 -0.43668219447135925 0.12551049888134003 255.0 0.0 0.0
-0.24001315236091614 -0.4828657805919647 -0.0038274771068245173 255.0 0.0 0.0
0.24418161809444427 0.05597662925720215 0.16654306650161743 255.0 0.0 0.0
-0.17365144193172455 0.3409484624862671 0.06580042839050293 255.0 0.0 0.0
0.17927679419517517 -0.25726956129074097 -0.02229720540344715 255.0 0.0 0.0
-0.22867795825004578 -0.2532584071159363 0.05311969295144081 255.0 0.0 0.0
-0.1452331244945526 0.32546690106391907 -0.3218907117843628 255.0 0.0 0.0
0.16885942220687866 -0.17217843234539032 0.17085783183574677 255.0 0.0 0.0
-0.3388795852661133 -0.36247071623802185 0.09578675031661987 255.0 0.0 0.0
-0.2568742334842682 -0.03964722901582718 -0.29730620980262756 255.0 0.0 0.0
-0.20934034883975983 0.4630409777164459 0.08955246210098267 255.0 0.0 0.0
-0.06977429240942001 0.15073339641094208 0.1699552834033966 255.0 0.0 0.0
-0.16456656157970428 0.34046757221221924 -0.3233620822429657 255.0 0.0 0.0
0.27642929553985596 -0.233193501830101 -0.1383718103170395 255.0 0.0 0.0
0.1574310064315796 -0.41362330317497253 0.17371349036693573 255.0 0.0 0.0
0.07754865288734436 0.1634044647216797 0.16233257949352264 255.0 0.0 0.0
0.20770256221294403 0.24921056628227234 0.024490606039762497 255.0 0.0 0.0
-0.2841101288795471 -0.3157656788825989 0.1383955180644989 255.0 0.0 0.0
0.13241612911224365 -0.23689480125904083 -0.13549748063087463 255.0 0.0 0.0
-0.28638750314712524 0.043512772768735886 -0.3097553253173828 255.0 0.0 0.0
-0.2738499939441681 0.2520849108695984 -0.3375335931777954 255.0 0.0 0.0
-0.2532117962837219 0.3380652368068695 0.03606140613555908 255.0 0.0 0.0
-0.2611706256866455 -0.0935775637626648 -0.23414957523345947 255.0 0.0 0.0
0.19467554986476898 0.45770859718322754 0.1102914810180664 255.0 0.0 0.0
0.2460433542728424 0.5100072622299194 -0.022515354678034782 255.0 0.0 0.0
-0.2707240879535675 0.03716417774558067 -0.12585502862930298 255.0 0.0 0.0
0.24121443927288055 0.38831618428230286 0.10543353855609894 255.0 0.0 0.0
-0.2209954708814621 -0.2578853666782379 0.0648777112364769 255.0 0.0 0.0
-0.0659131184220314 0.17840377986431122 0.15451101958751678 255.0 0.0 0.0
-0.22913338243961334 0.16134467720985413 0.14853446185588837 255.0 0.0 0.0
0.20867139101028442 0.31001585721969604 0.03746462240815163 255.0 0.0 0.0
-0.26669350266456604 0.01296465378254652 -0.3111850619316101 255.0 0.0 0.0
-0.22265125811100006 -0.4110269844532013 0.1796804815530777 255.0 0.0 0.0
-0.2273692637681961 0.22927001118659973 -0.12101902067661285 255.0 0.0 0.0
0.2534438967704773 0.3081102669239044 -0.02259819209575653 255.0 0.0 0.0
-0.2302226573228836 -0.2636118531227112 0.04928235337138176 255.0 0.0 0.0
-0.24994288384914398 0.033366259187459946 -0.25582578778266907 255.0 0.0 0.0
-0.23093397915363312 -0.4470614194869995 0.12124701589345932 255.0 0.0 0.0
0.04831894859671593 0.23209871351718903 -0.2284737527370453 255.0 0.0 0.0
-0.15435592830181122 0.4293473958969116 0.08376613259315491 255.0 0.0 0.0
-0.27191364765167236 0.02401571162045002 -0.23595306277275085 255.0 0.0 0.0
0.2889738082885742 -0.04178854450583458 0.15339672565460205 255.0 0.0 0.0
0.2802127003669739 0.23294533789157867 -0.0020573658403009176 255.0 0.0 0.0
0.20595017075538635 0.31004348397254944 -0.0027617800515145063 255.0 0.0 0.0
0.13848929107189178 -0.1866929829120636 0.1605362594127655 255.0 0.0 0.0
0.2586617171764374 -0.11371167749166489 0.15529780089855194 255.0 0.0 0.0
-0.26044341921806335 0.1812518835067749 -0.31610316038131714 255.0 0.0 0.0
0.030580466613173485 0.22379370033740997 -0.24135787785053253 255.0 0.0 0.0
-0.037451665848493576 0.16196687519550323 -0.13822637498378754 255.0 0.0 0.0
-0.2320656031370163 -0.4801993668079376 0.0032483700197190046 255.0 0.0 0.0
0.24792782962322235 -0.16236497461795807 0.159657284617424 255.0 0.0 0.0
0.03763510659337044 0.26402392983436584 -0.23832543194293976 255.0 0.0 0.0
0.2972312569618225 0.17064152657985687 -0.125585675239563 255.0 0.0 0.0
-0.2181967943906784 -0.2551015019416809 0.06771919876337051 255.0 0.0 0.0
0.20376484096050262 0.30950838327407837 -0.00425414415076375 255.0 0.0 0.0
0.2559467852115631 0.4646914303302765 0.10920360684394836 255.0 0.0 0.0
-0.10433284938335419 -0.24588114023208618 -0.13273808360099792 255.0 0.0 0.0
-0.16368845105171204 0.3343816101551056 -0.32090774178504944 255.0 0.0 0.0
0.253048837184906 0.29272258281707764 0.04215534031391144 255.0 0.0 0.0
0.2972520887851715 -0.023714113980531693 0.139079287648201 255.0 0.0 0.0
0.30192628502845764 0.21516850590705872 -0.08788575977087021 255.0 0.0 0.0
0.29538020491600037 0.03771952912211418 0.15212860703468323 255.0 0.0 0.0
-0.21297390758991241 0.2923462986946106 -0.35009634494781494 255.0 0.0 0.0
-0.2250649482011795 0.4807221591472626 0.11218555271625519 255.0 0.0 0.0
0.2978634238243103 -0.15516744554042816 0.1442483365535736 255.0 0.0 0.0
-0.20952248573303223 0.230403870344162 -0.03848237544298172 255.0 0.0 0.0
0.26722145080566406 0.4621293544769287 -0.07190931588411331 255.0 0.0 0.0
-0.2673725187778473 0.22638586163520813 -0.06485872715711594 255.0 0.0 0.0
-0.20688539743423462 0.5040566325187683 0.06991493701934814 255.0 0.0 0.0
0.29020312428474426 0.23001104593276978 0.05038416013121605 255.0 0.0 0.0
0.20140543580055237 0.30999627709388733 0.009124621748924255 255.0 0.0 0.0
-0.03526492416858673 0.1574060469865799 -0.19357673823833466 255.0 0.0 0.0
0.07973644137382507 0.224395751953125 -0.11769483238458633 255.0 0.0 0.0
0.05978840962052345 0.15945084393024445 -0.1355435699224472 255.0 0.0 0.0
0.2959000766277313 -0.24617016315460205 0.08075448870658875 255.0 0.0 0.0
0.062401872128248215 0.13340382277965546 -0.1643373668193817 255.0 0.0 0.0
-0.20928549766540527 0.4869135916233063 -0.04671918600797653 255.0 0.0 0.0
0.28909435868263245 -0.05568794906139374 -0.13506805896759033 255.0 0.0 0.0
-0.11203591525554657 0.16248247027397156 0.17006993293762207 255.0 0.0 0.0
0.14436915516853333 -0.4429512917995453 0.12008526176214218 255.0 0.0 0.0
-0.24789392948150635 0.22775475680828094 0.13932165503501892 255.0 0.0 0.0
-0.20538988709449768 -0.07964550703763962 0.16946819424629211 255.0 0.0 0.0
0.20332664251327515 -0.4233097434043884 0.19888965785503387 255.0 0.0 0.0
-0.21185915172100067 -0.17826475203037262 0.16567693650722504 255.0 0.0 0.0
0.24353617429733276 0.38722166419029236 -0.09227115660905838 255.0 0.0 0.0
0.012514092959463596 0.28783294558525085 -0.26084110140800476 255.0 0.0 0.0
0.29371073842048645 0.19265922904014587 0.15481136739253998 255.0 0.0 0.0
0.20329278707504272 -0.2527514100074768 0.05862893536686897 255.0 0.0 0.0
0.24329215288162231 -0.0638280138373375 0.16316018998622894 255.0 0.0 0.0
-0.2680602967739105 -0.13190646469593048 -0.13485221564769745 255.0 0.0 0.0
-0.17822861671447754 0.4396994113922119 0.09487015753984451 255.0 0.0 0.0
-0.004205650649964809 -0.2514643967151642 -0.12037843465805054 255.0 0.0 0.0
0.2776021361351013 0.423046737909317 0.11966219544410706 255.0 0.0 0.0
-0.23319946229457855 0.31081622838974 -0.021240347996354103 255.0 0.0 0.0
-0.26458513736724854 0.03714181110262871 0.15632209181785583 255.0 0.0 0.0
-0.2400951087474823 0.29143452644348145 0.013520200736820698 255.0 0.0 0.0
0.05532142147421837 0.21241524815559387 -0.21084988117218018 255.0 0.0 0.0
-0.2598228454589844 0.1613408625125885 -0.32308995723724365 255.0 0.0 0.0
-0.2631133198738098 0.1478164792060852 -0.13648365437984467 255.0 0.0 0.0
0.05932532995939255 0.1433292031288147 -0.19502322375774384 255.0 0.0 0.0
0.28746265172958374 -0.0009115579887293279 0.15632209181785583 255.0 0.0 0.0
0.22544023394584656 0.16727271676063538 0.16669303178787231 255.0 0.0 0.0
-0.17791514098644257 -0.2525379955768585 0.08490363508462906 255.0 0.0 0.0
-0.2688807547092438 -0.23589646816253662 -0.10498475283384323 255.0 0.0 0.0
-0.24649100005626678 -0.34557679295539856 -0.0865713581442833 255.0 0.0 0.0
-0.12028554826974869 0.3380286395549774 -0.3183147609233856 255.0 0.0 0.0
-0.17505693435668945 -0.25275740027427673 0.07296746969223022 255.0 0.0 0.0
0.1926714926958084 0.17111517488956451 0.15111885964870453 255.0 0.0 0.0
0.29244619607925415 0.2157888114452362 0.15632255375385284 255.0 0.0 0.0
-0.09706959873437881 -0.24425412714481354 -0.13351239264011383 255.0 0.0 0.0
0.2919411361217499 0.45937380194664 0.1182427853345871 255.0 0.0 0.0
0.29522275924682617 -0.011195225641131401 0.14519792795181274 255.0 0.0 0.0
-0.23108237981796265 0.007299355231225491 0.15470363199710846 255.0 0.0 0.0
-0.2957170605659485 -0.37569621205329895 0.20328421890735626 255.0 0.0 0.0
-0.21714015305042267 -0.109456866979599 0.1731783002614975 255.0 0.0 0.0
-0.22208669781684875 0.23001626133918762 0.05866900458931923 255.0 0.0 0.0
0.13859738409519196 -0.43671029806137085 0.1294754296541214 255.0 0.0 0.0
0.03249292075634003 0.09995825588703156 -0.15315182507038116 255.0 0.0 0.0
-0.1454898864030838 -0.23703090846538544 -0.13301895558834076 255.0 0.0 0.0
0.22175291180610657 -0.425381600856781 -0.0892869383096695 255.0 0.0 0.0
-0.2695735991001129 0.027471138164401054 0.15331047773361206 255.0 0.0 0.0
0.2631067931652069 -0.4329927861690521 0.2043108493089676 255.0 0.0 0.0
0.22523066401481628 0.23526908457279205 0.05269114673137665 255.0 0.0 0.0
-0.23510122299194336 -0.049107540398836136 0.15574787557125092 255.0 0.0 0.0
0.2982175648212433 -0.24168625473976135 0.08401677757501602 255.0 0.0 0.0
0.28218138217926025 -0.08574873954057693 0.15104606747627258 255.0 0.0 0.0
0.1936396360397339 -0.261316180229187 -0.03464527800679207 255.0 0.0 0.0
-0.2831261157989502 0.08766922354698181 -0.3141160011291504 255.0 0.0 0.0
0.18687202036380768 -0.4443121552467346 0.19814856350421906 255.0 0.0 0.0
-0.2620431184768677 0.10772576928138733 -0.31297922134399414 255.0 0.0 0.0
0.20858372747898102 0.27950501441955566 0.008956464938819408 255.0 0.0 0.0
0.28541210293769836 0.06793560087680817 -0.13574902713298798 255.0 0.0 0.0
0.2227555513381958 -0.2488044649362564 -0.12861023843288422 255.0 0.0 0.0
-0.013844715431332588 0.26208165287971497 -0.21686437726020813 255.0 0.0 0.0
0.15490205585956573 -0.24759826064109802 0.15696629881858826 255.0 0.0 0.0
0.26134493947029114 0.2328551858663559 0.0483241081237793 255.0 0.0 0.0
-0.2785671651363373 0.06038711592555046 -0.31526651978492737 255.0 0.0 0.0
-0.2690174877643585 0.16686409711837769 0.1488783210515976 255.0 0.0 0.0
0.28327903151512146 -0.22965019941329956 -0.13506805896759033 255.0 0.0 0.0
-0.25699758529663086 0.2098568230867386 -0.34222328662872314 255.0 0.0 0.0
0.1364431381225586 -0.4407595098018646 0.040196742862463 255.0 0.0 0.0
-0.18396562337875366 0.33556514978408813 -0.34156060218811035 255.0 0.0 0.0
-0.26494526863098145 0.42624449729919434 0.1061483696103096 255.0 0.0 0.0
0.2972498834133148 0.1507464349269867 -0.11864862591028214 255.0 0.0 0.0
-0.1706084907054901 0.4917581081390381 0.05251162126660347 255.0 0.0 0.0
0.2012827843427658 -0.2658166289329529 -0.045738913118839264 255.0 0.0 0.0
0.28537240624427795 0.2284443974494934 0.05135640129446983 255.0 0.0 0.0
0.24603749811649323 -0.2795047163963318 -0.053906943649053574 255.0 0.0 0.0
-0.23566968739032745 0.32616356015205383 -0.026035066694021225 255.0 0.0 0.0
-0.02188040316104889 0.29272493720054626 -0.2444380670785904 255.0 0.0 0.0
-0.22458088397979736 0.3168002665042877 -0.025993403047323227 255.0 0.0 0.0
-0.18781590461730957 -0.19782282412052155 0.1526535302400589 255.0 0.0 0.0
0.287065327167511 -0.2443728744983673 0.1555611491203308 255.0 0.0 0.0
0.2920280992984772 -0.4221569299697876 0.1592271476984024 255.0 0.0 0.0
0.1559305042028427 -0.44498321413993835 0.01758456416428089 255.0 0.0 0.0
0.2525571584701538 -0.4315543472766876 0.20365093648433685 255.0 0.0 0.0
-0.265007346868515 0.14885377883911133 -0.300001323223114 255.0 0.0 0.0
0.21539029479026794 0.4379406273365021 0.09962255507707596 255.0 0.0 0.0
-0.2363021969795227 0.46455565094947815 0.10606943070888519 255.0 0.0 0.0
-0.26512208580970764 0.19244970381259918 -0.13410326838493347 255.0 0.0 0.0
0.07957316190004349 -0.24687625467777252 -0.1347402185201645 255.0 0.0 0.0
-0.22825495898723602 0.29365378618240356 -0.3672124445438385 255.0 0.0 0.0
0.01728641614317894 0.10604776442050934 -0.19550488889217377 255.0 0.0 0.0
0.11532086879014969 -0.19596968591213226 0.1505724936723709 255.0 0.0 0.0
0.20485852658748627 0.31386375427246094 0.028468377888202667 255.0 0.0 0.0
0.21388639509677887 0.4788941442966461 0.10830390453338623 255.0 0.0 0.0
-0.26204225420951843 0.3922160267829895 0.10031931102275848 255.0 0.0 0.0
-0.06892505288124084 0.23005633056163788 -0.12132562696933746 255.0 0.0 0.0
0.2736826241016388 -0.445347398519516 0.15203857421875 255.0 0.0 0.0
-0.24850152432918549 0.45162710547447205 0.11308936774730682 255.0 0.0 0.0
-0.31007885932922363 -0.3312119245529175 0.1856953203678131 255.0 0.0 0.0
-0.20465809106826782 0.5036806464195251 0.0189101193100214 255.0 0.0 0.0
-0.26169103384017944 0.2785288393497467 -0.33031898736953735 255.0 0.0 0.0
0.12463937699794769 -0.24897035956382751 0.14977574348449707 255.0 0.0 0.0
-0.12636186182498932 -0.17954234778881073 0.16751481592655182 255.0 0.0 0.0
-0.2217405140399933 -0.166520357131958 0.15905511379241943 255.0 0.0 0.0
-0.21625924110412598 -0.02889406494796276 0.1669529378414154 255.0 0.0 0.0
-0.25712114572525024 0.22756096720695496 -0.10229763388633728 255.0 0.0 0.0
0.053666938096284866 0.2193080484867096 -0.22108404338359833 255.0 0.0 0.0
0.25185680389404297 -0.2880914509296417 0.08035515248775482 255.0 0.0 0.0
0.27815061807632446 -0.4393162727355957 -0.01612815260887146 255.0 0.0 0.0
-0.26603519916534424 0.2535344958305359 -0.35888853669166565 255.0 0.0 0.0
-0.12996794283390045 0.2279338538646698 -0.12193414568901062 255.0 0.0 0.0
0.051033634692430496 0.2286173403263092 -0.1959267407655716 255.0 0.0 0.0
-0.04345260560512543 -0.2489936798810959 0.1498631089925766 255.0 0.0 0.0
-0.2572614252567291 -0.31456878781318665 0.12150481343269348 255.0 0.0 0.0
0.25782331824302673 0.5161044597625732 0.03696949779987335 255.0 0.0 0.0
-0.22871661186218262 0.2797676920890808 -0.3600699007511139 255.0 0.0 0.0
0.21722149848937988 0.3111165761947632 0.0444946251809597 255.0 0.0 0.0
0.18907225131988525 0.4657818377017975 0.11236810684204102 255.0 0.0 0.0
0.23391978442668915 -0.3543073534965515 -0.08608310669660568 255.0 0.0 0.0
0.2683279514312744 -0.25220000743865967 -0.01767992042005062 255.0 0.0 0.0
-0.2369505614042282 0.48617202043533325 0.1166849136352539 255.0 0.0 0.0
-0.09567934274673462 -0.2032681703567505 0.15707673132419586 255.0 0.0 0.0
-0.20907855033874512 -0.41504624485969543 0.16065557301044464 255.0 0.0 0.0
0.030082782730460167 0.2649857699871063 -0.24842438101768494 255.0 0.0 0.0
-0.2600136697292328 0.36129069328308105 0.07324918359518051 255.0 0.0 0.0
0.25603342056274414 -0.10869838297367096 0.15343976020812988 255.0 0.0 0.0
0.240682452917099 0.4870102107524872 0.11749786138534546 255.0 0.0 0.0
0.28606143593788147 0.37189701199531555 0.1138729676604271 255.0 0.0 0.0
0.01612437516450882 0.28154653310775757 -0.2700473666191101 255.0 0.0 0.0
-0.301586389541626 -0.3723241686820984 0.20041391253471375 255.0 0.0 0.0
0.013245552778244019 0.2676577866077423 -0.2716529369354248 255.0 0.0 0.0
-0.2113221138715744 0.053348787128925323 0.16008248925209045 255.0 0.0 0.0
0.2636744976043701 -0.3781072199344635 -0.07581573724746704 255.0 0.0 0.0
0.24460512399673462 0.3492026627063751 0.120597705245018 255.0 0.0 0.0
0.10311996936798096 -0.24347639083862305 0.1568332314491272 255.0 0.0 0.0
-0.2944493591785431 -0.4141019582748413 -0.09092864394187927 255.0 0.0 0.0
