-0.04253307729959488 -0.38809025287628174 0.22073277831077576
0.1346791833639145 0.0024476635735481977 0.005699201487004757
0.13295987248420715 0.004550281912088394 -0.29362431168556213
-0.40985026955604553 0.013010762631893158 0.3396325707435608
0.16525880992412567 0.4010840654373169 -0.19266937673091888
-0.11078853905200958 0.003691495396196842 -0.3016234338283539
0.5796892046928406 0.14626136422157288 0.29807329177856445
0.5801226496696472 0.38389262557029724 -0.24487948417663574
-0.4150056838989258 -0.0011407732963562012 0.22924941778182983
0.18548810482025146 0.0004933513700962067 -0.26928916573524475
0.2289704978466034 -0.6361310482025146 0.18542230129241943
0.27581676840782166 -0.6291140913963318 -0.05661236494779587
0.32241183519363403 0.275133341550827 0.3484404981136322
-0.18739469349384308 0.15921218693256378 -0.4014301896095276
0.13321135938167572 -0.38504815101623535 -0.32488304376602173
-0.07137195765972137 -0.6236516833305359 -0.03370020538568497
-0.0021267144475132227 -0.3166860044002533 0.301948219537735
-0.09610194712877274 0.002632107585668564 -0.012333783321082592
0.3266042172908783 0.39592471718788147 0.3377544581890106
-0.10229916870594025 -0.23900757730007172 -0.3083178400993347
0.36829259991645813 -0.38865765929222107 -0.1560945063829422
0.30474916100502014 0.29808881878852844 -0.4017152488231659
0.10322102159261703 -0.6057407855987549 -0.3190692365169525
0.08226948976516724 0.34488388895988464 0.33888018131256104
0.09672871977090836 0.0006332735065370798 0.28365570306777954
0.32405170798301697 -0.6476362347602844 0.14829324185848236
0.23453907668590546 0.28169575333595276 0.464817076921463
0.05818696692585945 -0.3706074059009552 -0.3673962354660034
-0.3726845383644104 0.04648144170641899 -0.022060371935367584
0.5782355070114136 0.010877659544348717 -0.21968968212604523
-0.061486680060625076 0.0030146227218210697 0.18540123105049133
-0.037672728300094604 0.3934621512889862 0.33091211318969727
-0.5820162296295166 0.3380369544029236 -0.06263315677642822
-0.17816543579101562 0.003291480243206024 -0.14058563113212585
0.5720395445823669 0.38588497042655945 0.1452314406633377
-0.1284252256155014 -0.5113743543624878 -0.20695942640304565
-0.1508503407239914 0.005837066099047661 -0.004969554953277111
-0.33964911103248596 0.39825496077537537 -0.08349458128213882
0.27661463618278503 -0.6235911846160889 -0.0331830196082592
-0.013461537659168243 0.0026903385296463966 -0.07819655537605286
-0.26931875944137573 0.35576555132865906 -0.10954480618238449
0.10444429516792297 0.13091765344142914 -0.4021376371383667
-0.5840390920639038 0.33234843611717224 -0.3973284661769867
-0.37816911935806274 -0.06650517880916595 0.1089775487780571
0.14341075718402863 0.003847021609544754 -0.10995475202798843
0.30590325593948364 0.41075199842453003 0.4375063478946686
-0.3210480511188507 0.2849934697151184 0.3443155586719513
0.19927158951759338 -0.0801922008395195 -0.3612743318080902
0.05344921723008156 0.40157344937324524 -0.2263343334197998
-0.5627871155738831 0.004568180534988642 -0.24875956773757935
0.15734495222568512 -0.2261887639760971 -0.37098070979118347
-0.42141464352607727 0.0030228598043322563 0.3475559651851654
0.5481669306755066 0.0076462868601083755 0.04862485080957413
0.13203316926956177 0.004107380285859108 -0.2128833532333374
-0.21952778100967407 -0.3256145119667053 -0.1465339958667755
0.5812405347824097 0.054140981286764145 0.2289218157529831
-0.2634694576263428 0.3986703157424927 -0.3873438537120819
0.1947135031223297 0.18722136318683624 -0.40125179290771484
-0.05609049275517464 -0.37549248337745667 -0.3214889466762543
0.5812832713127136 0.31164517998695374 -0.14755654335021973
0.02067171409726143 0.4015674293041229 -0.23584027588367462
0.4221070110797882 -0.14544814825057983 -0.1564934402704239
0.34189939498901367 -0.633050262928009 0.13387905061244965
0.5540305376052856 0.39160576462745667 -0.07602299749851227
0.3231271207332611 -0.075871542096138 0.3596760630607605
-0.3490986227989197 0.4034230411052704 0.12422479689121246
0.43616053462028503 0.39974483847618103 0.18710261583328247
-0.055241458117961884 -0.002629077062010765 0.2802169919013977
0.04125145077705383 0.11355145275592804 0.4648716449737549
-0.2404542714357376 -0.30138319730758667 0.005678239744156599
0.35514894127845764 -0.4003475606441498 0.11466582864522934
-0.03264294192194939 0.0007288452470675111 -0.356204092502594
-0.5417984127998352 0.0858192890882492 0.08055619895458221
-0.10805335640907288 -0.6234853863716125 -0.0005463855341076851
-0.1055205911397934 -0.6338459253311157 0.09181299060583115
-0.41783857345581055 0.4010811448097229 -0.31313467025756836
-0.5039986968040466 0.3592486083507538 -0.13553451001644135
-0.3516450524330139 0.0023139286786317825 0.3111448287963867
-0.5750596523284912 0.3740408718585968 0.18889524042606354
0.4728405177593231 0.3966309726238251 0.14075803756713867
0.10700962692499161 0.0661715567111969 -0.401123583316803
-0.5759468078613281 -0.014418961480259895 0.20471392571926117
-0.29198503494262695 0.40093666315078735 0.22579003870487213
0.22096134722232819 -0.012968780472874641 -0.3606612980365753
-0.4693722724914551 0.0029351047705858946 -0.009828921407461166
-0.5424595475196838 0.13277149200439453 0.3359103798866272
0.06875161826610565 -0.3783467411994934 0.29607173800468445
0.5175883173942566 0.004343125969171524 0.3165026903152466
0.035732023417949677 -0.20474331080913544 -0.3694896101951599
-0.0921635627746582 0.0011606710031628609 -0.040104445070028305
0.22513288259506226 0.06172587350010872 0.468946635723114
0.18630528450012207 0.026978395879268646 0.34227198362350464
-0.1499340683221817 0.4015766680240631 -0.08762544393539429
-0.5853068232536316 0.16891324520111084 -0.12505948543548584
0.5787349939346313 0.2682548761367798 0.026111098006367683
-0.13083122670650482 -0.6497520208358765 -0.19762271642684937
0.13020770251750946 -0.13922975957393646 0.3149661421775818
0.13148097693920135 0.389545202255249 0.3371462821960449
0.010177861899137497 0.1317944973707199 0.3513791263103485
-0.2692181468009949 0.35558944940567017 0.3417690396308899
-0.15648406744003296 -0.45702365040779114 0.11148469150066376
-0.08521993458271027 0.0694141536951065 -0.40305259823799133
-0.1922082006931305 -0.2759118676185608 -0.20440149307250977
0.4472043514251709 0.3984597623348236 0.059948671609163284
0.5807112455368042 0.20303785800933838 0.05989603325724602
-0.3073030710220337 0.35376498103141785 0.34527885913848877
0.4301741421222687 -0.0014697033911943436 0.0045746974647045135
0.43169766664505005 -0.3467472195625305 -0.1476602703332901
-0.4129526913166046 0.4007018804550171 0.047731269150972366
0.3446452021598816 -0.6342965364456177 -0.16594736278057098
0.38480710983276367 0.0008154567331075668 0.11633984744548798
-0.1969926953315735 0.00949936918914318 0.3353152573108673
-0.27880674600601196 0.005136009305715561 0.2691577076911926
0.461006224155426 0.3986859917640686 -0.13845281302928925
-0.5457155704498291 0.38482344150543213 0.12571030855178833
-0.03002599999308586 -0.06277333945035934 -0.35156187415122986
-0.023691680282354355 0.3908436596393585 -0.3949650824069977
-0.5846129059791565 0.027577854692935944 -0.15626615285873413
-0.36874133348464966 -0.00036380812525749207 -0.28730273246765137
0.12666629254817963 0.4459388852119446 0.44387301802635193
-0.12253206223249435 -0.5132666230201721 0.15067635476589203
0.21607176959514618 0.0030857007950544357 -0.12605905532836914
-0.47015058994293213 -0.10916650295257568 -0.19108720123767853
0.4504961371421814 -0.2521919012069702 -0.041729968041181564
0.4963507652282715 0.00434607919305563 -0.23362070322036743
-0.2421289086341858 0.34725067019462585 0.3453516960144043
0.2617782950401306 -0.3816261291503906 0.2406625747680664
-0.2335687130689621 -0.3188798129558563 0.048683665692806244
0.3004853129386902 -0.1654210239648819 0.2534976601600647
-0.4129721224308014 -0.08872558921575546 -0.3321951627731323
-0.583985447883606 0.13923504948616028 -0.13512231409549713
0.0037451237440109253 0.002593313343822956 -0.03554660454392433
-0.007169199176132679 0.3268217146396637 0.34852805733680725
0.1798027902841568 0.004590124357491732 -0.028362469747662544
0.1325603425502777 0.004049710929393768 -0.06170521676540375
-0.15575860440731049 -0.6563897728919983 -0.13708531856536865
-0.4650987386703491 0.3817143440246582 0.3454134464263916
0.16578252613544464 -0.5009989142417908 0.251765638589859
-0.2576334476470947 0.00018018018454313278 0.04823910444974899
0.5701645016670227 0.3902324140071869 -0.09409689158201218
-0.5158277750015259 -0.09883485734462738 -0.011805974878370762
-0.36882340908050537 0.0010438784956932068 -0.13562829792499542
0.4270651042461395 0.0020563749130815268 0.12883694469928741
0.011558428406715393 -0.6246551871299744 0.12234862893819809
-0.5753623247146606 -0.03435153141617775 0.19842883944511414
0.42780664563179016 -0.3811143934726715 -0.033659495413303375
-0.03348887711763382 0.40275341272354126 -0.17553843557834625
0.23963361978530884 0.13710926473140717 -0.4018712043762207
0.33201801776885986 -0.6256174445152283 -0.065888911485672
0.5844731330871582 0.06674469262361526 -0.20323264598846436
-0.21946199238300323 -0.3566976487636566 -0.12352141737937927
-0.17072921991348267 -0.5456810593605042 0.07291683554649353
-0.5692571401596069 0.36381658911705017 0.1365382969379425
-0.03578931465744972 -0.6104422211647034 0.2231324166059494
-0.08825469017028809 -0.6335623860359192 0.141719788312912
-0.052411966025829315 -0.4833884835243225 -0.2720133662223816
0.3293466567993164 0.0042569562792778015 0.08882495015859604
-0.1473359614610672 -7.246434688568115e-05 0.14420002698898315
-0.1928901970386505 -0.38378965854644775 -0.10954515635967255
0.3909369111061096 -0.08043359220027924 -0.2158079743385315
0.0448942556977272 -0.6174421906471252 -0.20799237489700317
-0.3187500536441803 0.4008069336414337 -0.231226846575737
0.5574459433555603 0.006319609470665455 -0.1190125048160553
-0.49408912658691406 0.002813624683767557 -0.1009446457028389
-0.029381001368165016 0.0031687277369201183 -0.2440458983182907
0.3242347240447998 0.1804765909910202 0.4364047944545746
0.016746623441576958 -0.6219080686569214 0.132396399974823
-0.5847259759902954 0.024946484714746475 -0.08685903251171112
-0.11077453941106796 -0.3703128397464752 -0.29984012246131897
-0.5831647515296936 0.34662988781929016 -0.14327654242515564
0.28427791595458984 0.15609997510910034 0.46868571639060974
0.1561288982629776 0.16778628528118134 -0.4022279381752014
0.516531229019165 0.06701064854860306 0.34231847524642944
0.2782343029975891 0.4597303569316864 0.43488219380378723
-0.16997763514518738 -0.5477268099784851 0.06764934957027435
-0.049462977796792984 0.14676864445209503 0.39203736186027527
-0.23325292766094208 -0.19070854783058167 -0.10784946382045746
-0.11003483831882477 -0.012924687936902046 0.24534237384796143
0.45525801181793213 -0.000750497099943459 -0.019768323749303818
0.15797598659992218 -0.055784497410058975 0.3301815092563629
-0.5010623335838318 -0.053762707859277725 0.3531447649002075
-0.5784338116645813 0.055906541645526886 -0.10938484221696854
-0.5871808528900146 0.03820016235113144 0.19221796095371246
0.5671653747558594 0.39379075169563293 0.24074582755565643
-0.2350279986858368 0.40267765522003174 -0.26182958483695984
0.4140453040599823 0.0012745615094900131 -0.3663783073425293
0.32507413625717163 0.004715259186923504 0.10134722292423248
-0.11860945075750351 -0.12621118128299713 -0.2935360372066498
-0.053555961698293686 0.21825480461120605 -0.40331795811653137
0.13902531564235687 0.3481357991695404 0.33918026089668274
0.16997428238391876 -0.15279333293437958 0.3064596951007843
-0.5014179348945618 0.11025217175483704 -0.2948027551174164
0.08792257308959961 -0.6224803328514099 0.19877463579177856
-0.5460944175720215 0.10137727856636047 0.34723567962646484
0.43310171365737915 0.39920005202293396 -0.014764172025024891
0.17259354889392853 0.4324800968170166 0.35956352949142456
-0.5032980442047119 0.024062376469373703 0.34920284152030945
0.22897645831108093 0.3995727300643921 -0.3395622968673706
0.43489450216293335 -0.25248977541923523 0.07271057367324829
-0.5363466739654541 0.19748932123184204 -0.4042178988456726
0.4801813066005707 0.39793381094932556 0.25613832473754883
0.46267029643058777 0.001518099568784237 0.24518656730651855
0.2833317518234253 0.004244879819452763 0.032841164618730545
-0.3359193801879883 0.401029109954834 0.04364277422428131
-0.36508774757385254 -0.031518470495939255 -0.38688263297080994
0.21425150334835052 -0.4709039330482483 -0.2973674535751343
0.2605704069137573 -0.6254651546478271 -0.15625549852848053
0.08875271677970886 -0.6180342435836792 0.26402121782302856
-0.37229084968566895 -0.03776268661022186 -0.24431400001049042
-0.16988904774188995 -0.2502734959125519 0.18264587223529816
-0.570529043674469 -0.04400690644979477 -0.1665508896112442
0.14608614146709442 0.400800883769989 0.4541396200656891
0.14688727259635925 0.09024321287870407 0.46650612354278564
0.11021556705236435 -0.6217811107635498 0.15128809213638306
-0.1381278783082962 -0.6264539361000061 -0.00563270878046751
-0.2150719314813614 0.40242239832878113 -0.3132060766220093
0.010802999138832092 0.002848251024261117 0.11843764036893845
0.1802268624305725 0.0052407654002308846 -0.23047009110450745
-0.06063203513622284 -0.6257503032684326 0.06879707425832748
-0.19890950620174408 0.0011886387364938855 -0.11362819373607635
0.3016870617866516 -0.08981693536043167 0.2506117820739746
-0.15575680136680603 -0.208256334066391 -0.25698477029800415
-0.40819960832595825 0.002241404727101326 0.18255235254764557
0.014790797606110573 0.0038625886663794518 -0.16231346130371094
-0.3053678274154663 0.2508390545845032 0.34351587295532227
-0.23474836349487305 -0.23405849933624268 -0.0609116367995739
0.1839941442012787 0.06771446764469147 0.4693036377429962
-0.02443530224263668 0.29122817516326904 -0.4006529748439789
0.11501424014568329 0.0032705944031476974 -0.24649809300899506
0.43394485116004944 0.00399699155241251 -0.324516236782074
0.42372825741767883 0.17517049610614777 0.34232205152511597
-0.543633222579956 0.08954562246799469 -0.25763413310050964
-0.08540179580450058 0.27846279740333557 0.3958291709423065
0.46255233883857727 0.3996618390083313 -0.2171757072210312
0.3229947090148926 0.000889183022081852 0.1164410337805748
0.5828891396522522 0.06543362885713577 -0.07978807389736176
-0.09266410768032074 0.38522693514823914 0.34169337153434753
0.31806692481040955 0.11274246126413345 -0.4016129970550537
-0.13078102469444275 -0.01035301573574543 0.21842409670352936
-0.17409588396549225 -0.5019946694374084 0.06259645521640778
-0.31731075048446655 0.3439258933067322 -0.17913588881492615
0.2768048346042633 -0.1609361171722412 0.27201327681541443
0.02991158701479435 0.0035278787836432457 -0.11448173224925995
-0.1231180727481842 -0.6396188139915466 0.14858447015285492
-0.2173776775598526 0.0020390739664435387 0.3175748288631439
-0.28358983993530273 0.4019792675971985 0.13110609352588654
-0.364925354719162 0.05492109805345535 0.07443143427371979
0.07741563022136688 0.21978791058063507 0.34400153160095215
0.19075536727905273 0.023703910410404205 -0.40256044268608093
0.06163513660430908 -0.23364688456058502 0.3141174912452698
-0.20009247958660126 -0.20035617053508759 -0.1936560571193695
-0.5282238721847534 0.40035662055015564 0.10003189742565155
0.5777983069419861 0.14535754919052124 0.12024437636137009
0.5866321325302124 0.07828330248594284 0.21532560884952545
-0.3816601037979126 0.4014551043510437 -0.32051780819892883
0.5805018544197083 0.2280993014574051 0.11238966137170792
0.5617474317550659 0.057059600949287415 0.3406919836997986
-0.48694953322410583 0.02900642901659012 -0.39995938539505005
-0.3050955533981323 0.398579865694046 0.024566246196627617
-0.5657169222831726 0.36677712202072144 -0.23630595207214355
-0.13893134891986847 -0.3603869676589966 -0.2813051640987396
-0.10302712768316269 -0.6513866782188416 0.13448211550712585
0.5800434947013855 0.14280857145786285 -0.3072468042373657
0.2854180634021759 -0.6099808216094971 0.1970176100730896
0.14958491921424866 -0.47862687706947327 0.25685355067253113
0.29840922355651855 -0.14435751736164093 0.26666173338890076
0.09538012742996216 0.004303653258830309 -0.21416616439819336
-0.021628426387906075 0.22935672104358673 -0.4012399911880493
0.44314324855804443 0.00246330164372921 0.22386661171913147
0.34324976801872253 0.4006730914115906 0.18350040912628174
-0.44575726985931396 0.18563498556613922 0.3447507917881012
0.0024027619510889053 -0.005062984302639961 0.3130874037742615
0.27091386914253235 -0.2991752028465271 -0.33265092968940735
-0.17411750555038452 0.15049254894256592 0.34321215748786926
0.2099996656179428 0.0027356529608368874 -0.2838153541088104
-0.09932151436805725 0.0025538867339491844 -0.3028425872325897
0.0222594253718853 0.18156689405441284 0.4280336797237396
-0.1473759263753891 -0.3833254277706146 -0.21919143199920654
0.15708689391613007 -0.591370701789856 -0.31050848960876465
-0.46805107593536377 0.11154915392398834 0.2700524628162384
-0.15990863740444183 0.2932246923446655 -0.3998057544231415
-0.1689033806324005 0.004048383794724941 -0.06481368094682693
-0.16823555529117584 0.003581463359296322 -0.0584193579852581
-0.13689301908016205 0.003115384839475155 -1.8193386495113373e-05
-0.43825364112854004 0.10937544703483582 0.19251586496829987
-0.1818542629480362 -0.002230994403362274 0.16672725975513458
-0.5857660174369812 0.172613725066185 -0.149995818734169
-0.4574453830718994 -0.1061062440276146 -0.25228220224380493
-0.1429504007101059 0.38906577229499817 -0.39801695942878723
0.3520253300666809 -0.2967762053012848 -0.2726825773715973
-0.09993725270032883 -0.6240292191505432 0.01021935697644949
-0.3520360291004181 0.4114949107170105 -0.1400638073682785
0.20220859348773956 0.003122716210782528 -0.03071162849664688
0.390512615442276 -0.4983520805835724 -0.04743078351020813
0.057371653616428375 -0.629875659942627 -0.2581315040588379
0.31751009821891785 -0.5781084299087524 -0.23120151460170746
0.034013666212558746 -0.6231931447982788 -0.08094970136880875
0.4430106282234192 -0.2963326573371887 0.04052812233567238
0.5396057963371277 0.3983176052570343 0.20335443317890167
0.19205161929130554 -0.0014288844540715218 0.30958643555641174
0.2690585255622864 -0.6289563775062561 0.2114543616771698
0.5845516324043274 0.19462548196315765 -0.02716151624917984
0.1969173401594162 -0.5200262069702148 0.2449810653924942
0.17885562777519226 -0.6297998428344727 0.06485108286142349
0.34728580713272095 0.0010734202805906534 -0.2577213943004608
0.5303005576133728 0.39938443899154663 -0.24985432624816895
0.5810308456420898 0.22377325594425201 -0.2766076922416687
-0.43050506711006165 -0.09831429272890091 -0.3340948224067688
-0.05030656233429909 0.001753498800098896 -0.0995326042175293
-0.40840208530426025 0.16882462799549103 0.34333255887031555
0.3133711814880371 0.08274123817682266 0.4594385623931885
-0.4503241777420044 0.41002315282821655 -0.07397891581058502
-0.10882318019866943 0.0032660886645317078 0.04767898842692375
-0.11651168018579483 0.07119029760360718 -0.4026227295398712
0.05848365277051926 -0.27444225549697876 0.3143809735774994
-0.2846800684928894 0.3982204496860504 -0.04550667479634285
0.33939990401268005 0.3997975289821625 -0.09203930199146271
-0.06742673367261887 -0.6194092035293579 0.07002733647823334
0.016025405377149582 -0.6233092546463013 -0.16768044233322144
0.44160935282707214 0.00242436770349741 -0.33247634768486023
-0.5752665400505066 0.19943121075630188 0.15782949328422546
-0.12992620468139648 -0.08987201005220413 -0.28210151195526123
-0.5059434175491333 0.0057470304891467094 -0.4021928012371063
-0.42793726921081543 0.0022522280924022198 0.1126968041062355
0.13854360580444336 0.0020643509924411774 0.056153908371925354
0.03740189969539642 0.3579676151275635 -0.4035007953643799
-0.18340066075325012 -0.384658545255661 -0.1317518800497055
0.12405595928430557 -0.2394791543483734 -0.37131133675575256
-0.4253956377506256 0.1055990606546402 -0.003330544102936983
0.4864223301410675 0.17221538722515106 0.3426936864852905
0.5794171094894409 0.33569103479385376 -0.08491946756839752
-0.4290529787540436 -0.09771675616502762 0.18357250094413757
-0.1770428568124771 0.07718056440353394 -0.401624470949173
-0.5953161120414734 0.13433128595352173 0.3206486701965332
0.1847480982542038 -0.6211003065109253 -0.23083865642547607
0.20476274192333221 0.05546951666474342 0.34404513239860535
-0.3937920928001404 0.0039013272617012262 -0.17450998723506927
-0.4250163733959198 0.0038253702223300934 -0.15912805497646332
-0.19823171198368073 -0.13131248950958252 -0.19754351675510406
0.026815854012966156 0.31472861766815186 0.3573305606842041
-0.4394298195838928 0.4006410837173462 0.151916965842247
0.13751941919326782 0.03272596746683121 0.3395887613296509
0.27985548973083496 -0.33815836906433105 -0.3275735378265381
-0.18436774611473083 -0.48212260007858276 0.010833851993083954
0.19291585683822632 -0.6253264546394348 0.1428438127040863
-0.3260432779788971 0.4068972170352936 -0.033505138009786606
-0.5189531445503235 -0.07458074390888214 -0.40419358015060425
0.06607677042484283 -0.6381760835647583 -0.2837153375148773
-0.4694882035255432 0.09530594944953918 0.343802273273468
-0.201688751578331 0.004570356570184231 0.30280396342277527
-0.5173825621604919 0.3581266403198242 -0.07157823443412781
0.22707931697368622 0.39938807487487793 0.18485362827777863
0.2675498127937317 0.45834773778915405 0.42871540784835815
-0.29496094584465027 0.36224204301834106 -0.04863723739981651
0.32680997252464294 -0.027618085965514183 0.41496220231056213
0.1775277704000473 -0.6378651261329651 -0.2808511257171631
-0.33405765891075134 0.40548083186149597 -0.13934776186943054
0.30896466970443726 0.3964084982872009 0.4450311064720154
-0.16330094635486603 0.0036087441258132458 0.040613286197185516
0.4402744174003601 -0.18902507424354553 -0.10154645144939423
-0.06628409028053284 0.0016004338394850492 -0.3237929940223694
0.297146737575531 0.40195420384407043 -0.3466772735118866
0.006698256358504295 -0.030966119840741158 0.3071599304676056
-0.15321621298789978 0.10684753209352493 0.3499034643173218
0.0314985066652298 0.4015219211578369 -0.30107828974723816
-0.3048660457134247 0.18440139293670654 -0.40554672479629517
0.025216614827513695 0.26843923330307007 0.39155513048171997
-0.39478805661201477 0.40097901225090027 0.15003685653209686
0.17264750599861145 0.4006945490837097 -0.29716938734054565
0.06240551546216011 0.004974826239049435 -0.22701311111450195
0.04788737744092941 0.4013632535934448 -0.17392262816429138
0.29990720748901367 0.4675711393356323 0.40623944997787476
0.24126237630844116 -0.6321228742599487 0.22463500499725342
-0.585911750793457 0.16022305190563202 -0.3069758415222168
-0.08938688039779663 -0.32683488726615906 -0.3194596469402313
-0.4370287358760834 0.10759791731834412 0.04327165707945824
-0.49459409713745117 0.3916604816913605 0.3378852307796478
-0.058845553547143936 0.0019337311387062073 -0.23849722743034363
-0.5813773274421692 0.33563876152038574 -0.32536518573760986
-0.1845969557762146 0.003671836107969284 -0.014315839856863022
0.042297281324863434 0.0035606957972049713 0.2885323166847229
-0.581937849521637 0.03234237805008888 0.07545629143714905
-0.5733108520507812 0.0630822628736496 -0.2664363980293274
0.33626455068588257 -0.14537912607192993 0.21626751124858856
-0.37452995777130127 0.0036427630111575127 -0.25421077013015747
-0.2739730477333069 0.001059516565874219 -0.23569828271865845
0.42274758219718933 -0.07092016190290451 0.10369978845119476
-0.15729457139968872 0.4026862680912018 0.10595645010471344
0.2865545451641083 -0.04053488001227379 0.254602313041687
-0.04919777438044548 0.21876755356788635 -0.39946767687797546
0.17900186777114868 -0.5642755627632141 -0.3077046871185303
0.4150116741657257 0.0023577152751386166 0.02138640359044075
-0.5339813232421875 -0.09093387424945831 0.21653926372528076
-0.37392038106918335 0.007150283083319664 0.30479249358177185
-0.265791118144989 0.00816541351377964 0.3356844484806061
-0.36263662576675415 0.010055582970380783 -0.007234258111566305
0.00695598591119051 0.0036014593206346035 -0.05412176996469498
-0.4530419111251831 0.3820529580116272 -0.4018062949180603
-0.02210051938891411 0.0028033051639795303 -0.28629088401794434
-0.44327858090400696 0.3936762511730194 0.3382216989994049
0.5828580260276794 0.3516387641429901 -0.02803010120987892
-0.1521560251712799 0.40191102027893066 -0.2693026065826416
0.3955523371696472 -0.26977166533470154 0.1605694591999054
-0.556415319442749 0.3929298520088196 -0.3019525110721588
0.562412440776825 0.0055129388347268105 -0.26546335220336914
0.3437677025794983 -0.2871292531490326 0.21953168511390686
-0.42678824067115784 0.4005507826805115 -0.3394974172115326
0.27731049060821533 0.40119752287864685 -0.04855529963970184
0.25722357630729675 0.0035538661759346724 0.2012627273797989
0.3566947877407074 -0.15993323922157288 0.20130157470703125
-0.5767418146133423 0.05533672869205475 -0.11346971988677979
0.347865492105484 -0.17292045056819916 -0.273977667093277
0.2850038409233093 0.041951440274715424 0.3461417853832245
0.42888954281806946 0.3992825448513031 0.1252543032169342
-0.4704131484031677 0.0034965714439749718 0.11799656599760056
-0.5658160448074341 0.09748485684394836 -0.4015503525733948
0.5687123537063599 0.38861048221588135 -0.23427581787109375
-0.5788601636886597 0.037451162934303284 -0.19653786718845367
-0.2449345737695694 0.3977014422416687 0.32825160026550293
0.5796318650245667 0.17411808669567108 -0.2947632968425751
0.3278937041759491 0.003926905803382397 0.031865283846855164
-0.02778078056871891 0.3985495865345001 -0.05946490168571472
-0.30707651376724243 0.003324192948639393 -0.23239682614803314
-0.010301534086465836 -0.5770660638809204 -0.2959305942058563
0.2695830762386322 0.0036493162624537945 -0.1027924045920372
0.1273912638425827 0.0022162403911352158 0.04943326115608215
0.01172578427940607 0.34144076704978943 0.3561808466911316
-0.5853176712989807 0.209004744887352 -0.18348777294158936
-0.3979202210903168 0.3792421519756317 0.025990325957536697
-0.4605126976966858 0.05570250377058983 0.3497296869754791
-0.4171430170536041 0.09542058408260345 -0.16199947893619537
0.11063269525766373 0.3948438763618469 0.33812692761421204
-0.3314722180366516 0.08718594163656235 -0.4010256230831146
0.5461061000823975 0.0033091576769948006 -0.17337897419929504
0.4030154347419739 -0.35142284631729126 -0.19089452922344208
0.1189422756433487 -0.3778022527694702 0.311979204416275
0.5191851258277893 0.15409179031848907 -0.4015170931816101
-0.15556646883487701 0.0036237621679902077 -0.28598275780677795
0.4924265146255493 0.011073506437242031 0.330329567193985
-0.3603021502494812 0.007251393981277943 0.09329496324062347
0.07602426409721375 -0.6246842741966248 -0.12646140158176422
0.223124161362648 0.004942900501191616 -0.24305011332035065
0.3291834890842438 0.0017612166702747345 0.23623354732990265
0.2128150314092636 -0.6304765343666077 0.11401486396789551
-0.5695284605026245 0.08333694189786911 0.09502121061086655
0.18518482148647308 0.39898011088371277 -0.23352284729480743
-0.03247765451669693 -0.6227014660835266 -0.2073681354522705
-0.03519343212246895 -0.418858140707016 -0.28448161482810974
0.03661193326115608 -0.6221063137054443 0.1186770498752594
0.38030189275741577 -0.38568732142448425 -0.1566215455532074
-0.02343658357858658 -0.6280457377433777 -0.04181618243455887
-0.28407612442970276 0.0022707274183630943 -0.04757137969136238
-0.5797811150550842 0.30521976947784424 -0.3586895763874054
0.07461689412593842 0.0031586801633238792 0.08528842031955719
-0.30336394906044006 0.4011704921722412 0.3129428029060364
-0.5865446925163269 0.19048570096492767 -0.06828875839710236
-0.44623520970344543 0.002965393476188183 -0.38211673498153687
0.2831484377384186 0.40004098415374756 0.3055085241794586
-0.5286522507667542 0.19611820578575134 -0.403207004070282
0.23198573291301727 0.0015111030079424381 0.28429973125457764
0.2521549463272095 0.3972714841365814 -0.3782876133918762
0.5800029635429382 0.08941596001386642 0.32715797424316406
0.29948076605796814 -0.6239659190177917 -0.049257222563028336
0.019496601074934006 -0.0011436681961640716 0.3011585474014282
0.33527156710624695 0.37404996156692505 0.3920441269874573
-0.30893802642822266 0.4023970365524292 0.2818771302700043
-0.17593072354793549 0.1519041657447815 0.34999704360961914
0.3792223334312439 0.2891443967819214 -0.4029524624347687
0.42642486095428467 -0.3353506028652191 -0.1709015816450119
-0.5185255408287048 0.0037364959716796875 0.1812574863433838
0.28698021173477173 0.001914435182698071 0.21790003776550293
0.18681520223617554 0.0044366950169205666 0.13295811414718628
0.33418866991996765 0.006144371815025806 0.33500075340270996
0.5773835778236389 0.011747468262910843 -0.2972988486289978
-0.11482315510511398 -0.15212716162204742 0.2438991516828537
0.025386512279510498 0.0023130669724196196 0.04629131034016609
-0.47537150979042053 -0.11086205393075943 -0.3412420153617859
0.3868202567100525 -0.44364187121391296 0.02614249847829342
-0.16478674113750458 0.07251261174678802 0.34915950894355774
0.4428746998310089 -0.14416252076625824 0.008849237114191055
0.3508606553077698 0.001978069543838501 0.1985185444355011
0.5807281732559204 0.2928536534309387 -0.3329506516456604
-0.2209261953830719 -0.15070924162864685 0.08619128167629242
-0.21664611995220184 -0.017261995002627373 0.09291082620620728
0.3160145580768585 0.38848647475242615 0.45265915989875793
-0.5862935185432434 0.32900840044021606 0.15311700105667114
-0.495365172624588 -0.1059747040271759 0.18913349509239197
0.20968283712863922 0.40017083287239075 -0.25770992040634155
-0.37675511837005615 0.0018626062665134668 -0.0313560776412487
0.1473361998796463 -0.625420093536377 -0.19836914539337158
0.32961446046829224 0.018235759809613228 -0.4019607901573181
0.12217077612876892 0.00025786180049180984 -0.39507538080215454
0.08246860653162003 0.0035050073638558388 0.20774498581886292
0.21658186614513397 -0.1273120939731598 0.29709023237228394
0.32274267077445984 0.006802822928875685 -0.005343500524759293
0.33913034200668335 -0.6344393491744995 -0.0958753302693367
-0.138729527592659 -0.043013837188482285 -0.2747034728527069
0.36463335156440735 -0.06281671673059464 0.19335605204105377
0.4658065140247345 0.2871958315372467 0.3442259132862091
-0.4075815975666046 0.05471428111195564 0.3447128236293793
-0.4003198444843292 0.3978908360004425 -0.2955531179904938
0.02446061372756958 0.24274449050426483 0.44527870416641235
0.39459389448165894 -0.10869919508695602 -0.21887566149234772
0.566016435623169 0.2560560405254364 -0.40464064478874207
0.25543415546417236 -0.49890124797821045 -0.2767447829246521
0.03861675783991814 0.40282437205314636 -0.2943260669708252
0.3961407542228699 -0.3941361904144287 0.017118126153945923
0.20360131561756134 -0.6287075877189636 0.11903919279575348
-0.12538927793502808 0.39658284187316895 -0.372013658285141
0.0731479749083519 -0.6257959008216858 -0.18891894817352295
-0.5694580078125 0.0676572322845459 0.12148711830377579
-0.11370136588811874 -0.6276106238365173 0.03221224993467331
0.30247247219085693 -0.3105308711528778 0.2610957622528076
-0.5831733345985413 0.11680196225643158 -0.3676314651966095
0.4027065932750702 -0.26720890402793884 -0.20447733998298645
0.1176007017493248 0.4653714895248413 0.37288469076156616
0.03248307853937149 0.06379538029432297 0.36924779415130615
0.46957308053970337 0.39833056926727295 0.2436319887638092
-0.47661617398262024 -0.10966619104146957 -0.11445482075214386
0.21584929525852203 0.1282983422279358 0.3439501225948334
0.26902902126312256 -0.6637189388275146 -0.24864710867404938
0.5792508125305176 0.30142316222190857 -0.059247396886348724
0.3765978515148163 0.4002787172794342 0.04304208606481552
0.4450395703315735 -0.19799554347991943 -0.05519028753042221
0.2024085968732834 0.39921197295188904 0.03524010255932808
-0.09716019779443741 0.2621077597141266 -0.4031059741973877
-0.35526829957962036 0.020626500248908997 -0.19703388214111328
-0.43771088123321533 0.4129129946231842 -0.1487920880317688
-0.26240989565849304 0.2826697528362274 0.34235796332359314
0.24718204140663147 0.1767766773700714 -0.39902377128601074
0.023629112169146538 0.2537021338939667 0.3732971251010895
-0.5770092606544495 0.08763210475444794 -0.2920908033847809
0.4013512432575226 0.39864152669906616 -0.32143014669418335
-0.06433061510324478 -0.268028199672699 -0.33340984582901
0.19164691865444183 -0.624529242515564 -0.12065407633781433
-0.5109054446220398 -0.004207032732665539 0.3556540608406067
0.3589671552181244 0.3979189991950989 -0.2992513179779053
0.2333538979291916 0.39846712350845337 0.30743780732154846
0.5761547684669495 0.20910674333572388 0.31740060448646545
0.000889388844370842 0.3519773483276367 0.3447307348251343
-0.4730123281478882 -0.10953721404075623 0.2573946714401245
-0.5800549387931824 0.07354786992073059 -0.3327834904193878
-0.24292396008968353 0.4016457200050354 -0.23793849349021912
-0.45389309525489807 -0.10708963125944138 -0.34715282917022705
0.34356066584587097 -0.48047739267349243 0.13534259796142578
0.1644827127456665 0.03078264184296131 -0.4035629332065582
-0.19019602239131927 -0.5438882112503052 -0.024589935317635536
0.1717456728219986 -0.6241312026977539 -0.06144653260707855
-0.498798668384552 0.10523408651351929 -0.14311805367469788
-0.1968400925397873 0.0022529284469783306 0.06430679559707642
0.5579277873039246 0.054679639637470245 0.3394872546195984
-0.20670604705810547 -0.2674344778060913 0.12348855286836624
0.18912792205810547 -0.08406390249729156 -0.36118873953819275
-0.5130411386489868 -0.1003255695104599 -0.07102768123149872
0.2495427429676056 0.3939502537250519 0.34364184737205505
0.37901848554611206 -0.17492038011550903 0.17677128314971924
0.3307534158229828 0.12791652977466583 0.35055994987487793
0.4354984760284424 -0.021906372159719467 -0.04956210032105446
-0.25515100359916687 7.283873856067657e-05 0.002146701328456402
-0.07171311229467392 -0.6020241379737854 0.20054730772972107
0.12583264708518982 0.40068888664245605 0.2943277955055237
-0.2815258204936981 0.4018830358982086 0.2899090349674225
-0.0789121612906456 -0.633030116558075 0.13758087158203125
0.5165059566497803 0.18757183849811554 -0.4025094509124756
0.30829793214797974 -0.5823063254356384 -0.2359594851732254
0.026035422459244728 0.386694073677063 0.44586265087127686
-0.5353127121925354 0.0535491518676281 0.3389401435852051
0.21314355731010437 0.0014239326119422913 0.13742795586585999
-0.33190131187438965 0.011253884062170982 -0.3899032473564148
-0.35201647877693176 0.40076521039009094 -0.30942419171333313
-0.29863399267196655 0.0053486269898712635 0.11477969586849213
0.14016808569431305 0.27246180176734924 0.4647189974784851
0.5822747349739075 0.08077307045459747 -0.3194139003753662
0.08739623427391052 -0.21251510083675385 -0.3729144334793091
-0.1655857264995575 -0.12379371374845505 -0.24619382619857788
-0.07673497498035431 -0.2959516942501068 -0.3247390389442444
-0.4409378468990326 0.004929221700876951 0.04969758540391922
-0.14117282629013062 0.00448039872571826 0.019726712256669998
0.47898074984550476 0.39739498496055603 0.05384228751063347
0.5797026753425598 0.3384209871292114 -0.3407677412033081
0.47973623871803284 0.0016772681847214699 -0.3696746230125427
-0.5801727175712585 0.028594890609383583 -0.0019761137664318085
-0.024533092975616455 0.3999112546443939 -0.2157263308763504
0.3443222641944885 -0.6306017637252808 -0.02871786244213581
0.5802088379859924 0.029105056077241898 -0.3809399902820587
0.5755478143692017 0.012894993647933006 -0.1972975879907608
-0.1855979561805725 -0.425416499376297 -0.02267264947295189
-0.3664708435535431 0.015412915498018265 0.3415592610836029
0.3069946765899658 -0.014760427176952362 0.4567285180091858
-0.08905619382858276 0.3991084396839142 0.2623163163661957
0.2563765048980713 0.4001016914844513 -0.008098321035504341
0.22703339159488678 0.0045225126668810844 0.3291005790233612
0.3224479854106903 0.16069333255290985 0.4246267080307007
-0.07667630165815353 0.1484541893005371 0.37902089953422546
-0.05583944171667099 0.26805707812309265 -0.4032121002674103
-0.3827923834323883 0.06470823287963867 -0.10801480710506439
0.4298361539840698 -0.192789226770401 -0.1535695642232895
0.4746725857257843 0.1427958905696869 -0.4007646143436432
0.3060499429702759 -0.2541287839412689 -0.3077583611011505
-0.583935022354126 0.33565977215766907 -0.23475982248783112
-0.23230713605880737 0.2721928060054779 -0.40086883306503296
0.5795646905899048 0.3794061541557312 -0.22331753373146057
0.03151852265000343 -0.6424395442008972 -0.3108293116092682
-0.17271722853183746 0.40014883875846863 0.2957363426685333
-0.4159047305583954 0.40128275752067566 0.0810479074716568
-0.15027612447738647 0.4016960859298706 -0.2318606972694397
0.10363061726093292 0.40000486373901367 -0.26266488432884216
0.1211320161819458 -0.6308462023735046 -0.012103661894798279
0.15701924264431 0.0029915436170995235 0.25619637966156006
-0.3165285885334015 0.0011375462636351585 0.04083931818604469
-0.4645214378833771 0.11167532205581665 -0.19841666519641876
0.25577202439308167 -0.04242224246263504 -0.33574581146240234
-0.49021631479263306 -0.10681004077196121 -0.16080087423324585
0.3770800232887268 -0.6518000364303589 0.019036009907722473
-0.5848254561424255 0.02330724149942398 -0.2931302487850189
-0.585405707359314 0.17967481911182404 -0.17580141127109528
-0.44413524866104126 0.3524816036224365 -0.1742168366909027
0.043616198003292084 0.03378291055560112 0.3460935056209564
0.2388875037431717 0.3980369567871094 -0.3426298201084137
0.2338537871837616 0.4027133882045746 0.28087860345840454
-0.14846810698509216 -0.4906814992427826 -0.16459263861179352
0.13008669018745422 -0.6227195858955383 -0.09427238255739212
-0.3784772753715515 0.06277739256620407 0.27108967304229736
-0.5834900736808777 0.27628639340400696 -0.2744005024433136
-0.16215695440769196 -0.376173198223114 0.1372353434562683
0.10201062262058258 0.004475561901926994 -0.22446109354496002
0.01548696681857109 -0.623839795589447 -0.11821477860212326
-0.3591913878917694 -0.006067798472940922 -0.09145078808069229
0.10710527002811432 -0.5237299203872681 -0.3190526068210602
-0.5775940418243408 0.007197309751063585 -0.1581510305404663
-0.315192848443985 0.39662718772888184 0.017391443252563477
-0.5470097661018372 0.3911803960800171 -0.1486031711101532
-0.05888289958238602 0.004174781031906605 -0.31246596574783325
-0.2186427116394043 -0.07162497192621231 0.09223230183124542
-0.2347148358821869 -0.03471430391073227 0.04040299355983734
-0.38962388038635254 -0.05991967022418976 -0.39385077357292175
0.2472788691520691 0.3998832106590271 -0.21955536305904388
-0.4492734670639038 0.39901313185691833 -0.21598711609840393
-0.5932955145835876 0.20212286710739136 0.2709394693374634
-0.5210407972335815 -0.09837069362401962 0.18222005665302277
-0.10305222868919373 0.40321943163871765 0.09787572175264359
0.06387203186750412 0.0038692087400704622 0.23643502593040466
-0.03409735485911369 -0.6276784539222717 0.0856543481349945
0.5684635639190674 0.20912428200244904 0.338498592376709
-0.36955133080482483 0.0015286579728126526 -0.03613065555691719
0.3498491942882538 -0.6386216282844543 -0.034740786999464035
0.03638996556401253 -0.028728503733873367 0.4669111371040344
-0.3161681890487671 0.3532577455043793 0.035365030169487
0.5815257430076599 0.1743386834859848 0.011739670298993587
-0.10448872298002243 -0.3959786295890808 -0.24995839595794678
-0.376749187707901 0.060417935252189636 -0.2691231369972229
0.5827560424804688 0.10924504697322845 0.09811866283416748
-0.5812686085700989 0.03295424208045006 0.18177679181098938
-0.20228174328804016 -6.704824045300484e-05 0.18655815720558167
0.5848985314369202 0.3261832594871521 0.14962530136108398
-0.26952001452445984 0.08312946557998657 0.3486984670162201
-0.03895889222621918 -0.6252317428588867 0.15770545601844788
-0.5271560549736023 0.07922544330358505 -0.11803998798131943
0.2331932634115219 -0.5508007407188416 -0.2881046533584595
-0.2128451019525528 -0.21910324692726135 -0.17542703449726105
-0.13430437445640564 -0.055119458585977554 0.2249617725610733
0.335449755191803 0.0009536445140838623 0.23105117678642273
-0.47404947876930237 0.0006917295977473259 0.12251685559749603
0.10960706323385239 0.2890615463256836 -0.4026007354259491
-0.38141337037086487 0.044937074184417725 -0.40683746337890625
0.01889154687523842 0.2583853602409363 0.4047192633152008
-0.38902610540390015 0.10292550921440125 -0.403527170419693
-0.13038423657417297 0.25259268283843994 0.34540629386901855
-0.498030424118042 -0.07768306881189346 -0.4042203426361084
-0.03453701734542847 0.4014121890068054 -0.12472351640462875
-0.16256022453308105 0.014114727266132832 0.34330782294273376
-0.5034364461898804 0.10292579978704453 0.15494413673877716
0.30014321208000183 -0.033737216144800186 0.25267961621284485
0.3308676779270172 -0.2642744779586792 -0.2925068438053131
0.31421640515327454 0.2820012867450714 0.45614224672317505
-0.5433029532432556 -0.07986966520547867 0.28902822732925415
0.5119538307189941 0.4004106819629669 0.1625831425189972
0.2690548598766327 -0.6202822923660278 -0.0981830507516861
0.4583798348903656 0.39106249809265137 0.33774083852767944
-0.22004812955856323 0.001520492136478424 0.23504644632339478
0.19354425370693207 -0.6422731280326843 0.23372314870357513
0.336149126291275 0.1430799961090088 -0.4011549949645996
0.4263995885848999 0.23405659198760986 0.34544143080711365
-0.0028069091495126486 -0.08828571438789368 -0.3597909212112427
0.4077548682689667 0.0018736617639660835 0.07874016463756561
0.34004876017570496 0.004289721138775349 -0.19365350902080536
0.37934792041778564 -0.6305248141288757 0.04421240836381912
-0.5869050621986389 0.20014037191867828 0.06883565336465836
0.5806382298469543 0.046031419187784195 -0.15251648426055908
0.4429358243942261 -0.21785250306129456 -0.08372220396995544
-0.23338210582733154 0.3978404402732849 -0.17377640306949615
0.5663381814956665 0.39426207542419434 -0.06307804584503174
0.42870110273361206 -0.24323506653308868 0.0781242698431015
0.31802812218666077 0.027310186997056007 0.4515770673751831
0.22336289286613464 -0.04089513421058655 0.31790798902511597
0.4123747646808624 0.3987540602684021 -0.18504200875759125
-0.36125463247299194 0.025657033547759056 0.18459583818912506
-0.025037849321961403 0.342208594083786 -0.401275634765625
0.11594877392053604 -0.6212010383605957 -0.21871252357959747
-0.31179186701774597 0.36238494515419006 -0.13871705532073975
-0.5007005929946899 0.10888821631669998 0.12525434792041779
0.35797789692878723 0.1519698202610016 0.34803253412246704
0.020869847387075424 0.002889244817197323 -0.3192421793937683
0.5300443172454834 0.005605568177998066 -0.02947036549448967
-0.16313062608242035 -0.34392109513282776 0.19037291407585144
0.44021543860435486 -0.25449317693710327 -0.10129722207784653
-0.36608731746673584 0.1272258162498474 0.34449100494384766
0.1475859433412552 0.4021933376789093 -0.2067069411277771
-0.4449159502983093 0.10760578513145447 0.33978936076164246
-0.08184539526700974 0.40159010887145996 0.0276225246489048
0.39757806062698364 -0.20780342817306519 -0.20273450016975403
0.37083905935287476 -0.5470069646835327 0.08198746293783188
-0.3675219714641571 -0.02547324076294899 -0.18379534780979156
-0.4304738938808441 -0.0942227691411972 -0.38182032108306885
-0.16301782429218292 -0.6117091774940491 -0.14450274407863617
0.33879461884498596 -0.07290424406528473 0.22446748614311218
0.02138308435678482 0.27284538745880127 0.4241044819355011
-0.2392137050628662 -0.23894573748111725 -0.08019211143255234
0.34886589646339417 -0.6250255703926086 -0.030467621982097626
0.37156811356544495 0.2906687259674072 0.34452396631240845
0.16487061977386475 -0.41474980115890503 0.25183144211769104
0.22383014857769012 -0.4955204427242279 0.23693594336509705
-0.06398699432611465 -0.27791181206703186 -0.33370187878608704
0.457905650138855 0.39984115958213806 -0.3753960430622101
-0.24890491366386414 -0.0013669845648109913 0.024787545204162598
0.3751346468925476 0.0045086476020514965 -0.11616918444633484
0.2729141414165497 0.4341788589954376 0.4469262659549713
-0.5681581497192383 0.023881688714027405 0.12608711421489716
0.2833079993724823 0.31567054986953735 0.4609261751174927
-0.04548633471131325 0.003414745442569256 -0.2020331770181656
0.2879849374294281 -0.6257832050323486 -0.1343141496181488
0.0438237227499485 0.003092201193794608 -0.039289187639951706
0.3707331717014313 -0.5730982422828674 -0.1481819897890091
0.09710459411144257 -0.22397573292255402 0.314398854970932
-0.5230743288993835 0.17270854115486145 -0.40550610423088074
-0.580863356590271 0.010948283597826958 -0.30221864581108093
0.44443100690841675 0.0011976491659879684 0.06653894484043121
-0.2840563952922821 0.34948787093162537 -0.041263215243816376
0.32146620750427246 0.17523229122161865 0.4388697147369385
0.40636783838272095 -0.38683629035949707 -0.05824825167655945
-0.4604993462562561 0.004353302996605635 0.2864514887332916
-0.38717564940452576 0.08142698556184769 0.3112325966358185
-0.5898213386535645 0.18246470391750336 -0.056785695254802704
0.17386016249656677 -0.26301535964012146 0.3068777322769165
-0.4807148575782776 0.39948758482933044 -0.21072918176651
0.20482079684734344 0.008858401328325272 -0.39312541484832764
0.48360514640808105 0.39770594239234924 0.05235758796334267
0.4444252848625183 -0.3646496832370758 -0.048136286437511444
0.32070595026016235 0.11978455632925034 0.34694093465805054
0.22308215498924255 -0.6181843280792236 0.07559119910001755
0.09923427551984787 0.3636469542980194 0.3396497964859009
0.48940789699554443 0.39860740303993225 0.179539293050766
-0.10116615146398544 0.00021935999393463135 -0.3253527283668518
0.10002504289150238 0.002227327786386013 -0.31930893659591675
-0.1899980902671814 0.004757446236908436 -0.2143242210149765
-0.4817163050174713 0.16403967142105103 -0.39953315258026123
-0.031023472547531128 0.40247729420661926 0.11437010020017624
0.3167558014392853 0.4003322124481201 0.04739898815751076
-0.41023752093315125 -0.08579409867525101 -0.30205532908439636
-0.14037679135799408 -0.2894117832183838 -0.281230628490448
-0.1390472799539566 0.003259992226958275 0.1407366394996643
0.5788983702659607 0.07962128520011902 -0.06302856653928757
-0.18300290405750275 0.38976919651031494 -0.39639046788215637
0.5768290162086487 0.12680619955062866 0.3090531826019287
0.44467753171920776 -0.17723669111728668 -0.026219457387924194
0.562785804271698 0.39643511176109314 0.17471438646316528
-0.5828799605369568 0.3057631850242615 -0.28038039803504944
0.14458133280277252 0.4012622535228729 -0.11063928157091141
-0.4581454396247864 0.38971567153930664 0.34018465876579285
-0.5175091624259949 0.10412910580635071 -0.2615157663822174
-0.5608120560646057 0.3713756203651428 0.34079235792160034
0.5834750533103943 0.30434101819992065 -0.16003558039665222
0.3896629214286804 -0.53935307264328 -0.07204778492450714
-0.5621845126152039 0.07215558737516403 0.2093810886144638
-0.17202657461166382 0.0027519864961504936 -0.1495436280965805
-0.423652708530426 0.005302882753312588 0.04753931984305382
-0.00906730629503727 0.0024796724319458008 -0.06113932281732559
0.5801551342010498 0.1652326136827469 -0.3037983477115631
-0.18098464608192444 -0.45937380194664 0.024394117295742035
0.41924554109573364 0.3990933299064636 -0.09824898093938828
0.48392584919929504 0.0038039442151784897 -0.2771831452846527
-0.3762623369693756 -0.05431760102510452 -0.014655246399343014
-0.17266038060188293 -0.17875219881534576 -0.2345981001853943
0.22872425615787506 -0.2971029579639435 0.2957843244075775
-0.32707616686820984 0.003579912707209587 0.21968235075473785
-0.5756149888038635 0.041500937193632126 -0.15737642347812653
0.2402525246143341 -0.2653084993362427 -0.34661048650741577
0.09589284658432007 0.003372489009052515 0.14800581336021423
-0.5329374670982361 0.0028069624677300453 0.04005987197160721
-0.021083269268274307 -0.31765592098236084 -0.35643482208251953
-0.5137671232223511 -0.09196369349956512 -0.11961619555950165
-0.5811517834663391 0.09203772991895676 -0.13554003834724426
-0.18119443953037262 -0.1596171110868454 -0.22438625991344452
