0.2921501398086548 0.21558372676372528 0.1562507152557373
-0.14671501517295837 0.22087275981903076 -0.13252802193164825
0.18901506066322327 -0.4360164999961853 0.20012065768241882
-0.2788069248199463 -0.3104742169380188 0.12191686779260635
0.2571538984775543 -0.08153120428323746 0.15529504418373108
-0.2518300414085388 -0.07005521655082703 -0.2733069062232971
0.1672798991203308 -0.4456270933151245 -0.022568698972463608
-0.25121766328811646 -0.25227487087249756 0.04154086485505104
-0.1911052018404007 0.34695738554000854 0.08680980652570724
-0.24746431410312653 0.2539890706539154 -0.3598901927471161
-0.03867535665631294 0.13772715628147125 -0.13695217669010162
-0.2711411416530609 -0.04120763763785362 -0.22285383939743042
-0.24986298382282257 0.27146580815315247 -0.36330050230026245
0.2592279016971588 -0.34381037950515747 -0.07579420506954193
0.08745390176773071 -0.24038425087928772 -0.13449880480766296
0.2964615225791931 0.22034937143325806 0.03994942829012871
0.22529959678649902 -0.17847344279289246 0.16855549812316895
0.14988136291503906 -0.43578046560287476 -0.02454826794564724
0.045714378356933594 0.10710720717906952 -0.13422667980194092
-0.2847214341163635 0.0687670111656189 -0.2632949948310852
-0.03157179430127144 0.2265215963125229 -0.21101805567741394
0.29602253437042236 0.2249542474746704 0.10633478313684464
0.06498022377490997 -0.23271392285823822 0.15719293057918549
0.2948600649833679 0.100502148270607 0.15664783120155334
0.24792931973934174 0.30492669343948364 -0.030160225927829742
0.28626549243927 0.1952979415655136 -0.13844893872737885
0.29588034749031067 0.20618176460266113 0.1515212208032608
-0.33603352308273315 -0.3692152202129364 0.10847922414541245
0.292377233505249 0.337037056684494 0.009380451403558254
-0.11188304424285889 -0.2516794502735138 0.15528395771980286
-0.2600417137145996 -0.4773418605327606 -0.05049605667591095
0.23969848453998566 0.36511296033859253 0.1241188496351242
-0.033760227262973785 0.17556346952915192 -0.20395386219024658
0.14337094128131866 0.16458401083946228 0.16291384398937225
-0.27095165848731995 -0.2424064576625824 0.033795055001974106
0.15811443328857422 -0.2058640718460083 0.15393652021884918
0.1905900537967682 0.48181068897247314 0.11184793710708618
-0.29738524556159973 -0.38586413860321045 -0.08561582863330841
0.2584187388420105 -0.40914300084114075 -0.08391450345516205
-0.01517059188336134 0.25490468740463257 -0.2654343247413635
0.2894406020641327 -0.24964141845703125 -0.04757828265428543
0.2645364999771118 0.4739713966846466 -0.07016965746879578
0.0020156889222562313 0.26409146189689636 -0.269437313079834
-0.17095783352851868 0.47009602189064026 0.10021443665027618
-0.26576459407806396 -0.04766155034303665 -0.21887245774269104
-0.2675132155418396 -0.24949394166469574 0.02916925773024559
-0.2685920298099518 -0.2517130970954895 0.03948879614472389
0.18423457443714142 -0.2649137079715729 -0.029997065663337708
-0.2709725499153137 -0.23889505863189697 0.01123340055346489
0.1315993219614029 0.18580090999603271 0.15625302493572235
-0.09078402072191238 0.22483231127262115 -0.12717853486537933
0.30116552114486694 -0.03473249077796936 -0.12120744585990906
-0.23744869232177734 0.2899692952632904 0.011177060194313526
-0.031627677381038666 0.21146638691425323 -0.18762432038784027
-0.2850213944911957 -0.3633503019809723 0.20663617551326752
0.22539076209068298 0.5064553618431091 -0.02636830136179924
-0.2587124705314636 0.15600483119487762 -0.3182713985443115
0.2399408370256424 -0.41937920451164246 -0.09261159598827362
-0.20915749669075012 -0.30493488907814026 0.08277978003025055
-0.22458617389202118 0.300275593996048 -0.33167362213134766
-0.2470707893371582 -0.3023974895477295 -0.0667935162782669
0.29792940616607666 -0.2051261067390442 -0.12319514900445938
0.1819295585155487 -0.256441205739975 -0.015164243057370186
-0.27040404081344604 -0.0859246477484703 0.14420203864574432
0.28903767466545105 0.17677026987075806 0.15592963993549347
0.21303845942020416 0.4478912651538849 0.09975820034742355
-0.2740340530872345 0.18445970118045807 -0.34150198101997375
0.2965431213378906 -0.17232383787631989 -0.1234528124332428
-0.2559976577758789 -0.41688045859336853 0.18973244726657867
0.04016856104135513 0.16702277958393097 0.15520015358924866
0.21073351800441742 0.5111290216445923 0.058063264936208725
-0.19022499024868011 -0.1705353707075119 0.1689453423023224
0.23405148088932037 0.37505775690078735 0.11351624131202698
0.2624101936817169 -0.441773384809494 -0.0809294804930687
0.2970025837421417 -0.0402202270925045 -0.13529272377490997
-0.1270652711391449 0.19849306344985962 -0.13755019009113312
0.2442816197872162 -0.11404450982809067 0.16726012527942657
-0.25764933228492737 0.07273083180189133 -0.27794545888900757
-0.21818043291568756 -0.45633238554000854 0.09759174287319183
-0.26890668272972107 0.15022562444210052 0.145561084151268
-0.2849583923816681 0.1728026568889618 -0.3290371894836426
-0.329866886138916 -0.3529156744480133 0.19097395241260529
-0.23423060774803162 -0.25624701380729675 -0.05991259217262268
0.2992863357067108 0.05323650315403938 0.1450575441122055
-0.12195472419261932 0.3248017430305481 -0.3113485276699066
-0.25723907351493835 0.0609462633728981 -0.2672939598560333
-0.22626131772994995 0.48988792300224304 -0.03553144633769989
-0.22231552004814148 0.3288673758506775 0.05669901892542839
0.19230028986930847 -0.2720800042152405 0.06409315019845963
0.29079124331474304 0.22111555933952332 -0.13933470845222473
0.14217999577522278 -0.42867547273635864 0.1523512601852417
0.25444644689559937 0.03158815577626228 0.1523943692445755
-0.212886780500412 -0.41411101818084717 0.16756747663021088
-0.26570016145706177 -0.36241763830184937 -0.0935819000005722
-0.0872097983956337 0.2268105447292328 -0.13280943036079407
0.29500624537467957 -0.2251368910074234 0.15621022880077362
-0.27077803015708923 -0.08664849400520325 -0.23739351332187653
0.18233948945999146 0.39911872148513794 0.11179473996162415
-0.20088806748390198 -0.36690929532051086 -0.0702037587761879
-0.2578628361225128 0.028058750554919243 -0.31007254123687744
0.2892163395881653 0.22897331416606903 0.12121531367301941
0.26661720871925354 -0.25070706009864807 -0.018119599670171738
-0.21405701339244843 -0.04735804349184036 0.16927778720855713
0.015413136221468449 0.2844570279121399 -0.23520509898662567
0.27571266889572144 0.44820788502693176 0.12033504247665405
-0.03791964799165726 0.15405596792697906 0.16961339116096497
-0.17564420402050018 0.48517870903015137 -0.0009220180800184608
0.2901155650615692 0.41731634736061096 0.12515966594219208
0.2089712917804718 -0.20532497763633728 0.1556340903043747
-0.27214351296424866 -0.25196051597595215 -0.07718750089406967
0.27248942852020264 0.31480398774147034 -0.014205057173967361
-0.042343489825725555 0.12132859975099564 -0.13521797955036163
-0.02805604226887226 0.3082941770553589 -0.26172971725463867
0.26200708746910095 0.2808232009410858 0.025321252644062042
-0.23123867809772491 0.5000613331794739 0.07963506132364273
0.21346415579319 0.27010372281074524 0.0043849945068359375
0.2972978949546814 0.1737319827079773 0.15091702342033386
0.25178423523902893 -0.1834374964237213 0.15297432243824005
-0.2849663197994232 0.18693862855434418 -0.31896358728408813
-0.25965040922164917 0.07822935283184052 -0.3067531883716583
-0.1583874374628067 -0.2493758201599121 -0.11950084567070007
0.2768431305885315 -0.44440391659736633 0.06082753837108612
-0.2622760832309723 0.09394311904907227 -0.13973504304885864
-0.24855299293994904 0.3595944046974182 0.10021249204874039
-0.22883044183254242 -0.46150538325309753 0.10064908862113953
0.2746504843235016 -0.445901095867157 0.04024414345622063
0.2904844880104065 0.22988098859786987 0.10037574172019958
-0.28674450516700745 -0.420276015996933 -0.09494869410991669
-0.022811736911535263 0.23465828597545624 -0.245252788066864
-0.1997535675764084 0.4765726327896118 -0.06360764801502228
-0.20023977756500244 0.22756309807300568 -0.12819252908229828
-0.2604324221611023 0.14993742108345032 -0.3042050302028656
-0.041198331862688065 0.14892634749412537 -0.15299572050571442
0.2763391435146332 -0.39353102445602417 0.1846204400062561
0.10446707904338837 0.17251798510551453 0.1508929282426834
-0.224739208817482 -0.4105881452560425 0.18255415558815002
-0.22897274792194366 -0.3105713129043579 -0.07720282673835754
0.19334881007671356 0.3440214693546295 -0.05218448117375374
-0.22966359555721283 0.3943641185760498 0.09689639508724213
0.25625649094581604 -0.10972558706998825 0.15389032661914825
-0.17511223256587982 0.48053497076034546 0.08270423859357834
-0.171388179063797 0.43039339780807495 0.10237803310155869
0.2615227997303009 0.37692761421203613 0.1267545074224472
-0.030638860538601875 0.2143387794494629 0.15671822428703308
-0.18793676793575287 0.2742548882961273 -0.008605735376477242
-0.011082997545599937 0.29190793633461 -0.29376962780952454
-0.2707894444465637 -0.02963423728942871 0.1469791978597641
0.18942047655582428 -0.2517690360546112 -0.04641108214855194
-0.23025713860988617 0.42884060740470886 -0.08150773495435715
0.16710129380226135 -0.44251778721809387 0.1899334341287613
-0.18285730481147766 0.411570280790329 0.09075991064310074
-0.23841141164302826 0.2792615592479706 -0.3621349334716797
-0.2375781387090683 0.46053868532180786 0.1037764698266983
-0.16515234112739563 0.43732964992523193 0.10200438648462296
-0.03657377511262894 -0.2502523362636566 0.14728489518165588
-0.281978577375412 0.23255173861980438 -0.33170124888420105
-0.19527414441108704 0.3455713987350464 0.08942759782075882
-0.18331633508205414 -0.20778197050094604 0.15688280761241913
-0.27325689792633057 0.22030270099639893 -0.03333188220858574
0.2877255082130432 0.22966882586479187 0.09123259037733078
-0.33607083559036255 -0.3462371826171875 0.1673179566860199
-0.2601563632488251 -0.2506570816040039 0.15469570457935333
-0.2286258190870285 0.31667131185531616 0.04592292755842209
-0.25955072045326233 0.2797951102256775 -0.3269299566745758
-0.19495995342731476 0.2518135905265808 0.03966379910707474
-0.25451841950416565 -0.4111696183681488 0.2042239010334015
-0.02523312345147133 0.24820241332054138 -0.21338675916194916
-0.18249240517616272 0.4560871720314026 0.09345170110464096
0.23165154457092285 0.27033016085624695 0.04085095226764679
-0.031225502490997314 0.22571346163749695 0.15124167501926422
-0.2845897674560547 0.01259981282055378 -0.23995761573314667
0.2839413583278656 -0.027305172756314278 -0.13627982139587402
0.2473558783531189 0.5146051049232483 0.00569316977635026
-0.24736976623535156 0.23674672842025757 -0.011133405379951
-0.03309445083141327 0.19992023706436157 -0.17333392798900604
0.2577800452709198 -0.03637232258915901 0.15547579526901245
-0.1762140393257141 0.23112477362155914 0.01617094874382019
-0.27468615770339966 -0.3063378632068634 0.1071363165974617
0.23931622505187988 -0.03973986953496933 0.16833597421646118
0.09387712180614471 -0.17640377581119537 0.1702367663383484
-0.02313513122498989 0.1300143003463745 -0.20517511665821075
-0.03227882832288742 0.16901549696922302 0.1601959466934204
-0.185797780752182 -0.18810227513313293 0.1610066443681717
0.17295928299427032 -0.1988365352153778 0.15146136283874512
0.010273144580423832 0.2807825207710266 -0.28146567940711975
0.2588476240634918 0.454768568277359 -0.08288747072219849
-0.2720945477485657 0.22773036360740662 0.035739246755838394
0.23750685155391693 -0.4507734775543213 0.19276659190654755
0.25766488909721375 -0.36804503202438354 0.1686771661043167
-0.2795586585998535 -0.007129681762307882 -0.23352454602718353
0.20364201068878174 0.36786165833473206 0.11685007810592651
-0.26789626479148865 -0.08047491312026978 -0.22520741820335388
-0.2724612355232239 -0.06793083250522614 -0.13444969058036804
-0.22781963646411896 -0.33449384570121765 -0.08411139994859695
0.2122490406036377 0.5073572993278503 0.08974872529506683
-0.1814471036195755 0.25289154052734375 -0.00035830255364999175
0.02570674568414688 0.22374993562698364 -0.24360261857509613
0.2831673324108124 -0.08017685264348984 0.1533251851797104
0.22893527150154114 0.22404146194458008 0.15743054449558258
0.273075133562088 -0.39885270595550537 0.19188638031482697
0.19744814932346344 -0.2706487774848938 0.06635642051696777
0.011528972536325455 0.27692487835884094 -0.27705880999565125
-0.0029012858867645264 0.18353970348834991 -0.13824275135993958
0.25776737928390503 -0.2649087905883789 0.000756695109885186
0.28254207968711853 0.09093263745307922 0.15781065821647644
0.2215879261493683 -0.4438023865222931 -0.08178001642227173
-0.2743786573410034 0.061895646154880524 -0.1362673044204712
-0.24581880867481232 -0.0564303956925869 -0.23850466310977936
0.23987635970115662 0.2126179188489914 -0.14073479175567627
-0.2613772749900818 -0.04432982578873634 -0.1328067183494568
-0.008900304324924946 0.19033105671405792 -0.14316010475158691
0.20957699418067932 0.22508352994918823 -0.026252826675772667
0.27064087986946106 0.24863854050636292 0.004859473556280136
0.21209491789340973 -0.2079593539237976 0.15478594601154327
0.16801957786083221 -0.20887869596481323 0.1557067483663559
-0.1995018720626831 0.4366896152496338 0.08563710749149323
-0.20476612448692322 0.268085777759552 0.04006566107273102
-0.18297578394412994 0.22737570106983185 -0.12051020562648773
-0.23787815868854523 -0.29955756664276123 -0.07158675044775009
-0.13607220351696014 -0.19293971359729767 0.15313604474067688
0.1875472217798233 -0.24850519001483917 -0.13699179887771606
-0.17636294662952423 0.37093010544776917 0.09960398823022842
0.08304211497306824 0.22780580818653107 0.14480377733707428
0.14294900000095367 -0.44010522961616516 0.15221120417118073
0.23353897035121918 0.30384910106658936 -0.027780327945947647
-0.3265193700790405 -0.4261902868747711 -0.05281547084450722
0.2839152216911316 0.0012380396947264671 0.1568732112646103
-0.029285013675689697 0.16710230708122253 -0.20674315094947815
0.28693753480911255 -0.4421127736568451 0.03126479685306549
0.2068418711423874 0.5091120004653931 0.00987325981259346
-0.021495765075087547 -0.18241049349308014 0.16828350722789764
-0.2709599733352661 -0.24036851525306702 0.039020560681819916
0.22906401753425598 -0.2394806295633316 0.1565718799829483
-0.2564874589443207 0.1567181795835495 0.15536780655384064
0.09577222168445587 -0.24955031275749207 -0.1331508755683899
-0.33650732040405273 -0.4047774076461792 -0.03758329153060913
-0.030903706327080727 0.17236751317977905 -0.1409076303243637
-0.2608891725540161 -0.07796003669500351 0.15674768388271332
0.2534120976924896 0.252074658870697 0.040906406939029694
0.23749223351478577 0.10034714639186859 0.1686108410358429
-0.27057740092277527 0.14179950952529907 0.15112213790416718
-0.05046383664011955 0.17608124017715454 0.1485372632741928
0.1278025209903717 0.22770333290100098 -0.12282805889844894
-0.2189042568206787 0.49556460976600647 0.10741179436445236
-0.057282932102680206 0.3227778971195221 -0.30480727553367615
-0.21034681797027588 0.31553390622138977 0.04739489033818245
0.20150206983089447 0.2358541339635849 0.011924751102924347
0.056047793477773666 0.21701106429100037 -0.2122553139925003
0.2528921961784363 -0.1389426589012146 0.14920271933078766
-0.31138312816619873 -0.3318290114402771 0.18688927590847015
0.29246756434440613 0.04826320707798004 0.15976838767528534
0.2430761754512787 0.3961107134819031 -0.09654583781957626
-0.25932782888412476 -0.3763684332370758 0.20517925918102264
-0.2609293460845947 0.18232794106006622 -0.31571975350379944
-0.24800434708595276 -0.41191214323043823 0.20225849747657776
-0.24984149634838104 -0.0003445204929448664 -0.29875749349594116
-0.2780253291130066 -0.3911028206348419 0.20531004667282104
0.2966792583465576 -0.1975795328617096 0.14617787301540375
-0.27046701312065125 -0.10560709983110428 0.14154480397701263
-0.010363825596868992 0.17817269265651703 -0.13876208662986755
-0.26414650678634644 0.01354094035923481 -0.22601713240146637
0.2938704192638397 0.09741707891225815 0.1501363068819046
-0.27414262294769287 0.0150259118527174 -0.2327270358800888
0.0996767207980156 -0.23997928202152252 -0.13450422883033752
0.28422024846076965 0.22700636088848114 0.013727850280702114
0.24268528819084167 -0.12620149552822113 0.16659431159496307
0.2037452906370163 0.30813631415367126 0.01964123733341694
0.2616764307022095 0.3712548613548279 0.12341855466365814
-0.23410698771476746 -0.2560000419616699 -0.00852391216903925
-0.16387002170085907 0.2304391860961914 0.145991712808609
-0.17619970440864563 0.4391949474811554 0.09833784401416779
0.22716934978961945 0.3410179316997528 -0.07242219150066376
-0.2578297257423401 0.07472464442253113 -0.2762203514575958
0.14813487231731415 -0.440618097782135 0.1728050261735916
-0.18317750096321106 0.4699736535549164 0.10525882989168167
-0.26695728302001953 0.18468347191810608 -0.30608803033828735
-0.18412427604198456 0.31977781653404236 -0.005905053578317165
0.2918972074985504 0.04935508221387863 -0.137654110789299
0.21479840576648712 0.24675002694129944 -0.0179509948939085
0.2964514493942261 -0.158224418759346 0.14375676214694977
0.23391160368919373 -0.16565778851509094 0.16963228583335876
-0.16519445180892944 -0.2513594627380371 -0.04708127677440643
-0.19901511073112488 0.31897976994514465 0.04548933357000351
0.25326651334762573 0.448116660118103 -0.0876372680068016
0.13993211090564728 -0.4416499137878418 0.08590143173933029
-0.1496085673570633 -0.23583126068115234 0.15701252222061157
0.12974534928798676 0.22743500769138336 -0.13545723259449005
0.19218102097511292 -0.2406778186559677 0.15648096799850464
-0.17516446113586426 -0.2550910413265228 0.059976812452077866
-0.25875091552734375 -0.25182536244392395 -0.09154558181762695
0.22307269275188446 0.3496839702129364 0.11384878307580948
0.07876067608594894 -0.2529556155204773 0.15514293313026428
0.2010539323091507 0.4127930998802185 0.10164634883403778
0.21116876602172852 0.22513413429260254 -0.009715846739709377
-0.025670329108834267 0.2838056981563568 -0.23951835930347443
0.2626990079879761 -0.3976171612739563 -0.08123388141393661
-0.07797589898109436 -0.1885368824005127 0.16512469947338104
-0.25751546025276184 0.0927775502204895 -0.30138280987739563
-0.18460649251937866 -0.2570509612560272 -0.0458674393594265
0.23208780586719513 -0.3367910087108612 -0.08415393531322479
-0.19586755335330963 0.44604986906051636 0.0837101936340332
-0.11852023005485535 0.33384814858436584 -0.3052772283554077
0.2962603271007538 0.06467389315366745 0.1597868651151657
-0.023956315591931343 0.09796227514743805 -0.1332499086856842
-0.19268609583377838 0.37165820598602295 0.10706296563148499
0.21733970940113068 -0.23469597101211548 -0.13436858355998993
-0.20568515360355377 0.21708403527736664 0.15747776627540588
-0.18371279537677765 -0.2473391741514206 -0.13532140851020813
-0.25005626678466797 -0.04678226634860039 -0.2762574553489685
-0.11663296073675156 0.22695694863796234 -0.13066372275352478
-0.279310017824173 0.08023326098918915 -0.31722667813301086
-0.24827224016189575 0.42406678199768066 -0.0670703798532486
-0.1688278168439865 0.4269428849220276 0.10539335012435913
-0.23397694528102875 0.4956909716129303 -0.00037822278682142496
0.2970007658004761 -0.1788933128118515 -0.1258372962474823
-0.1914844661951065 0.27433887124061584 0.02957325614988804
-0.2308572679758072 0.1742626130580902 0.1529875546693802
-0.2800810635089874 -0.017560582607984543 -0.30278870463371277
-0.12380848824977875 -0.18271921575069427 0.16797278821468353
-0.2578778862953186 0.09179528802633286 -0.28727108240127563
-0.2527666985988617 0.2287241667509079 0.049683116376399994
-0.2525143325328827 0.22137920558452606 -0.3314625322818756
0.2980477511882782 0.0017450732411816716 -0.13912354409694672
0.18885570764541626 0.3765927255153656 0.10512649267911911
-0.18443386256694794 0.24205873906612396 -0.01366753876209259
0.29968249797821045 0.0010826957877725363 -0.13776785135269165
-0.2031240165233612 0.46399614214897156 -0.06468053162097931
-0.21541912853717804 -0.2530350983142853 0.08747255802154541
0.26060885190963745 0.37757232785224915 -0.0898737981915474
-0.20879900455474854 0.4309554994106293 -0.08357122540473938
-0.2659390866756439 -0.32873204350471497 -0.07558026909828186
-0.2701593041419983 -0.247595876455307 0.15110932290554047
0.29005464911460876 0.36865270137786865 0.10263851284980774
-0.20926490426063538 0.28707563877105713 -0.021489381790161133
0.17020070552825928 -0.26436614990234375 0.0041369604878127575
-0.19992099702358246 -0.25056132674217224 -0.12724514305591583
0.2865053415298462 -0.001967398915439844 -0.13540513813495636
0.2965388000011444 0.07636342197656631 0.14597046375274658
0.26267778873443604 0.028499579057097435 0.15640445053577423
-0.2831968069076538 0.17227846384048462 -0.30804407596588135
-0.2646295428276062 0.22611166536808014 -0.04494034871459007
-0.2531261146068573 -0.35227349400520325 -0.09344352781772614
-0.1709488034248352 -0.2627333998680115 0.053966984152793884
0.29083308577537537 0.2274377942085266 -0.1275949776172638
-0.02158183977007866 0.24792858958244324 -0.25091132521629333
0.14299488067626953 -0.4481530785560608 0.04804536700248718
-0.2779306173324585 0.17202547192573547 -0.3012494742870331
-0.050496719777584076 0.3176419734954834 -0.3075891435146332
-0.2315938025712967 0.48210111260414124 0.1171882227063179
-0.27909398078918457 0.20904186367988586 -0.34552907943725586
-0.308519184589386 -0.3201844096183777 0.1373652070760727
-0.22747257351875305 -0.4364303648471832 0.1673188954591751
0.2532076835632324 -0.2531336843967438 -0.003940895199775696
0.021199434995651245 0.1611091047525406 0.1674777865409851
0.23117360472679138 0.16084884107112885 0.16843712329864502
0.18266257643699646 -0.23444955050945282 0.15640796720981598
0.021920030936598778 0.2798895835876465 -0.2664346992969513
0.13901057839393616 -0.4389999806880951 0.1371757537126541
-0.19984519481658936 -0.1817648708820343 0.16836480796337128
-0.23487798869609833 0.11133724451065063 0.15283311903476715
-0.02060515619814396 0.11065021902322769 -0.17462845146656036
-0.21634060144424438 -0.2772165834903717 -0.06440263241529465
-0.2714906334877014 -0.1826806366443634 0.1572403907775879
-0.16298821568489075 -0.19699841737747192 0.14987286925315857
-0.34021806716918945 -0.3603667616844177 0.12040785700082779
-0.2119409143924713 0.07113053649663925 0.1645077019929886
0.05757901817560196 0.22129471600055695 0.15462368726730347
0.1782912313938141 0.17001448571681976 0.15484163165092468
-0.259764164686203 0.09913637489080429 -0.30808696150779724
-0.03003591112792492 0.18523293733596802 -0.154013529419899
-0.03594041243195534 0.12759657204151154 -0.1388627588748932
-0.19535695016384125 -0.20649443566799164 0.154726043343544
0.24929602444171906 0.23239076137542725 -0.03311551362276077
0.21043111383914948 -0.2540426254272461 0.06656944751739502
0.19346068799495697 -0.25556910037994385 0.0676124319434166
-0.2400842010974884 0.22108906507492065 -0.1355419158935547
-0.24670155346393585 0.2521550953388214 -0.3508087396621704
0.28505566716194153 0.23281757533550262 0.12435248494148254
0.215541809797287 0.24731659889221191 0.032992299646139145
-0.2837845981121063 -0.03662615269422531 -0.2870795726776123
0.2929709553718567 -0.21685265004634857 -0.13475799560546875
0.282561719417572 0.3452933132648468 -0.053697120398283005
0.196669340133667 0.4897143840789795 -0.010303337126970291
0.296478271484375 -0.023369384929537773 0.13963860273361206
0.27561917901039124 -0.24441440403461456 -0.13320192694664001
-0.2902439534664154 -0.006031637080013752 -0.2992941737174988
-0.2106344997882843 -0.2529941201210022 0.07449088245630264
0.29467692971229553 0.035971660166978836 -0.13230644166469574
-0.26145240664482117 0.22600822150707245 -0.10050740092992783
-0.27299392223358154 0.13648191094398499 -0.2885756492614746
-0.25773143768310547 -0.013001266866922379 -0.13665790855884552
-0.21673506498336792 0.42561352252960205 -0.08306799829006195
0.09698454290628433 0.2243204265832901 -0.1360251009464264
-0.2572382986545563 -0.012781119905412197 -0.22751958668231964
0.26716601848602295 0.4868094027042389 0.1303585022687912
-0.23397715389728546 0.23139548301696777 0.14363506436347961
-0.2806580662727356 -0.017114853486418724 -0.22799953818321228
-0.27036041021347046 -0.011303802020847797 -0.13479572534561157
-0.23067671060562134 0.17687810957431793 0.15379077196121216
-0.27036163210868835 0.10179360955953598 0.14513938128948212
0.21604767441749573 0.46704503893852234 0.10371476411819458
-0.1715107560157776 -0.2609851658344269 -0.03549849987030029
-0.33677273988723755 -0.34934940934181213 0.16505269706249237
-0.23193921148777008 -0.47425544261932373 0.04973769932985306
-0.23430323600769043 -0.24165818095207214 -0.13267672061920166
-0.05104387179017067 0.2939521372318268 -0.2792205810546875
-0.2613024413585663 -0.2072031944990158 0.1585623323917389
-0.18873541057109833 0.22765828669071198 0.0575396865606308
0.052090998739004135 0.11139503866434097 -0.1533975750207901
0.25829896330833435 -0.2948046624660492 0.07344868779182434
-0.22783416509628296 0.2414810210466385 -0.026722177863121033
-0.336220383644104 -0.3603626787662506 0.13704246282577515
0.2905254364013672 -0.06379564106464386 -0.13206347823143005
-0.23450639843940735 -0.2680218815803528 0.049627553671598434
0.2856803834438324 0.16757649183273315 0.15451541543006897
-0.2104092538356781 0.3294481635093689 -0.3326197564601898
-0.11113439500331879 0.3146890699863434 -0.32810285687446594
0.03600934520363808 0.18035097420215607 0.15491081774234772
-0.15956956148147583 -0.19848808646202087 0.15081743896007538
0.23367252945899963 0.14164187014102936 0.17068228125572205
-0.016471587121486664 0.21714097261428833 -0.13900986313819885
0.1720069944858551 -0.25336799025535583 -0.0048001655377447605
-0.046425338834524155 0.14095070958137512 -0.13479606807231903
0.06318490207195282 -0.20030289888381958 0.14870648086071014
-0.3122316002845764 -0.3219667077064514 0.16179265081882477
-0.2897529602050781 0.05070553347468376 -0.25975289940834045
-0.2723309397697449 -0.07251628488302231 -0.2845304310321808
-0.21901395916938782 -0.43579137325286865 0.15920817852020264
0.06258783489465714 -0.24622759222984314 -0.13599546253681183
0.28357771039009094 0.22828035056591034 0.07997173070907593
0.2395770400762558 -0.4247139096260071 0.20738950371742249
0.2956683039665222 -0.24796925485134125 -0.02226492203772068
0.30010855197906494 0.02431422472000122 -0.13159431517124176
0.17154142260551453 -0.1926732063293457 0.15434807538986206
0.04512738436460495 -0.24334588646888733 0.1539265215396881
0.20934927463531494 0.2302793264389038 0.04765632003545761
0.2256210744380951 -0.4378204941749573 -0.08979722857475281
-0.2688996195793152 0.26876890659332275 -0.32872840762138367
0.11498516798019409 -0.24961063265800476 -0.13455581665039062
0.1376057118177414 -0.24874718487262726 0.15393556654453278
0.2979854643344879 0.2163936048746109 -0.02931641973555088
0.28311556577682495 0.1974548101425171 0.15504522621631622
0.20331083238124847 0.22692109644412994 0.009133854880928993
0.040124405175447464 0.2419293373823166 -0.20099887251853943
0.24093423783779144 0.25143563747406006 0.04467175900936127
-0.13332034647464752 -0.19896844029426575 0.15366244316101074
-0.23873379826545715 0.2765299379825592 0.020358456298708916
-0.2389400750398636 0.27733924984931946 -0.00105577171780169
-0.275896281003952 0.07334279268980026 -0.26069584488868713
0.25264713168144226 0.18335601687431335 0.15573415160179138
-0.2395450323820114 -0.2642366290092468 0.004038785584270954
-0.1855677217245102 0.36383339762687683 0.10472097992897034
-0.2781546711921692 -0.03106071613729 -0.2934381067752838
-0.2734569311141968 -0.2508963644504547 -0.08479207754135132
-0.22795738279819489 -0.45570263266563416 0.1222182884812355
0.18948937952518463 0.34355399012565613 -0.0363445021212101
-0.28254565596580505 0.1110362857580185 -0.28815314173698425
0.2641967535018921 -0.1193389967083931 0.1525789052248001
-0.27021336555480957 -0.24223926663398743 0.06726977229118347
0.22384656965732574 0.3460298776626587 0.11223533749580383
0.2964596152305603 -0.2304866909980774 0.15234728157520294
0.22418291866779327 0.3700938820838928 0.1202557235956192
0.293117880821228 -0.2519390285015106 0.03534066304564476
-0.218584805727005 -0.02981487102806568 0.16912518441677094
0.20939210057258606 0.32600513100624084 -0.03584207966923714
0.01269849669188261 0.2872847318649292 -0.26204508543014526
0.2505921721458435 0.478071391582489 -0.0716661885380745
-0.04524429887533188 0.2897132933139801 -0.27249181270599365
-0.1887090653181076 0.33600011467933655 -0.03757639601826668
-0.34064409136772156 -0.3566858172416687 0.13882564008235931
0.0026600807905197144 0.2812784016132355 -0.2293662279844284
0.24677346646785736 -0.253084659576416 0.06381803750991821
-0.03000202216207981 0.22431324422359467 0.15731871128082275
0.20933352410793304 -0.24813087284564972 -0.13415424525737762
-0.2371944785118103 -0.10670681297779083 0.1576417237520218
-0.11303146928548813 0.21520300209522247 -0.13803094625473022
0.2971183657646179 0.035422828048467636 0.1567208617925644
0.2856108844280243 0.019793840125203133 0.15685980021953583
-0.1867053210735321 0.2547236979007721 -0.009699733927845955
0.2779572606086731 0.363778293132782 0.12076170742511749
-0.26486507058143616 0.000994105008430779 -0.2281605750322342
0.21342651546001434 0.22787410020828247 -0.03199943155050278
-0.15343430638313293 0.31939515471458435 -0.3509102761745453
-0.25967270135879517 0.18647447228431702 -0.3394564688205719
0.29768484830856323 -0.22852937877178192 -0.13480620086193085
0.23367571830749512 -0.25124165415763855 -0.12647883594036102
0.256255567073822 -0.2614908516407013 0.021440930664539337
-0.2691320776939392 0.09800832718610764 -0.1374214142560959
-0.1795385479927063 -0.2490740418434143 -0.13075850903987885
0.2956169843673706 0.1346086859703064 -0.13788962364196777
0.20644274353981018 0.30125218629837036 0.009404080919921398
0.21873946487903595 0.3138311207294464 0.046782806515693665
0.2547570765018463 0.16295555233955383 0.15495742857456207
0.261100172996521 0.32113203406333923 0.05921307951211929
-0.2904137969017029 -0.026929043233394623 -0.2405293732881546
-0.28434738516807556 0.1161675751209259 -0.3079652190208435
-0.2636135518550873 0.15721969306468964 -0.30645042657852173
-0.16036958992481232 -0.2556454539299011 0.042306967079639435
0.0538402684032917 0.2028929591178894 -0.17955303192138672
0.257515013217926 0.22814567387104034 0.1455060839653015
0.21300964057445526 0.2666841447353363 0.0039452179335057735
-0.23954056203365326 0.42409467697143555 -0.07823213934898376
-0.32235243916511536 -0.35990726947784424 0.20172733068466187
0.2906225323677063 -0.11535270512104034 -0.13491405546665192
-0.07816570997238159 0.32896262407302856 -0.2931773066520691
-0.26643794775009155 -0.37660300731658936 -0.09743336588144302
-0.08969032019376755 -0.17047657072544098 0.16996856033802032
-0.2696584165096283 0.2095625102519989 -0.030316529795527458
0.0637931302189827 0.13232192397117615 -0.13567310571670532
-0.25399744510650635 -0.3519918918609619 -0.09140074998140335
-0.22426247596740723 0.17155444622039795 0.153018981218338
-0.15639327466487885 -0.25133973360061646 0.14210447669029236
-0.02926170825958252 0.22049705684185028 -0.13854774832725525
0.28017276525497437 -0.25053098797798157 -0.12238152325153351
0.29615822434425354 -0.24134626984596252 0.08140245079994202
0.1938668042421341 0.3382202088832855 0.06833943724632263
0.24655720591545105 -0.13432420790195465 0.16355474293231964
0.20637977123260498 0.4739743173122406 0.11307302862405777
-0.1890476644039154 0.4537191689014435 -0.06440622359514236
-0.19251303374767303 0.33235254883766174 0.05181748792529106
-0.08722814172506332 -0.24794621765613556 -0.135076105594635
-0.30058908462524414 -0.3648214042186737 0.20851543545722961
-0.07503609359264374 0.16096410155296326 0.1684918999671936
0.23694905638694763 -0.025295564904808998 0.16781030595302582
0.007304184138774872 0.21530641615390778 -0.1377275139093399
-0.027981972321867943 -0.2402990758419037 -0.13296829164028168
0.28561273217201233 0.2280675172805786 -0.00013788504293188453
-0.2693248689174652 -0.24358314275741577 0.08713855594396591
0.24310368299484253 0.0778847262263298 0.16675902903079987
-0.017542893067002296 0.1632794886827469 0.17191815376281738
0.24864226579666138 0.06418807804584503 0.1602945327758789
0.29806432127952576 -0.06719258427619934 -0.12379848957061768
0.2719188630580902 0.4762324392795563 0.1294413059949875
0.17597609758377075 0.22324982285499573 -0.13743649423122406
0.15814031660556793 0.2276989072561264 0.1508454531431198
-0.27261286973953247 0.21927551925182343 0.14050213992595673
-0.270199716091156 0.21291321516036987 -0.13125860691070557
-0.2742009460926056 0.11167275905609131 -0.3227050006389618
0.29797178506851196 -0.18791420757770538 -0.12264712899923325
0.2392256259918213 -0.25117960572242737 0.13752855360507965
0.2059367299079895 0.24433201551437378 0.019915597513318062
-0.17774371802806854 0.17278312146663666 0.14995527267456055
-0.24376212060451508 0.33940914273262024 0.058921728283166885
-0.2687373757362366 0.19414077699184418 -0.347115159034729
0.22594614326953888 0.3283175230026245 0.0719718486070633
0.053241416811943054 0.13665899634361267 -0.1358298361301422
-0.1871207058429718 -0.26822254061698914 -0.05188754200935364
0.2624296545982361 -0.14682623744010925 0.1575651317834854
-0.2722642123699188 0.09120071679353714 -0.1274271458387375
-0.1994912326335907 0.28835996985435486 0.03650186210870743
-0.22191540896892548 0.39656955003738403 -0.0845218077301979
0.2942464053630829 0.4336142838001251 0.1174413189291954
0.21359507739543915 0.27064213156700134 0.0027283900417387486
-0.22188492119312286 0.13101962208747864 0.16546113789081573
0.18096958100795746 -0.25382199883461 -0.04724203422665596
-0.2725606858730316 -0.062044136226177216 -0.2850450575351715
0.15483395755290985 -0.40033969283103943 0.16383522748947144
-0.031097913160920143 0.18528147041797638 -0.15530206263065338
0.29640114307403564 0.14120234549045563 0.1501477062702179
0.07286830246448517 -0.25447383522987366 -0.12408700585365295
-0.25907233357429504 -0.07487349212169647 -0.22274303436279297
0.028470715507864952 0.186564102768898 0.15555797517299652
-0.2927344739437103 -0.3140091896057129 0.13106553256511688
-0.26036152243614197 -0.13306684792041779 -0.13718247413635254
-0.2642592489719391 0.22832359373569489 0.1375098079442978
-0.15949663519859314 -0.23518824577331543 -0.13523434102535248
0.04411875084042549 0.2271505445241928 -0.1969524770975113
-0.21129421889781952 0.3499767482280731 0.10155698657035828
-0.27530425786972046 -0.0988069698214531 0.14798226952552795
0.23911046981811523 -0.3356735408306122 0.1279705911874771
-0.06699106097221375 -0.17136463522911072 0.1692538857460022
-0.2688508629798889 -0.2411799281835556 0.09573677182197571
-0.17725659906864166 0.3445691764354706 -0.04247361049056053
-0.16709299385547638 0.3415543735027313 0.034739281982183456
0.26958587765693665 0.31823763251304626 0.050248365849256516
0.034320514649152756 0.20401625335216522 -0.13742204010486603
0.2698734700679779 -0.38368648290634155 0.18057923018932343
0.23912058770656586 0.296485960483551 0.04192359745502472
-0.24805574119091034 0.225106880068779 -0.12531396746635437
0.04581787437200546 0.13000920414924622 -0.2039729654788971
-0.26131871342658997 -0.09067364037036896 0.15709739923477173
-0.2698828876018524 0.2143910974264145 0.02536693774163723
0.2762972414493561 -0.24843372404575348 0.1538691520690918
0.2854834496974945 -0.4421008229255676 0.09673862159252167
0.03274829685688019 -0.2501095235347748 0.1494929939508438
-0.2652958333492279 0.1759164184331894 -0.33145588636398315
0.23746129870414734 -0.16935385763645172 0.16960729658603668
0.2593557834625244 -0.024911651387810707 0.15595179796218872
-0.01892700605094433 0.22850018739700317 -0.24573971331119537
0.23425909876823425 0.3550298810005188 0.11885888129472733
-0.16618776321411133 0.4232897460460663 0.10352198779582977
0.2924807369709015 -0.21331633627414703 0.15672838687896729
-0.19594191014766693 0.1641416996717453 0.1644781529903412
-0.1995948702096939 0.30753767490386963 0.042347509413957596
-0.2408527433872223 -0.27921798825263977 0.06673543900251389
0.24235980212688446 0.5010396838188171 0.12104132026433945
-0.13226698338985443 0.1660378873348236 0.1661226898431778
0.2648298442363739 -0.4211644232273102 -0.08065859973430634
0.05464179441332817 0.1475074738264084 -0.13348866999149323
-0.06077195703983307 0.22270800173282623 -0.13794103264808655
-0.07993077486753464 0.3141838312149048 -0.2908077836036682
0.29079222679138184 -0.0674843043088913 -0.13511152565479279
0.29391244053840637 0.22707083821296692 0.09256961196660995
-0.07595852017402649 -0.24756787717342377 0.15508247911930084
0.039651643484830856 0.2358463853597641 -0.24400512874126434
0.04833894595503807 0.11716113239526749 -0.1327376812696457
-0.27239587903022766 -0.24033236503601074 0.031149208545684814
-0.2219650149345398 -0.44279059767723083 0.156304731965065
0.15546150505542755 -0.24563416838645935 0.15514709055423737
0.24870988726615906 0.155195415019989 0.16193358600139618
-0.2625335454940796 0.2239246666431427 -0.07258842140436172
0.24475152790546417 -0.2488565295934677 -0.1263999491930008
-0.0959540456533432 -0.17686443030834198 0.16908176243305206
-0.043446220457553864 0.31235888600349426 -0.2695488929748535
0.13808408379554749 0.1682349443435669 0.1573370397090912
0.1635332554578781 -0.3943534791469574 0.17005059123039246
-0.02983347699046135 0.24174949526786804 -0.23164969682693481
0.259879469871521 0.3977663218975067 0.10844888538122177
-0.029325872659683228 0.24434605240821838 -0.2092266082763672
-0.24360306560993195 -0.3543270230293274 -0.09110353887081146
-0.228478342294693 -0.468461811542511 0.07258104532957077
0.21125318109989166 0.36773771047592163 -0.08055124431848526
0.2132691591978073 0.44433802366256714 0.09957736730575562
-0.2817947566509247 -0.37613725662231445 0.20986227691173553
0.24377824366092682 -0.16345934569835663 0.17333826422691345
-0.2695120573043823 0.1003507524728775 -0.32522526383399963
-0.23392094671726227 0.3505983054637909 -0.0708613246679306
0.2823720872402191 -0.2088458389043808 0.15978048741817474
-0.21825428307056427 0.3016890585422516 -0.024660969153046608
-0.017924346029758453 0.1319592446088791 -0.20517554879188538
-0.3009858727455139 -0.31342941522598267 0.14300104975700378
-0.1978021264076233 -0.19678904116153717 0.1531599909067154
-0.21520589292049408 -0.2522357106208801 -0.06547264754772186
-0.11691369116306305 0.3188895285129547 -0.3121946156024933
0.04005025327205658 0.17256344854831696 0.1508944183588028
0.27861109375953674 -0.24777843058109283 -0.13509204983711243
-0.0035621407441794872 0.1098613515496254 -0.1912936419248581
0.18268796801567078 0.21141673624515533 -0.13799165189266205
0.26642224192619324 0.3293355107307434 -0.047462768852710724
0.03936125710606575 0.1804078221321106 -0.1421281397342682
-0.05319562554359436 0.13933198153972626 -0.1371498852968216
-0.2383783459663391 -0.47243258357048035 -0.03293329477310181
0.2813452184200287 -0.44484639167785645 0.10177218914031982
-0.19892381131649017 0.33307889103889465 0.06417183578014374
-0.233423113822937 0.4489385783672333 0.09568086266517639
0.23862898349761963 0.4835810959339142 -0.07018989324569702
-0.267376184463501 0.22709119319915771 0.07639174163341522
-0.1867658793926239 0.2904014587402344 0.0008346462855115533
0.30289602279663086 -0.12896686792373657 -0.1322522610425949
0.2655254006385803 0.5100553631782532 0.08584179729223251
-0.20262852311134338 0.33198389410972595 -0.3409234285354614
-0.2145409733057022 0.238988995552063 0.051639240235090256
-0.2773559093475342 0.027026895433664322 -0.3209187388420105
0.26909196376800537 0.2745051383972168 0.01084127277135849
0.18099281191825867 -0.2529295086860657 0.06847693026065826
-0.023576166480779648 0.22046026587486267 -0.22987473011016846
-0.1725643426179886 0.40124112367630005 0.10795097798109055
-0.027455007657408714 0.11836393177509308 -0.1821770817041397
-0.26790568232536316 -0.25230884552001953 0.02999337576329708
-0.22007685899734497 -0.1732495129108429 0.16784051060676575
-0.1670571118593216 -0.26755383610725403 0.051177091896533966
-0.25936296582221985 0.36131197214126587 0.0834759771823883
-0.22163201868534088 -0.4136107861995697 0.18120917677879333
0.23230981826782227 -0.13752059638500214 0.16971546411514282
0.06418319791555405 0.13873286545276642 -0.14206521213054657
0.2637777030467987 0.38568103313446045 -0.08622956275939941
-0.03119192272424698 0.22619332373142242 -0.20485445857048035
0.21457602083683014 0.44673097133636475 0.0983060896396637
-0.2276684194803238 0.4425557553768158 -0.07791976630687714
-0.03906521946191788 0.13280075788497925 -0.1494389921426773
-0.2262374460697174 -0.24122478067874908 -0.1367928385734558
-0.15336492657661438 -0.27130794525146484 0.016380857676267624
-0.06468787044286728 0.3236663043498993 -0.2856072187423706
0.07050908356904984 0.1709173321723938 0.1495898962020874
-0.153114914894104 -0.2642791271209717 0.004046561196446419
-0.18030868470668793 -0.2650318741798401 0.06378951668739319
-0.32805490493774414 -0.4091190695762634 -0.06739510595798492
-0.14275524020195007 -0.25667673349380493 -0.014252147637307644
-0.004151845350861549 0.18136028945446014 -0.13690157234668732
-0.26975497603416443 -0.15605753660202026 0.15749764442443848
-0.23888425529003143 -0.48033061623573303 0.0077369031496346
-0.23420356214046478 0.38509315252304077 0.11570871621370316
-0.27834343910217285 -0.08190380036830902 -0.24702729284763336
-0.20936602354049683 0.16187019646167755 0.1711232215166092
0.24905957281589508 0.2447085678577423 0.05119973421096802
-0.23208889365196228 0.37937837839126587 0.11516103893518448
-0.1688748449087143 -0.2524147629737854 -0.05533032491803169
-0.03687751665711403 0.28210389614105225 -0.2528589367866516
-0.26907262206077576 -0.09547391533851624 -0.25415438413619995
-0.18357737362384796 0.23027072846889496 -0.01832537353038788
0.2351895272731781 -0.2671727240085602 -0.051010798662900925
-0.09160217642784119 0.33204832673072815 -0.29838380217552185
0.2133828103542328 0.1813448816537857 0.15586967766284943
-0.05034826323390007 0.2948973774909973 -0.2764514684677124
-0.0400698147714138 0.16248878836631775 -0.15061891078948975
0.13602906465530396 0.17391102015972137 0.15050184726715088
-0.2651715874671936 0.23004814982414246 0.07570707052946091
-0.004717632196843624 0.14081446826457977 -0.20872057974338531
-0.24924111366271973 -0.08542615175247192 -0.24270670115947723
0.29085415601730347 -0.42895883321762085 0.09022252261638641
-0.22666724026203156 0.060109298676252365 0.14935986697673798
-0.07197482138872147 0.32796338200569153 -0.2963324785232544
0.06073213368654251 0.13925081491470337 -0.18758109211921692
0.29747313261032104 -0.21068911254405975 -0.12360433489084244
-0.22181303799152374 -0.3962448835372925 0.17684833705425262
-0.2666432857513428 -0.11569671332836151 0.15933357179164886
-0.2716977000236511 -0.16486607491970062 -0.1328495591878891
-0.3040172755718231 -0.32111555337905884 0.1756715476512909
0.28600993752479553 -0.411227822303772 0.18297038972377777
-0.2917100787162781 0.012535735964775085 -0.2886958122253418
0.1556500345468521 0.2270500659942627 -0.13754676282405853
-0.11727220565080643 0.2186661660671234 0.15965619683265686
-0.24660705029964447 -0.07965248823165894 -0.2485387623310089
0.06771958619356155 -0.256735622882843 -0.12997381389141083
0.25856637954711914 0.5103124976158142 0.0012200535275042057
-0.2557121515274048 0.22116127610206604 -0.32440146803855896
-0.19419191777706146 0.46804267168045044 0.09619054198265076
0.1726292371749878 0.18296708166599274 0.1593964546918869
0.29327818751335144 0.22669222950935364 -0.11054187268018723
0.2594744861125946 -0.24854673445224762 0.008884761482477188
0.24271738529205322 -0.1638728529214859 0.1667620837688446
-0.25549808144569397 -0.37308648228645325 0.1982302963733673
0.1684759557247162 -0.2709081768989563 0.004198386333882809
-0.23178017139434814 0.05912231653928757 0.1573028713464737
-0.17719732224941254 0.33235716819763184 -0.01575367897748947
0.17727698385715485 -0.447460800409317 0.18832169473171234
0.29919397830963135 -0.14465637505054474 0.15767227113246918
-0.025502661243081093 0.11479368060827255 -0.13303889334201813
0.10257613658905029 -0.2066446840763092 0.15553708374500275
-0.2745216488838196 0.15792155265808105 -0.29931044578552246
-0.01058410108089447 0.1775667816400528 -0.22159655392169952
0.29283469915390015 -0.12783695757389069 0.14578120410442352
-0.2874112129211426 -0.01233126875013113 -0.29385510087013245
0.24214185774326324 -0.36740997433662415 -0.09167660772800446
0.23822522163391113 -0.2717716693878174 -0.05221761018037796
0.208875834941864 0.25255024433135986 0.0009894974064081907
0.24412724375724792 -0.018093355000019073 0.165187805891037
0.259616494178772 -0.3493909239768982 0.1423892080783844
0.2733338177204132 0.22056348621845245 0.1591990888118744
-0.2248876541852951 0.0963996946811676 0.15510736405849457
-0.2747853398323059 0.02474868856370449 -0.23384064435958862
0.20979371666908264 0.22782887518405914 0.045210909098386765
0.2190699428319931 0.28424152731895447 0.03377822786569595
-0.2863961458206177 0.1495385318994522 -0.3125482499599457
0.18935665488243103 0.34637513756752014 0.06851458549499512
0.0362020768225193 0.11169984191656113 -0.19381865859031677
-0.016906699165701866 0.21367505192756653 -0.136490136384964
0.26641812920570374 0.3451099991798401 0.1148538812994957
0.22893306612968445 0.4944148361682892 0.12095192819833755
0.25252097845077515 -0.29457369446754456 0.0829571783542633
0.1507740169763565 0.22846561670303345 0.15171442925930023
-0.01542764063924551 -0.2539684772491455 -0.12338002771139145
0.24412892758846283 0.30414068698883057 0.04674057289958
0.17979763448238373 0.22983884811401367 0.13725696504116058
-0.19387514889240265 0.33509308099746704 -0.03908080607652664
0.17099501192569733 0.22665664553642273 -0.13395075500011444
0.28221312165260315 -0.25137850642204285 0.12601211667060852
0.30265477299690247 -0.015966186299920082 -0.1280740648508072
0.29539892077445984 -0.24159446358680725 -0.02523919567465782
0.26179245114326477 -0.1893552839756012 0.15612196922302246
-0.2619113326072693 -0.25197309255599976 0.03021359257400036
-0.2609468698501587 0.07043721526861191 0.1565336138010025
0.19836720824241638 0.23374883830547333 0.0190105102956295
-0.15434099733829498 -0.25861358642578125 -0.009780343621969223
-0.23823697865009308 0.3336939513683319 0.04370769485831261
0.1977766752243042 -0.42842841148376465 0.20106324553489685
0.28614771366119385 -0.44368287920951843 0.15382437407970428
-0.29083502292633057 0.05939915031194687 -0.2641259729862213
0.22360724210739136 0.48663926124572754 -0.06322242319583893
-0.13741230964660645 0.2202843427658081 -0.13803063333034515
-0.21821022033691406 0.45792120695114136 -0.07474964112043381
-0.26219260692596436 -0.35050180554389954 -0.09314705431461334
-0.003117562737315893 -0.25141069293022156 -0.12275286018848419
-0.2710040807723999 0.1369308978319168 0.1484651416540146
-0.13953045010566711 -0.19663627445697784 0.1556902974843979
0.10455101728439331 -0.2524077594280243 -0.12909941375255585
0.2913942039012909 -0.43284177780151367 0.05992652475833893
-0.24046653509140015 0.07392697781324387 0.15589679777622223
-0.030039655044674873 0.31442710757255554 -0.2700475752353668
0.2962796986103058 0.21363228559494019 0.14587253332138062
-0.22722096741199493 0.3122940957546234 0.043584782630205154
0.2504766285419464 -0.2531479001045227 -0.024461334571242332
-0.2607914209365845 -0.08118335157632828 -0.27699416875839233
-0.2718087136745453 -0.0659606009721756 -0.12510204315185547
-0.22354039549827576 -0.11903984844684601 0.1651008278131485
-0.08645546436309814 -0.18825437128543854 0.16622231900691986
0.19417977333068848 0.3436916470527649 0.07581869512796402
0.08594569563865662 -0.24577239155769348 -0.12962938845157623
0.26634347438812256 0.30752021074295044 -0.019080080091953278
0.2061115801334381 0.3207997679710388 0.0294728372246027
0.2251214236021042 0.24298740923404694 0.04517318308353424
0.00423013512045145 0.20957767963409424 0.15929535031318665
