-0.046678878366947174 0.16391108930110931 0.16354574263095856
0.2604271173477173 -0.08192654699087143 0.15573619306087494
-0.16951636970043182 0.39304491877555847 0.1076037809252739
0.26897725462913513 0.4318411350250244 0.11199966818094254
0.2859569787979126 0.03532344102859497 -0.1342427134513855
-0.27038517594337463 -0.24687635898590088 -0.10237099975347519
0.28706032037734985 -0.39366960525512695 0.15580400824546814
0.013085500337183475 0.23093125224113464 0.1482607126235962
0.2570541501045227 0.4948001503944397 -0.054232269525527954
-0.24943827092647552 -0.34323203563690186 -0.0889502763748169
-0.27363985776901245 0.22017556428909302 0.07349218428134918
-0.1165250688791275 -0.021897535771131516 -0.13355733454227448
-0.22157788276672363 -0.17574740946292877 0.1660887897014618
-0.27331554889678955 0.05810607224702835 0.14671120047569275
0.2964770793914795 -0.06425174325704575 0.15046097338199615
0.18349629640579224 0.162695974111557 0.16661472618579865
0.09877162426710129 -0.2502644956111908 0.08985239267349243
-0.2525303363800049 0.3812595009803772 0.11741587519645691
0.21411481499671936 0.23491069674491882 0.008461144752800465
0.20004311203956604 0.3385578691959381 -0.04136357456445694
0.17156660556793213 -0.28721630573272705 0.0535149946808815
0.14484760165214539 -0.4353598952293396 -0.022550951689481735
0.22091472148895264 -0.3856481909751892 0.18451707065105438
0.22480401396751404 -0.24506086111068726 0.15727828443050385
-0.2733263075351715 0.08237537741661072 -0.13464263081550598
0.21112363040447235 0.23366013169288635 0.025538180023431778
0.20789287984371185 -0.4262550473213196 -0.08123674988746643
0.2857890725135803 0.1591234654188156 -0.13469921052455902
0.2165699005126953 -0.24638810753822327 0.14989911019802094
-0.27293574810028076 0.17203360795974731 0.1574184149503708
-0.2714715600013733 -0.02543388307094574 -0.12123362720012665
-0.2729076147079468 0.140654519200325 0.14923912286758423
0.2305036336183548 0.1436314433813095 0.1723688244819641
-0.14618021249771118 0.16888326406478882 0.16026253998279572
0.2697407901287079 0.5103003978729248 0.05560096353292465
-0.24098944664001465 -0.45460236072540283 0.09496993571519852
-0.2702016234397888 -0.20841218531131744 -0.1333818882703781
0.16912999749183655 -0.254325807094574 0.044472675770521164
-0.2689219117164612 0.08750709891319275 -0.13510550558567047
0.24671101570129395 -0.14370840787887573 0.16275180876255035
0.07629910111427307 0.16822806000709534 -0.13574247062206268
-0.22494302690029144 -0.13149791955947876 0.1651661992073059
-0.27215179800987244 -0.2034521996974945 0.019984427839517593
0.28876984119415283 -0.12478315085172653 -0.1360948532819748
0.1976892054080963 0.15471568703651428 0.17104686796665192
-0.26692625880241394 0.16695019602775574 -0.13688400387763977
0.2866615056991577 -0.4009779393672943 0.17345891892910004
0.19409573078155518 -0.18171226978302002 0.16673259437084198
0.17446064949035645 0.201456680893898 -0.1340281069278717
0.003055242821574211 0.18136341869831085 -0.1362381875514984
-0.2662205696105957 -0.1426129937171936 -0.13507318496704102
-0.06981439143419266 -0.24817803502082825 0.15280234813690186
0.19253873825073242 0.23001791536808014 0.14628440141677856
-0.014350824058055878 -0.24759723246097565 -0.01753956824541092
-0.27271538972854614 0.20939823985099792 -0.13604891300201416
0.28357982635498047 -0.07045499980449677 -0.13764244318008423
-0.2702640891075134 0.06451362371444702 -0.12506964802742004
0.20968377590179443 0.32499492168426514 -0.031058188527822495
0.2963472902774811 0.04527847841382027 0.15167665481567383
-0.15234863758087158 -0.2476157248020172 0.14032050967216492
-0.015366184525191784 -0.18633045256137848 0.16196250915527344
-0.17070432007312775 0.22876079380512238 -0.13419672846794128
0.29005980491638184 -0.09659025073051453 -0.13591423630714417
0.2969825565814972 -0.14529795944690704 0.15637752413749695
-0.2734900712966919 0.20393021404743195 0.15933801233768463
0.29589027166366577 0.10506969690322876 0.15260323882102966
0.2522824704647064 0.4634785056114197 -0.08227021992206573
-0.27408304810523987 0.05742277950048447 -0.05014535412192345
-0.26970672607421875 -0.3643960654735565 -0.09279685467481613
-0.2442837506532669 -0.04676809906959534 -0.23727060854434967
0.1298588663339615 -0.18167951703071594 0.16916348040103912
0.23248669505119324 -0.04584542289376259 0.16734173893928528
0.27802765369415283 0.23138195276260376 -0.03986133635044098
0.2937174141407013 -0.11659806966781616 -0.12302891165018082
0.296074777841568 0.13340742886066437 -0.1272340565919876
-0.24504534900188446 0.02760782465338707 -0.29286372661590576
0.24331778287887573 0.05990614742040634 0.16573473811149597
0.1985185295343399 -0.244404137134552 0.15526139736175537
-0.26971864700317383 0.08182285726070404 -0.13575729727745056
-0.18125727772712708 0.22867560386657715 0.15528596937656403
-0.020520169287919998 0.20365066826343536 -0.13456644117832184
0.1875944286584854 0.43142056465148926 0.11777356266975403
-0.22093209624290466 0.044736333191394806 0.1678851991891861
0.2911252975463867 -0.14130505919456482 -0.13512344658374786
0.2845906913280487 -0.39147356152534485 0.15037667751312256
0.2893579304218292 -0.42565858364105225 0.1646379977464676
-0.20850500464439392 -0.00633225217461586 0.16994315385818481
0.2972327172756195 -0.14739152789115906 0.15035894513130188
-0.27084386348724365 -0.24609029293060303 -0.09761019051074982
0.2324233055114746 0.0316753163933754 0.1685711294412613
0.29515957832336426 -0.13308089971542358 0.12859371304512024
-0.19396786391735077 0.4959507882595062 0.10657614469528198
0.18153223395347595 -0.3122164011001587 -0.05577421188354492
0.18005353212356567 -0.1869456171989441 0.162117138504982
-0.03289158642292023 -0.24283815920352936 -0.13486109673976898
0.2955561876296997 -0.03874068334698677 0.14713063836097717
0.08793550729751587 0.16064679622650146 0.16531042754650116
0.12439776957035065 0.07933740317821503 -0.13632355630397797
0.22901596128940582 0.14008936285972595 0.1706489622592926
-0.17377930879592896 0.46239009499549866 0.11207186430692673
-0.26186099648475647 0.23156484961509705 -0.04463721811771393
0.29054147005081177 0.400307834148407 0.1262512356042862
0.2453586757183075 -0.1282787322998047 0.1655372679233551
-0.26301658153533936 0.4417538344860077 0.12187960743904114
-0.21364249289035797 -0.09722557663917542 0.16824467480182648
-0.27387621998786926 0.21984916925430298 -0.008015207014977932
0.29137110710144043 0.12098455429077148 -0.13231529295444489
-0.2664470970630646 0.16330325603485107 -0.13437898457050323
-0.1713031530380249 0.2287725806236267 0.026705972850322723
0.17839264869689941 -0.2522602379322052 0.14976754784584045
-0.27008047699928284 -0.146121546626091 -0.13507431745529175
0.16228309273719788 -0.28166142106056213 0.03127419948577881
-0.2741633951663971 0.11240401864051819 -0.12469254434108734
0.04984118416905403 -0.20306390523910522 0.15607841312885284
-0.2319929599761963 0.3416593670845032 -0.044001657515764236
-0.2136206030845642 -0.11888016760349274 0.16911043226718903
0.020642908290028572 0.09136775881052017 -0.1530788540840149
0.2959373891353607 -0.029558632522821426 0.14976368844509125
-0.1707078069448471 -0.2452629953622818 -0.13601180911064148
-0.22767113149166107 0.1789173185825348 0.1582668572664261
-0.24485167860984802 -0.23657025396823883 0.1610257625579834
-0.271049439907074 0.19152800738811493 0.15989157557487488
-0.20474396646022797 -0.18780675530433655 -0.13617223501205444
0.24376463890075684 -0.1548810750246048 0.16727876663208008
0.25332990288734436 -0.274745374917984 -0.03080860525369644
-0.270458459854126 0.01043636817485094 -0.13082671165466309
-0.26467999815940857 -0.09951607882976532 -0.13977254927158356
0.29355674982070923 -0.03578580915927887 0.14999398589134216
0.29502812027931213 -0.032507121562957764 -0.07223059982061386
-0.26266056299209595 -0.2921806871891022 0.07052931189537048
-0.2307535707950592 0.17851464450359344 0.15645354986190796
0.28761884570121765 -0.3862232267856598 0.09406301379203796
0.029292820021510124 0.222310408949852 0.16021940112113953
0.29534122347831726 -0.05818519741296768 0.1461632251739502
0.2958966791629791 -0.10679253190755844 0.1518293023109436
0.2947066128253937 0.19138479232788086 0.16000089049339294
0.288618803024292 0.1422106921672821 0.158797025680542
0.11903233826160431 0.1298658847808838 -0.13598930835723877
-0.26687467098236084 -0.19091656804084778 -0.13578246533870697
0.2955769896507263 0.11946399509906769 -0.13099786639213562
0.15302863717079163 0.2303212732076645 0.14934110641479492
-0.24767719209194183 -0.4610559642314911 0.0601663812994957
0.2143351435661316 0.4836180508136749 -0.051658306270837784
-0.2678888738155365 0.13491834700107574 0.16023924946784973
0.21978798508644104 -0.2486671805381775 0.10561496019363403
0.18585257232189178 -0.3322626054286957 0.10701998323202133
0.2647194266319275 0.40513795614242554 0.11152403801679611
-0.2722274363040924 -0.3501020073890686 -0.0808466300368309
0.24156813323497772 0.3908998668193817 -0.09313350915908813
-0.010810013860464096 -0.24546515941619873 0.15947432816028595
-0.2865009009838104 0.016665231436491013 -0.29083549976348877
0.28867602348327637 0.1342395693063736 0.15732049942016602
-0.26805728673934937 -0.12309575080871582 -0.1378382295370102
0.2368195354938507 -0.15149611234664917 0.1697245091199875
0.28863778710365295 0.013985546305775642 -0.1354796439409256
0.21816092729568481 0.41924306750297546 -0.08536960929632187
0.284819096326828 -0.43856024742126465 0.14220374822616577
0.13326475024223328 -0.40720438957214355 0.09049232304096222
-0.27044999599456787 -0.09565529972314835 0.1512586921453476
0.2960093021392822 -0.1364719420671463 0.1526384949684143
0.2874565124511719 -0.4097299873828888 0.18104501068592072
0.2970789968967438 -0.006422165781259537 0.14817668497562408
-0.26688531041145325 0.009531253948807716 -0.13635948300361633
-0.23708362877368927 -0.025331150740385056 0.1555529683828354
-0.2673060894012451 0.057519398629665375 -0.13677893579006195
0.2102302610874176 0.45006588101387024 -0.07605358958244324
-0.23410698771476746 0.38240721821784973 -0.08009662479162216
0.27115440368652344 -0.39121872186660767 0.18733428418636322
0.2854868471622467 -0.05025973916053772 -0.13566800951957703
-0.27157729864120483 0.22134360671043396 0.15410977602005005
-0.21619778871536255 -0.012747181579470634 0.16965393722057343
-0.2651817500591278 -0.07897581160068512 -0.13732193410396576
-0.0654667466878891 0.1548784226179123 0.16888989508152008
-0.2283588945865631 0.37970373034477234 -0.07843215018510818
-0.16630220413208008 0.23071126639842987 -0.129598468542099
-0.21625883877277374 -0.2735128700733185 -0.06377806514501572
-0.273298978805542 0.023120231926441193 -0.12404314428567886
0.2337571233510971 -0.25222018361091614 -0.06258056312799454
-0.2626032531261444 -0.10390620678663254 -0.13497315347194672
0.286665678024292 0.07935287803411484 0.1584836095571518
-0.19257211685180664 0.330697238445282 0.0526958629488945
-0.27242374420166016 -0.1327144354581833 -0.1322675347328186
-0.23800955712795258 0.13380908966064453 0.15721847116947174
0.2618815302848816 -0.08791221678256989 0.15536190569400787
0.28760281205177307 0.2286541759967804 -0.06378978490829468
-0.24428512156009674 0.39656344056129456 -0.06905875355005264
0.30162736773490906 0.21878071129322052 -0.05558498203754425
0.2559753358364105 -0.41789641976356506 0.20464636385440826
0.26220881938934326 -0.2793598771095276 0.02392585016787052
-0.24572840332984924 -0.4604737162590027 0.060270681977272034
-0.3262309432029724 -0.40781477093696594 0.0004812851548194885
-0.21116968989372253 0.22790785133838654 0.09164892137050629
0.01186357717961073 0.21875621378421783 0.1609424650669098
-0.3167019486427307 -0.4343767762184143 -0.06765609979629517
-0.22275952994823456 -0.4346189796924591 0.17172324657440186
-0.26508739590644836 0.15327373147010803 -0.1326216459274292
-0.2762639820575714 -0.30162256956100464 0.09211733192205429
-0.15893423557281494 -0.12398375570774078 -0.13513733446598053
0.14711089432239532 -0.19522356986999512 0.15472836792469025
-0.08923019468784332 -0.17497864365577698 0.16543719172477722
-0.2707343101501465 -0.09547977894544601 -0.1267184615135193
-0.24028457701206207 -0.07355724275112152 0.15599767863750458
0.18163540959358215 0.4308720529079437 0.1110251173377037
-0.23486730456352234 0.23011942207813263 -0.13032269477844238
-0.2654297947883606 -0.20285025238990784 -0.13620173931121826
0.018765760585665703 0.16826105117797852 0.15832385420799255
0.24330882728099823 0.10066920518875122 0.16595607995986938
-0.26868870854377747 -0.07026741653680801 -0.14076724648475647
-0.2823610305786133 -0.3100557327270508 0.058894213289022446
-0.2649235427379608 -0.2118730992078781 -0.13794182240962982
-0.1317831575870514 0.1537804901599884 0.1700677126646042
0.20146726071834564 -0.28484615683555603 0.08168244361877441
-0.19265016913414001 -0.24474799633026123 -0.12570008635520935
-0.06615892797708511 -0.2518186569213867 0.1463044434785843
-0.22234994173049927 0.10317248106002808 0.1673433482646942
0.2908712923526764 -0.24492444097995758 -0.09979347884654999
-0.26739123463630676 -0.07547567784786224 -0.13912901282310486
0.003927430137991905 0.20149408280849457 -0.13599644601345062
-0.26419883966445923 -0.23652714490890503 0.15932805836200714
-0.14185556769371033 -0.25157827138900757 0.030645303428173065
0.24397003650665283 0.1526166945695877 0.16572032868862152
-0.272823691368103 0.1256399154663086 -0.04323916137218475
0.26776471734046936 -0.41623520851135254 -0.07424993813037872
-0.2753992974758148 -0.21608208119869232 0.14877277612686157
-0.33733341097831726 -0.34319138526916504 0.17766708135604858
0.2333953082561493 -0.0460047610104084 0.17028574645519257
0.13251468539237976 -0.18800471723079681 0.1646503359079361
0.022923072800040245 -0.1911250650882721 0.1587347537279129
0.062171533703804016 0.1855102777481079 -0.18378758430480957
-0.19185803830623627 0.22909270226955414 0.05497955530881882
0.10752805322408676 0.22785623371601105 0.15609031915664673
0.161541149020195 0.14975488185882568 0.17091628909111023
-0.2629196047782898 0.41944313049316406 0.10772017389535904
0.02228868007659912 -0.1288035362958908 -0.13610713183879852
0.13043339550495148 0.23360610008239746 0.1436307728290558
0.018045131117105484 0.22710458934307098 0.1559789478778839
-0.2642810046672821 0.39971715211868286 0.11188284307718277
-0.20207642018795013 0.22565867006778717 0.15859857201576233
0.1930851936340332 -0.2503263056278229 0.08065804094076157
-0.2666713297367096 -0.20702610909938812 -0.13633285462856293
-0.2755482494831085 0.21522028744220734 -0.06310565024614334
-0.26771506667137146 0.1639774888753891 -0.12530118227005005
-0.27104395627975464 -0.13172422349452972 -0.12046605348587036
-0.15667378902435303 -0.041868723928928375 0.1683819442987442
-0.0074409376829862595 -0.2521408796310425 -0.025653693825006485
-0.2576582133769989 0.3385309875011444 0.026833705604076385
-0.2703554928302765 -0.12652184069156647 0.14654749631881714
-0.265738844871521 -0.24142633378505707 -0.11996296048164368
-0.266510546207428 -0.011845923028886318 -0.1352398693561554
-0.021328330039978027 0.2285529524087906 -0.12820327281951904
-0.18699286878108978 0.3263678550720215 -0.012320026755332947
-0.3267458379268646 -0.3796156942844391 0.09958826005458832
-0.15369540452957153 0.22753682732582092 0.15937884151935577
-0.22184868156909943 -0.24965372681617737 0.08954857289791107
0.23653152585029602 -0.05772184580564499 0.16723957657814026
-0.19069941341876984 0.5003420114517212 0.08875329047441483
-0.2683008015155792 -0.031750742346048355 -0.13899868726730347
0.25540217757225037 0.4747776985168457 -0.07249563187360764
-0.2661237120628357 -0.4666053056716919 -0.040466632694005966
0.2963414788246155 -0.12812550365924835 -0.13433533906936646
0.23834306001663208 -0.05622885376214981 0.16926610469818115
0.1436106264591217 -0.4458979070186615 0.08485676348209381
-0.2578127980232239 -0.21472248435020447 0.16025426983833313
0.2724398970603943 0.23002980649471283 0.14388591051101685
0.043707940727472305 -0.24557125568389893 0.14610889554023743
-0.10255592316389084 0.16452327370643616 0.16449542343616486
-0.04030636325478554 0.22964146733283997 0.07062377780675888
0.2681284546852112 -0.3735622465610504 0.16980189085006714
0.29684388637542725 0.07437223196029663 -0.054862648248672485
-0.2141168862581253 -0.1181793212890625 0.17062333226203918
0.2932441234588623 -0.2170325219631195 -0.13383740186691284
0.28913170099258423 0.09999899566173553 0.15793950855731964
0.2109639048576355 -0.18042747676372528 0.16559627652168274
0.28747034072875977 -0.16371548175811768 -0.13414610922336578
-0.22253763675689697 -0.24540886282920837 0.146708682179451
0.29408884048461914 0.35633569955825806 0.0748685747385025
-0.2048117220401764 -0.27164119482040405 0.07421193271875381
0.25663644075393677 -0.37311214208602905 -0.07812109589576721
-0.23315489292144775 -0.32435354590415955 -0.08556172251701355
-0.30195116996765137 -0.3209526240825653 0.17224973440170288
-0.27592572569847107 0.21887588500976562 0.14415712654590607
0.2216138392686844 0.22028633952140808 0.15723176300525665
0.2272302508354187 0.13743367791175842 0.17116475105285645
0.2625540494918823 0.40296459197998047 -0.08934825658798218
0.009081175550818443 0.22629351913928986 -0.17365750670433044
0.24674773216247559 -0.36502301692962646 -0.08565331250429153
0.29713454842567444 -0.15657055377960205 -0.11489510536193848
0.3057829439640045 0.4030809700489044 0.022256672382354736
-0.27224409580230713 -0.20534531772136688 0.1506468653678894
0.2575441300868988 -0.2695932984352112 -0.01852097362279892
0.20162230730056763 0.4698026478290558 0.12008029222488403
-0.1677541434764862 0.4501655101776123 0.11041043698787689
0.019632404670119286 0.22675204277038574 -0.13435518741607666
-0.09093520045280457 -0.238479882478714 0.16018591821193695
-0.21722060441970825 0.16913488507270813 0.16008919477462769
-0.2700861692428589 -0.24576729536056519 -0.1053185909986496
-0.016293475404381752 -0.24566452205181122 -0.12457801401615143
0.29623743891716003 0.03314477577805519 0.1458343267440796
-0.17548495531082153 0.22715416550636292 3.912561805918813e-05
0.01096559502184391 -0.2501824200153351 0.09502452611923218
-0.22346153855323792 0.13264967501163483 0.16806785762310028
-0.2769715487957001 0.22774487733840942 -0.09352549910545349
0.20443928241729736 0.15808004140853882 0.1717110276222229
0.28543850779533386 0.34899598360061646 0.07340537011623383
-0.20825092494487762 0.430503249168396 0.08792395889759064
0.2772730886936188 0.35647350549697876 -0.06795157492160797
0.23576763272285461 -0.3846934735774994 -0.08595042675733566
-0.045414894819259644 -0.2467900663614273 0.14271533489227295
0.22442440688610077 0.22348372638225555 0.15781596302986145
-0.23988573253154755 0.3923608660697937 -0.07555989176034927
0.2626652121543884 0.22820433974266052 0.1536320298910141
0.29111555218696594 0.009982610121369362 0.15822423994541168
0.2028920203447342 0.15591251850128174 0.16989842057228088
-0.29227420687675476 0.03992711752653122 -0.27835533022880554
0.1044013574719429 -0.18187856674194336 0.17002202570438385
0.009631235152482986 0.16183403134346008 -0.1349094808101654
0.19614911079406738 -0.2414988875389099 -0.13321805000305176
0.2957507073879242 -0.02126147225499153 -0.12758401036262512
0.2877260744571686 -0.4314025342464447 0.03223726898431778
-0.2444026619195938 -0.3928043246269226 0.20095594227313995
-0.06309216469526291 -0.00985470786690712 -0.13507510721683502
-0.26816684007644653 -0.19423550367355347 -0.12268738448619843
0.2942245602607727 -0.180494025349617 -0.1340300589799881
0.29815828800201416 0.061495356261730194 0.15793465077877045
-0.2373298555612564 -0.4697107672691345 0.03951453045010567
-0.1146770566701889 0.10023555159568787 -0.135000079870224
0.008932952769100666 -0.181961789727211 0.16595911979675293
0.20970648527145386 0.23045335710048676 -0.006044401787221432
-0.16920645534992218 0.4254935681819916 0.11142274737358093
-0.26131221652030945 -0.16658583283424377 -0.13783174753189087
-0.011109273880720139 -0.17965173721313477 0.1675766557455063
0.2914617359638214 0.19423368573188782 0.158415287733078
0.041631389409303665 0.2257329225540161 -0.13512501120567322
-0.3128215968608856 -0.40911662578582764 0.05667843297123909
-0.20673614740371704 0.41787901520729065 -0.08086089044809341
-0.19714657962322235 -0.4124452471733093 0.08262643218040466
0.11888279020786285 0.2302040010690689 0.14244425296783447
0.2977342903614044 0.22292932868003845 -0.00673886202275753
-0.2682076096534729 -0.1831502616405487 -0.13676099479198456
0.291201114654541 -0.027477672323584557 -0.13314606249332428
0.2894023358821869 -0.41897153854370117 0.07663864642381668
0.21775464713573456 0.3492608666419983 -0.07351608574390411
-0.16946744918823242 0.3473013639450073 0.011100636795163155
-0.1542177051305771 -0.24616888165473938 -0.12797263264656067
0.19200588762760162 -0.44824323058128357 0.19220416247844696
0.14538449048995972 -0.443297415971756 0.042966172099113464
-0.22586359083652496 -0.3222285807132721 -0.08110439777374268
0.23933416604995728 -0.4441286325454712 0.20446114242076874
-0.2271018624305725 -0.27899229526519775 0.08241420984268188
0.23944616317749023 -0.33697623014450073 -0.08630669862031937
0.09360601752996445 0.22896479070186615 -0.12380710244178772
0.28889554738998413 0.19915705919265747 -0.13555173575878143
0.2716440260410309 -0.34461745619773865 0.11631648242473602
0.19611412286758423 -0.369940847158432 -0.07671131938695908
0.29647117853164673 -0.0452456921339035 -0.12443660199642181
-0.2652440667152405 0.007956893183290958 -0.13624508678913116
-0.24680973589420319 -0.4416409432888031 0.13539305329322815
0.24174563586711884 0.1378929316997528 0.16744787991046906
0.03875558450818062 0.14954042434692383 -0.13645358383655548
0.2965790629386902 0.14264152944087982 -0.12309540808200836
0.2269684374332428 0.11530366539955139 0.17131023108959198
0.2317279428243637 0.5080174803733826 -0.03181800991296768
-0.26386284828186035 0.2314901053905487 -0.025444271042943
-0.14177542924880981 0.22998414933681488 0.15074944496154785
0.18791881203651428 0.34113019704818726 -0.01507674902677536
-0.15015392005443573 0.15540184080600739 0.16897374391555786
0.008889405056834221 0.2254919558763504 -0.13593462109565735
0.2902221977710724 -0.14559942483901978 -0.13697591423988342
-0.21949099004268646 -0.18443360924720764 0.1645723432302475
0.18313966691493988 0.4051688015460968 0.10355697572231293
-0.2524196207523346 -0.33744925260543823 -0.08877314627170563
-0.27030354738235474 -0.016293341293931007 -0.13101626932621002
0.02282646670937538 0.1681133210659027 -0.1386774331331253
-0.23598748445510864 0.22840571403503418 -0.13141891360282898
-0.18888810276985168 0.42132890224456787 -0.06952077150344849
-0.26857319474220276 0.10473387688398361 -0.13466820120811462
0.13160334527492523 0.21343037486076355 0.15983067452907562
-0.3021351993083954 -0.43171417713165283 -0.010458671487867832
-0.26630255579948425 -0.24510517716407776 -0.1317647099494934
0.25175198912620544 -0.3137626051902771 0.10578151792287827
0.15814493596553802 -0.37382954359054565 0.1364094465970993
-0.27359020709991455 0.1451522260904312 -0.12702403962612152
-0.2646760940551758 0.1711909919977188 -0.13446539640426636
-0.18793776631355286 0.23432160913944244 -0.011280863545835018
-0.06917563080787659 0.1558157205581665 0.1708054393529892
0.2420346587896347 -0.392861932516098 -0.0886804610490799
0.2648090720176697 -0.304066002368927 0.0874001681804657
-0.26465460658073425 -0.13066762685775757 -0.13853709399700165
-0.26620084047317505 -0.09541267156600952 -0.13985805213451385
0.20580941438674927 -0.1794503629207611 0.16817320883274078
-0.270194947719574 0.06036267429590225 -0.13903915882110596
0.2815393805503845 -0.44740501046180725 0.16799300909042358
-0.14763867855072021 -0.2554285228252411 0.016091004014015198
-0.33307594060897827 -0.3343240022659302 0.1731676459312439
-0.2882947623729706 -0.030338067561388016 -0.2718586027622223
-0.039635069668293 0.13593626022338867 -0.17006723582744598
0.19624195992946625 0.49623358249664307 0.023868069052696228
0.12778539955615997 0.21723434329032898 0.15969891846179962
-0.34031546115875244 -0.35191810131073 0.101471908390522
0.052225835621356964 0.23218372464179993 0.015584327280521393
-0.2290855050086975 -0.0015362352132797241 -0.1368657350540161
-0.22563277184963226 0.1378798484802246 0.1646728813648224
-0.12275466322898865 -0.03172779828310013 -0.13643380999565125
0.24546973407268524 -0.028569184243679047 0.1683119237422943
-0.18320856988430023 -0.33600056171417236 0.06968319416046143
-0.2871328294277191 0.08550605922937393 -0.29196080565452576
-0.26504620909690857 -0.3188473582267761 0.13069739937782288
0.15552467107772827 -0.44811517000198364 0.14800265431404114
-0.17183753848075867 0.2306707352399826 0.15268902480602264
0.293472021818161 0.08151090890169144 -0.12107706815004349
-0.2558833062648773 0.22730249166488647 0.1380903720855713
-0.2751072347164154 -0.23344764113426208 -0.07889321446418762
0.2578088045120239 -0.44565504789352417 0.009242103435099125
-0.2647857367992401 -0.11144442856311798 -0.1359436959028244
-0.11107787489891052 -0.18195368349552155 0.16259224712848663
-0.26736611127853394 -0.1112523153424263 -0.13603921234607697
0.23823131620883942 -0.3785863220691681 -0.08795638382434845
-0.2689303457736969 -0.07898615300655365 0.1577823907136917
0.07278968393802643 -0.17571482062339783 0.16826963424682617
0.06756667792797089 -0.24781301617622375 0.12148821353912354
0.21964576840400696 -0.17647501826286316 0.17016564309597015
0.2949580252170563 -0.08815550804138184 0.14903084933757782
0.2961483299732208 0.0891675055027008 0.12142142653465271
0.25965410470962524 -0.24410371482372284 0.1372411549091339
0.15216690301895142 -0.3087858259677887 -0.002813153201714158
0.292975515127182 -0.0914335548877716 0.15844371914863586
-0.19205406308174133 0.3421834409236908 -0.04151485860347748
-0.007551366928964853 0.15681689977645874 0.16826222836971283
-0.2688992917537689 -0.20012424886226654 -0.026261527091264725
0.23473677039146423 0.05144054815173149 0.16955961287021637
-0.2717750072479248 0.037601158022880554 0.1545264571905136
-0.244700089097023 -0.035307902842760086 -0.25007888674736023
0.1569388508796692 0.23304639756679535 -0.1266978681087494
0.2256617695093155 -0.24451179802417755 0.15463891625404358
0.23552732169628143 -0.16532453894615173 0.1668829321861267
0.24088053405284882 0.14992576837539673 0.16782011091709137
-0.09945626556873322 0.16872812807559967 -0.13568297028541565
0.17647045850753784 0.230050727725029 0.005467704962939024
-0.27221184968948364 0.16315922141075134 0.15334594249725342
0.28962242603302 -0.11309187859296799 -0.13380537927150726
-0.2411479353904724 -0.4524992108345032 0.10003508627414703
0.29890596866607666 0.22031599283218384 -0.04344048351049423
-0.1692122370004654 0.47366243600845337 0.10024154186248779
-0.006093543954193592 0.2266623079776764 0.15930140018463135
-0.3034188449382782 -0.32335782051086426 0.1052306741476059
0.25589367747306824 0.00017457455396652222 0.1549244374036789
0.2978655993938446 -0.024611568078398705 0.07096518576145172
-0.2706603407859802 0.045581020414829254 -0.12964878976345062
0.24577535688877106 -0.11057476699352264 0.16170798242092133
0.29859253764152527 0.11403735727071762 -0.12539099156856537
-0.27271929383277893 0.15808388590812683 -0.12372217327356339
-0.003927449695765972 0.13576580584049225 -0.21341070532798767
-0.26983943581581116 -0.18681968748569489 -0.13438895344734192
-0.2904207408428192 0.006500437390059233 -0.28993624448776245
0.236735537648201 -0.40634387731552124 -0.08976300805807114
0.02422044239938259 0.2272871881723404 -0.24383313953876495
0.19468335807323456 0.4812420904636383 0.11171764135360718
-0.2654784023761749 0.40370017290115356 0.09743690490722656
0.29606136679649353 -0.17465102672576904 -0.1292775422334671
0.22254511713981628 -0.2805941104888916 -0.06222442537546158
-0.2344771921634674 0.2273905724287033 -0.13468174636363983
-0.15737378597259521 0.026395082473754883 0.16775202751159668
-0.27374929189682007 -0.24581678211688995 0.1298559159040451
-0.2670804560184479 0.13617226481437683 -0.1388377994298935
0.29124125838279724 0.3881940543651581 0.11786383390426636
0.2930968403816223 -0.12005951255559921 -0.13647828996181488
-0.2412915974855423 0.31136247515678406 0.018920516595244408
0.24279376864433289 0.05325477942824364 0.1664292812347412
0.2325785905122757 -0.3264998197555542 -0.07922172546386719
-0.018043076619505882 -0.24008388817310333 -0.13654416799545288
-0.266404390335083 -0.13021546602249146 -0.13966107368469238
-0.26808157563209534 -0.056636251509189606 -0.13593080639839172
0.15309178829193115 -0.42674732208251953 0.17676568031311035
0.07590939104557037 0.2324947565793991 0.04908961430191994
-0.27266281843185425 0.1919301599264145 0.1555200070142746
0.24157965183258057 -0.3529488146305084 0.15236946940422058
-0.16224482655525208 -0.2002636343240738 0.1552041918039322
-0.26573166251182556 0.06033925339579582 -0.1357526183128357
0.25598612427711487 -0.24643707275390625 -0.12327930331230164
-0.23390831053256989 -0.03768127039074898 0.15708008408546448
-0.26941192150115967 -0.22974418103694916 -0.01646040380001068
0.28877493739128113 -0.051159244030714035 -0.13418324291706085
-0.2725788950920105 -0.2205740064382553 -0.12799480557441711
-0.2675655782222748 -0.0040778652764856815 -0.13618752360343933
0.18170955777168274 -0.4476917088031769 0.1883499026298523
0.26363587379455566 -0.33391714096069336 -0.07080726325511932
0.28076550364494324 -0.44677385687828064 0.16384635865688324
0.27523237466812134 -0.3744645118713379 0.1642768681049347
0.2935031056404114 -0.1604645997285843 0.15628090500831604
-0.3022690713405609 -0.4467897415161133 -0.06546992808580399
-0.270125150680542 -0.16522155702114105 -0.13241824507713318
0.29653117060661316 0.011272396892309189 -0.1266206055879593
-0.26656779646873474 0.10363615304231644 0.16106270253658295
-0.2716735601425171 0.23181191086769104 0.05526546388864517
0.16205145418643951 -0.2369885891675949 -0.13604329526424408
0.26553481817245483 -0.3606939911842346 -0.07567889988422394
-0.07397326827049255 0.2234727442264557 0.16089984774589539
-0.18641707301139832 -0.17073506116867065 0.17209003865718842
-0.15193000435829163 -0.2539618909358978 -0.009612243622541428
-0.2716248333454132 0.1912374496459961 0.024770420044660568
-0.1915944665670395 0.49608269333839417 0.08990631252527237
0.25973591208457947 0.5088310837745667 0.1150989830493927
-0.2722814083099365 -0.17698755860328674 0.15834391117095947
0.295035183429718 -0.04788009449839592 -0.13616226613521576
-0.2423577755689621 0.23089534044265747 0.05665966123342514
-0.24505694210529327 -0.02590014412999153 -0.26434698700904846
0.23438727855682373 -0.05650688335299492 0.17020416259765625
0.16144035756587982 -0.24669376015663147 -0.13635607063770294
0.24453434348106384 -0.24475820362567902 -0.13432689011096954
-0.16724863648414612 0.4256149232387543 0.11150483787059784
-0.2714739143848419 0.022510845214128494 -0.10277055948972702
0.1806207001209259 -0.2510107457637787 0.156932070851326
0.14300043880939484 -0.43610528111457825 -0.012399900704622269
0.22208192944526672 -0.4406687319278717 -0.0849473774433136
-0.019867755472660065 -0.2285536229610443 -0.13744699954986572
-0.2686651945114136 0.03400096669793129 -0.13413187861442566
0.02547210454940796 0.20093393325805664 -0.1378582864999771
-0.27094370126724243 0.12677279114723206 -0.1264069527387619
0.2884116768836975 -0.05122727155685425 -0.13394053280353546
-0.05671222507953644 0.1767464280128479 -0.13606421649456024
0.2973686456680298 -0.13824860751628876 -0.1266917884349823
-0.06368578970432281 -0.24971099197864532 0.0541921928524971
-0.26801979541778564 -0.04527482017874718 -0.13440755009651184
0.2858608067035675 0.11866545677185059 -0.13312771916389465
-0.12089705467224121 0.21370398998260498 -0.13374394178390503
-0.2702508270740509 -0.22016553580760956 0.042642876505851746
0.12700794637203217 -0.04613170027732849 0.17028772830963135
-0.272389680147171 0.09865906834602356 0.1622868776321411
-0.27253276109695435 -0.1433921754360199 -0.1232675313949585
-0.26694318652153015 -0.1532323956489563 -0.13735754787921906
-0.009758265689015388 0.10349712520837784 -0.144155815243721
0.24541082978248596 0.03205278515815735 0.16391797363758087
0.13839437067508698 -0.1863267719745636 0.16440123319625854
0.29609590768814087 -0.07297181338071823 -0.1236397922039032
-0.28992074728012085 0.06905660778284073 -0.3045579195022583
-0.269183874130249 0.18423983454704285 0.014072534628212452
-0.23952433466911316 0.4683903753757477 -0.04454808309674263
0.024595040827989578 -0.25181177258491516 -0.01942361891269684
0.2107660472393036 0.1792740672826767 0.1580362617969513
-0.02241550385951996 0.026690300554037094 -0.1345202773809433
-0.24712730944156647 -0.43342941999435425 0.1476714313030243
-0.2659582495689392 0.17856153845787048 -0.13466237485408783
-0.0018827723106369376 0.20510724186897278 -0.15668751299381256
0.26105067133903503 -0.02847086265683174 0.1550990790128708
-0.2711421847343445 0.11515539884567261 0.15234971046447754
0.26839885115623474 0.2305116057395935 -0.03470292687416077
0.17815519869327545 -0.4268495440483093 -0.06244540587067604
0.2969733774662018 0.15898849070072174 0.15136700868606567
0.28716444969177246 0.15641219913959503 0.158359557390213
-0.2747631072998047 0.22610825300216675 -0.05710535869002342
-0.26741981506347656 0.1410554200410843 -0.13610906898975372
-0.27282583713531494 0.1810459941625595 -0.08215592056512833
-0.23504702746868134 -0.23507454991340637 0.1604793816804886
0.24845561385154724 -0.13124370574951172 0.1611943393945694
-0.26569056510925293 0.053295254707336426 -0.13684819638729095
0.27806347608566284 -0.3557802736759186 0.12270136922597885
0.21102161705493927 -0.31020984053611755 0.09823822975158691
0.08747296035289764 0.22611194849014282 -0.13638071715831757
-0.02773626148700714 -0.017776746302843094 -0.13352271914482117
-0.23352013528347015 -0.3021905720233917 -0.0771111249923706
0.21176159381866455 -0.44113218784332275 -0.08241559565067291
-0.16925668716430664 0.22988075017929077 -0.12668511271476746
-0.22892096638679504 -0.23904013633728027 0.1611921191215515
0.15519925951957703 -0.4447427988052368 -0.014159725978970528
0.26759299635887146 0.49784183502197266 0.1205032467842102
0.2841051518917084 -0.0320279598236084 -0.13511411845684052
-0.2725566029548645 -0.12148462980985641 0.12484139949083328
0.26064255833625793 0.3436008393764496 -0.06916888058185577
0.2835043668746948 0.09775732457637787 -0.13610917329788208
0.29839906096458435 0.12215551733970642 -0.125526562333107
0.09339703619480133 -0.24948570132255554 0.020234232768416405
0.211481511592865 0.34144464135169983 -0.05842830240726471
-0.26568302512168884 -0.14123323559761047 -0.13704036176204681
0.29793211817741394 0.22011414170265198 -0.03933381661772728
0.19967755675315857 0.2263825386762619 -0.13418048620224
-0.2405921071767807 -0.24802334606647491 0.15073703229427338
0.29618552327156067 0.19557881355285645 0.1555566042661667
0.291904091835022 -0.2005428820848465 -0.13287435472011566
0.2209216207265854 -0.18251921236515045 0.1657150685787201
0.2876788079738617 -0.06388194859027863 0.15991470217704773
-0.20201405882835388 0.503456175327301 0.08814914524555206
-0.26507824659347534 -0.06490419805049896 -0.1381780505180359
0.23984965682029724 -0.4368877410888672 -0.08416225761175156
-0.27521228790283203 0.218751460313797 -0.04833788052201271
0.23521485924720764 0.013107292354106903 0.17106328904628754
0.20470452308654785 0.23310083150863647 -0.008213382214307785
-0.15541613101959229 -0.24310244619846344 -0.13546904921531677
-0.26910290122032166 -0.09205565601587296 0.15848219394683838
0.2538847327232361 -0.04045732691884041 0.15408995747566223
0.28453853726387024 -0.23071780800819397 -0.13501109182834625
0.21324263513088226 -0.44151633977890015 -0.0737752616405487
0.06356571614742279 -0.24631376564502716 0.15686480700969696
0.18267984688282013 0.4311947822570801 0.11753232032060623
-0.16222912073135376 -0.2542421221733093 -0.029665622860193253
-0.26958608627319336 0.0986301600933075 -0.13022887706756592
0.23750880360603333 -0.05601552128791809 0.17046600580215454
0.29070183634757996 0.456926167011261 0.12678278982639313
-0.2678453326225281 -0.026021236553788185 0.1590009331703186
-0.19240489602088928 0.4996906816959381 0.09583523869514465
-0.13634665310382843 -0.25059592723846436 0.1574367880821228
-0.03287196531891823 0.23095166683197021 0.11879117786884308
0.292658269405365 -0.21690109372138977 0.15554778277873993
0.2566508650779724 0.05473099648952484 0.1553369015455246
-0.2245924025774002 -0.37904876470565796 -0.08360099792480469
0.2459448277950287 -0.357188880443573 -0.08435230702161789
-0.2268504947423935 -0.474147230386734 0.03868671506643295
0.09458976984024048 -0.24921131134033203 0.1518738865852356
0.1963365525007248 0.4600451588630676 0.11989697813987732
-0.2977132201194763 -0.44806724786758423 -0.07762694358825684
-0.21691665053367615 -0.13863909244537354 0.16412410140037537
-0.2576576769351959 -0.24803699553012848 -0.08753897994756699
-0.26962530612945557 -0.19009409844875336 -0.12579579651355743
-0.1082506850361824 0.007181933149695396 -0.13445305824279785
0.053993016481399536 0.1604292094707489 0.16621889173984528
0.2923707962036133 -0.07032493501901627 -0.13589921593666077
0.2889140546321869 0.1667586863040924 0.1580694168806076
0.11884984374046326 -0.10897210240364075 0.1698567420244217
-0.266493022441864 0.0025305324234068394 -0.13760150969028473
-0.18446433544158936 -0.1992618292570114 0.15692561864852905
-0.27032071352005005 0.004981586709618568 -0.1295812875032425
0.290413498878479 0.09130523353815079 -0.13740400969982147
-0.2753177285194397 0.22934678196907043 -0.07797987014055252
-0.2402167171239853 0.16424871981143951 0.15571357309818268
-0.2713642120361328 0.015763049945235252 -0.1261667013168335
-0.11465002596378326 0.2297319769859314 -0.12973280251026154
0.08501271903514862 0.21923628449440002 -0.1373928189277649
0.2833881080150604 0.0015369611792266369 -0.13609962165355682
0.28546810150146484 0.35978442430496216 0.11083926260471344
-0.09438411891460419 0.16219162940979004 0.16585494577884674
-0.04949122667312622 0.1455967128276825 0.17211970686912537
-0.15457959473133087 -0.25759562849998474 -0.011239745654165745
-0.26913154125213623 0.1730664074420929 -0.13437741994857788
-0.012274831533432007 -0.23992425203323364 -0.13429950177669525
0.29674485325813293 0.009320070967078209 0.14994703233242035
-0.27449002861976624 -0.022802436724305153 -0.123153455555439
0.1257806420326233 0.2254340648651123 -0.13582371175289154
0.24432040750980377 0.3116207420825958 -0.03132717311382294
-0.27926599979400635 -0.3704446852207184 -0.09764643013477325
-0.2223997563123703 0.16565248370170593 0.16095568239688873
-0.07118780165910721 0.1692994385957718 0.16132718324661255
0.24173665046691895 0.15063858032226562 0.16720427572727203
-0.25121235847473145 -0.47464051842689514 -0.015053162351250648
-0.1958295851945877 -0.19467376172542572 0.15583062171936035
-0.26171451807022095 -0.14965452253818512 -0.13833951950073242
0.29097744822502136 0.22786478698253632 -0.08514069765806198
-0.26353514194488525 -0.008541141636669636 0.1578805148601532
-0.2711590826511383 0.19519764184951782 -0.1174374595284462
-0.23750895261764526 -0.38761234283447266 0.19623860716819763
0.17368268966674805 -0.2837160527706146 0.05487555265426636
-0.27358508110046387 0.22446565330028534 0.1373823881149292
-0.16397348046302795 0.2297508418560028 -0.02041674591600895
-0.1750437319278717 0.23274733126163483 -0.0063085416331887245
-0.26798492670059204 0.1897931694984436 -0.13362270593643188
-0.2722378075122833 -0.20699137449264526 0.1589212566614151
0.2480764240026474 -0.05316746607422829 0.1619369089603424
0.2741084396839142 -0.31445378065109253 0.027814045548439026
0.2888352572917938 -0.38506758213043213 0.15051215887069702
-0.2674526572227478 0.019420010969042778 -0.13524514436721802
-0.1954057663679123 0.23238880932331085 0.04608646780252457
-0.2747398018836975 -0.24675500392913818 -0.05650492385029793
0.2901577949523926 0.01954643987119198 -0.13476410508155823
0.13798704743385315 0.23069190979003906 -0.12766796350479126
-0.2682972848415375 -0.0003575533628463745 0.16014868021011353
-0.2378363460302353 -0.43087831139564514 0.17722684144973755
-0.26633700728416443 -0.11281001567840576 -0.13479644060134888
0.2925528883934021 -0.1361617147922516 0.1579778492450714
-0.2693327069282532 -0.17626844346523285 -0.13188046216964722
0.2957960367202759 -0.11715903133153915 0.15700159966945648
-0.01157400757074356 0.23147007822990417 0.14306795597076416
0.28475067019462585 -0.18874582648277283 0.1572481393814087
-0.044848427176475525 0.2260473221540451 0.1598607450723648
0.29674628376960754 -0.153938889503479 0.15220695734024048
-0.06961680203676224 -0.24836696684360504 0.14478589594364166
-0.2675764858722687 -0.021639421582221985 -0.13613590598106384
0.14309349656105042 -0.4195835590362549 -0.019568704068660736
0.28858238458633423 -0.13292011618614197 -0.13453680276870728
-0.02091754972934723 0.03603145107626915 -0.13505783677101135
0.29657596349716187 0.11537246406078339 0.15543201565742493
0.2869182527065277 0.008001962676644325 -0.1367235779762268
0.29961317777633667 -0.15401054918766022 0.15293866395950317
-0.20679137110710144 0.22770477831363678 -0.13384196162223816
0.05994342267513275 0.14475400745868683 0.17053841054439545
-0.2048659324645996 -0.4353485703468323 0.07742903381586075
0.253421425819397 -0.34918922185897827 -0.07882478833198547
-0.2909187972545624 0.07093752920627594 -0.29163795709609985
0.2373018115758896 -0.3732536733150482 -0.08894360810518265
0.2235826551914215 0.23121905326843262 -0.0471901074051857
-0.2668023407459259 0.13418440520763397 -0.13625624775886536
-0.27075132727622986 -0.08085805177688599 -0.10891370475292206
0.24596481025218964 0.03612644970417023 0.16412055492401123
-0.25830307602882385 -0.1434144675731659 -0.13598154485225677
0.204366073012352 -0.32994887232780457 0.11478382349014282
0.2916717827320099 0.02624017558991909 0.15847162902355194
-0.21641570329666138 0.07760559022426605 0.16917121410369873
0.24444414675235748 0.5079732537269592 -0.033096060156822205
0.28194934129714966 -0.22299671173095703 -0.13785506784915924
-0.2646790146827698 0.42714443802833557 0.10813180357217789
0.28562378883361816 0.20287203788757324 -0.1352519690990448
0.19096627831459045 -0.1826247274875641 0.16986599564552307
0.20113497972488403 -0.24354861676692963 0.15807147324085236
-0.3210003674030304 -0.40182527899742126 0.03951985388994217
-0.07750092446804047 0.21638792753219604 0.16119050979614258
-0.024005766957998276 -0.24689237773418427 0.157180517911911
-0.1307525485754013 -0.16883787512779236 0.1714550405740738
0.2370319664478302 0.37002110481262207 -0.08878692984580994
0.2872608006000519 -0.09655186533927917 -0.13608384132385254
-0.23754893243312836 -0.4684857130050659 0.049845948815345764
0.09966670721769333 -0.24435216188430786 0.1603662371635437
-0.2726108133792877 0.22162073850631714 0.14478006958961487
0.21269622445106506 0.46751993894577026 -0.06890936940908432
0.137718066573143 -0.4419381022453308 0.13758184015750885
-0.2696733772754669 0.18723022937774658 -0.13451766967773438
-0.3132816553115845 -0.436818927526474 -0.0697735846042633
0.003551133442670107 0.13750919699668884 -0.2140990048646927
0.2888721823692322 -0.10098612308502197 -0.13718685507774353
0.055168088525533676 0.23017536103725433 0.14764118194580078
0.18174174427986145 0.4612412452697754 0.040209874510765076
0.23719985783100128 0.22982148826122284 -0.09121498465538025
-0.2706455886363983 -0.1935415118932724 -0.0013160787057131529
-0.21401767432689667 -0.43050992488861084 0.15993548929691315
-0.218822181224823 0.12483738362789154 0.16888296604156494
0.282789021730423 0.36055606603622437 -0.06098293513059616
0.2833835482597351 -0.04934033378958702 -0.1350715458393097
0.214082270860672 -0.44827133417129517 0.19643127918243408
-0.2713214159011841 -0.08716139942407608 -0.1309320628643036
-0.27193790674209595 -0.2484624981880188 -0.06329086422920227
0.23664352297782898 0.2337852567434311 -0.032160669565200806
0.23847739398479462 0.23199522495269775 -0.03758438676595688
-0.2377297282218933 -0.4711964428424835 0.03914104402065277
0.16157373785972595 -0.23609121143817902 -0.13986675441265106
0.28065788745880127 -0.048142243176698685 -0.13534481823444366
-0.02999342978000641 -0.1996988207101822 0.15597379207611084
-0.26860079169273376 -0.0020412104204297066 -0.12791474163532257
0.2836171090602875 -0.44015878438949585 0.04241866245865822
0.23062002658843994 -0.3228459060192108 -0.07807260751724243
0.23284119367599487 -0.3037148118019104 -0.07104231417179108
-0.2471044361591339 -0.2509247064590454 -0.06443224102258682
-0.2728036344051361 0.15870746970176697 0.14652080833911896
0.2894549071788788 -0.01615866646170616 0.15744692087173462
0.2901105582714081 0.41998639702796936 0.12957799434661865
0.283681720495224 -0.04973842203617096 -0.13413947820663452
0.23556964099407196 -0.2845848500728607 -0.06369823962450027
-0.2459641993045807 -0.05388110131025314 -0.24121716618537903
-0.23641525208950043 0.46115463972091675 -0.05583299323916435
-0.23316943645477295 -0.2897234261035919 0.08639943599700928
0.18283025920391083 -0.1836497187614441 0.16770575940608978
-0.26792556047439575 0.10049872100353241 -0.13812889158725739
-0.2768140435218811 -0.33981186151504517 0.1811130940914154
-0.25215262174606323 -0.3529006540775299 -0.09319980442523956
0.11656589061021805 -0.11293332278728485 -0.1362287551164627
0.2965492308139801 0.08029382675886154 0.14697803556919098
0.2941721975803375 -0.029946129769086838 0.15780870616436005
-0.1710014045238495 0.22985975444316864 -0.011224319227039814
-0.2717500925064087 -0.0407070517539978 0.02842007391154766
0.295690655708313 0.23021447658538818 0.00841623917222023
0.271018385887146 -0.44327718019485474 -0.042597971856594086
-0.270675927400589 -0.005829162895679474 -0.13089556992053986
0.25859710574150085 -0.3161921501159668 -0.06420055031776428
-0.2672162652015686 -0.05496273562312126 -0.13610537350177765
-0.2687060832977295 -0.2493535280227661 -0.11000072211027145
0.2469116598367691 -0.25007039308547974 -0.053583137691020966
-0.3302963078022003 -0.3511575162410736 0.06382665783166885
-0.26579099893569946 0.3793965280056 -0.002062032697722316
-0.046708907932043076 0.15918105840682983 -0.1369955837726593
0.2970193922519684 0.026823140680789948 0.14803282916545868
-0.26369228959083557 -0.3125194311141968 0.11896811425685883
-0.19555293023586273 0.4830373525619507 -0.04619165509939194
-0.26024678349494934 0.40161558985710144 0.11434933543205261
0.20761409401893616 -0.17817360162734985 0.16746611893177032
-0.2738722264766693 -0.2330804318189621 0.0785706639289856
-0.26925501227378845 0.08953090012073517 -0.1251765787601471
0.09796196222305298 -0.18138521909713745 0.16820251941680908
-0.2671978771686554 -0.2939353287220001 0.08330996334552765
0.02062114328145981 -0.10518115758895874 0.16936597228050232
0.11706186830997467 -0.18422971665859222 0.16248494386672974
-0.26692089438438416 -0.1481979489326477 -0.13703329861164093
0.2911139130592346 -0.1513325423002243 0.15221455693244934
-0.17243142426013947 0.46516603231430054 0.10797403752803802
0.29718875885009766 0.05933988839387894 -0.12614063918590546
-0.11241433769464493 0.22743366658687592 -0.13050352036952972
0.05586550012230873 0.1620206981897354 -0.1378946602344513
-0.2671199142932892 0.009158199653029442 -0.13807225227355957
-0.2297053039073944 -0.401925653219223 0.19333989918231964
-0.18880635499954224 0.23026816546916962 0.04734344780445099
-0.2605443298816681 -0.3446270823478699 -0.08163793385028839
-0.19202318787574768 0.3269434869289398 -0.019269030541181564
-0.26513439416885376 0.02872994728386402 -0.13693013787269592
-0.18241295218467712 -0.3986803889274597 0.0006883060559630394
-0.10644763708114624 0.2323373407125473 -0.03057086654007435
-0.26758044958114624 0.006256025284528732 -0.1363513022661209
