-0.05020095407962799 0.22721035778522491 -0.12690381705760956
0.2973082363605499 -0.08173724263906479 -0.05915471166372299
-0.045782990753650665 -0.2522452473640442 0.14271564781665802
-0.2691814601421356 -0.2476995885372162 -0.09493251889944077
0.2933540940284729 0.21974989771842957 -0.13421624898910522
0.2988552153110504 0.09867604076862335 0.14525525271892548
0.29941120743751526 0.20012055337429047 0.02676060050725937
0.28709134459495544 0.34673187136650085 -0.047593921422958374
0.18978537619113922 -0.24791477620601654 -0.12748919427394867
0.18183286488056183 0.22939983010292053 0.14670085906982422
0.205214262008667 0.2332530915737152 0.030106965452432632
-0.25937119126319885 -0.059664953500032425 0.15321305394172668
0.2961089015007019 -0.1626337617635727 -0.12496083974838257
0.2103104293346405 0.3305669128894806 -0.04569435119628906
0.29067227244377136 0.14462152123451233 -0.1354864537715912
0.18288816511631012 0.34689679741859436 -0.016460955142974854
-0.269984632730484 0.2013060599565506 0.14223341643810272
0.29695895314216614 -0.2009289711713791 -0.06318147480487823
0.2001020461320877 0.3983527421951294 -0.06934371590614319
-0.2701992094516754 -0.06325200200080872 -0.12513290345668793
0.16578249633312225 0.2268209606409073 -0.13545863330364227
-0.26065531373023987 -0.01642298512160778 -0.13524192571640015
0.028293084353208542 -0.24879513680934906 0.1525276005268097
0.23636886477470398 0.057185329496860504 0.17032089829444885
0.11130490899085999 0.23299601674079895 0.14525985717773438
-0.2649660110473633 0.4034426510334015 -0.027669094502925873
-0.07013876736164093 0.15560610592365265 0.16753411293029785
-0.19093748927116394 0.3490028381347656 -0.060232359915971756
0.2775157690048218 0.22234655916690826 -0.1342075616121292
-0.22703592479228973 -0.35560399293899536 -0.08471442759037018
0.2651934027671814 0.4489917755126953 -0.08279915153980255
0.2915465235710144 0.4120531380176544 0.12412424385547638
0.2801355719566345 0.22993029654026031 -0.027941077947616577
-0.2659955620765686 -0.20425724983215332 -0.13345173001289368
-0.27105867862701416 -0.46538037061691284 -0.06726701557636261
-0.2392989993095398 0.37412896752357483 0.11084188520908356
0.10814005136489868 -0.07465150952339172 0.16859780251979828
-0.007167520467191935 0.09574730694293976 -0.1369660347700119
-0.2660383880138397 0.4102996587753296 0.06782975047826767
0.2930770814418793 0.22096958756446838 -0.13441558182239532
0.23744016885757446 0.11856117099523544 0.16694201529026031
0.2975340187549591 0.044737137854099274 -0.13373050093650818
0.28716543316841125 0.22162818908691406 -0.13435371220111847
-0.2351987510919571 -0.43633702397346497 0.17810893058776855
-0.2678638994693756 0.22224754095077515 0.141861230134964
0.149645134806633 -0.44253838062286377 0.015106476843357086
0.29195645451545715 -0.10567530989646912 -0.13561731576919556
0.27966079115867615 0.23028208315372467 -0.019897133111953735
0.15079045295715332 -0.44324469566345215 0.04056088253855705
0.2854924499988556 -0.4459216892719269 0.1429337114095688
-0.21506041288375854 0.5020329356193542 0.0004151593893766403
0.08627625554800034 -0.15639904141426086 -0.1348169893026352
-0.05789352208375931 -0.24462050199508667 -0.13441583514213562
0.29900866746902466 -0.25223079323768616 0.10145192593336105
0.2627021372318268 -0.2465410977602005 -0.005853587761521339
0.0766250267624855 0.22886358201503754 -0.05449344590306282
0.2976422905921936 -0.1968519687652588 0.14930318295955658
0.28685811161994934 -0.2517019808292389 -0.0619569793343544
-0.26911070942878723 0.14884164929389954 -0.13170267641544342
-0.3336699306964874 -0.34481504559516907 0.16572245955467224
0.05388795584440231 -0.24472379684448242 -0.13418148458003998
-0.2724744379520416 0.18856561183929443 -0.1305149644613266
0.2232683002948761 -0.2513294517993927 0.07523302733898163
-0.23875761032104492 -0.43214330077171326 0.17345987260341644
-0.20774884521961212 0.24879467487335205 0.04517052322626114
-0.3212125599384308 -0.33088183403015137 0.17049865424633026
-0.2563042640686035 0.22021013498306274 -0.13703447580337524
0.058945752680301666 0.21000897884368896 -0.19741511344909668
0.18420705199241638 0.4514162838459015 0.11191269755363464
0.25914302468299866 0.20982742309570312 0.15665988624095917
0.29290664196014404 -0.22650834918022156 0.1574266105890274
-0.2700579762458801 -0.1214883029460907 -0.12389472872018814
0.2879508137702942 0.01784876361489296 -0.13475817441940308
0.2360263466835022 -0.13269230723381042 0.16928164660930634
0.2986322045326233 -0.23217448592185974 -0.1224440410733223
-0.17126265168190002 0.23232674598693848 0.024646613746881485
0.30115798115730286 0.02380889654159546 -0.13044555485248566
-0.2697630226612091 -0.24387691915035248 -0.07169148325920105
0.2149149775505066 -0.17588019371032715 0.16866016387939453
-0.2697639465332031 -0.1520082652568817 -0.13197249174118042
-0.06389818340539932 -0.2501879930496216 0.14208000898361206
0.01427636668086052 0.22280605137348175 -0.1363481730222702
-0.2690328359603882 -0.192020982503891 -0.12239933758974075
0.2875330448150635 -0.3769044578075409 0.04957716539502144
0.29498291015625 -0.2508254945278168 0.09495320171117783
-0.1906222254037857 0.22676050662994385 -0.1337621808052063
-0.2636600434780121 0.0793280079960823 -0.13488900661468506
0.19394205510616302 0.45229122042655945 0.1141728013753891
-0.21685099601745605 0.01290265191346407 0.16721630096435547
0.2569001317024231 -0.3004269599914551 -0.058217283338308334
-0.08678694814443588 0.23175682127475739 0.0899665579199791
-0.13837014138698578 0.23081882297992706 0.08323291689157486
-0.0029774289578199387 0.16666340827941895 0.15774096548557281
0.29096102714538574 -0.04696689546108246 -0.13567721843719482
-0.23185528814792633 -0.27642861008644104 -0.05204939842224121
-0.18118701875209808 -0.37016797065734863 -0.044036321341991425
0.08407806605100632 -0.2520676851272583 0.11441261321306229
0.20807486772537231 0.4787798225879669 0.11251789331436157
-0.2679513394832611 0.020466815680265427 -0.12394236028194427
0.28671544790267944 0.03886152803897858 -0.13584014773368835
0.1483609527349472 0.15612781047821045 0.16848979890346527
0.2896696627140045 0.008766449987888336 0.15609616041183472
0.23468247056007385 0.2333655059337616 0.1451687067747116
0.06589256227016449 0.1553657352924347 -0.1350773423910141
0.2986695170402527 0.14243578910827637 0.15310773253440857
-0.26835712790489197 -0.24498701095581055 0.020890267565846443
-0.2823792099952698 -0.4032486379146576 -0.09392549842596054
-0.2101675271987915 0.07914936542510986 0.168583944439888
-0.2713256776332855 -0.23522529006004333 -0.12682898342609406
0.15299354493618011 -0.424714595079422 0.1675967127084732
0.29425540566444397 0.10565592348575592 0.15614229440689087
0.03123873472213745 0.22688202559947968 -0.1297597736120224
0.28748196363449097 0.05152437835931778 -0.13522429764270782
0.14619427919387817 -0.4281657636165619 -0.01665724255144596
0.10610957443714142 0.2287396639585495 -0.12433717399835587
0.14351607859134674 -0.43798649311065674 0.13969732820987701
-0.22344186902046204 -0.4591403901576996 0.08707284927368164
-0.26817625761032104 -0.031152283772826195 -0.13142892718315125
-0.27014562487602234 -0.20598852634429932 -0.12889863550662994
-0.25799524784088135 -0.12356942892074585 -0.13673177361488342
-0.2629774808883667 0.008595738559961319 -0.13448593020439148
0.2775265574455261 -0.24999502301216125 -0.1245189756155014
0.2951004207134247 -0.007806278765201569 -0.13388660550117493
0.2871718406677246 -0.23807455599308014 0.15585960447788239
0.2970152199268341 0.2228909432888031 -0.1264096349477768
0.11021781712770462 -0.08282461762428284 0.16793979704380035
-0.25553908944129944 0.3796353340148926 0.1005760058760643
-0.27186110615730286 -0.24031701683998108 0.09228639304637909
-0.26164814829826355 0.4426071345806122 0.10194472968578339
0.1756378412246704 -0.2649187743663788 -0.012502935715019703
0.10348103940486908 0.12147288769483566 -0.1372838318347931
0.29499852657318115 0.21968038380146027 0.049834348261356354
-0.25872188806533813 0.22801512479782104 0.14020784199237823
0.29864931106567383 0.21571210026741028 0.1437096744775772
-0.21211408078670502 -0.1770147979259491 0.16675613820552826
-0.0323176272213459 0.16078457236289978 -0.20041094720363617
0.2717927098274231 -0.44695448875427246 0.1899888813495636
-0.26700159907341003 0.21181513369083405 -0.13554337620735168
0.2241722047328949 -0.2899850308895111 0.08857650309801102
-0.15070536732673645 -0.2675411105155945 0.033452313393354416
-0.24789921939373016 -0.01034730114042759 -0.2906818985939026
0.23229262232780457 -0.25284865498542786 -0.05313517898321152
0.25455814599990845 -0.25488439202308655 -0.01846025139093399
0.22774939239025116 0.1567501723766327 0.16772450506687164
0.298592209815979 0.2211800217628479 0.005357980728149414
-0.26994219422340393 -0.24888329207897186 -0.08546598255634308
-0.02978416159749031 0.16778966784477234 -0.1374930441379547
0.2974018156528473 -0.23632198572158813 0.14454765617847443
-0.20993393659591675 0.08478767424821854 0.17326834797859192
-0.005648535676300526 -0.24688223004341125 -0.1319461464881897
0.06788023561239243 -0.1986071765422821 0.15211699903011322
0.19633212685585022 0.2158207893371582 0.15581294894218445
-0.03376821428537369 0.22620145976543427 0.15301086008548737
-0.2673794627189636 0.2166869342327118 -0.13488079607486725
-0.03761599212884903 0.21172209084033966 0.156771719455719
-0.12717804312705994 -0.2392999678850174 0.1564086675643921
0.18378503620624542 -0.4321753978729248 -0.06754536926746368
0.20319469273090363 0.18286694586277008 0.15295660495758057
0.2985558807849884 -0.23515421152114868 0.1459067016839981
0.11939913779497147 0.16978853940963745 0.15528763830661774
0.046154677867889404 -0.1910632699728012 0.1588229089975357
-0.3327276408672333 -0.3548535108566284 0.10820002853870392
0.15909536182880402 -0.4445444941520691 -0.0019251294434070587
-0.21969927847385406 0.2300591617822647 0.13775920867919922
0.2383563220500946 -0.15765345096588135 0.16952423751354218
0.27764397859573364 -0.3479214012622833 0.11975209414958954
0.24801304936408997 0.057368285953998566 0.16406938433647156
-0.18630428612232208 0.3300570547580719 -0.02917112037539482
0.08183924853801727 0.107418954372406 0.16781020164489746
0.21674324572086334 0.3359701335430145 -0.06233394891023636
-0.2579304277896881 -0.09844037890434265 -0.13632537424564362
-0.17374569177627563 -0.17688091099262238 0.16988244652748108
-0.19828087091445923 -0.315447062253952 0.08011304587125778
-0.23366636037826538 -0.3497833013534546 0.13243012130260468
0.2285582423210144 -0.4454759657382965 0.19591930508613586
0.05230116471648216 0.2285788357257843 -0.12224926799535751
0.18716734647750854 0.4454136788845062 0.11193723231554031
0.296302855014801 0.17825359106063843 0.15066537261009216
-0.256771445274353 0.21316716074943542 -0.1352369338274002
0.2516750693321228 0.23420356214046478 -0.029051991179585457
0.24846936762332916 -0.4063809812068939 -0.08926278352737427
-0.332171767950058 -0.41256099939346313 -0.029259661212563515
-0.009059778414666653 0.24051830172538757 -0.2516956031322479
-0.19944296777248383 -0.26055148243904114 -0.049732621759176254
0.2913791537284851 0.06039318069815636 -0.13386127352714539
-0.15910083055496216 -0.2559131383895874 0.049318939447402954
-0.270488440990448 -0.20351475477218628 -0.12453237920999527
-0.11348983645439148 0.2287261039018631 0.14342059195041656
-0.26917287707328796 -0.03367782011628151 0.14131969213485718
0.2925039231777191 0.2181943953037262 -0.13522197306156158
-0.2587106227874756 0.45218580961227417 0.09802815318107605
0.18410776555538177 0.3592078983783722 0.05480755865573883
0.2898123562335968 -0.24845431745052338 -0.05686866492033005
0.2644912302494049 0.4604216516017914 -0.07598187774419785
0.2981981635093689 -0.0869356095790863 -0.1230449378490448
-0.17617163062095642 -0.25554490089416504 -0.05196984112262726
-0.1318736970424652 -0.2471182644367218 0.1513718068599701
0.291526734828949 -0.23724932968616486 -0.1344926804304123
0.2499619424343109 0.11882302165031433 0.1610633134841919
-0.26457881927490234 -0.0388561449944973 -0.1310431957244873
0.28630495071411133 -0.25045204162597656 -0.02412501722574234
0.002154354006052017 0.18374678492546082 -0.13444282114505768
-0.26536825299263 0.15509751439094543 0.15361502766609192
0.2150317281484604 0.2159091681241989 -0.13535986840724945
0.20996525883674622 0.2283259481191635 -0.03221416473388672
0.27380886673927307 -0.06817726790904999 -0.13517418503761292
0.25133270025253296 -0.08108410239219666 0.16154512763023376
0.2970452904701233 0.13790912926197052 -0.1351562887430191
-0.16357308626174927 0.4482724070549011 0.10096141695976257
0.17369666695594788 0.4059385657310486 0.02521139569580555
0.24352073669433594 -0.20153646171092987 0.15712472796440125
0.29769304394721985 0.07289361953735352 -0.1016760766506195
-0.2794167399406433 -0.0683230608701706 -0.23930755257606506
0.24819210171699524 -0.03304413706064224 0.16476692259311676
-0.2011657953262329 -0.19102248549461365 0.15800917148590088
0.29764682054519653 -0.15802109241485596 -0.13195741176605225
0.10691453516483307 0.1734064370393753 0.15230068564414978
-0.16896936297416687 0.459988534450531 0.10213103145360947
-0.2586974501609802 0.19161231815814972 0.15345875918865204
0.2908683121204376 -0.4307349622249603 0.11892062425613403
-0.22642332315444946 -0.4770948588848114 0.013331463560461998
-0.26217150688171387 -0.24952422082424164 -0.07883738726377487
0.28705745935440063 -0.38911283016204834 0.04204029589891434
0.28976279497146606 0.2292083501815796 -0.05373075231909752
0.2911897301673889 0.2234276831150055 -0.13433542847633362
-0.15627142786979675 0.3978651463985443 0.009555157274007797
0.23143473267555237 0.3695313036441803 -0.08919211477041245
-0.2694857120513916 -0.21292978525161743 0.14844302833080292
-0.2711111605167389 -0.16734930872917175 -0.0817965567111969
0.2666456401348114 -0.250103235244751 0.015554596669971943
0.18189795315265656 0.46672287583351135 0.09824353456497192
-0.2688567340373993 -0.2468751072883606 -0.005234833806753159
-0.15527981519699097 -0.2510561943054199 -0.0862957090139389
-0.1989889293909073 0.2249218374490738 -0.12525732815265656
0.2493055760860443 -0.18402191996574402 0.16234247386455536
-0.13436561822891235 0.1538791060447693 0.1674381047487259
-0.0777219906449318 0.2164984941482544 -0.13354361057281494
0.29926183819770813 0.1005806177854538 -0.1324804574251175
-0.20637913048267365 0.04220939427614212 0.17078836262226105
-0.1816968470811844 0.3332194685935974 -0.029526935890316963
0.2906024158000946 -0.012923115864396095 0.15593025088310242
-0.3399102985858917 -0.3672705590724945 0.10062415897846222
0.2985047399997711 0.21633082628250122 0.11931425333023071
-0.20129327476024628 0.5002803206443787 0.07645969092845917
-0.26416659355163574 0.36895233392715454 0.030450819060206413
0.09571269154548645 -0.18673917651176453 0.16470174491405487
0.28341251611709595 -0.2492104470729828 -0.03755423054099083
-0.3352210819721222 -0.41210508346557617 -0.04084954783320427
0.006076096091419458 0.17860260605812073 0.15062183141708374
0.29810598492622375 0.03205021843314171 -0.12262705713510513
0.2773064076900482 0.43316787481307983 0.11757703870534897
-0.26751908659935 -0.11843457818031311 -0.13295096158981323
0.24544115364551544 -0.3365251421928406 -0.08148617297410965
0.29872557520866394 0.17836898565292358 0.1485520750284195
0.17669916152954102 -0.25284263491630554 -0.009890886954963207
-0.2603033483028412 -0.1860494166612625 -0.13567973673343658
0.18294170498847961 0.37374672293663025 0.09645269811153412
0.034670036286115646 0.1576949656009674 0.16690774261951447
0.06250814348459244 0.12051977217197418 -0.13568806648254395
0.2705695629119873 0.23001757264137268 -0.03472303971648216
-0.2453528195619583 0.32447347044944763 0.0004484141245484352
-0.2644357681274414 0.4467717707157135 0.031211452558636665
-0.22390598058700562 0.33175918459892273 -0.03639194741845131
0.22827409207820892 0.24022646248340607 -0.026170838624238968
0.2949751317501068 -0.07022017240524292 0.15463414788246155
-0.13061994314193726 0.22911788523197174 -0.13377425074577332
-0.15481191873550415 -0.25519415736198425 0.04515236243605614
-0.07022500783205032 0.22749260067939758 -0.1314857453107834
0.0656776949763298 -0.23655663430690765 -0.13351339101791382
0.2915087938308716 -0.0901225134730339 0.15668438374996185
0.2897987961769104 0.01871352270245552 -0.135443314909935
0.2649882435798645 -0.07536261528730392 0.15471485257148743
0.06346487253904343 0.17546558380126953 0.15325230360031128
-0.2170751541852951 -0.4674173891544342 0.04307839646935463
0.04258491471409798 -0.2502515912055969 0.1430380642414093
-0.24606645107269287 0.3533673882484436 0.0873086005449295
0.2970476448535919 -0.004433255642652512 -0.1267523318529129
0.033002160489559174 -0.25040730834007263 0.14407235383987427
-0.023751769214868546 0.17453518509864807 -0.13562656939029694
-0.01323109120130539 0.2848101556301117 -0.28644123673439026
0.29849475622177124 0.3506057560443878 0.0031181504018604755
-0.27108120918273926 -0.24860423803329468 -0.017921991646289825
-0.25934094190597534 0.36738350987434387 0.06784263998270035
-0.2555321753025055 0.05623393505811691 -0.13586217164993286
0.2561575472354889 -0.25677260756492615 0.00579764973372221
-0.03615371882915497 -0.24560602009296417 0.15547053515911102
-0.2687673568725586 0.22331513464450836 -0.02545597031712532
-0.24899233877658844 0.2272433638572693 -0.13476766645908356
-0.1748182624578476 -0.24491916596889496 -0.13035137951374054
-0.05634450167417526 -0.24512739479541779 -0.1344786137342453
0.2941521406173706 0.01827200874686241 0.15593238174915314
-0.24411170184612274 -0.2796519696712494 0.06115302816033363
0.19879049062728882 -0.23722392320632935 -0.13669417798519135
0.2612057328224182 -0.03818328678607941 0.15389195084571838
-0.21832908689975739 -0.11848452687263489 0.1631973385810852
-0.23069880902767181 0.22796347737312317 -0.13403277099132538
0.20748528838157654 0.22732040286064148 0.0216109249740839
0.29092639684677124 0.2283504605293274 0.11871631443500519
0.009605084545910358 0.10439875721931458 -0.1355666220188141
-0.18880945444107056 0.3285132348537445 -0.029627632349729538
0.10025162994861603 0.17204299569129944 0.15265022218227386
-0.09628404676914215 0.22959493100643158 -0.12685346603393555
-0.263701468706131 0.05690526217222214 0.1532512605190277
-0.19085407257080078 -0.24965128302574158 -0.12484466284513474
0.24068021774291992 -0.24829089641571045 -0.12516361474990845
0.28030848503112793 0.22147232294082642 -0.1332331895828247
-0.0160844624042511 0.20353856682777405 -0.1356930434703827
0.2950201630592346 0.06641554832458496 0.15377384424209595
-0.21105961501598358 -0.18770252168178558 0.1603635847568512
-0.239413321018219 0.23596160113811493 -0.025157131254673004
-0.26851731538772583 -0.24560046195983887 0.04462679103016853
0.1785394549369812 0.2256081998348236 -0.13648228347301483
0.13259001076221466 0.22794996201992035 0.13767516613006592
-0.16424110531806946 0.22692589461803436 0.004420517943799496
-0.12939323484897614 0.2284703105688095 0.15142962336540222
-0.24017959833145142 -0.4326171278953552 0.17344535887241364
-0.2674989402294159 -0.04632631316781044 -0.13357502222061157
-0.028481077402830124 0.15192432701587677 0.1701158583164215
0.08306637406349182 0.17864514887332916 0.15295292437076569
-0.26957324147224426 -0.2348334789276123 -0.12846839427947998
0.2127409726381302 0.4426482617855072 0.09946628659963608
0.289615273475647 0.22165891528129578 -0.13328957557678223
-0.18660375475883484 0.32883647084236145 0.04256928712129593
-0.12988586723804474 -0.25379306077957153 0.14287449419498444
-0.23122218251228333 -0.056648265570402145 0.15216639637947083
0.07943916320800781 -0.18513533473014832 0.16507193446159363
0.22995658218860626 -0.3029642701148987 -0.07300341129302979
0.3000800907611847 -0.19176627695560455 -0.0959901511669159
0.011453913524746895 -0.19536533951759338 0.15369448065757751
-0.26975491642951965 -0.24001207947731018 0.12316589802503586
0.2825542986392975 -0.23703524470329285 -0.13417597115039825
0.2949364185333252 0.2213992178440094 -0.13565686345100403
-0.21609994769096375 -0.043898433446884155 0.16481077671051025
-0.17272524535655975 -0.2477131485939026 -0.13106733560562134
0.20496919751167297 0.49853336811065674 0.09852156043052673
0.011055461131036282 -0.17330093681812286 0.16921988129615784
0.2916555106639862 -0.42826956510543823 0.1081521138548851
0.25048398971557617 -0.2751680910587311 0.0687389001250267
0.048844218254089355 -0.24853366613388062 0.15197382867336273
-0.2318577617406845 0.37067264318466187 0.1104467362165451
0.14161786437034607 0.213112011551857 0.15673574805259705
0.29713618755340576 -0.13527266681194305 -0.1336672604084015
-0.03736981749534607 -0.19674623012542725 0.1514875292778015
-0.33946022391319275 -0.3866695165634155 0.002631816081702709
0.21903099119663239 0.24233737587928772 -0.017018822953104973
-0.03172118589282036 0.15712977945804596 -0.19817352294921875
0.26099351048469543 -0.052081335335969925 0.15398703515529633
0.2990840673446655 -0.06522475183010101 0.029610853642225266
-0.17783014476299286 0.22837713360786438 -0.13167276978492737
-0.26851943135261536 0.1479216367006302 -0.13422609865665436
0.2788558304309845 -0.4452500343322754 0.08573474735021591
-0.05327031761407852 0.03912419080734253 0.17073766887187958
-0.1566639542579651 -0.24728943407535553 -0.13350404798984528
0.29970577359199524 0.13284198939800262 0.1236877292394638
0.2738509476184845 -0.38927632570266724 0.17854726314544678
-0.029993874952197075 -0.23605181276798248 -0.13431765139102936
-0.2682401239871979 0.1613370031118393 -0.12087015062570572
0.06319484859704971 0.21315932273864746 -0.19769254326820374
-0.20827487111091614 -0.2475663274526596 -0.12539799511432648
0.2954045534133911 -0.20941975712776184 0.14755511283874512
-0.034103989601135254 -0.24459601938724518 -0.13333597779273987
-0.21732750535011292 -0.2528393268585205 0.0898488312959671
0.09737645089626312 0.22943511605262756 0.1444837599992752
0.02605629712343216 -0.24102982878684998 -0.13389495015144348
-0.24031823873519897 -0.33981946110725403 -0.08571429550647736
-0.11281201988458633 0.220394104719162 -0.137721985578537
0.15379586815834045 -0.30790477991104126 -0.008680777624249458
-0.22064000368118286 -0.21245859563350677 -0.1365489661693573
0.002364159794524312 0.22727283835411072 -0.13702432811260223
0.29613155126571655 -0.19612890481948853 0.1553197205066681
-0.26378846168518066 0.23009811341762543 -0.08644048124551773
-0.09946683049201965 0.22897380590438843 -0.07973852008581161
-0.26934894919395447 0.015054367482662201 -0.024315785616636276
0.29370424151420593 0.14211995899677277 0.1561346799135208
0.2925352454185486 -0.43930304050445557 0.13909366726875305
0.2562325596809387 -0.3758212924003601 -0.07872612774372101
0.1321071982383728 0.21164780855178833 -0.13487586379051208
0.289900004863739 -0.11691733449697495 -0.13655874133110046
0.28937435150146484 -0.24884819984436035 0.012938551604747772
0.29683250188827515 0.07845856994390488 -0.13404032588005066
0.19961212575435638 0.3697259724140167 0.10948587208986282
-0.2695494294166565 -0.3009066879749298 0.08764485269784927
0.2530931532382965 -0.10799872130155563 0.15710249543190002
0.188645139336586 -0.25660234689712524 0.05613185092806816
0.2984100878238678 -0.22648240625858307 0.14615420997142792
0.2450806349515915 0.17052996158599854 0.15181851387023926
0.2948625385761261 -0.24772615730762482 0.14306269586086273
-0.190459743142128 -0.1757303923368454 0.16892030835151672
0.022364789620041847 -0.24818845093250275 -0.12120918184518814
0.16234077513217926 0.2291605919599533 -0.0838773176074028
0.17827695608139038 -0.44564229249954224 -0.00740685872733593
0.2298283725976944 -0.34226271510124207 -0.08358040452003479
-0.28806957602500916 -0.45155635476112366 -0.08193327486515045
-0.26899150013923645 0.2192968726158142 -0.06459595263004303
-0.21363870799541473 -0.06324243545532227 0.16884350776672363
0.2946241796016693 -0.06052999943494797 0.154984250664711
-0.23595066368579865 -0.46819478273391724 0.06251168996095657
-0.2265539914369583 -0.2561390995979309 -0.03321864828467369
-0.026036648079752922 0.17013609409332275 -0.13850420713424683
-0.24581065773963928 0.3603576123714447 0.09636130928993225
0.237926185131073 -0.4156203269958496 -0.08970659226179123
-0.24653512239456177 0.40182191133499146 0.11136998236179352
0.2556420564651489 0.07329385727643967 0.15308891236782074
0.26780956983566284 -0.41189438104629517 -0.07206043601036072
0.29803526401519775 0.19787299633026123 -0.13231387734413147
0.23638828098773956 -0.3240530490875244 -0.08193521946668625
-0.16947060823440552 0.1664281189441681 0.1576303094625473
-0.10505437850952148 -0.2533036470413208 -0.011139975860714912
-0.239166259765625 0.3626677691936493 0.10416127741336823
0.023916607722640038 0.16299854218959808 0.1609923094511032
-0.07556159049272537 0.22703002393245697 0.1545516401529312
-0.08679293096065521 -0.24874210357666016 -0.13089865446090698
-0.1950472742319107 0.363495409488678 -0.07116053998470306
0.29069551825523376 0.2294832468032837 0.06857496500015259
-0.26819008588790894 0.047741711139678955 -0.1353420913219452
0.055579494684934616 0.17756302654743195 -0.13746491074562073
0.25697076320648193 0.09806189686059952 0.15155772864818573
0.30004486441612244 0.014768214896321297 0.03333519399166107
-0.05718906968832016 0.22780883312225342 0.04771849513053894
-0.16653531789779663 -0.23907369375228882 -0.13355623185634613
-0.26689770817756653 0.21831677854061127 0.036783523857593536
-0.2671624422073364 -0.24785372614860535 0.03280281275510788
-0.26959213614463806 -0.23078173398971558 -0.034393295645713806
0.21469278633594513 -0.27975764870643616 -0.05863706022500992
-0.005065012723207474 0.17271247506141663 0.1513242870569229
0.045043401420116425 -0.11756027489900589 -0.13505731523036957
0.2981015145778656 0.1442667543888092 0.14749546349048615
-0.24789343774318695 0.35397690534591675 0.08397582918405533
-0.1731579601764679 0.22894543409347534 0.08425385504961014
0.29032278060913086 -0.18813379108905792 0.15673823654651642
0.296745240688324 0.12680241465568542 0.1482749879360199
0.16141676902770996 -0.25038495659828186 0.15388700366020203
-0.2588343024253845 0.3654845952987671 0.07697310298681259
0.19504596292972565 0.4749618470668793 0.10952328890562057
0.29933130741119385 -0.13914023339748383 0.018464572727680206
0.2906275689601898 0.43239912390708923 0.12295608222484589
0.2291235476732254 0.37250277400016785 -0.09017103910446167
0.3010321259498596 0.21328194439411163 -0.1264222264289856
0.25240442156791687 -0.12138620018959045 0.16008353233337402
0.05781632661819458 0.2254769653081894 -0.1361624002456665
-0.11205382645130157 -0.24705509841442108 -0.13360810279846191
-0.16655121743679047 0.47659143805503845 -0.00808507576584816
0.2961218059062958 0.1423015296459198 0.14916780591011047
0.26291540265083313 -0.393103688955307 -0.07691728323698044
0.2141306847333908 -0.2538992762565613 -0.08976276218891144
0.24388650059700012 0.225742369890213 0.15386217832565308
-0.23622065782546997 -0.24843677878379822 -0.12735775113105774
0.2992733120918274 -0.12666231393814087 0.15552078187465668
-0.26756998896598816 0.1429765820503235 0.15195304155349731
0.15940876305103302 0.22375833988189697 0.15441101789474487
-0.24219538271427155 0.44210976362228394 0.0967523530125618
-0.2976837754249573 -0.3824549913406372 -0.08608122169971466
-0.26988813281059265 -0.24628163874149323 -0.1279887706041336
0.29970216751098633 0.016455821692943573 -0.13175947964191437
0.2779914438724518 0.2367698699235916 0.03352554887533188
0.23563620448112488 -0.40586504340171814 -0.08986051380634308
-0.1874212920665741 -0.1906062364578247 0.16034691035747528
-0.26142725348472595 -0.1407981812953949 -0.13274869322776794
-0.06427742540836334 0.21550577878952026 -0.13776624202728271
-0.11237753927707672 0.03985128551721573 0.17087583243846893
-0.2621719539165497 0.10295983403921127 0.15370158851146698
0.06001737341284752 0.1766086220741272 -0.15908244252204895
-0.2562084496021271 0.4679267108440399 -0.01298490446060896
0.13973674178123474 -0.43870124220848083 0.08716518431901932
-0.26803267002105713 -0.24829880893230438 -0.09783469140529633
0.2573621869087219 -0.30387693643569946 0.08641142398118973
-0.19953781366348267 0.33712056279182434 0.0590512789785862
-0.16349419951438904 0.22796595096588135 -0.10777785629034042
0.251770943403244 -0.25240981578826904 0.05890193581581116
-0.07205197215080261 0.21997417509555817 0.15572981536388397
-0.26978087425231934 0.17897018790245056 0.0544966384768486
-0.2162189483642578 0.23965850472450256 0.05474478751420975
0.06811373680830002 -0.18669602274894714 0.16281628608703613
-0.2515964210033417 0.47314754128456116 -0.030568279325962067
-0.03321230411529541 0.16901107132434845 0.15385925769805908
0.04305422306060791 -0.1797502636909485 0.16850857436656952
0.2506057918071747 0.22814804315567017 -0.05577772855758667
0.14979465305805206 -0.433577299118042 -0.02324170060455799
0.29634448885917664 -0.25002434849739075 0.10193262994289398
0.20771287381649017 0.2948993146419525 0.005060487426817417
0.29321542382240295 0.22137007117271423 -0.13544081151485443
0.26851192116737366 0.2334466129541397 -0.03143814578652382
0.29119226336479187 -0.21770961582660675 0.15695679187774658
0.024305708706378937 -0.2499975562095642 0.1435253918170929
0.29847291111946106 0.06524354964494705 -0.13354571163654327
-0.14014314115047455 -0.089754119515419 0.1666426658630371
-0.2703055739402771 -0.0729626938700676 0.1410731077194214
-0.23422393202781677 0.31537044048309326 0.0391351617872715
-0.0005756281316280365 0.10228116065263748 -0.13666696846485138
-0.23100732266902924 0.09845765680074692 0.15323090553283691
-0.25808143615722656 0.3565761148929596 0.05627317726612091
-0.22008948028087616 -0.44595199823379517 0.1413649320602417
0.12071177363395691 0.11884649097919464 -0.13600119948387146
-0.21003252267837524 -0.14383631944656372 0.1712418794631958
0.13498219847679138 -0.24605372548103333 0.15322542190551758
0.2908394932746887 0.22350341081619263 -0.13488934934139252
0.27183961868286133 0.2405245155096054 0.03023552894592285
-0.05887671932578087 -0.25195521116256714 0.07015720009803772
-0.22794316709041595 -0.30890801548957825 -0.07531769573688507
-0.2670570909976959 -0.10264351218938828 -0.1308552473783493
-0.33648374676704407 -0.36920562386512756 0.10110701620578766
0.29144129157066345 -0.019757267087697983 0.1562168002128601
0.15300562977790833 -0.3600282371044159 0.10630376636981964
0.28770050406455994 0.43539348244667053 0.12742844223976135
-0.16270218789577484 -0.2819793224334717 0.04954611882567406
-0.2518516480922699 0.22376886010169983 -0.13421344757080078
0.24335956573486328 0.00572703592479229 0.16694925725460052
0.29443007707595825 0.2168273776769638 -0.1365378051996231
-0.2564546763896942 0.22776752710342407 -0.05289999395608902
-0.012289673089981079 0.20439954102039337 -0.13508573174476624
-0.0012033190578222275 -0.2011002153158188 0.15381385385990143
-0.1987580806016922 0.37909549474716187 -0.07977191358804703
-0.16217811405658722 0.47134241461753845 0.05906859040260315
0.2430204451084137 -0.2506183683872223 0.09151576459407806
0.29471325874328613 0.21983212232589722 -0.13433831930160522
-0.25656768679618835 0.3828399181365967 0.08852571249008179
-0.25931933522224426 0.43299946188926697 0.10932473838329315
0.25917285680770874 -0.15191146731376648 0.15344738960266113
0.05012062191963196 0.16978058218955994 0.15610915422439575
-0.21667097508907318 0.33540019392967224 0.05890075862407684
0.23896659910678864 -0.2428862750530243 0.15376600623130798
0.2582247257232666 -0.3170682489871979 -0.06436163932085037
0.16349270939826965 0.22774048149585724 -0.13302813470363617
-0.2161019891500473 -0.28706398606300354 -0.06482622027397156
-0.27025479078292847 -0.0718793049454689 -0.1268051564693451
0.2736746370792389 -0.23742350935935974 -0.13789770007133484
0.29564887285232544 0.04242143779993057 0.15175577998161316
-0.23018290102481842 0.502896249294281 0.012436818331480026
0.29618215560913086 -0.10131978988647461 -0.1278039813041687
-0.26628342270851135 -0.21990148723125458 -0.13265888392925262
0.2744438946247101 -0.3731953203678131 0.16337154805660248
-0.31937602162361145 -0.36822429299354553 -0.020490609109401703
0.18269208073616028 0.45821818709373474 0.04895962029695511
0.2933045029640198 0.21890857815742493 -0.13365225493907928
-0.22882987558841705 0.2254636287689209 -0.13306206464767456
-0.18794092535972595 -0.2389560490846634 0.15593132376670837
0.19517803192138672 -0.2543124854564667 -0.03862091526389122
0.24995993077754974 -0.3362507224082947 0.12508215010166168
-0.2680346965789795 0.20866155624389648 -0.12938067317008972
0.2735291123390198 0.0917409211397171 -0.13478781282901764
0.26082590222358704 0.4566926062107086 -0.0787389948964119
-0.26963260769844055 0.16442160308361053 -0.1307784616947174
0.022809190675616264 -0.23769354820251465 0.15680614113807678
0.2305697500705719 0.23154614865779877 0.06586895883083344
0.15837614238262177 -0.39465945959091187 0.16322842240333557
0.18621228635311127 -0.20072460174560547 0.15356089174747467
0.2568954825401306 -0.012719251215457916 0.15389558672904968
0.1983112096786499 -0.24387848377227783 0.15522965788841248
-0.12812072038650513 -0.2480875551700592 -0.12882807850837708
-0.19468967616558075 0.2318493127822876 0.05068928003311157
0.18088692426681519 0.3791373372077942 -0.03042183257639408
0.24188466370105743 -0.12987418472766876 -0.13754400610923767
0.29852405190467834 0.1502566784620285 -0.13407383859157562
-0.2578132152557373 -0.37750956416130066 -0.09691153466701508
-0.2673303186893463 0.03967370092868805 -0.13207092881202698
-0.13964702188968658 -0.233210027217865 -0.13711366057395935
0.28860920667648315 0.04677191004157066 -0.13575270771980286
0.2887897789478302 -0.43006718158721924 0.01354533713310957
0.010928377509117126 0.08567708730697632 -0.1381000131368637
0.29694774746894836 -0.24679985642433167 0.05950802192091942
0.04497422277927399 0.1558949500322342 -0.21291840076446533
0.02004573680460453 -0.2491527795791626 -0.13127544522285461
0.2673967480659485 -0.3461402654647827 -0.06663540750741959
-0.029124464839696884 -0.2392214983701706 0.15743477642536163
-0.27033570408821106 0.14990538358688354 -0.12740054726600647
-0.1750737875699997 0.2306675761938095 0.035037197172641754
0.2875593304634094 -0.40731656551361084 0.17309808731079102
0.25404059886932373 0.08186924457550049 0.15377868711948395
-0.17820896208286285 0.22875376045703888 -0.06355760991573334
-0.0858762338757515 0.22843940556049347 -0.1297992318868637
-0.26864057779312134 0.011931851506233215 0.1404126137495041
-0.24179580807685852 -0.3180710971355438 0.10992373526096344
0.24729588627815247 -0.40337687730789185 -0.09094814956188202
0.21267205476760864 -0.4448266327381134 0.195003479719162
0.28998512029647827 -0.2284967005252838 -0.13609953224658966
0.11700864136219025 -0.242914617061615 -0.13332131505012512
0.15644340217113495 -0.44499826431274414 0.16073758900165558
0.24757352471351624 -0.25048282742500305 0.06693467497825623
0.2937173843383789 0.11929166316986084 -0.13732731342315674
-0.07663695514202118 0.1697346568107605 0.15216462314128876
0.2943921685218811 0.21985217928886414 -0.13448932766914368
-0.04781532287597656 -0.24483537673950195 -0.13415205478668213
-0.2675325274467468 0.023707829415798187 -0.13421574234962463
-0.25702226161956787 -0.12765012681484222 -0.13404352962970734
0.172029048204422 -0.2377701997756958 -0.13497361540794373
0.2124921679496765 0.39133545756340027 -0.08318276703357697
-0.25078627467155457 0.4167028069496155 0.11044107377529144
-0.10275120288133621 -0.25170233845710754 0.13900436460971832
-0.2088901400566101 0.2492227405309677 0.04600368067622185
-0.01066632755100727 0.15259453654289246 0.16979768872261047
-0.2555503249168396 -0.3163057565689087 -0.06960580497980118
0.28923189640045166 -0.005760891363024712 0.15590718388557434
-0.2486533224582672 -0.24758940935134888 0.1021428182721138
-0.21993593871593475 0.15572330355644226 0.16143940389156342
-0.013866004534065723 0.18295742571353912 -0.1440960168838501
0.15148895978927612 -0.2485625147819519 0.14921385049819946
-0.25041693449020386 -0.31957802176475525 0.11741296201944351
-0.2563020884990692 0.08895550668239594 -0.2943201959133148
-0.060382068157196045 0.17000502347946167 -0.13494586944580078
0.1765306293964386 -0.18480710685253143 0.16802863776683807
-0.03281344473361969 0.22079706192016602 -0.13561034202575684
0.26360490918159485 0.18556836247444153 0.15480157732963562
0.29245951771736145 0.4532960057258606 0.11405415832996368
0.14845231175422668 -0.4465605914592743 0.1036701649427414
0.18642368912696838 0.4129011631011963 0.11069656163454056
-0.2039993405342102 0.04232694208621979 0.1699061393737793
0.28819456696510315 -0.41365566849708557 0.020684394985437393
-0.24304170906543732 -0.4718994200229645 -0.04010666906833649
0.1333066076040268 -0.18358057737350464 0.1677577644586563
-0.31747666001319885 -0.35372042655944824 0.19901439547538757
0.2542547285556793 -0.06682106852531433 0.15377068519592285
-0.2877120077610016 0.09075774252414703 -0.29569655656814575
0.1404220461845398 -0.36101239919662476 0.03962685912847519
0.02502284198999405 0.12522736191749573 0.1673690378665924
-0.25829827785491943 -0.16071464121341705 -0.1335606873035431
0.02541189081966877 0.2373979389667511 -0.25132229924201965
0.27733975648880005 -0.444499671459198 0.10926735401153564
0.26055020093917847 -0.3112349808216095 -0.060144465416669846
0.14910905063152313 -0.1796351969242096 0.17170827090740204
0.28328028321266174 0.3621118664741516 0.10776916146278381
-0.05681084096431732 -0.24998213350772858 0.14073948562145233
0.2939721643924713 0.40407124161720276 0.11777342110872269
0.24789386987686157 -0.15598422288894653 0.16628658771514893
-0.19554835557937622 0.1603250503540039 0.1650153249502182
0.2473818063735962 -0.4128308892250061 -0.0893033966422081
-0.04898093640804291 -0.056759849190711975 -0.13540618121623993
-0.223482146859169 -0.451863169670105 0.12357965856790543
-0.2031356692314148 -0.24555227160453796 -0.12983274459838867
0.26250797510147095 -0.37336352467536926 0.167646586894989
-0.28882619738578796 -0.03344036638736725 -0.25457143783569336
-0.04646362364292145 -0.24724793434143066 -0.12700848281383514
0.039528850466012955 -0.24833174049854279 -0.12459616363048553
-0.26063072681427 -0.2453327178955078 -0.11942551285028458
-0.2565077841281891 -0.41477546095848083 0.1937498152256012
0.22107776999473572 -0.07970410585403442 0.1692313700914383
0.29839491844177246 -0.06435229629278183 0.14696210622787476
0.27451974153518677 0.23237432539463043 -0.028665773570537567
-0.27027082443237305 0.22002533078193665 -0.1328791081905365
0.2991476356983185 0.08162742853164673 -0.04753534495830536
-0.2685108482837677 0.1586584746837616 0.15123867988586426
0.19199775159358978 0.4471004009246826 0.11421129107475281
-0.2699185609817505 0.15750685334205627 0.1419685184955597
0.2394968867301941 -0.0027090152725577354 0.1681400090456009
0.04147662594914436 0.2178030163049698 -0.17803260684013367
-0.2564651370048523 -0.45945656299591064 0.04529908671975136
-0.2690919041633606 0.1122053787112236 -0.12508368492126465
0.29634445905685425 0.22272750735282898 -0.1256171464920044
0.2839434742927551 -0.36047571897506714 0.10230831801891327
-0.2161259651184082 0.23853568732738495 -0.035031937062740326
-0.2632661759853363 -0.21243253350257874 -0.13322632014751434
0.033630434423685074 -0.08150313049554825 0.16932368278503418
-0.19924436509609222 0.22591544687747955 -0.1262705773115158
-0.27734991908073425 -0.07482774555683136 -0.2685171961784363
0.2551845908164978 -0.35361117124557495 0.15039682388305664
-0.1911507546901703 0.3432290852069855 -0.05302077904343605
-0.050988588482141495 0.1644214391708374 0.16223077476024628
0.28884628415107727 -0.24826966226100922 -0.046630699187517166
0.01364661380648613 -0.2511020004749298 0.04384490102529526
0.2678658366203308 -0.35652661323547363 0.14462633430957794
-0.0069300327450037 0.22460344433784485 -0.13511338829994202
0.12072356045246124 0.22318123281002045 0.15456749498844147
-0.33229562640190125 -0.35218971967697144 0.17459863424301147
-0.2662896513938904 0.010569322854280472 -0.13434453308582306
-0.30841705203056335 -0.4412025809288025 -0.0682191327214241
-0.20447014272212982 0.2323034703731537 -0.03831025958061218
-0.15765908360481262 0.2259322851896286 0.03632364794611931
-0.22013047337532043 -0.17013707756996155 0.16560311615467072
0.2489285171031952 -0.2709747850894928 0.06929292529821396
0.16418269276618958 -0.34428074955940247 0.09698735177516937
0.27760544419288635 -0.32705891132354736 0.006402084603905678
0.21510088443756104 0.2347157746553421 0.04271853342652321
0.29991695284843445 0.22013843059539795 0.10408762097358704
-0.015290818177163601 -0.24772824347019196 0.1541401445865631
-0.20509649813175201 0.24323269724845886 0.04858697950839996
0.2367323637008667 0.036205582320690155 0.1701308637857437
0.28717488050460815 0.3408315181732178 -0.031476520001888275
-0.24689051508903503 -0.25276556611061096 0.04955454170703888
0.07290928810834885 0.22469638288021088 0.15288953483104706
0.2929537296295166 0.10790576040744781 -0.1361791044473648
-0.29710233211517334 -0.3766911029815674 0.20284177362918854
-0.2721364498138428 -0.31574416160583496 0.13607612252235413
0.2790270149707794 -0.379285991191864 0.16384391486644745
-0.19224022328853607 -0.23847059905529022 0.1550155133008957
0.29188674688339233 0.22384196519851685 -0.1321907639503479
0.2699354588985443 0.23335856199264526 -0.022657085210084915
0.2263985425233841 -0.42693859338760376 -0.08937810361385345
-0.19510383903980255 0.3287442922592163 -0.0309208482503891
-0.24621503055095673 -0.33290761709213257 -0.08369399607181549
-0.2693198025226593 -0.23474723100662231 -0.13289320468902588
0.13748328387737274 -0.43207335472106934 0.09344866126775742
-0.16217829287052155 0.46854299306869507 0.042173631489276886
0.04298316687345505 -0.17470738291740417 0.16938455402851105
0.2940709888935089 0.22025740146636963 -0.13441500067710876
0.023582518100738525 -0.24404992163181305 -0.13335050642490387
0.2620440423488617 -0.3804891109466553 -0.07657039165496826
0.09871818870306015 0.22575579583644867 -0.135645791888237
0.2040501832962036 0.22819972038269043 0.020568493753671646
0.18933671712875366 -0.24536365270614624 0.15427632629871368
0.04965773597359657 0.04900410771369934 -0.1346537470817566
-0.181557297706604 -0.247378408908844 0.14883431792259216
0.2889333963394165 0.2288188338279724 -0.048147644847631454
-0.23106534779071808 -0.038448043167591095 0.1526447981595993
0.2640833258628845 0.5023104548454285 -0.029062822461128235
0.2177266776561737 0.44202569127082825 0.10168291628360748
0.25715193152427673 -0.1332206428050995 0.15565159916877747
0.016415614634752274 0.22899991273880005 0.14263615012168884
0.27725598216056824 -0.4262039065361023 -0.05015217512845993
-0.335907906293869 -0.3785327970981598 0.013094577938318253
-0.23547452688217163 -0.4709196388721466 0.06071069464087486
0.2873687148094177 0.0682123526930809 0.15639452636241913
-0.01899980753660202 0.21272800862789154 0.15593968331813812
-0.23748576641082764 -0.25070086121559143 0.07427982985973358
0.2453221082687378 -0.18748807907104492 0.16090388596057892
-0.24255724251270294 0.37992388010025024 0.10980993509292603
-0.2679850459098816 -0.00658319890499115 -0.1361752152442932
-0.26984983682632446 -0.14751505851745605 0.144480898976326
-0.2319880574941635 -0.2614312171936035 0.0413188636302948
0.17070595920085907 -0.24650584161281586 -0.13423724472522736
0.2991594672203064 -0.22822794318199158 0.15058133006095886
-0.34290826320648193 -0.382162481546402 0.05421668663620949
-0.2690652012825012 0.22273097932338715 -0.07695142924785614
-0.2690926194190979 -0.2342800498008728 -0.13187378644943237
-0.23481374979019165 0.3150268495082855 0.0356501005589962
0.24520866572856903 -0.0957936942577362 0.16671760380268097
-0.24416080117225647 -0.41961830854415894 0.1881958693265915
-0.2692834734916687 0.21787318587303162 -0.08044608682394028
0.20817774534225464 0.5028157830238342 0.08332212269306183
-0.20007500052452087 0.25809454917907715 0.0420687161386013
-0.21307744085788727 -0.4319183826446533 0.15692099928855896
0.2907038927078247 0.026173368096351624 -0.13535067439079285
-0.2194782793521881 -0.4699225425720215 0.034791406244039536
-0.20854024589061737 -0.04898359626531601 0.16965901851654053
-0.08529341965913773 0.15627388656139374 0.1668822169303894
0.29748234152793884 -0.24554796516895294 0.12881208956241608
0.12812498211860657 -0.2493172436952591 -0.11979709565639496
-0.24915777146816254 0.4616334140300751 -0.05215992033481598
-0.24605214595794678 -0.01639718934893608 -0.24952048063278198
-0.023173334077000618 0.09899760782718658 -0.13498325645923615
-0.270437091588974 -0.19503983855247498 -0.129307359457016
0.29684022068977356 -0.23839648067951202 -0.08100385218858719
0.2926149368286133 -0.14790301024913788 0.15657196938991547
-0.10701712220907211 -0.23859132826328278 -0.13413237035274506
0.02077184058725834 0.2592490613460541 -0.2638537287712097
-0.2237098515033722 0.49885421991348267 -0.00760752335190773
0.2903684079647064 -0.4419257938861847 0.143775075674057
0.28729596734046936 0.4670889973640442 0.11644481122493744
-0.19125327467918396 0.23026007413864136 0.04913468286395073
0.25608396530151367 0.14728324115276337 0.15108588337898254
-0.26615771651268005 -0.2485167384147644 0.026137670502066612
-0.15429140627384186 0.44606485962867737 0.04986520856618881
0.11215927451848984 0.21463173627853394 -0.13673502206802368
0.2328886240720749 -0.4422996938228607 -0.08180856704711914
-0.24985645711421967 -0.022000988945364952 -0.2986398935317993
-0.047305069863796234 -0.2401805818080902 -0.13503308594226837
-0.20927514135837555 0.1644657850265503 0.16184686124324799
0.15912747383117676 -0.40856608748435974 0.1774236261844635
0.2878512442111969 0.3423687517642975 0.06739026308059692
-0.20496143400669098 -0.20024342834949493 0.15272925794124603
-0.2246997058391571 -0.4538577198982239 0.12314392626285553
0.2830660343170166 -0.4368054270744324 -0.030004043132066727
0.24856851994991302 -0.06623103469610214 0.16646142303943634
-0.2300473004579544 -0.46152472496032715 0.10002478957176208
0.2963275611400604 0.21933412551879883 -0.12730419635772705
-0.06314589083194733 -0.24759191274642944 -0.13123303651809692
-0.2645401358604431 0.22388017177581787 -0.13395817577838898
-0.2657417356967926 -0.1731676459312439 -0.1332312375307083
0.27517905831336975 0.22741185128688812 0.1533862054347992
0.19568821787834167 0.17728681862354279 0.15453359484672546
-0.21079851686954498 -0.09593546390533447 0.17021940648555756
0.15636976063251495 -0.4464065134525299 0.16324684023857117
-0.262706458568573 0.21326851844787598 -0.13501670956611633
-0.19434970617294312 0.4931763708591461 -0.020173881202936172
-0.09675359725952148 -0.24193742871284485 -0.13447748124599457
-0.2513166069984436 0.36414334177970886 -0.05773203447461128
0.29393526911735535 0.21232882142066956 -0.13612571358680725
0.2937043607234955 0.049008943140506744 0.15445837378501892
-0.26756876707077026 -0.23121857643127441 -0.133015975356102
0.2949710786342621 0.22505097091197968 -0.1269492506980896
0.2763836085796356 -0.44573459029197693 0.1796707808971405
-0.2695509195327759 -0.11031085252761841 -0.1320207267999649
-0.2293696105480194 -0.14937658607959747 0.15107280015945435
0.25624892115592957 0.5020067691802979 -0.04155758395791054
0.2985956370830536 0.22390951216220856 -0.12154115736484528
0.29161515831947327 0.19261814653873444 0.15512537956237793
-0.13037770986557007 0.13972169160842896 -0.13515068590641022
0.2991964519023895 0.21991997957229614 -0.059018202126026154
0.28787994384765625 -0.04773171618580818 -0.13548006117343903
-0.056802671402692795 0.10445448756217957 -0.13527551293373108
-0.15559087693691254 0.4042130708694458 -0.003582404926419258
-0.33720892667770386 -0.39047470688819885 0.037371598184108734
0.09752479195594788 0.22331006824970245 -0.13648153841495514
