0.2681204080581665 -0.3600274920463562 0.14527477324008942
-0.30348077416419983 -0.3924121856689453 -0.08220704644918442
0.2670079171657562 -0.3303505778312683 -0.03950992971658707
0.28502506017684937 -0.39534857869148254 0.17305997014045715
0.20302024483680725 -0.24252009391784668 -0.13653871417045593
0.29372304677963257 0.2176886945962906 -0.12475526332855225
0.2830195426940918 0.1733601689338684 -0.13522851467132568
-0.20017078518867493 0.3385635316371918 -0.048337485641241074
-0.27192115783691406 0.21836698055267334 0.07391296327114105
-0.26786041259765625 -0.133424311876297 -0.13170067965984344
0.0004950668662786484 0.16280312836170197 0.1636369377374649
-0.2127959430217743 -0.24651944637298584 0.15394601225852966
0.2908620238304138 -0.05290389433503151 -0.13154470920562744
-0.2677219808101654 -0.07311852276325226 0.15714490413665771
-0.2701185643672943 0.19704514741897583 0.15796414017677307
0.28542232513427734 -0.14700467884540558 -0.1348794400691986
0.2956539988517761 -0.10351357609033585 -0.1221136599779129
0.19737409055233002 -0.20109838247299194 0.1552552729845047
0.28877219557762146 -0.40111321210861206 0.05006220191717148
0.24955981969833374 -0.2807239294052124 -0.0544094555079937
-0.2706332206726074 0.22774598002433777 0.06414195150136948
0.2876781225204468 0.21881785988807678 -0.13404597342014313
-0.28851935267448425 0.08979370445013046 -0.2768804728984833
0.29687947034835815 -0.07867837697267532 0.07024871557950974
0.2885240912437439 -0.21632489562034607 -0.13356244564056396
0.23356793820858002 0.4679245054721832 0.10334621369838715
-0.250676691532135 -0.2486085444688797 -0.1243884339928627
-0.17686370015144348 -0.23958837985992432 -0.1350126564502716
0.19429275393486023 0.339415967464447 0.0730338990688324
0.2972402274608612 -0.22432267665863037 -0.12208306789398193
0.060219623148441315 -0.1876474916934967 0.1588120013475418
0.1552673578262329 -0.10019338876008987 -0.1356128305196762
-0.2725362181663513 0.22464950382709503 0.0179539043456316
-0.3342468738555908 -0.4039677381515503 -0.011424841359257698
0.060092389583587646 -0.23508918285369873 -0.1353546679019928
-0.2704385221004486 -0.17101426422595978 -0.12434028834104538
-0.16889621317386627 0.23059570789337158 0.003187138121575117
-0.027443939819931984 0.10639406740665436 -0.13504640758037567
-0.3109508752822876 -0.40138304233551025 -0.07925841212272644
-0.2180749773979187 -0.2925093472003937 0.08680598437786102
-0.14043663442134857 -0.19475437700748444 0.1523975282907486
-0.18262909352779388 -0.24439765512943268 -0.13390693068504333
0.01659601368010044 -0.187449112534523 0.15902648866176605
0.2714156210422516 0.30573326349258423 0.025738529860973358
-0.26092293858528137 -0.2468412071466446 -0.0030427947640419006
0.2951921820640564 0.1427340805530548 0.14669287204742432
-0.1593257337808609 -0.26517561078071594 -0.024228394031524658
-0.23997579514980316 -0.39545825123786926 -0.08687420189380646
-0.2957620620727539 -0.4303230941295624 -0.08815322071313858
-0.16570135951042175 -0.23878665268421173 -0.1344236433506012
0.24484840035438538 -0.44448503851890564 -0.07515935599803925
0.2483167201280594 0.04240727797150612 0.15504229068756104
-0.269756555557251 -0.11020925641059875 -0.1332298219203949
-0.21592268347740173 0.16828487813472748 0.15745966136455536
-0.26869142055511475 0.16764454543590546 -0.1366947591304779
-0.22984278202056885 -0.4627937078475952 0.08770383894443512
-0.14447510242462158 -0.2567160725593567 0.0061724502593278885
-0.2542703151702881 -0.246952623128891 0.1550884246826172
0.2816378176212311 0.23223727941513062 0.023278379812836647
0.2889168858528137 0.12030914425849915 -0.13450703024864197
-0.259690523147583 0.02486366033554077 0.1579638570547104
-0.2715025842189789 -0.029781512916088104 -0.12632820010185242
-0.2642580270767212 0.18290743231773376 -0.13582022488117218
0.29736053943634033 -0.03314908966422081 -0.05748475342988968
-0.2512320280075073 0.4365411698818207 0.11713220924139023
0.2956312894821167 -0.2380981594324112 -0.03667740523815155
0.1104622632265091 -0.2437368929386139 -0.13493125140666962
0.12277156114578247 -0.2522400915622711 -0.013657990843057632
0.25779515504837036 -0.3060457706451416 -0.059606991708278656
0.29635629057884216 -0.09685936570167542 -0.12318463623523712
0.14109192788600922 -0.4339735209941864 0.12499219179153442
-0.003260350553318858 0.2229040116071701 0.15413916110992432
-0.19949324429035187 0.4696640074253082 -0.05365089699625969
0.21122825145721436 0.22557151317596436 -0.13199815154075623
-0.2859950065612793 -0.31231939792633057 0.13722805678844452
-0.2669244408607483 -0.18273386359214783 -0.13465328514575958
0.21762676537036896 -0.2674296796321869 -0.053846701979637146
0.05627559497952461 0.2253088504076004 -0.13402220606803894
-0.21791957318782806 0.16373960673809052 0.15708094835281372
-0.2682591676712036 0.06222550570964813 -0.1343441605567932
-0.18080782890319824 -0.2012917697429657 0.15284980833530426
-0.3305775225162506 -0.4044877886772156 -0.05220198258757591
0.0007072649896144867 0.1773139089345932 0.1523871272802353
0.0891558825969696 0.22497357428073883 0.1565311700105667
-0.22212214767932892 -0.45680946111679077 0.11688187718391418
0.28871408104896545 0.1600964069366455 -0.13506370782852173
-0.07379044592380524 -0.12347478419542313 -0.1353587806224823
0.297626256942749 -0.2406589239835739 0.023043764755129814
0.05638141930103302 0.17398707568645477 -0.20723648369312286
-0.2846197485923767 -0.4456506371498108 -0.08185269683599472
0.1859169602394104 0.15447551012039185 0.16947932541370392
0.26925620436668396 0.22787193953990936 0.05252598226070404
0.2860686480998993 0.20673313736915588 -0.1353580355644226
0.28902989625930786 0.1966579556465149 -0.13596437871456146
0.08307521790266037 -0.18269415199756622 0.16617487370967865
0.28287631273269653 -0.248844176530838 0.14738699793815613
0.15519674122333527 -0.44455456733703613 0.02090880461037159
0.2905696630477905 -0.18644104897975922 0.15743543207645416
0.1361674815416336 -0.20495891571044922 0.1537078469991684
-0.26125264167785645 0.44112715125083923 0.113136887550354
-0.22198650240898132 -0.45204851031303406 0.12606415152549744
-0.18530726432800293 0.3670153319835663 -0.0677582398056984
-0.26900672912597656 -0.03637762367725372 -0.13427025079727173
0.10780647397041321 -0.16622710227966309 -0.13485008478164673
0.29332053661346436 -0.24514366686344147 0.12616676092147827
0.29638057947158813 0.08497773110866547 -0.12200883030891418
0.29582300782203674 0.22184744477272034 0.12656795978546143
-0.27215009927749634 0.20353621244430542 0.14747202396392822
-0.21664133667945862 0.09686656296253204 0.16665694117546082
-0.27209919691085815 0.14110226929187775 -0.12257357686758041
-0.09537699818611145 0.2216176986694336 -0.1355500966310501
-0.24631285667419434 -0.24182851612567902 0.15568017959594727
-0.1782371550798416 0.4671337604522705 0.10546086728572845
0.1796087920665741 -0.2495870739221573 -0.049700263887643814
0.24943114817142487 -0.2587060332298279 -0.033929046243429184
0.09038953483104706 0.22766374051570892 0.14880156517028809
0.16308799386024475 0.22697164118289948 -0.016431039199233055
-0.2638174891471863 -0.0785672664642334 0.15824170410633087
-0.0015528490766882896 0.11207671463489532 -0.13678979873657227
-0.20634539425373077 0.5004865527153015 0.08901255577802658
-0.268599271774292 -0.2182401567697525 -0.12979885935783386
0.23268139362335205 -0.1658354252576828 0.17056845128536224
-0.22988954186439514 0.18950212001800537 0.15666133165359497
-0.2474779486656189 0.2184550166130066 -0.13351848721504211
0.2631111741065979 0.4475177526473999 -0.08125954121351242
0.28894340991973877 -0.2520827651023865 -0.015349779278039932
0.28422030806541443 -0.35456472635269165 0.03930291160941124
0.016507882624864578 -0.24494333565235138 0.1545965075492859
-0.268209844827652 -0.0019495468586683273 -0.13363973796367645
0.1896001398563385 0.16957835853099823 0.15917642414569855
0.2977261543273926 -0.13241522014141083 -0.12434494495391846
-0.06996692717075348 0.2267797291278839 0.15470896661281586
-0.21739834547042847 -0.17951565980911255 0.1593884825706482
0.19416382908821106 -0.2520463764667511 -0.12769344449043274
0.29429805278778076 -0.17681923508644104 0.15692511200904846
0.20947910845279694 0.3172970414161682 -0.025400053709745407
-0.33579012751579285 -0.39339345693588257 0.018994471058249474
-0.26965147256851196 -0.10022763907909393 -0.12748196721076965
-0.25678300857543945 -0.24949215352535248 -0.021102890372276306
-0.26924610137939453 -0.2326134741306305 0.05273844301700592
0.29778796434402466 -0.2370055913925171 0.1262040138244629
-0.1255447119474411 0.1617017388343811 -0.13421683013439178
-0.26085755228996277 -0.34134441614151 0.16944655776023865
-0.03484424948692322 0.14399410784244537 -0.19276629388332367
0.0824316218495369 -0.23528358340263367 -0.1357189565896988
-0.07056792080402374 -0.248369961977005 -0.12218397110700607
0.28744328022003174 -0.039211347699165344 0.1558300256729126
0.2928778827190399 0.22908583283424377 -0.009818973019719124
-0.26589235663414 -0.04251663386821747 -0.13471773266792297
-0.22077585756778717 0.15086285769939423 0.16069866716861725
-0.27054741978645325 0.02315317466855049 0.14626191556453705
-0.31632789969444275 -0.4270899295806885 -0.028646046295762062
0.20635944604873657 -0.3160342872142792 0.10499697178602219
0.20767530798912048 0.3135662078857422 0.03690458461642265
-0.14088602364063263 -0.2511930465698242 -0.011391602456569672
0.049802474677562714 0.17516274750232697 0.15120956301689148
0.02029675990343094 -0.23980849981307983 -0.13649392127990723
-0.289101243019104 0.08502990007400513 -0.29993337392807007
-0.3379150331020355 -0.3598729968070984 0.13314878940582275
-0.1585877686738968 -0.2638116478919983 -0.022829879075288773
-0.2748497724533081 -0.3611387014389038 0.20388388633728027
0.07493191212415695 -0.24699541926383972 -0.12742187082767487
0.15862731635570526 -0.38281530141830444 0.15635065734386444
0.29340389370918274 -0.07380782067775726 -0.1342034935951233
0.0022200511302798986 0.10898858308792114 -0.13648360967636108
-0.1001037061214447 -0.2478073537349701 0.14591079950332642
-0.26971229910850525 -0.23081009089946747 -0.07826898247003555
-0.288828581571579 0.024558458477258682 -0.2443222850561142
-0.2117631733417511 -0.4281676113605499 0.16653096675872803
-0.33795616030693054 -0.3877979815006256 0.030884865671396255
0.2788412570953369 0.48451557755470276 0.12357574701309204
0.20620515942573547 0.45065435767173767 0.10243839770555496
-0.2716119587421417 -0.23307442665100098 0.08674266934394836
0.28043413162231445 0.2197035551071167 -0.13434529304504395
0.23393431305885315 0.10150010883808136 0.16780714690685272
-0.28085216879844666 -0.30910342931747437 0.10420601069927216
-0.2063419222831726 0.15022099018096924 0.16988930106163025
-0.2821957468986511 -0.004638960584998131 -0.3044697642326355
-0.270378053188324 -0.17115184664726257 -0.12702786922454834
0.2837207317352295 -0.21697863936424255 -0.1353539675474167
0.29764243960380554 -0.24675443768501282 0.12153977155685425
0.29228344559669495 -0.18503260612487793 0.15754322707653046
-0.2635892629623413 -0.1864819973707199 -0.1355670988559723
-0.15412366390228271 -0.24631214141845703 -0.03716275468468666
0.22926479578018188 -0.16596126556396484 0.1685933619737625
-0.22735993564128876 0.33455729484558105 0.0603320337831974
-0.24485033750534058 0.23272939026355743 -0.03315158560872078
0.29499220848083496 0.18760596215724945 0.14598974585533142
-0.2650047242641449 0.20291420817375183 0.15888039767742157
-0.3330687880516052 -0.4071495234966278 -0.02010372094810009
-0.1483372449874878 -0.03418760746717453 0.1685132086277008
-0.270571231842041 0.13013145327568054 -0.04972574859857559
0.2778497040271759 0.21772140264511108 -0.13496381044387817
-0.2189154326915741 -0.18525613844394684 0.15408824384212494
-0.11901789903640747 0.22332826256752014 0.1548895686864853
0.14199787378311157 0.2250332534313202 -0.12231464684009552
0.1986882984638214 0.1652173399925232 0.16014377772808075
0.24800336360931396 -0.2535395920276642 0.05413644760847092
0.12707853317260742 -0.1723552644252777 0.16906023025512695
0.19612057507038116 0.4832548499107361 -0.01773066818714142
0.08149939775466919 -0.1296839863061905 -0.13578027486801147
-0.20803876221179962 0.1488693207502365 0.1691875010728836
-0.26927870512008667 -0.11557765305042267 0.08862285315990448
-0.24606138467788696 0.3290416896343231 0.03895169869065285
0.20406794548034668 -0.44524428248405457 -0.07016102224588394
-0.2655913233757019 0.02769026719033718 -0.13401222229003906
0.20513364672660828 0.5028202533721924 0.08189477771520615
0.29449939727783203 0.2228013575077057 0.07000452280044556
0.1504865288734436 -0.4462590217590332 0.136908620595932
-0.2934276759624481 -0.3811625838279724 -0.08643942326307297
0.27521052956581116 -0.4401494562625885 -0.02903725765645504
-0.2654379904270172 0.2051021009683609 -0.13213367760181427
0.24155330657958984 -0.41448020935058594 -0.09294891357421875
0.2126622200012207 0.1731068193912506 0.15177156031131744
-0.2601191997528076 -0.08344145119190216 0.15836215019226074
0.28954964876174927 -0.16125690937042236 -0.1351865828037262
0.2965863049030304 -0.22129026055335999 -0.11840164661407471
0.2798875868320465 0.34166330099105835 0.08226589858531952
0.2635768949985504 0.513018012046814 0.024617748335003853
-0.19610226154327393 0.17622286081314087 -0.13405552506446838
0.23021839559078217 -0.4360492527484894 -0.09153490513563156
0.01970093883574009 -0.01111794263124466 0.16897645592689514
-0.25845450162887573 0.15119139850139618 -0.13492029905319214
0.14541347324848175 -0.24622797966003418 0.15630340576171875
0.08719953149557114 -0.2477901726961136 -0.1257440596818924
-0.06454391777515411 0.22526580095291138 -0.13334351778030396
0.2942342162132263 -0.194706529378891 0.15578633546829224
0.06366205960512161 0.1634191870689392 -0.1366487741470337
0.24241699278354645 -0.012165382504463196 0.1643509864807129
-0.18658849596977234 0.16283825039863586 0.16242484748363495
-0.24682258069515228 -0.47003793716430664 -0.04904730245471001
-0.029767939820885658 0.15304045379161835 0.16863422095775604
-0.2019025683403015 0.2573554813861847 0.04450302571058273
-0.1873036026954651 0.27896586060523987 0.024203505367040634
0.1975574791431427 0.4951857328414917 -0.012446854263544083
-0.013996891677379608 -0.0002656690776348114 -0.13493791222572327
0.18148010969161987 -0.37585386633872986 -0.06474363803863525
-0.33348318934440613 -0.34362542629241943 0.1292140632867813
-0.21695087850093842 0.10382801294326782 0.16314662992954254
-0.2677875757217407 0.04699850454926491 -0.13413536548614502
-0.2705746591091156 -0.05103025585412979 -0.05600850656628609
0.19331252574920654 -0.20147496461868286 0.1539052426815033
0.019353700801730156 0.27497708797454834 -0.2243148386478424
-0.20431944727897644 0.3259209096431732 0.05047222226858139
-0.27106165885925293 -0.2389480173587799 0.030995042994618416
0.1530180424451828 0.037522122263908386 0.1686219424009323
0.2843402028083801 0.3480979800224304 -0.04837676137685776
0.16157090663909912 0.22913609445095062 -0.03161950409412384
0.011688314378261566 0.22862909734249115 -0.12194269150495529
-0.14687344431877136 0.21745465695858002 -0.13697698712348938
0.14680048823356628 0.15647834539413452 0.16930504143238068
0.24053344130516052 -0.16711080074310303 0.16948629915714264
-0.2598978579044342 0.157742440700531 -0.13370513916015625
-0.20358029007911682 -0.41636860370635986 0.14671488106250763
0.20068660378456116 0.3983498215675354 0.10799223184585571
-0.13738439977169037 0.21324878931045532 -0.1337946206331253
-0.3321118652820587 -0.38035768270492554 0.0753072053194046
0.2965801954269409 -0.23671439290046692 -0.12276114523410797
-0.18004034459590912 0.3535710275173187 0.07427187263965607
-0.2664233446121216 0.2128385454416275 0.15870310366153717
0.20178630948066711 0.33806145191192627 -0.05050645396113396
0.2515760362148285 -0.2402137815952301 0.15659824013710022
0.2078019231557846 0.22885505855083466 0.04203638434410095
-0.14441809058189392 0.1556415855884552 0.16805939376354218
-0.2703820765018463 0.2231849730014801 -0.03500472381711006
0.1954265534877777 -0.25232836604118347 0.06837336719036102
-0.07046303898096085 0.17986437678337097 0.15486186742782593
-0.26720279455184937 -0.24907062947750092 -0.042935810983181
-0.2563480734825134 -0.08727420121431351 -0.13549953699111938
0.28826531767845154 0.20426663756370544 -0.13505035638809204
-0.26757630705833435 0.046743400394916534 -0.13271358609199524
-0.07743803411722183 0.17874456942081451 0.1542687565088272
0.03661588579416275 0.029381748288869858 -0.13602976500988007
0.11568745970726013 0.2326260209083557 0.03883402794599533
0.29525041580200195 0.2269631326198578 0.13784590363502502
0.29487115144729614 0.22272080183029175 -0.07461553812026978
-0.27037346363067627 -0.2341681271791458 -0.12129493802785873
-0.2708093822002411 -0.016473637893795967 -0.12951815128326416
-0.12882523238658905 -0.24789828062057495 -0.12617047131061554
-0.1968342661857605 0.48549437522888184 -0.04238370433449745
0.20811043679714203 0.41161102056503296 -0.08224283158779144
0.2672885060310364 -0.413112998008728 -0.0739462599158287
0.00011590775102376938 -0.2459762841463089 0.14774826169013977
-0.04188484698534012 0.15336957573890686 -0.13828644156455994
-0.2674047648906708 -0.18617089092731476 -0.13387495279312134
-0.27260905504226685 -0.20211613178253174 -0.06594168394804001
-0.20619642734527588 -0.23470303416252136 -0.13811656832695007
-0.2708071172237396 0.22541669011116028 0.08887845277786255
0.2500148117542267 -0.28296369314193726 0.07262331247329712
-0.2894257605075836 0.09048158675432205 -0.2881726026535034
0.22941267490386963 0.34978368878364563 0.11247970908880234
-0.1360504925251007 -0.2452438622713089 0.150943785905838
-0.2190009504556656 0.0656396672129631 0.1622140109539032
0.28061458468437195 -0.4345763325691223 -0.03598097339272499
-0.23688527941703796 -0.25057142972946167 -0.07033879309892654
0.24283671379089355 0.25174784660339355 -0.025362908840179443
0.29398179054260254 -0.14228972792625427 -0.13486714661121368
0.18353600800037384 0.40284886956214905 0.10752059519290924
0.28515440225601196 -0.248655304312706 0.13503792881965637
-0.26878178119659424 0.08030569553375244 0.15727467834949493
0.2505688965320587 0.053694143891334534 0.1521526426076889
-0.04836007207632065 0.13651321828365326 -0.13624152541160583
0.23443372547626495 -0.17575789988040924 0.1684257984161377
-0.26727721095085144 0.1997121274471283 0.15794622898101807
-0.011077629402279854 0.10659134387969971 -0.13667167723178864
-0.22716441750526428 0.1079687774181366 0.1531659960746765
-0.1835634708404541 -0.2619389593601227 0.06847015768289566
0.18089386820793152 -0.3573439121246338 -0.06443297863006592
-0.17509666085243225 0.246684268116951 0.01648145541548729
-0.09604326635599136 0.2273029237985611 0.15096019208431244
-0.18265385925769806 -0.24126912653446198 -0.13491222262382507
-0.257305771112442 -0.04288577660918236 -0.13559511303901672
0.18573854863643646 -0.40098464488983154 0.18794409930706024
-0.2923753261566162 -0.42975908517837524 -0.0864294245839119
-0.17638275027275085 0.34794241189956665 -0.04350588470697403
-0.2261681705713272 -0.2512492835521698 -0.09434156119823456
0.2542476952075958 -0.061855901032686234 0.15406736731529236
0.21104420721530914 0.3139537274837494 -0.024350181221961975
0.29408714175224304 0.21669280529022217 -0.12366737425327301
-0.2364576756954193 -0.4392056167125702 0.15358863770961761
0.21169312298297882 0.23162803053855896 0.04435913637280464
0.2546611428260803 -0.2521718144416809 0.04408971965312958
-0.16626545786857605 0.23118476569652557 0.01641804352402687
0.29641395807266235 -0.10521173477172852 0.1534443348646164
0.23376008868217468 -0.28693798184394836 0.09106694161891937
0.17794272303581238 -0.2630259394645691 -0.01840074174106121
-0.2697720527648926 -0.19516339898109436 -0.13313205540180206
-0.05714777857065201 -0.24946574866771698 0.09132330119609833
-0.2440730184316635 0.41375014185905457 -0.0711531862616539
0.2712253928184509 0.22956755757331848 -0.04293862730264664
-0.184392511844635 0.24273085594177246 -0.01314963772892952
0.02553265169262886 -0.21094606816768646 -0.13503514230251312
0.2361825555562973 -0.020793704316020012 0.16943946480751038
-0.2674434185028076 0.13011738657951355 -0.13456039130687714
0.19941136240959167 0.4956943392753601 0.011094419285655022
-0.27034831047058105 -0.16104088723659515 -0.1315913200378418
0.15468335151672363 -0.44288524985313416 0.018820960074663162
-0.2509112060070038 0.23065580427646637 0.0036887601017951965
0.056196555495262146 0.1846083104610443 -0.2119891494512558
-0.28529298305511475 -0.45103567838668823 -0.024847134947776794
-0.24884721636772156 0.4635215401649475 -0.04537403583526611
-0.20348255336284637 0.15289820730686188 0.16828113794326782
-0.0661858543753624 -0.17319528758525848 0.16855069994926453
0.2969795763492584 -0.24823182821273804 0.1224575787782669
0.0975492000579834 0.21903161704540253 -0.1356503814458847
0.24966543912887573 0.00588613748550415 0.15313157439231873
0.23513957858085632 -0.09479478001594543 0.16857898235321045
-0.14425799250602722 -0.20380859076976776 0.15497227013111115
-0.2716064453125 0.18925005197525024 0.14792349934577942
0.19614477455615997 0.34720414876937866 0.09835685789585114
0.2877149283885956 -0.23301708698272705 -0.1354963630437851
-0.26941293478012085 0.17720070481300354 -0.13358362019062042
0.28478431701660156 -0.2486361712217331 -0.09753376245498657
0.12728151679039001 -0.24678172171115875 0.15431013703346252
-0.24699127674102783 0.22602160274982452 0.15015572309494019
0.04126223549246788 -0.2453775852918625 0.15472128987312317
0.28699323534965515 0.22956684231758118 -0.13016457855701447
0.2534962594509125 -0.2577774226665497 0.04315013438463211
0.29745176434516907 -0.10402042418718338 -0.12857858836650848
-0.22262324392795563 -0.45438143610954285 0.12003561109304428
-0.20458707213401794 0.09760263562202454 0.17065975069999695
0.27428895235061646 -0.4438040554523468 0.058919504284858704
-0.27059924602508545 0.003482602536678314 0.15159624814987183
0.04762875661253929 0.03333653509616852 -0.13625207543373108
-0.25067010521888733 -0.3079873323440552 0.1035461500287056
0.2972232401371002 -0.24517768621444702 0.11146630346775055
0.04014977812767029 -0.05735978111624718 0.16969168186187744
-0.2647436559200287 -0.2470053881406784 -0.02878154069185257
0.2042035311460495 0.00932592898607254 -0.13587115705013275
-0.24667266011238098 -0.30737045407295227 0.09826350957155228
0.27451279759407043 0.5038983821868896 0.02114609256386757
0.03317154571413994 0.22194989025592804 0.15675155818462372
0.2976285219192505 -0.24717983603477478 0.11641193181276321
-0.28112512826919556 -0.36631545424461365 -0.085656076669693
0.25795137882232666 -0.246490478515625 -0.13527041673660278
-0.00392635352909565 0.15403960645198822 0.16891419887542725
0.19098494946956635 -0.2406260371208191 0.15683159232139587
0.21539679169654846 -0.02835051715373993 -0.13474072515964508
-0.12239064276218414 -0.24608096480369568 0.1498638093471527
0.2815493047237396 -0.22342348098754883 -0.1368807703256607
-0.1614864021539688 0.470358669757843 0.059180133044719696
-0.2597525715827942 0.4418756365776062 0.11573426425457001
0.03988224267959595 -0.22198057174682617 -0.1354389637708664
0.1683068871498108 0.15385182201862335 0.16914249956607819
-0.21570506691932678 -0.09185529500246048 0.16507881879806519
-0.08915209770202637 0.1552378237247467 0.16846850514411926
0.29140305519104004 0.470316082239151 0.1184927448630333
0.1858510971069336 -0.2532072365283966 -0.026963764801621437
-0.2697422504425049 0.12362881749868393 0.15524393320083618
0.0226270854473114 0.20751303434371948 -0.13516248762607574
0.26306092739105225 0.22732557356357574 0.14579860866069794
0.25227463245391846 -0.012713108211755753 -0.13577626645565033
0.26701655983924866 -0.33055901527404785 0.1111174076795578
-0.26809853315353394 -0.03266625106334686 -0.13450933992862701
0.2883090376853943 0.2242937684059143 -0.1310475617647171
-0.26860499382019043 0.11799853295087814 -0.13391774892807007
0.06066860258579254 -0.249479740858078 -0.11759333312511444
0.14816245436668396 0.22104232013225555 0.15714499354362488
-0.018720952793955803 -0.25038865208625793 0.14395740628242493
-0.11586873978376389 0.21443355083465576 -0.13635309040546417
0.15101608633995056 -0.4103285074234009 0.16591942310333252
-0.24179932475090027 -0.3459200859069824 -0.08821572363376617
-0.26850101351737976 0.03776111081242561 -0.13210025429725647
0.029741942882537842 0.22853824496269226 -0.1215328648686409
0.29614049196243286 -0.07777367532253265 0.14794088900089264
0.03966846317052841 0.10315746068954468 -0.13558761775493622
0.2868010699748993 -0.24379263818264008 0.15158337354660034
-0.27119728922843933 -0.1293094903230667 -0.1254456788301468
0.29580843448638916 0.056780703365802765 -0.12464427947998047
-0.26583731174468994 0.021198410540819168 -0.1348017454147339
0.28712040185928345 0.3450697362422943 -0.0401509627699852
-0.26635074615478516 -0.043180640786886215 0.15780046582221985
-0.1385210007429123 0.2272747904062271 0.027111409232020378
-0.2561989724636078 0.22787687182426453 0.04513097181916237
-0.2503439784049988 0.22951491177082062 0.13912880420684814
-0.006951749324798584 -0.23600906133651733 -0.13531078398227692
-0.01794273406267166 0.2044331431388855 -0.13725672662258148
0.2487710416316986 0.05865391716361046 0.1536407321691513
0.2449231743812561 0.028554311022162437 0.15935403108596802
-0.20512770116329193 -0.2492872029542923 -0.10632961988449097
0.05186140537261963 0.22850055992603302 -0.005475055892020464
0.2878449857234955 -0.2497798502445221 -0.03728194162249565
0.13788197934627533 -0.24401423335075378 0.15508097410202026
0.23427750170230865 -0.44073110818862915 0.20076771080493927
0.11744750291109085 -0.25042906403541565 -0.06083337962627411
0.2863715589046478 -0.14776505529880524 -0.13634419441223145
0.26500028371810913 -0.29739251732826233 0.06146041303873062
0.29689303040504456 -0.24426230788230896 -0.10911187529563904
0.25527945160865784 0.49833279848098755 0.12737378478050232
0.25965142250061035 0.12506479024887085 0.15581810474395752
-0.250403493642807 0.19966602325439453 -0.13431045413017273
-0.03232245892286301 0.1698666214942932 0.156529501080513
0.29611510038375854 -0.2252516746520996 0.02728217840194702
-0.11974454671144485 -0.1696997880935669 0.16993573307991028
-0.2675338685512543 -0.14292080700397491 -0.13303761184215546
0.1880008578300476 0.3682709038257599 0.09792476892471313
-0.3270876705646515 -0.35424068570137024 0.18849241733551025
-0.2664813697338104 0.22266219556331635 -0.13356663286685944
-0.2499573528766632 -0.06752427667379379 -0.23454239964485168
-0.2117323875427246 -0.09976735711097717 0.16809602081775665
0.14055858552455902 -0.43532794713974 0.11561886966228485
-0.261156290769577 0.1431727111339569 0.15795482695102692
-0.024243541061878204 -0.2398601770401001 -0.13560351729393005
-0.23581039905548096 -0.4709363281726837 -0.026285015046596527
-0.26956266164779663 -0.21553625166416168 0.1324041187763214
0.1771094650030136 0.3396671414375305 -0.007153735496103764
0.14998990297317505 -0.4297001361846924 -0.026097901165485382
0.29512232542037964 0.18400493264198303 0.040866438299417496
-0.2243405431509018 0.4325324594974518 -0.07805117964744568
0.2954593002796173 -0.2248167097568512 -0.13216611742973328
-0.26749730110168457 -0.13490134477615356 -0.13184452056884766
-0.21619778871536255 -0.17241884768009186 0.16055984795093536
0.01010817103087902 0.1001816838979721 -0.13609765470027924
0.25443267822265625 -0.26312825083732605 -0.009097318165004253
0.2963954508304596 0.04178716987371445 -0.06250644475221634
0.16504722833633423 -0.2518852651119232 0.023944620043039322
-0.09279276430606842 0.15294113755226135 0.16886809468269348
-0.2672499716281891 0.01629742980003357 0.15756073594093323
-0.005368528887629509 0.27115386724472046 -0.2233436554670334
-0.153977632522583 -0.25605398416519165 0.037458762526512146
0.197526752948761 0.33278417587280273 0.05172521620988846
-0.26474738121032715 0.1495799422264099 -0.13428671658039093
0.03463536873459816 0.1830628514289856 -0.13623487949371338
-0.26763373613357544 -0.1442420929670334 -0.13301195204257965
0.211004838347435 0.22849227488040924 -0.12220986187458038
0.22821170091629028 0.35319986939430237 -0.07835162431001663
-0.1070273220539093 0.2154339700937271 0.1566399782896042
-0.06470589339733124 -0.24818843603134155 0.1271512657403946
-0.14733421802520752 -0.04150621220469475 0.1679774820804596
-0.25872957706451416 -0.254477322101593 0.05764191970229149
0.13771946728229523 -0.20728711783885956 0.15436795353889465
0.25171351432800293 -0.029574310407042503 0.15316376090049744
-0.2708708643913269 0.10633944720029831 -0.12849882245063782
-0.08003752678632736 0.1700482815504074 0.15464313328266144
-0.18771302700042725 -0.37835559248924255 -0.04928477108478546
-0.06455427408218384 0.2277679294347763 0.144985169172287
-0.27028781175613403 0.21642836928367615 -0.08101817220449448
0.23695096373558044 0.07903893291950226 0.1668107956647873
-0.266973078250885 0.20842404663562775 -0.1321375072002411
-0.02492823451757431 0.10752235352993011 -0.137290358543396
0.23789635300636292 0.31808456778526306 0.054829176515340805
-0.24169127643108368 -0.311555415391922 -0.07663370668888092
0.16607588529586792 -0.2505195438861847 0.09021478146314621
-0.2693917751312256 -0.11253444105386734 -0.13284100592136383
0.2130453735589981 0.352601021528244 -0.07030550390481949
0.21725189685821533 -0.15081286430358887 0.17012669146060944
0.26448845863342285 0.06895732879638672 -0.1360614001750946
0.277248740196228 0.2297620326280594 -0.06872899830341339
0.2552781105041504 -0.24753418564796448 0.1487547606229782
-0.2673592269420624 -0.24784496426582336 -0.05834946781396866
-0.21257342398166656 -0.1647552251815796 0.16676302254199982
0.2695331573486328 0.2969582676887512 0.01652916707098484
-0.24896232783794403 -0.23902501165866852 -0.13394862413406372
0.17663531005382538 0.3988860547542572 0.08473233133554459
-0.04343290999531746 -0.10038676857948303 0.1689181625843048
0.19772031903266907 0.3639454245567322 -0.06491202116012573
-0.026883766055107117 0.2326388955116272 -0.22935457527637482
-0.09248518943786621 0.21589891612529755 -0.13693825900554657
-0.27133581042289734 -0.239304319024086 -0.05748392269015312
-0.051684409379959106 -0.24752593040466309 -0.12105950713157654
-0.2697875201702118 0.18107208609580994 0.13782042264938354
-0.2699526250362396 -0.037265799939632416 -0.13354863226413727
0.28911808133125305 -0.4279007017612457 0.030579902231693268
-0.2362138330936432 0.49412137269973755 0.0028672106564044952
0.28084126114845276 0.05541142821311951 -0.13541573286056519
0.2729392945766449 0.22083070874214172 -0.13602761924266815
0.2953985631465912 -0.21897593140602112 0.15566277503967285
-0.271167516708374 -0.07654757052659988 0.007668118923902512
0.29717472195625305 -0.1711684763431549 -0.12431583553552628
-0.2849652171134949 -0.0517713837325573 -0.23356595635414124
-0.21628187596797943 -0.08910872787237167 0.16469404101371765
0.2084682136774063 0.44759830832481384 0.10136854648590088
0.28407394886016846 0.22748532891273499 0.04893850162625313
-0.061263326555490494 -0.1619025617837906 0.16963116824626923
0.09625472128391266 0.2295597940683365 0.009736941196024418
-0.09474532306194305 -0.17721635103225708 0.1678590178489685
0.23226282000541687 0.23358291387557983 0.052523642778396606
-0.27009475231170654 0.2110910713672638 -0.1262812316417694
0.15616866946220398 0.21374574303627014 0.15673449635505676
0.23811912536621094 -0.34216028451919556 -0.0878080204129219
0.10700210928916931 -0.24744033813476562 0.1452023983001709
0.0486757829785347 0.23009289801120758 -0.07521989941596985
-0.20808309316635132 -0.02127375453710556 0.16853806376457214
-0.034559935331344604 0.1306152194738388 -0.13948756456375122
-0.13690835237503052 -0.2478952258825302 0.14479732513427734
-0.21606029570102692 -0.0168890543282032 0.16531987488269806
0.29090943932533264 -0.24866090714931488 -0.06802376359701157
-0.027210600674152374 0.17441634833812714 -0.13947756588459015
0.10974641889333725 0.218874990940094 -0.13674695789813995
0.262047678232193 -0.4176037311553955 -0.0751885324716568
-0.06103515625 0.11705459654331207 -0.1356944739818573
0.2962304949760437 -0.05442757532000542 0.1442091315984726
0.15952107310295105 -0.028217680752277374 0.1695331335067749
-0.0986805260181427 0.15255746245384216 0.16988126933574677
0.2966231107711792 -0.2458030879497528 -0.024926964193582535
0.07612782716751099 0.222858726978302 0.1567116230726242
-0.24990975856781006 0.23662419617176056 0.01190577819943428
0.03315923735499382 -0.19153738021850586 0.15661928057670593
-0.22936107218265533 -0.4340113699436188 0.18273672461509705
-0.025910325348377228 0.16315391659736633 0.1633412390947342
0.2301274538040161 0.1493450105190277 0.16791845858097076
0.18544377386569977 0.4176028370857239 0.10787179321050644
0.2949316203594208 0.12204508483409882 -0.005202563479542732
-0.2643928527832031 -0.009789753705263138 -0.1335916966199875
0.20281924307346344 0.4303395748138428 0.1005464643239975
-0.18256832659244537 0.25094908475875854 0.027346737682819366
0.14929872751235962 -0.4442936182022095 0.05987904220819473
0.21156755089759827 -0.26159247756004333 0.07360231876373291
-0.26679596304893494 -0.1259727030992508 -0.10741248726844788
0.2838680148124695 0.10541535913944244 -0.13564859330654144
-0.2377074956893921 0.47969380021095276 -0.03736058250069618
-0.19634297490119934 -0.2737364172935486 -0.05822744965553284
-0.262088418006897 0.22713404893875122 0.08758056908845901
0.12993654608726501 0.22650061547756195 0.1541939675807953
-0.002117101103067398 -0.17496150732040405 0.1688467562198639
0.29651889204978943 -0.2389298379421234 -0.02102484181523323
-0.07353224605321884 -0.20234918594360352 0.15433140099048615
0.1654621958732605 -0.42820975184440613 -0.047358978539705276
-0.0008929967880249023 0.22955650091171265 -0.05320585519075394
-0.2175266295671463 -0.25022953748703003 -0.06317732483148575
0.21536627411842346 -0.2505643963813782 -0.05846725404262543
0.21103467047214508 0.17431658506393433 0.15161223709583282
0.2946612536907196 -0.041556015610694885 0.14350625872612
-0.25324830412864685 -0.310413122177124 0.10652635991573334
-0.27113741636276245 -0.004215721972286701 -0.12342962622642517
-0.2621612846851349 -0.46825504302978516 -0.041403092443943024
-0.23701663315296173 0.4578012526035309 -0.06007472053170204
0.13898316025733948 0.22795379161834717 -0.12496257573366165
0.055769603699445724 0.2072000801563263 -0.18181970715522766
-0.2571037709712982 -0.24009615182876587 0.15748853981494904
0.286660373210907 -0.1708119660615921 0.1572766900062561
-0.10424423217773438 -0.14771920442581177 -0.1349743902683258
-0.2309320569038391 0.4885460436344147 -0.03435070812702179
-0.27346765995025635 -0.1677962690591812 0.14484930038452148
0.2757073938846588 -0.07231050729751587 -0.135454460978508
0.20839045941829681 0.5054513812065125 0.00139550119638443
-0.31822505593299866 -0.35906440019607544 0.19730909168720245
-0.2699984908103943 -0.21140140295028687 -0.13213558495044708
0.16530317068099976 -0.4428096413612366 0.041345737874507904
0.29566070437431335 0.024013368412852287 -0.12817110121250153
-0.21818841993808746 0.5023066401481628 0.08730776607990265
-0.04906203970313072 -0.24908164143562317 -0.1211712658405304
-0.2946552336215973 -0.3896324336528778 -0.08554977923631668
0.2162674516439438 -0.2500036060810089 0.08466460555791855
-0.19041040539741516 0.26960837841033936 0.03185902163386345
-0.1185428649187088 0.22793032228946686 -0.12901361286640167
-0.2694372534751892 0.072743721306324 0.07155919820070267
-0.02196919545531273 -0.23783224821090698 0.156492680311203
0.29532521963119507 0.05945936590433121 0.14963899552822113
-0.21557793021202087 -0.1701032668352127 0.16378253698349
0.2832168638706207 -0.11646617203950882 -0.13496682047843933
0.22813881933689117 -0.2937854826450348 -0.06970852613449097
0.28795722126960754 0.4362255930900574 0.12994952499866486
-0.10509876161813736 -0.2455684393644333 0.1532953977584839
0.210639089345932 0.42141056060791016 -0.08299016952514648
-0.004402153193950653 0.16587887704372406 0.1599312722682953
0.07551203668117523 0.17879930138587952 -0.1364048719406128
0.10214254260063171 -0.18775270879268646 0.15784306824207306
0.28357118368148804 -0.42301714420318604 -0.023555589839816093
-0.1759922355413437 -0.25431954860687256 0.06737096607685089
0.2952442467212677 0.42379117012023926 0.11476931720972061
0.18461473286151886 -0.2430361658334732 0.1572200208902359
-0.25710782408714294 -0.024834470823407173 -0.1357552856206894
0.28709089756011963 -0.09076575189828873 -0.13633760809898376
-0.03705326467752457 0.2287745475769043 -0.0588950477540493
0.14823675155639648 -0.3985624313354492 0.1598748415708542
-0.16637519001960754 0.44374242424964905 0.10179264843463898
-0.26655787229537964 -0.03155872970819473 -0.1351429969072342
-0.2170412242412567 -0.2422967404127121 0.155237078666687
-0.2690148949623108 -0.24578239023685455 -0.010899633169174194
-0.009039916098117828 0.2040366232395172 -0.1353142112493515
-0.2192385196685791 0.008016891777515411 0.16073080897331238
0.29650387167930603 -0.24647139012813568 0.09519380331039429
-0.26703688502311707 0.03495577722787857 -0.13379524648189545
-0.250836044549942 0.4676576554775238 0.11544616520404816
0.29226988554000854 -0.0704682469367981 0.1549653559923172
-0.2911403179168701 0.06388172507286072 -0.30526822805404663
0.23475629091262817 0.1075318455696106 0.16898047924041748
0.266631543636322 0.42562997341156006 -0.0849120169878006
0.2873261570930481 -0.07485553622245789 -0.13465066254138947
-0.2606632113456726 0.030928533524274826 0.15680812299251556
0.21200872957706451 -0.28587087988853455 -0.06270822882652283
-0.062311023473739624 0.2297399491071701 -0.03166544809937477
0.2595045566558838 -0.316726952791214 -0.06312739849090576
0.17689433693885803 -0.2714698314666748 0.039692167192697525
0.049434177577495575 0.179667130112648 -0.21591933071613312
-0.2677643895149231 -0.08429504930973053 -0.13276982307434082
-0.26738542318344116 0.2277732640504837 -0.050971150398254395
-0.26761746406555176 -0.0037698354572057724 -0.13373525440692902
-0.2678814232349396 -0.2279752641916275 -0.13423959910869598
0.1993371546268463 -0.2948228418827057 -0.055866774171590805
0.23082458972930908 -0.2732539176940918 -0.059427835047245026
-0.26812416315078735 -0.19251394271850586 -0.12761028110980988
0.29565882682800293 0.22510632872581482 0.11345504969358444
-0.29305270314216614 -0.44261616468429565 -0.0870370864868164
0.2958025634288788 -0.0538790263235569 0.14395789802074432
0.2861781716346741 -0.43969467282295227 0.1330956369638443
0.18910615146160126 -0.4419268071651459 0.1969130039215088
-0.2469911426305771 -0.4783678352832794 -0.014875099994242191
0.2896321415901184 -0.2439611405134201 -0.11536511778831482
0.28528764843940735 -0.2372741848230362 -0.1356533318758011
-0.018574858084321022 0.2662428319454193 -0.22704267501831055
0.24852070212364197 0.027445752173662186 0.15406298637390137
0.2745576798915863 0.34348660707473755 -0.058944087475538254
0.28434380888938904 -0.2511724531650543 -0.043694719672203064
-0.16237160563468933 0.05657852441072464 0.16843926906585693
0.11469501256942749 -0.24786309897899628 0.14866331219673157
-0.3358135223388672 -0.395224392414093 0.01127217710018158
0.27801990509033203 0.43473246693611145 0.11676307022571564
-0.07702860981225967 -0.2473875731229782 0.14884360134601593
-0.2275761365890503 0.1782435178756714 0.15571340918540955
0.14296840131282806 0.17898985743522644 0.152357280254364
0.06906429678201675 0.22413331270217896 0.15510940551757812
0.2104392647743225 0.30406954884529114 0.030632704496383667
0.2867940366268158 -0.1225021481513977 -0.13654978573322296
0.19845905900001526 0.2296113520860672 0.016623634845018387
-0.2696637213230133 -0.23453713953495026 0.049283284693956375
0.2731630504131317 -0.3462978005409241 0.11790525913238525
-0.0938170924782753 -0.244485005736351 0.15011906623840332
-0.2166932225227356 0.22712469100952148 0.06582312285900116
0.12159786373376846 0.22833767533302307 -0.12169232964515686
-0.21574178338050842 -0.4590774476528168 0.08429522067308426
-0.0926584005355835 0.07978752255439758 0.16860990226268768
0.2841734290122986 -0.2296661138534546 -0.13437074422836304
0.28488779067993164 0.0998750627040863 -0.13472329080104828
0.2853696942329407 0.22775037586688995 -0.09621357172727585
-0.2692992389202118 -0.24192337691783905 -0.06478556990623474
0.2828754186630249 0.34435945749282837 -0.04436030611395836
-0.11882467567920685 -0.24789436161518097 -0.12447957694530487
0.1589890420436859 0.115428127348423 0.16880349814891815
0.23543940484523773 0.03468894958496094 0.1689818948507309
0.2947854995727539 0.17880216240882874 0.14683111011981964
0.059885259717702866 0.13942793011665344 -0.13427972793579102
0.2796868085861206 -0.36084404587745667 0.1310836523771286
0.28358009457588196 -0.21339449286460876 -0.13541549444198608
0.15371449291706085 0.22823238372802734 -0.12909194827079773
-0.11669500172138214 -0.23227357864379883 -0.1352161318063736
-0.26708558201789856 0.010718302801251411 -0.13584791123867035
-0.1583915501832962 -0.253228098154068 0.04890126734972
-0.21910303831100464 -0.45047247409820557 0.12735772132873535
0.2019091248512268 0.23025809228420258 -0.013144616037607193
0.29495248198509216 0.14519840478897095 -0.1268593668937683
0.2943463623523712 0.22813743352890015 -0.01403829362243414
-0.27033811807632446 -0.1599651426076889 -0.11468466371297836
-0.2590894103050232 -0.038031525909900665 -0.13619019091129303
0.2953134775161743 0.20600557327270508 0.15585537254810333
-0.2897154986858368 -0.44438374042510986 -0.08347579836845398
-0.15241461992263794 -0.24489672482013702 0.15386039018630981
0.15825383365154266 0.17759940028190613 0.15207692980766296
-0.19991706311702728 0.21853891015052795 0.15715059638023376
0.2430199682712555 -0.41268396377563477 -0.09326671063899994
0.18161876499652863 -0.4429744482040405 0.1947167068719864
0.2474181205034256 0.22076623141765594 -0.13585035502910614
-0.07881927490234375 0.1655750870704651 0.16242286562919617
-0.2718001902103424 0.22771930694580078 0.054820410907268524
0.2962825298309326 -0.05538155883550644 -0.002294152043759823
-0.2700590491294861 0.20603744685649872 -0.12996798753738403
-0.22563114762306213 0.22821550071239471 0.14694370329380035
0.23207026720046997 0.3676329553127289 -0.087300144135952
0.26378533244132996 -0.3812783360481262 0.1769624948501587
0.20991156995296478 0.36228716373443604 -0.07415217161178589
0.2290305495262146 -0.4186890125274658 0.20358632504940033
-0.2694616913795471 -0.16508717834949493 0.15598806738853455
0.26255542039871216 0.513020932674408 0.03517317771911621
0.013374488800764084 0.23068776726722717 -0.028344983235001564
0.2740744352340698 -0.2492305040359497 -0.12203534692525864
0.20799309015274048 0.2290831059217453 0.06069861352443695
-0.2705629765987396 0.20731548964977264 -0.1237700879573822
0.29753348231315613 0.035622648894786835 0.13976332545280457
-0.26954177021980286 -0.12088167667388916 0.11534084379673004
0.03951026499271393 0.10251446068286896 -0.1358441859483719
0.29171350598335266 -0.04764319583773613 -0.13501891493797302
0.2566795349121094 0.23067457973957062 0.05400928109884262
-0.24104785919189453 0.2187185287475586 -0.13397768139839172
-0.0042261723428964615 0.10256335884332657 -0.18418973684310913
0.2315903604030609 -0.24255508184432983 -0.13438895344734192
0.29783114790916443 -0.23840844631195068 0.12516996264457703
0.17635995149612427 -0.2503051459789276 -0.03254019841551781
0.25478461384773254 -0.347960501909256 0.1410667449235916
-0.09618563205003738 0.22652672231197357 0.14701548218727112
-0.33206892013549805 -0.3442441523075104 0.14237850904464722
-0.2693145275115967 -0.186529278755188 -0.11785581707954407
-0.11672495305538177 0.1139562800526619 0.16991376876831055
0.056506093591451645 0.22847603261470795 -0.12249067425727844
-0.011277901008725166 -0.2363172173500061 -0.1354101002216339
-0.1738564670085907 0.17496557533740997 0.15389899909496307
0.14004096388816833 -0.4359605014324188 0.09355811029672623
-0.27129533886909485 -0.19075947999954224 -0.11379562318325043
0.259664922952652 -0.2479199320077896 -0.12666523456573486
0.04433029145002365 0.22875140607357025 -0.1253845989704132
0.29560163617134094 -0.06917570531368256 0.1521027684211731
-0.2591901421546936 -0.1181369349360466 -0.1349702775478363
0.2765759527683258 0.48747536540031433 0.12136964499950409
-0.2120773196220398 0.23056377470493317 -0.0431649312376976
-0.2169262021780014 0.5048784017562866 0.04095721244812012
-0.2732248306274414 0.2170196771621704 0.02979983575642109
0.29703637957572937 -0.2421250343322754 0.02587071619927883
0.19831587374210358 0.33933430910110474 -0.04527868330478668
-0.09351736307144165 0.04621926695108414 -0.1348802149295807
0.2953523099422455 -0.2143448442220688 0.009350527077913284
-0.3161669969558716 -0.3627222776412964 0.19849732518196106
0.16460615396499634 -0.44517841935157776 3.9661768823862076e-05
-0.21341782808303833 0.2240036576986313 0.15605925023555756
0.08686825633049011 0.1547960788011551 0.16837719082832336
-0.1807784140110016 0.22799335420131683 -0.13228431344032288
0.29582807421684265 0.22233422100543976 0.047182295471429825
0.17379093170166016 -0.15534339845180511 -0.13628922402858734
-0.16171112656593323 0.17048989236354828 0.1543683260679245
0.1642695963382721 0.21595509350299835 -0.13383135199546814
-0.2670273780822754 0.01913311332464218 -0.13482259213924408
-0.27141132950782776 0.13043731451034546 0.14490322768688202
-0.0673484206199646 -0.24954096972942352 -0.03405410796403885
0.2936040759086609 0.16628210246562958 -0.1276126503944397
-0.21499234437942505 -0.19886305928230286 0.15182200074195862
0.2533968687057495 -0.32771241664886475 0.11607422679662704
-0.2675172984600067 -0.1504639983177185 -0.13324925303459167
0.03734387829899788 0.10606203973293304 -0.136421799659729
0.013906648382544518 0.125047966837883 -0.21236687898635864
0.1564352810382843 -0.3979996144771576 0.16687676310539246
0.2131519615650177 -0.25887730717658997 0.07229295372962952
0.29591837525367737 0.14901092648506165 -0.1225854903459549
-0.2603963613510132 -0.02304922230541706 0.1572989970445633
0.16175168752670288 -0.4128567576408386 0.182702898979187
-0.21183423697948456 0.2671416103839874 0.04197826236486435
-0.21021775901317596 -0.18494591116905212 0.15851353108882904
0.2895289659500122 0.2212410867214203 -0.1340971142053604
-0.2704799175262451 -0.2428421527147293 -0.1322888433933258
0.28741455078125 0.21004723012447357 -0.13551220297813416
-0.07206551730632782 -0.24087075889110565 0.15515276789665222
-0.10559359192848206 0.22673366963863373 0.15346097946166992
-0.09254798293113708 0.1647006720304489 0.16172367334365845
-0.013508019037544727 0.16995562613010406 0.1559860110282898
-0.25663089752197266 0.16392937302589417 0.1583784520626068
-0.26351138949394226 0.3784560263156891 0.03827357292175293
-0.08378438651561737 0.1647469401359558 0.16202624142169952
0.15629389882087708 -0.44247928261756897 0.1612546592950821
0.07936909794807434 0.22228458523750305 0.15683592855930328
0.2961266040802002 0.0554511733353138 0.14993923902511597
-0.16823185980319977 0.484787255525589 0.05205941200256348
-0.021783098578453064 0.10318645089864731 -0.13592171669006348
-0.21505656838417053 0.14236955344676971 0.1683281660079956
-0.06178567558526993 0.11443336308002472 -0.1356094479560852
0.20806439220905304 0.4899716079235077 -0.037058763206005096
-0.16132564842700958 0.40886402130126953 0.09462885558605194
0.1905059665441513 -0.4020811915397644 0.19351276755332947
0.17973692715168 -0.2396157681941986 -0.1353113055229187
0.2840217351913452 -0.2228815257549286 -0.13538573682308197
0.14001350104808807 -0.39335912466049194 0.04209212213754654
-0.1751624047756195 0.4236980974674225 -0.05817433446645737
0.27838489413261414 -0.20873188972473145 -0.13521656394004822
0.14657358825206757 -0.2446720004081726 -0.13527654111385345
