-0.23946988582611084 -0.2987598180770874 0.08599409461021423
-0.17325523495674133 0.3684568703174591 0.09423784166574478
-0.2697629928588867 0.06062494218349457 -0.12997746467590332
-0.2698380649089813 -0.18859067559242249 -0.12825623154640198
-0.2411118894815445 -0.2961482107639313 -0.05797448009252548
0.24383960664272308 -0.2839909791946411 -0.058019690215587616
-0.1923433095216751 0.48826390504837036 -0.03235797584056854
0.12568479776382446 0.1488403081893921 -0.13708984851837158
-0.004603266716003418 0.1635301113128662 0.1604834347963333
0.05596211925148964 0.1834854930639267 -0.16999609768390656
0.2749054431915283 0.32286036014556885 0.04148472473025322
0.297853022813797 -0.05092514678835869 0.15259060263633728
-0.2636738121509552 0.18951362371444702 0.15666964650154114
-0.24182602763175964 0.3259503245353699 -0.017492543905973434
0.2439022809267044 -0.41697606444358826 -0.09127994626760483
-0.1236298531293869 0.1710190773010254 0.15308615565299988
-0.2715848386287689 0.22319670021533966 -0.005852171219885349
-0.2715683579444885 -0.15371090173721313 -0.12923789024353027
0.2297360599040985 0.22115379571914673 -0.1349446326494217
-0.20336641371250153 0.5026342272758484 0.07242634892463684
0.2614988088607788 -0.2943646013736725 -0.03641737997531891
-0.2690643072128296 0.15353208780288696 0.12816192209720612
0.07123582810163498 0.21731199324131012 0.15337148308753967
-0.21604421734809875 0.056730352342128754 -0.1339617371559143
-0.2720329463481903 -0.24645191431045532 0.08381085842847824
0.2585752010345459 -0.2668514847755432 0.011292906478047371
0.2793866991996765 0.43183571100234985 0.12379687279462814
-0.022190717980265617 0.2921130955219269 -0.2460063397884369
0.24805067479610443 0.227888286113739 -0.12631770968437195
-0.23156894743442535 -0.47909629344940186 -0.003685575909912586
0.29131272435188293 0.2237977385520935 -0.13592885434627533
-0.24573221802711487 0.44595634937286377 -0.057468775659799576
0.29827746748924255 0.21316152811050415 -0.12640297412872314
0.28552138805389404 -0.09853597730398178 0.15588892996311188
-0.21804022789001465 0.11174771189689636 0.16293543577194214
0.19061078131198883 0.17436900734901428 0.15096896886825562
-0.26966866850852966 0.10152833163738251 0.145844966173172
0.2757837176322937 0.455218642950058 0.12427297979593277
-0.06645182520151138 -0.20119744539260864 0.15220023691654205
-0.1794397234916687 0.22934018075466156 0.04034418612718582
0.2961564064025879 0.221034973859787 0.09633202850818634
-0.26959583163261414 0.038747839629650116 0.1498025506734848
-0.21463730931282043 0.22595392167568207 -0.0902615413069725
0.219617560505867 -0.24898573756217957 -0.13386832177639008
0.28465840220451355 -0.23164035379886627 0.15609493851661682
-0.04977110028266907 -0.24978604912757874 0.1487456113100052
0.2982584536075592 -0.22718745470046997 -0.1195022314786911
-0.08371830731630325 0.16363316774368286 0.15973016619682312
0.23882806301116943 -0.1636946201324463 0.16642354428768158
-0.2651943266391754 0.15254881978034973 -0.134281724691391
-0.2702106535434723 0.09941044449806213 0.14925944805145264
-0.22539198398590088 -0.31960922479629517 -0.07990406453609467
-0.26945939660072327 -0.16057810187339783 0.15558934211730957
-0.2632256746292114 0.1742517501115799 -0.1325719803571701
-0.26797643303871155 -0.22246813774108887 -0.1318456530570984
0.29221880435943604 0.21828901767730713 -0.1356264054775238
-0.27014195919036865 -0.18061622977256775 -0.1331654191017151
0.29116952419281006 -0.13677570223808289 -0.13552850484848022
0.22857901453971863 0.5144756436347961 0.07822548598051071
-0.02566847950220108 0.1499870866537094 0.16878709197044373
-0.2629833221435547 -0.25255128741264343 -0.06167300045490265
-0.039513811469078064 -0.1904410421848297 0.15280240774154663
0.26685434579849243 -0.3592659831047058 -0.06926260888576508
0.2929431200027466 0.21776287257671356 -0.13526172935962677
0.26710882782936096 0.3418702781200409 -0.06256869435310364
-0.21497836709022522 -0.11050774157047272 0.16653649508953094
-0.26751697063446045 0.0314364992082119 -0.13242442905902863
0.018937088549137115 0.18323911726474762 -0.13884742558002472
-0.2711349427700043 -0.05765576660633087 -0.13132908940315247
-0.007935170084238052 0.17554044723510742 0.15443086624145508
0.20438919961452484 0.15063568949699402 0.1686892807483673
-0.3249738812446594 -0.42707255482673645 -0.05557399243116379
0.2793606221675873 0.228303462266922 -0.028745226562023163
-0.3334449529647827 -0.3540862798690796 0.1711522936820984
-0.268310010433197 -0.22382275760173798 -0.13212260603904724
-0.056996025145053864 -0.24766159057617188 0.15145769715309143
0.2121838480234146 -0.4431503415107727 -0.07678605616092682
0.27346521615982056 0.4973137080669403 0.10976096242666245
0.2184886932373047 0.22181260585784912 -0.13685718178749084
0.28610852360725403 -0.2045585811138153 0.1571960747241974
0.2329961061477661 0.04442112520337105 0.16826266050338745
-0.2700025141239166 -0.014849280007183552 -0.12716156244277954
0.20774097740650177 0.2304302453994751 0.04443216696381569
0.013138079084455967 0.22504453361034393 0.15094979107379913
-0.19324444234371185 -0.27456972002983093 0.07110484689474106
-0.20577555894851685 0.5062208771705627 0.039703626185655594
-0.2701965868473053 -0.23852349817752838 0.1408250629901886
0.293527215719223 0.14166206121444702 -0.13441719114780426
-0.21169769763946533 0.2305169701576233 -0.038561705499887466
-0.2697239816188812 -0.20799842476844788 -0.13061609864234924
0.2946491539478302 0.11677223443984985 -0.1319415122270584
-0.24801737070083618 -0.19189944863319397 -0.13475953042507172
-0.2688480317592621 -0.01594732701778412 0.15284231305122375
0.2962477505207062 -0.23763930797576904 -0.04862929880619049
0.2280093878507614 -0.2472189962863922 -0.1359567642211914
-0.18379509449005127 0.2676529586315155 0.008659104816615582
-0.21834896504878998 -0.11850187182426453 0.1634407639503479
0.28953060507774353 -0.05182792246341705 -0.13372668623924255
-0.008886578492820263 -0.25101709365844727 -0.13431940972805023
-0.25940048694610596 0.13328242301940918 -0.13405586779117584
-0.2667906582355499 -0.23570163547992706 -0.13479115068912506
0.26011693477630615 -0.11000142991542816 0.15505093336105347
-0.2667752802371979 -0.04468999803066254 -0.1343311220407486
0.2392684668302536 0.33947989344596863 -0.0668550580739975
-0.2934947609901428 -0.45007437467575073 -0.08130990713834763
-0.26815521717071533 -0.18444542586803436 -0.12359106540679932
-0.2680785059928894 0.08025647699832916 -0.13392305374145508
-0.2729537785053253 0.2134561836719513 -0.12304724752902985
-0.26944872736930847 0.11244604736566544 0.1520010232925415
0.1970311403274536 -0.17937113344669342 0.16936856508255005
0.1446945071220398 0.22719262540340424 -0.1291355937719345
0.031136538833379745 0.22222799062728882 -0.24468471109867096
-0.26961037516593933 0.07680904865264893 0.14687208831310272
-0.27375224232673645 -0.08292277157306671 -0.12487533688545227
0.29788804054260254 0.07705231755971909 0.14238956570625305
0.24597421288490295 -0.053583238273859024 -0.13505028188228607
-0.17634916305541992 -0.14492429792881012 -0.1339496523141861
0.05357002094388008 0.16624261438846588 -0.13900333642959595
0.2724534869194031 -0.42927929759025574 -0.05955637991428375
0.29366976022720337 0.036559198051691055 0.1555570811033249
-0.21858693659305573 -0.1319781094789505 0.16294243931770325
-0.22159402072429657 0.4254843294620514 -0.07903975993394852
0.17091870307922363 -0.2516968846321106 -0.06642069667577744
-0.16909942030906677 0.34527716040611267 -0.03369615599513054
0.26983729004859924 0.41300588846206665 -0.0815301239490509
0.23074036836624146 0.44395846128463745 -0.08586996793746948
-0.23993822932243347 -0.22020655870437622 0.15229661762714386
0.2735047936439514 -0.44389837980270386 0.06780639290809631
-0.12086107581853867 0.22035479545593262 -0.13450652360916138
-0.2702626585960388 -0.06501278281211853 -0.13169202208518982
0.2915460467338562 -0.23674078285694122 -0.13433249294757843
-0.09518977999687195 0.22758620977401733 0.14797426760196686
-0.2865366041660309 -0.32209691405296326 0.0358009934425354
-0.22435598075389862 0.2400534301996231 -0.02791105955839157
-0.2615634799003601 -0.015292972326278687 0.15524661540985107
-0.2629854679107666 -0.08538802713155746 -0.13333596289157867
-0.22032925486564636 0.2210758477449417 -0.13359782099723816
0.23451200127601624 0.1717817187309265 0.15329831838607788
-0.20416200160980225 0.3711740970611572 -0.07555215060710907
0.2922721207141876 -0.43804094195365906 0.04161455109715462
0.06836621463298798 0.22135184705257416 -0.13435184955596924
-0.03794470056891441 0.22762605547904968 -0.12375074625015259
0.1615847945213318 -0.2538544833660126 0.01661071926355362
0.2130119949579239 0.22494953870773315 -0.03119529038667679
0.15411889553070068 -0.3950788080692291 -0.03532075136899948
-0.265102744102478 0.17576763033866882 -0.13425785303115845
-0.29979565739631653 -0.34016385674476624 0.19627071917057037
0.24015572667121887 -0.2502111792564392 -0.13518410921096802
0.16888277232646942 -0.44470900297164917 0.17169255018234253
0.026591096073389053 -0.191098153591156 0.15316332876682281
-0.013009998947381973 -0.24829113483428955 0.1431719809770584
0.25831180810928345 0.21776032447814941 -0.13515999913215637
0.2946958541870117 0.22592991590499878 -0.12520858645439148
0.20034995675086975 0.3203228712081909 0.02003941312432289
0.2885928750038147 -0.20961318910121918 -0.13527297973632812
-0.26805344223976135 -0.15857435762882233 0.1455051749944687
0.1407271921634674 -0.43940213322639465 0.03811079263687134
-0.31297656893730164 -0.359443336725235 0.19841070473194122
0.18178313970565796 -0.40838491916656494 -0.06766758114099503
0.28702881932258606 0.08055892586708069 -0.13528232276439667
0.20189419388771057 -0.4449831247329712 -0.07097673416137695
-0.17393146455287933 0.48409178853034973 0.006025013979524374
0.2569676339626312 -0.24072737991809845 0.15231940150260925
-0.25382527709007263 0.22760270535945892 -0.04859756678342819
-0.1882321834564209 0.47863271832466125 -0.044600266963243484
-0.02959682047367096 -0.24152261018753052 0.15454593300819397
-0.15420234203338623 -0.25608816742897034 0.07307838648557663
0.0972582995891571 0.18268735706806183 -0.13691073656082153
0.015554433688521385 0.1000896692276001 -0.18409182131290436
-0.27032271027565 -0.02094229683279991 -0.057756099849939346
-0.26252761483192444 0.1984584927558899 0.15508639812469482
-0.20117101073265076 -0.05699673295021057 -0.13533148169517517
-0.255129337310791 -0.1567005068063736 -0.13367588818073273
0.013267557136714458 -0.2492809295654297 0.15270139276981354
-0.10848808288574219 -0.24553224444389343 -0.13455362617969513
-0.24604307115077972 0.48754334449768066 0.07681270688772202
0.290166437625885 -0.4346872568130493 0.09106338024139404
-0.23040860891342163 -0.3615104556083679 -0.08886890113353729
0.05862022191286087 0.22005876898765564 -0.1355590671300888
-0.2641834616661072 0.17867976427078247 -0.130914106965065
0.1088983565568924 0.22622112929821014 -0.13047608733177185
-0.21768340468406677 0.43998613953590393 -0.0772419199347496
0.19119688868522644 0.38191819190979004 0.11379582434892654
-0.21623007953166962 0.22505122423171997 -0.13416877388954163
0.22529277205467224 0.2260044366121292 -0.13130632042884827
0.23784589767456055 -0.3243592083454132 0.11313582956790924
-0.22405211627483368 0.4983566403388977 -0.015091965906322002
0.28847038745880127 -0.18799681961536407 -0.1356499195098877
-0.24556054174900055 0.22318127751350403 -0.1346292644739151
0.28174081444740295 0.22594793140888214 0.11499007791280746
0.28793954849243164 -0.3664534389972687 0.025789715349674225
-0.16737429797649384 -0.19982323050498962 0.14968737959861755
-0.27066361904144287 -0.1911214143037796 -0.012958895415067673
-0.26964789628982544 -0.23617836833000183 -0.130494624376297
0.2430339902639389 -0.44818195700645447 -0.07128605246543884
0.13630110025405884 -0.42938923835754395 0.10328228026628494
0.16037186980247498 -0.368305504322052 -0.03945951163768768
-0.2282441109418869 0.14911170303821564 0.1527675986289978
-0.2536793351173401 0.07577629387378693 -0.30392584204673767
0.260066956281662 0.2333664447069168 -0.030382215976715088
0.0467953160405159 -0.25161102414131165 -0.02235857956111431
0.06875976920127869 -0.25126343965530396 -0.13330897688865662
0.1816370040178299 0.43160495162010193 0.11015017330646515
-0.2702195644378662 -0.04888106882572174 -0.1272304207086563
0.20029641687870026 0.39029160141944885 -0.0656476691365242
0.2263874113559723 0.23680567741394043 0.050486475229263306
-0.2553161084651947 0.07883570343255997 -0.2914900481700897
0.016272136941552162 0.2217809408903122 -0.07661747932434082
-0.18705973029136658 0.09005047380924225 0.16803693771362305
0.2930113673210144 0.2266310155391693 -0.12935476005077362
-0.16490337252616882 0.37501031160354614 0.09108417481184006
0.2976605296134949 0.0720817819237709 0.06393816322088242
0.02322050929069519 0.015612494200468063 -0.13700665533542633
0.08130545914173126 -0.2024058997631073 0.15082702040672302
-0.1533021479845047 -0.1852719783782959 0.16301017999649048
0.29671376943588257 0.21742647886276245 -0.029330380260944366
0.29544734954833984 -0.011917375028133392 -0.1333712488412857
-0.2664586901664734 -0.04437284171581268 0.15420874953269958
0.18346916139125824 0.4690561592578888 0.044402994215488434
-0.26827654242515564 -0.17370060086250305 -0.1324407458305359
-0.2079775482416153 0.42681506276130676 -0.07807692140340805
-0.271125853061676 -0.3617500066757202 0.19806993007659912
-0.2690025866031647 0.21205909550189972 -0.1081673875451088
-0.2020094096660614 -0.16510379314422607 0.1715324968099594
0.2969655394554138 0.0210455022752285 -0.1310541182756424
0.04122677072882652 0.22626937925815582 -0.1218944564461708
-0.2014809399843216 0.1765388399362564 0.15623688697814941
-0.27175575494766235 -0.005103486590087414 -0.12287252396345139
0.23313143849372864 0.22778774797916412 -0.1257392317056656
0.017304489389061928 -0.18599152565002441 0.16095316410064697
-0.12862464785575867 -0.2392001450061798 0.1531604528427124
-0.2701745331287384 -0.23338691890239716 0.15147638320922852
-0.1273842602968216 -0.15178699791431427 -0.1356571912765503
0.1923198699951172 -0.25202101469039917 -0.05303271859884262
0.009414947591722012 0.17722266912460327 0.15090976655483246
0.23766599595546722 0.08052605390548706 0.16690987348556519
-0.2699555456638336 0.21991558372974396 -0.08552262932062149
-0.26880213618278503 -0.24955442547798157 -0.04352869465947151
-0.17508669197559357 0.3621700704097748 0.09754400700330734
0.29373398423194885 -0.25039055943489075 0.10085541754961014
-0.3336782157421112 -0.359142541885376 0.14126917719841003
-0.26907238364219666 0.17465607821941376 0.14807835221290588
0.22500181198120117 -0.10641547292470932 0.17336073517799377
0.1713935136795044 -0.11851039528846741 -0.13655053079128265
0.28657281398773193 0.2250545471906662 -0.07014469057321548
-0.2515164613723755 -0.367584228515625 -0.09487971663475037
0.29669374227523804 -0.24189668893814087 0.019580818712711334
-0.2700400948524475 -0.23894686996936798 -0.08388293534517288
-0.22857190668582916 0.10905487835407257 0.15433968603610992
-0.26517391204833984 -0.21748006343841553 -0.13429364562034607
-0.17180567979812622 0.35741254687309265 -0.04304227605462074
-0.07178283482789993 0.22635172307491302 0.14775456488132477
0.29049918055534363 -0.24896277487277985 -0.06440705060958862
0.19097217917442322 -0.25046154856681824 -0.04928843677043915
-0.24229885637760162 0.3315333425998688 -0.02515779621899128
0.27608704566955566 0.23835811018943787 0.024146221578121185
0.25401246547698975 -0.16546934843063354 0.15231530368328094
0.21418318152427673 0.3495025634765625 -0.06645719707012177
0.29649513959884644 -0.2383156716823578 0.13885751366615295
0.25257059931755066 -0.0014442075043916702 0.15556113421916962
-0.18223340809345245 0.35978734493255615 -0.05994012579321861
0.17887911200523376 -0.25004813075065613 -0.03907378762960434
0.10388615727424622 -0.25209420919418335 0.081961989402771
0.2899932563304901 -0.08805873245000839 0.1556931734085083
-0.26374250650405884 0.18324825167655945 -0.13341528177261353
0.29613280296325684 0.22432011365890503 0.14662759006023407
-0.2689021825790405 -0.14700838923454285 -0.12393170595169067
0.14596162736415863 0.2239547222852707 0.024570748209953308
-0.0377311147749424 -0.02597927860915661 -0.1369665265083313
-0.23563747107982635 -0.3352929949760437 -0.08473952859640121
-0.21346920728683472 -0.4654724597930908 0.06856919825077057
-0.18570475280284882 0.49752527475357056 0.0535452701151371
0.2969108521938324 -0.22319790720939636 -0.040636077523231506
-0.2107621431350708 -0.44899609684944153 0.12309876084327698
0.07630143314599991 -0.17385247349739075 0.17056258022785187
-0.27509942650794983 -0.3909986913204193 0.20549717545509338
0.24964293837547302 -0.2509327828884125 0.06958971917629242
0.11298060417175293 -0.250495582818985 0.1478680819272995
-0.267759770154953 0.22821000218391418 0.00890357419848442
0.23126691579818726 0.2506484389305115 -0.02374425157904625
0.29631274938583374 0.15223321318626404 0.1573295295238495
-0.09177384525537491 -0.2476373016834259 -0.13408401608467102
0.18563029170036316 -0.4429420828819275 0.1894998550415039
-0.22880615293979645 -0.27535244822502136 -0.05171746015548706
0.28361332416534424 -0.4247305989265442 -0.01180977188050747
0.22290192544460297 0.227548286318779 -0.1010260134935379
0.18579185009002686 0.3927869200706482 0.11083825677633286
-0.23501434922218323 -0.4724253714084625 0.04709039628505707
0.2505703270435333 0.24065682291984558 -0.027904901653528214
0.2896459400653839 -0.07372267544269562 -0.13514447212219238
-0.19916531443595886 -0.4108985960483551 0.12666204571723938
0.05606015771627426 0.21728995442390442 -0.13510192930698395
0.27750471234321594 0.21950295567512512 -0.1343551129102707
0.28670766949653625 -0.08136803656816483 0.15578290820121765
-0.23194488883018494 0.22454646229743958 -0.13413742184638977
0.2946693003177643 0.13200245797634125 -0.13193845748901367
0.29629242420196533 0.21147394180297852 -0.13445475697517395
-0.25788089632987976 -0.3399765193462372 -0.08247695118188858
0.26153379678726196 -0.2510978579521179 -0.0006206943653523922
-0.32385551929473877 -0.3589629530906677 0.17087602615356445
-0.0662517249584198 0.22674451768398285 0.14405745267868042
0.18424847722053528 -0.2024565041065216 0.15288464725017548
-0.23535539209842682 -0.3004531264305115 0.08670583367347717
-0.12238787859678268 -0.2513968348503113 0.03555288165807724
0.16087403893470764 -0.30577316880226135 -0.0032035736367106438
-0.26951295137405396 0.10491147637367249 -0.13300840556621552
0.27259185910224915 -0.4426144063472748 -0.011839454993605614
-0.27358803153038025 -0.04021555930376053 -0.12036538869142532
-0.2674214243888855 0.03947259485721588 -0.13294072449207306
-0.09671714901924133 -0.24832598865032196 -0.13229431211948395
0.1820051670074463 -0.24911290407180786 -0.1360582709312439
-0.12957192957401276 -0.20321135222911835 0.1524585783481598
-0.23919594287872314 0.4144411087036133 0.09927582740783691
0.2962974011898041 -0.08332931995391846 -0.005294203758239746
0.19845905900001526 -0.26771536469459534 -0.04417383670806885
0.13920550048351288 -0.43974244594573975 0.07145850360393524
0.2803235948085785 0.227596253156662 -0.028187133371829987
0.0046916441060602665 0.228448748588562 0.1406259536743164
-0.19766953587532043 -0.2432922124862671 -0.13552188873291016
-0.20370876789093018 -0.451948344707489 0.033361636102199554
-0.26362699270248413 -0.12847469747066498 -0.13386492431163788
-0.0795355811715126 -0.23874668776988983 -0.13452711701393127
0.2963417172431946 0.00038586976006627083 0.14694060385227203
0.05250038579106331 0.15761181712150574 -0.13702557981014252
-0.2073410600423813 0.14433491230010986 0.167886883020401
-0.2617162764072418 0.22783870995044708 -0.06612464785575867
-0.17916476726531982 0.334610253572464 -0.026506641879677773
0.255109965801239 -0.015488609671592712 0.15424273908138275
-0.2397157847881317 -0.38295647501945496 0.18860118091106415
0.2197725772857666 -0.1881226748228073 0.16310839354991913
-0.2099706381559372 -0.4148205816745758 0.16558575630187988
-0.153691828250885 0.17026421427726746 0.15338796377182007
-0.24898478388786316 0.44196951389312744 -0.0561613067984581
0.1908031851053238 -0.2645185589790344 0.057268932461738586
0.2708914577960968 0.22532649338245392 0.1468590348958969
-0.164394348859787 0.228640615940094 0.01653248630464077
-0.3265599012374878 -0.35544702410697937 0.18768711388111115
0.22801215946674347 0.5084599852561951 -0.017689090222120285
-0.27020949125289917 -0.15274053812026978 0.0632525235414505
-0.22247856855392456 0.07725559920072556 0.1589617282152176
0.2134685516357422 -0.24885955452919006 -0.1348353624343872
-0.24066074192523956 0.3608061969280243 -0.06287632882595062
-0.003935119137167931 0.18386965990066528 -0.13825774192810059
0.29109176993370056 -0.21833989024162292 -0.133148655295372
-0.14332304894924164 -0.2524668574333191 0.028660966083407402
0.25402429699897766 0.11548572778701782 0.15867961943149567
0.14094139635562897 -0.432640939950943 0.0029555943328887224
-0.08993683755397797 -0.012166326865553856 0.16838206350803375
-0.23804885149002075 0.4963040053844452 0.029996201395988464
0.056039903312921524 0.2178354263305664 -0.13388407230377197
-0.22995305061340332 -0.45975133776664734 0.10493327677249908
0.26131671667099 0.15208232402801514 0.155922994017601
-0.2657817006111145 -0.013038448058068752 0.15439173579216003
0.2738499641418457 -0.01624690368771553 -0.13439561426639557
0.052057549357414246 0.20004886388778687 -0.20354299247264862
-0.2638418972492218 -0.24958433210849762 0.04132581502199173
-0.2588593363761902 0.21994642913341522 -0.13170823454856873
-0.2698049247264862 -0.18678846955299377 -0.12391562759876251
0.204911470413208 0.057462044060230255 0.16711993515491486
0.2917459011077881 -0.041225068271160126 -0.1355946958065033
0.2969047725200653 0.11526226997375488 0.15623381733894348
0.23567333817481995 0.037411075085401535 0.16859973967075348
0.2032145857810974 0.22831813991069794 0.1442914456129074
-0.20029029250144958 -0.35861310362815857 0.10266169905662537
0.12026485800743103 0.22714312374591827 0.14044055342674255
0.21436360478401184 -0.011465266346931458 -0.13582144677639008
-0.188982754945755 0.48126909136772156 -0.04403647035360336
0.2173902988433838 0.13088689744472504 -0.13410887122154236
-0.22246503829956055 -0.24317632615566254 -0.1353801041841507
-0.01923156902194023 -0.23130713403224945 -0.13424041867256165
0.25205039978027344 -0.2588005065917969 -0.02632182091474533
-0.1484658569097519 -0.2687939405441284 0.025202427059412003
-0.2644646167755127 -0.24514305591583252 -0.11118389666080475
0.16756698489189148 -0.43438827991485596 -0.0525091253221035
-0.28935033082962036 -0.34980571269989014 0.19983087480068207
-0.20636071264743805 -0.4402863085269928 0.11410897970199585
0.2845914959907532 -0.3871117830276489 0.15309229493141174
0.017872918397188187 0.17868326604366302 -0.1360607147216797
-0.21410930156707764 -0.37621957063674927 0.14311102032661438
-0.2854630947113037 0.07156085968017578 -0.2710506021976471
-0.262523353099823 -0.08917198330163956 -0.13342447578907013
0.2963016629219055 -0.1316816210746765 -0.12136493623256683
-0.22489787638187408 0.5010712742805481 0.029760340228676796
0.25983285903930664 0.2275913655757904 -0.12904717028141022
-0.025634057819843292 0.22854691743850708 -0.007090412080287933
-0.18576915562152863 0.24217623472213745 -0.01893884316086769
0.2871433198451996 0.3590281307697296 0.10086023807525635
-0.020860405638813972 0.1846180409193039 -0.13606679439544678
0.2950596213340759 0.12003123015165329 -0.13185012340545654
-0.22932636737823486 0.22369639575481415 -0.13341420888900757
-0.26010939478874207 -0.08646435290575027 -0.13261224329471588
0.02078946679830551 0.1777137964963913 -0.13589785993099213
0.14824290573596954 -0.44418084621429443 0.022952772676944733
0.23836494982242584 -0.12694884836673737 0.17022386193275452
0.1666211485862732 -0.248173326253891 -0.12524284422397614
0.18297384679317474 -0.2009345144033432 0.1512281745672226
-0.14053279161453247 0.21539317071437836 -0.13734880089759827
-0.22879092395305634 -0.008445404469966888 0.15303412079811096
-0.2621707022190094 0.3610091507434845 -0.031841374933719635
0.2227959930896759 0.45481768250465393 -0.07826127856969833
-0.25794410705566406 0.22689644992351532 0.11661030352115631
-0.25782179832458496 -0.35882890224456787 -0.09094090759754181
0.238380566239357 -0.24864335358142853 -0.12942583858966827
0.04584434628486633 -0.24998298287391663 0.14122112095355988
0.25157448649406433 -0.2575865089893341 0.04306964576244354
-0.17673876881599426 -0.25109702348709106 -0.12610596418380737
-0.27024421095848083 0.21788857877254486 0.10762950778007507
0.2289307564496994 0.147512748837471 0.17054487764835358
-0.2524231970310211 0.22239777445793152 -0.13317838311195374
-0.2696991264820099 -0.23945796489715576 -0.1276990920305252
0.29501327872276306 -0.15256837010383606 0.14958606660366058
-0.19338884949684143 0.22561460733413696 -0.07329250872135162
-0.09611982107162476 0.1701955795288086 0.1532556414604187
-0.22611631453037262 -0.3005925118923187 -0.07347500324249268
0.28743216395378113 -0.07259459793567657 0.15505976974964142
-0.24592986702919006 -0.25033488869667053 0.08402010053396225
-0.25901851058006287 -0.3102186620235443 0.10626162588596344
0.19215209782123566 0.36800646781921387 0.10885442793369293
0.15081027150154114 -0.24922797083854675 -0.12754683196544647
-0.2670239508152008 -0.22537855803966522 0.15310847759246826
0.16841717064380646 -0.3136642575263977 0.058790646493434906
0.2947732210159302 0.23017603158950806 0.08833354711532593
0.13954342901706696 -0.4328872561454773 0.020755460485816002
0.21122512221336365 -0.4290601909160614 -0.08498188108205795
-0.21412651240825653 0.5001888871192932 -0.0060731880366802216
0.2589617371559143 0.4495314657688141 -0.08203169703483582
-0.2668337821960449 -0.24603688716888428 -0.12862364947795868
0.05616924911737442 0.1641925573348999 -0.13754111528396606
-0.21959920227527618 -0.42202574014663696 0.17657649517059326
0.1360553503036499 -0.1253649890422821 -0.13664287328720093
0.21909885108470917 0.4068261981010437 -0.08424818515777588
-0.2731519341468811 0.17459695041179657 -0.1253557801246643
-0.016572022810578346 -0.25226616859436035 0.14448347687721252
-0.2620292603969574 0.36349594593048096 0.07000447809696198
-0.10568004846572876 -0.18022790551185608 -0.13568554818630219
-0.24562200903892517 -0.004139490891247988 -0.24254828691482544
0.02446560189127922 0.22680002450942993 -0.12375219911336899
-0.0907752588391304 -0.2513327896595001 -0.12474425882101059
0.21356670558452606 0.34858831763267517 -0.06472985446453094
0.2761361598968506 0.212638720870018 -0.1351524293422699
0.2767066955566406 -0.3523012399673462 0.11656859517097473
-0.26627835631370544 0.22554050385951996 -0.07902088761329651
-0.23571497201919556 0.22064393758773804 -0.13444197177886963
-0.2078663408756256 -0.27788975834846497 -0.06165340915322304
-0.1478261649608612 -0.2528803050518036 -0.12650197744369507
-0.27050912380218506 -0.13670717179775238 -0.12935325503349304
0.2973226308822632 -0.07946837693452835 -0.12055272608995438
-0.04930748790502548 0.21258944272994995 -0.13454240560531616
0.053193993866443634 -0.24841950833797455 0.1475105881690979
0.21002040803432465 -0.17403966188430786 0.1677890121936798
0.26411840319633484 0.227453351020813 0.08167310804128647
0.21541579067707062 0.392986536026001 0.10195650905370712
0.1990222930908203 0.23121380805969238 0.0020258112344890833
0.2933005690574646 0.005733802914619446 -0.1348930448293686
-0.001897130161523819 0.2656925320625305 -0.2727471888065338
0.29813599586486816 -0.04010508954524994 0.14599505066871643
-0.2702672779560089 -0.21091106534004211 0.1553082913160324
-0.227212056517601 0.23552259802818298 0.05247654765844345
0.2330559939146042 -0.24862262606620789 0.14987538754940033
0.27340570092201233 -0.4424283504486084 0.18544533848762512
-0.11495643854141235 -0.24100759625434875 0.15386220812797546
-0.32366514205932617 -0.35723769664764404 0.18743014335632324
-0.24418100714683533 0.2228764295578003 -0.13415944576263428
-0.16099964082241058 0.44737306237220764 0.09058716893196106
0.039975740015506744 0.17862428724765778 -0.2257300764322281
-0.22805127501487732 -0.2644875943660736 0.052580829709768295
0.09378832578659058 -0.03458881750702858 -0.13652220368385315
0.060764722526073456 0.058855220675468445 -0.13598906993865967
-0.1570756882429123 0.35025185346603394 0.0014286171644926071
-0.27034950256347656 0.21954262256622314 -0.10124791413545609
-0.053781021386384964 0.22429144382476807 0.15290728211402893
0.13758964836597443 -0.43359947204589844 0.07971833646297455
-0.10186843574047089 0.22053375840187073 0.15329553186893463
-0.2608892619609833 -0.14756079018115997 -0.13323163986206055
0.005012627691030502 0.2858234941959381 -0.24153153598308563
0.044552452862262726 0.22837761044502258 -0.12405848503112793
-0.22685378789901733 -0.45270246267318726 0.13070254027843475
-0.21773716807365417 0.16454651951789856 0.15477967262268066
-0.27048465609550476 0.11274544149637222 -0.12026652693748474
0.24077123403549194 0.32318314909935 0.06182941794395447
0.06764058023691177 0.21510781347751617 0.15310454368591309
-0.2685990333557129 -0.023793596774339676 -0.07913276553153992
-0.17112044990062714 0.3378048241138458 0.005852069705724716
0.2884924113750458 -0.04777015373110771 -0.1351367086172104
0.2974282503128052 -0.12030598521232605 -0.01936051994562149
-0.16968131065368652 -0.2497463822364807 0.1387743055820465
-0.26980093121528625 0.0060607558116316795 -0.12656956911087036
-0.23177501559257507 -0.27486172318458557 -0.04609978199005127
0.09575346112251282 -0.053020600229501724 -0.13521304726600647
0.29538366198539734 0.08139559626579285 0.15473707020282745
0.06925978511571884 0.22826793789863586 0.1412571519613266
-0.2589460015296936 -0.06805652379989624 -0.13277287781238556
-0.0006146426312625408 0.17073725163936615 -0.13868147134780884
-0.2542479634284973 0.22931809723377228 0.08775194734334946
-0.21970133483409882 0.0532454252243042 0.16240054368972778
-0.26979637145996094 -0.11801426112651825 0.15165315568447113
0.2093324363231659 -0.2496843785047531 -0.13375629484653473
-0.27080169320106506 0.04890943318605423 -0.13003647327423096
0.2970142662525177 0.21811573207378387 0.09335046261548996
0.1584758758544922 -0.24985623359680176 0.03978182002902031
-0.1696929931640625 0.34473681449890137 -0.03310677036643028
0.1610373854637146 -0.4241611659526825 0.1819494366645813
-0.08720628917217255 0.2193630188703537 0.15341508388519287
-0.25523579120635986 -0.10370934009552002 -0.1341215819120407
0.24719735980033875 -0.10130330920219421 0.16197985410690308
0.1377580463886261 0.09778458625078201 0.1679258495569229
-0.28967639803886414 -0.32557958364486694 0.1661977618932724
-0.09376667439937592 0.227272629737854 -0.1288730502128601
0.15766984224319458 -0.40092045068740845 0.16911114752292633
-0.21980655193328857 0.2218579202890396 -0.13385923206806183
-0.26285549998283386 0.20740365982055664 -0.13419555127620697
0.18226423859596252 0.4441494047641754 0.09357725083827972
-0.15876643359661102 0.13339456915855408 -0.13611014187335968
0.050389260053634644 0.17529930174350739 -0.13639743626117706
0.2869170904159546 0.22944308817386627 -0.08495254069566727
-0.20699366927146912 -0.2831100523471832 -0.06144215539097786
0.23887886106967926 0.4524719715118408 -0.08191751688718796
0.2594797909259796 0.513666570186615 0.06187748908996582
-0.25914645195007324 0.4441102147102356 0.11169843375682831
-0.3086623549461365 -0.40383273363113403 -0.07387641817331314
-0.1616489738225937 0.46079280972480774 0.06487101316452026
0.293835312128067 0.21439525485038757 -0.04266820847988129
0.19516541063785553 0.4959240257740021 0.02399050071835518
0.27533161640167236 -0.24569763243198395 -0.13546274602413177
-0.26910585165023804 0.10612461715936661 -0.1307491660118103
-0.2646210193634033 -0.2511858344078064 -0.10418589413166046
0.2968927025794983 0.008233943954110146 0.1450594961643219
0.29654693603515625 -0.043592970818281174 0.14558640122413635
-0.27198487520217896 -0.22949084639549255 -0.12863728404045105
0.2334427535533905 0.23332339525222778 -0.03201133385300636
-0.27059322595596313 -0.1630736142396927 0.133377343416214
-0.02267560362815857 -0.1740015596151352 0.17139220237731934
-0.16018320620059967 0.4560355544090271 0.08413251489400864
-0.2626078724861145 -0.04102321341633797 0.15535466372966766
-0.14883588254451752 -0.2709476351737976 0.012754115276038647
0.27876999974250793 -0.24730807542800903 -0.12395073473453522
-0.26326894760131836 0.3910127580165863 0.03846408799290657
0.29918724298477173 0.11280849575996399 0.14891967177391052
0.09353804588317871 -0.24715574085712433 -0.13267704844474792
0.29534709453582764 -0.13708481192588806 -0.047607168555259705
-0.2705610394477844 0.21730685234069824 -0.008359391242265701
0.28094834089279175 0.2280193567276001 -0.06862315535545349
-0.0016283411532640457 0.09919927269220352 -0.1348024159669876
-0.049060627818107605 0.2249458283185959 -0.13264772295951843
-0.2698996067047119 0.03943599760532379 -0.13231076300144196
-0.2699124813079834 0.01315486803650856 0.15309423208236694
0.296169638633728 -0.15275037288665771 0.14638544619083405
0.23670735955238342 0.10112904012203217 0.1684405505657196
-0.26985928416252136 0.07141385972499847 -0.0348694771528244
0.2504015564918518 0.2315635085105896 0.05607015639543533
0.27599555253982544 -0.44385087490081787 0.14805686473846436
-0.26839888095855713 0.21010218560695648 -0.132257878780365
-0.26289230585098267 -0.25109291076660156 -0.10457204282283783
0.24629423022270203 -0.14031186699867249 -0.13536766171455383
0.16402727365493774 -0.24683281779289246 0.15124501287937164
0.29586413502693176 0.08478833734989166 -0.13165172934532166
0.29842230677604675 -0.19250020384788513 -0.10132932662963867
-0.0839487835764885 0.07672089338302612 -0.13602182269096375
-0.2016589343547821 -0.27978429198265076 0.07558760046958923
0.2555011510848999 0.11766687780618668 0.1539401262998581
0.1934257447719574 -0.44464370608329773 -0.06318781524896622
-0.24641378223896027 0.4635539948940277 -0.052848394960165024
0.20329649746418 0.22965864837169647 0.03843017295002937
-0.012117026373744011 0.2284589558839798 0.14252442121505737
-0.21066202223300934 0.15216776728630066 0.1695937067270279
-0.26915234327316284 -0.06595005095005035 -0.1285621076822281
-0.009733485989272594 0.22936348617076874 0.11188308894634247
-0.2707875370979309 0.21935105323791504 -0.015682529658079147
0.005373070016503334 0.19442471861839294 -0.1379610300064087
-0.18342040479183197 0.23514622449874878 0.0391395129263401
0.224481001496315 0.2414746731519699 -0.025058582425117493
0.2479437291622162 -0.405908465385437 -0.09197600930929184
0.11207224428653717 0.1506885141134262 0.1696699857711792
0.2959619164466858 0.04317418113350868 -0.13359639048576355
-0.26935070753097534 -0.24686206877231598 -0.07093159854412079
-0.2240130603313446 0.22598084807395935 -0.12490725517272949
-0.2929409444332123 -0.3839704096317291 0.20667167007923126
0.06298162043094635 0.17503750324249268 -0.13700267672538757
-0.28759148716926575 -0.44586917757987976 -0.08551615476608276
0.2545430064201355 -0.17292357981204987 0.15293337404727936
-0.18511104583740234 -0.2241770625114441 -0.137533500790596
0.2969948351383209 -0.02990613505244255 0.1443662941455841
0.031845126301050186 0.17093588411808014 0.15243981778621674
-0.17704665660858154 -0.2494886964559555 0.1432190090417862
0.29731667041778564 0.06518503278493881 -0.07527868449687958
-0.15447445213794708 0.41828736662864685 0.04749003052711487
0.2879426181316376 -0.41252097487449646 0.17074397206306458
0.031194081529974937 -0.2530312240123749 -0.09110752493143082
-0.24965567886829376 -0.32028189301490784 0.11699049174785614
0.24193137884140015 0.21951498091220856 -0.13550709187984467
0.21404597163200378 -0.4477591812610626 0.027041256427764893
-0.26811063289642334 0.079933300614357 -0.13261906802654266
0.2957988977432251 0.04802127555012703 0.09088104218244553
0.272937148809433 0.22847075760364532 -0.12951727211475372
0.2911113500595093 0.3383035361766815 0.014064248651266098
0.05452388897538185 0.16421812772750854 -0.13649220764636993
0.2971266210079193 0.22456438839435577 0.08183039724826813
0.2971881628036499 -0.19927619397640228 -0.12072379887104034
-0.15151594579219818 0.23127147555351257 0.14735251665115356
-0.1976005882024765 0.45603230595588684 0.08808989822864532
-0.2684186100959778 -0.1843201369047165 0.1550852507352829
0.2539363205432892 0.032227639108896255 0.15497981011867523
0.2488299012184143 0.031154567375779152 0.15908901393413544
-0.047215595841407776 -0.18715229630470276 0.15847383439540863
-0.2712784707546234 -0.23537249863147736 0.13309462368488312
0.29676157236099243 0.08107047528028488 -0.13573025166988373
-0.27053073048591614 -0.019913770258426666 -0.12933287024497986
0.26419880986213684 0.23161786794662476 -0.038411907851696014
-0.22526489198207855 -0.47614148259162903 0.00975199043750763
-0.26766344904899597 0.16010218858718872 0.12720757722854614
0.2376667559146881 0.037682320922613144 0.16695275902748108
-0.2319907546043396 -0.24191610515117645 -0.13532306253910065
0.2450324445962906 -0.4442533254623413 0.11965727806091309
-0.07650411874055862 0.15464434027671814 0.16715119779109955
0.2816818654537201 0.34616774320602417 0.08673018962144852
-0.0911763459444046 -0.24892838299274445 0.15201421082019806
-0.26768985390663147 -0.03754638880491257 -0.13315629959106445
0.24881809949874878 -0.025427106767892838 0.15766878426074982
-0.17318189144134521 0.4591831862926483 0.10250865668058395
0.29534146189689636 0.15813659131526947 0.15178941190242767
-0.27197831869125366 -0.15417905151844025 -0.1278349608182907
0.28249144554138184 -0.33746710419654846 0.023112444207072258
0.2557036578655243 -0.2769284248352051 -0.03056814894080162
0.1688501089811325 -0.38526514172554016 0.1562914252281189
-0.016882790252566338 0.10282144695520401 -0.13669657707214355
-0.2699812948703766 -0.24176226556301117 -0.04465126246213913
-0.1791108250617981 0.4959452152252197 0.05440068989992142
-0.2447703778743744 -0.4206070005893707 0.19440612196922302
-0.17522644996643066 -0.31814366579055786 -0.041127271950244904
-0.2298859804868698 0.027754899114370346 0.15395377576351166
0.1202695220708847 0.2241368144750595 -0.13255029916763306
0.2883007824420929 -0.3853585124015808 0.13200601935386658
-0.1793251931667328 0.22576265037059784 0.045371513813734055
-0.03251850977540016 0.14478793740272522 -0.13586686551570892
-0.2224837988615036 -0.4449283480644226 -0.04393123835325241
0.29467523097991943 0.06365088373422623 -0.13573192059993744
0.15305963158607483 -0.3851568102836609 -0.03235771507024765
-0.27015337347984314 -0.19086092710494995 -0.04216359183192253
0.23053014278411865 0.1668202430009842 0.1565515398979187
-0.2680831551551819 -0.24422140419483185 0.010369449853897095
0.08175385743379593 -0.25136417150497437 -0.12740784883499146
0.2577805817127228 0.31174683570861816 -0.024740995839238167
-0.2583260238170624 -0.1636754870414734 -0.13527029752731323
0.2889518141746521 -0.23519013822078705 0.15609434247016907
0.2896748185157776 -0.07796751707792282 -0.13501809537410736
-0.26093319058418274 0.39503952860832214 0.09421402215957642
-0.2705237567424774 0.15834756195545197 -0.004203895106911659
-0.2437145709991455 0.22553153336048126 -0.12136684358119965
-0.3372504413127899 -0.3773919939994812 0.032094333320856094
-0.19404533505439758 -0.25227242708206177 -0.12764126062393188
-0.28635260462760925 0.03162253648042679 -0.2551318109035492
0.1432460993528366 0.21541129052639008 0.15392792224884033
0.18321409821510315 -0.2670533061027527 -0.02912149950861931
0.24427558481693268 0.13634717464447021 0.16649270057678223
0.2575075924396515 0.5148068070411682 0.015056680887937546
0.2927655279636383 -0.24446523189544678 0.05964414402842522
0.1928633451461792 0.389318585395813 0.11391377449035645
-0.21530595421791077 0.3732745349407196 -0.07711798697710037
-0.23059387505054474 -0.1565525084733963 0.15208064019680023
0.2938620150089264 0.07264205813407898 -0.13513925671577454
-0.27099427580833435 0.10328849405050278 -0.12921370565891266
-0.19451989233493805 0.48058587312698364 -0.04795362055301666
0.23905836045742035 0.2321554571390152 0.055557217448949814
0.24617204070091248 -0.40181735157966614 -0.09186382591724396
-0.2548418641090393 0.37653249502182007 0.10073351860046387
-0.2151503562927246 -0.24846000969409943 -0.13430698215961456
0.2959476113319397 -0.016461152583360672 0.14670096337795258
0.29331108927726746 0.13451018929481506 -0.1326662302017212
0.21160730719566345 -0.2006632536649704 0.15285731852054596
0.11284888535737991 0.17466193437576294 0.15242910385131836
-0.24191837012767792 0.39524033665657043 -0.07259194552898407
0.27129489183425903 0.42352592945098877 -0.07953472435474396
-0.08292831480503082 -0.2508329451084137 -0.12384088337421417
0.2579222321510315 -0.025262854993343353 0.15568378567695618
0.25507694482803345 -0.17119351029396057 0.15308964252471924
0.2568439543247223 0.4403369128704071 -0.08240745961666107
0.2915879786014557 -0.04032955318689346 0.15558002889156342
-0.29104530811309814 -0.45093122124671936 -0.08303597569465637
-0.2108995020389557 -0.04348337650299072 0.16774432361125946
-0.18461202085018158 -0.2613380253314972 -0.050735022872686386
0.20703308284282684 0.2272069901227951 -0.01994112692773342
-0.26042112708091736 -0.1658642441034317 -0.13380859792232513
-0.02754100225865841 -0.2507246136665344 0.08443085849285126
0.25479745864868164 -0.14585614204406738 0.15418864786624908
-0.20778623223304749 0.031231816858053207 0.16845135390758514
-0.22228197753429413 -0.4068380892276764 0.18308424949645996
0.16633561253547668 -0.2025434970855713 0.15223465859889984
-0.23520095646381378 0.4505629539489746 0.09875107556581497
0.2955462634563446 0.041653506457805634 -0.13313740491867065
-0.16034400463104248 -0.20069335401058197 0.15192008018493652
0.2846792936325073 -0.24109017848968506 -0.1357317566871643
0.2744355797767639 -0.3921334147453308 0.18155542016029358
-0.22863954305648804 -0.4803146719932556 0.017327219247817993
-0.3319797217845917 -0.3523646295070648 0.1003110334277153
0.19909650087356567 0.16972893476486206 0.15314652025699615
-0.2680881917476654 -0.4602385461330414 -0.0016992613673210144
0.2252196967601776 -0.18194906413555145 0.16709080338478088
-0.23519283533096313 0.45923835039138794 0.09880208224058151
-0.2086862027645111 -0.1118154227733612 0.16834363341331482
0.24234604835510254 0.2189602255821228 -0.13585729897022247
0.29429903626441956 0.22074130177497864 0.15330541133880615
0.2694602906703949 -0.4451046884059906 0.16092243790626526
-0.24947813153266907 -0.3752686083316803 -0.09403730928897858
0.2858063578605652 0.3349725008010864 0.05067128688097
-0.03590204939246178 0.2246379852294922 -0.12922188639640808
0.29752683639526367 0.21951280534267426 0.11752506345510483
0.2757759392261505 0.21744322776794434 -0.13473431766033173
-0.22872677445411682 -0.34424087405204773 0.12566162645816803
0.059093303978443146 0.10979434847831726 0.1681646704673767
-0.16585126519203186 -0.256965309381485 -0.04576849564909935
-0.26891854405403137 -0.12019480764865875 0.1541939675807953
0.29978519678115845 0.13294866681098938 0.14632266759872437
-0.01940915361046791 0.13562121987342834 0.16897712647914886
-0.27285340428352356 -0.05486015975475311 -0.12571445107460022
-0.006428442895412445 -0.23958691954612732 -0.1337488293647766
-0.25664588809013367 -0.25152745842933655 0.10295167565345764
0.29570531845092773 -0.13208556175231934 0.1464906930923462
0.2913520634174347 0.2367127686738968 0.06579604744911194
-0.06410612165927887 0.227741077542305 0.14207260310649872
0.2959468960762024 -0.17273518443107605 0.15555743873119354
0.25602954626083374 -0.3758193254470825 0.17120622098445892
0.007598472759127617 -0.2492813616991043 -0.1355564296245575
-0.26948118209838867 -0.23934896290302277 0.017164986580610275
-0.21472281217575073 0.22738561034202576 0.13619312644004822
-0.27242445945739746 0.21193645894527435 -0.07988284528255463
-0.28342142701148987 -0.015662619844079018 -0.23489658534526825
-0.26529520750045776 0.19041597843170166 -0.13318800926208496
0.296364426612854 0.04910707473754883 0.06022004783153534
-0.0418863408267498 0.2239122986793518 -0.13304832577705383
0.2624514102935791 -0.3507117033004761 0.13745702803134918
0.1480398029088974 -0.1921035200357437 0.1544141173362732
-0.045945290476083755 -0.18657171726226807 0.16411693394184113
-0.27127206325531006 0.2148393839597702 -0.13283289968967438
-0.05477571114897728 -0.24855802953243256 -0.1343349814414978
0.012223077937960625 -0.24478000402450562 0.15352317690849304
-0.002402903512120247 -0.25127971172332764 0.12445864826440811
0.2885343134403229 -0.2485756129026413 -0.11569991707801819
-0.2097327560186386 0.224237859249115 -0.06109508499503136
0.29065585136413574 0.19040639698505402 -0.13544416427612305
0.29599645733833313 -0.18729649484157562 0.15624593198299408
-0.05888524651527405 0.15760013461112976 0.1671922504901886
0.2334989607334137 -0.2845876216888428 -0.0643463134765625
0.2722410261631012 -0.44360992312431335 0.0713270828127861
0.14331139624118805 -0.43177810311317444 0.14674164354801178
0.2009923905134201 0.36718741059303284 0.11286372691392899
0.25659340620040894 -0.07087939977645874 0.1538328230381012
0.2872915267944336 -0.23917776346206665 -0.13520441949367523
0.2945860028266907 -0.2531440258026123 -0.028205998241901398
-0.2706334888935089 -0.10520689934492111 -0.008913509547710419
0.29640787839889526 0.22386713325977325 0.05673067271709442
-0.25884851813316345 0.19410134851932526 0.1553659439086914
0.20908427238464355 0.22864799201488495 -0.004831122700124979
-0.283286452293396 -0.007606005761772394 -0.2429981380701065
-0.2588813304901123 -0.2521533668041229 -0.10659774392843246
0.2402559369802475 -0.36143654584884644 -0.08819589018821716
0.02219090238213539 0.09182737022638321 -0.13602416217327118
-0.26942184567451477 -0.023036036640405655 0.1484728753566742
-0.2700257897377014 0.12316446751356125 0.1561587005853653
0.29102975130081177 0.22073771059513092 -0.13449989259243011
-0.15499652922153473 0.1590413749217987 0.1615651398897171
-0.26886653900146484 -0.15214911103248596 -0.13469435274600983
-0.2670194208621979 0.13397318124771118 -0.13347391784191132
0.18078020215034485 -0.24356253445148468 0.15345124900341034
0.251581072807312 0.4404674470424652 0.10318843275308609
0.24097681045532227 -0.3203941881656647 0.10579941421747208
-0.3174183964729309 -0.43381282687187195 -0.06451226770877838
-0.27072247862815857 0.08629728853702545 -0.13311181962490082
-0.2513570189476013 0.46692338585853577 0.11230958998203278
-0.22644169628620148 -0.24171249568462372 -0.1357773095369339
0.2901788651943207 0.22255301475524902 -0.13353966176509857
-0.2922043204307556 -0.383347749710083 0.19717811048030853
-0.1718623787164688 -0.26403290033340454 -0.0419672392308712
-0.24352416396141052 -0.2529682219028473 -0.09598898887634277
-0.2107103019952774 0.13379371166229248 0.16880100965499878
0.29150810837745667 -0.43669593334198 0.06140006706118584
-0.1427181512117386 0.15261633694171906 0.16759662330150604
-0.20547592639923096 -0.021970486268401146 0.16955792903900146
-0.1856287121772766 -0.2546495497226715 -0.0625799298286438
0.11891832202672958 0.1624727100133896 0.15995186567306519
0.2563662528991699 -0.10844817757606506 0.15407437086105347
-0.24144034087657928 -0.4723469316959381 -0.036870937794446945
0.03558528050780296 -0.0640624612569809 0.16812627017498016
-0.3212733864784241 -0.33259713649749756 0.1698865443468094
-0.1789003610610962 -0.2375706434249878 0.15521001815795898
0.2961556017398834 0.14179426431655884 -0.13468661904335022
-0.14472073316574097 -0.2547615170478821 0.03002345561981201
-0.002909062895923853 0.10313724726438522 -0.13584992289543152
-0.1822202056646347 0.2673426568508148 0.01104624941945076
0.25309547781944275 0.30821216106414795 0.04937783256173134
