-0.27096518874168396 -0.17228597402572632 0.06021733582019806
-0.2708059251308441 -0.010181517340242863 0.08741207420825958
0.19624188542366028 0.19147123396396637 0.15814632177352905
0.2608240842819214 -0.29868876934051514 -0.049522727727890015
-0.2672770619392395 0.3640521168708801 -0.007329835556447506
0.1596311777830124 -0.3171052634716034 -0.022294074296951294
-0.1589781641960144 0.2272484451532364 0.11412083357572556
0.2980071008205414 -0.0930112898349762 0.007666635327041149
0.20019452273845673 0.0027930797077715397 0.17251741886138916
-0.2545274496078491 0.2292754203081131 -0.058104537427425385
-0.21240556240081787 0.34218236804008484 0.08323556184768677
0.3031311631202698 -0.07099312543869019 0.022294290363788605
-0.12404606491327286 -0.24914003908634186 -0.05647934973239899
0.14191953837871552 0.22633691132068634 0.026612859219312668
-0.1624421626329422 0.1585608720779419 -0.13564404845237732
0.2124079018831253 -0.2509414553642273 -0.10321036726236343
-0.2028382420539856 -0.41034558415412903 0.14934086799621582
-0.043486785143613815 0.2017989307641983 -0.1367860734462738
-0.15989996492862701 -0.22140279412269592 -0.1345856934785843
-0.11773232370615005 0.21480406820774078 -0.13441325724124908
-0.24327494204044342 0.056263577193021774 0.15581746399402618
-0.027205632999539375 -0.2492303103208542 -0.05759378895163536
-0.05990562215447426 -0.2542082965373993 -0.02107962593436241
-0.005692009814083576 -0.16904056072235107 0.16899549961090088
-0.3318328261375427 -0.3837175667285919 -0.027552258223295212
0.2519688606262207 0.07327309995889664 -0.13421182334423065
-0.12030314654111862 -0.060304492712020874 0.1685432642698288
0.2084338217973709 0.5009748339653015 -0.005527289118617773
-0.2467920333147049 0.22562628984451294 -0.04926057159900665
-0.26583924889564514 0.46122536063194275 0.011517389677464962
0.2260299175977707 -0.3204282224178314 0.11084940284490585
0.16904759407043457 -0.07522526383399963 0.16850285232067108
0.17982926964759827 -0.2510131597518921 0.09562093764543533
-0.1730118989944458 -0.3706352710723877 0.04323222488164902
0.1821034848690033 -0.44758737087249756 0.04058629274368286
-0.043584249913692474 0.22803443670272827 -0.02123172953724861
-0.17084811627864838 -0.384975403547287 0.012542881071567535
-0.07601626962423325 0.22852328419685364 0.1313178986310959
0.19398538768291473 0.23038432002067566 0.05398290231823921
0.006837386637926102 -0.13737832009792328 -0.13576039671897888
0.19536545872688293 -0.06804822385311127 -0.13575638830661774
0.15687155723571777 0.22696064412593842 0.10340934246778488
-0.31127017736434937 -0.41950610280036926 -0.005102913826704025
0.2978493869304657 -0.08548752963542938 -0.0027178828604519367
-0.2705862522125244 0.03316030278801918 -0.10040492564439774
0.15326744318008423 -0.15136916935443878 -0.13773761689662933
0.16494853794574738 -0.02508498914539814 -0.13621921837329865
-0.2686125636100769 -0.11411050707101822 0.12025361508131027
-0.2637598514556885 0.35710909962654114 0.01904269866645336
0.17115053534507751 -0.3621215522289276 0.1251785308122635
-0.27125614881515503 -0.04318833351135254 -0.11084385961294174
0.18490852415561676 -0.30242452025413513 -0.049199678003787994
0.29564279317855835 -0.12796512246131897 -0.03672246262431145
-0.27306562662124634 -0.41414445638656616 0.13335025310516357
-0.27090147137641907 0.13299600780010223 0.09742339700460434
0.23709459602832794 0.3373282849788666 0.08733272552490234
0.1882486194372177 -0.4204029440879822 -0.07423755526542664
0.20026756823062897 0.01576472818851471 0.16851010918617249
0.03572191298007965 0.13093329966068268 -0.13745257258415222
-0.21587905287742615 -0.3454490900039673 0.10798715054988861
-0.0031935807783156633 0.13445720076560974 -0.21613019704818726
-0.09771840274333954 -0.0835273340344429 -0.13205963373184204
-0.18132741749286652 -0.29775476455688477 -0.04907335713505745
-0.2695826292037964 0.06814192980527878 -0.012679449282586575
0.27658820152282715 0.4949774444103241 -0.010186091996729374
0.14860697090625763 -0.3462478518486023 0.07224853336811066
0.17858311533927917 0.41148126125335693 -0.01273953914642334
0.167283296585083 -0.3132104277610779 -0.03484659641981125
-0.2751774191856384 -0.3066781759262085 0.01465325616300106
0.29805028438568115 0.14006483554840088 -0.1100887805223465
0.2622041702270508 -0.27470895648002625 -0.008801336400210857
-0.2039099931716919 0.3427310287952423 0.08247774094343185
-0.15284855663776398 0.4004470407962799 0.0165120717138052
0.15087634325027466 0.05513519421219826 -0.1356506645679474
-0.25000470876693726 -0.4368269145488739 0.13547571003437042
0.2624129354953766 0.23031865060329437 0.07816887646913528
-0.2535248100757599 0.23079799115657806 -0.08954555541276932
-0.2730475664138794 0.00926888920366764 0.022205114364624023
-0.27072954177856445 0.001463791006244719 -0.014075563289225101
0.1831057220697403 0.4700259864330292 0.0065348707139492035
-0.15088103711605072 0.2286980003118515 0.08211816102266312
0.09176307916641235 -0.10618029534816742 -0.1357778161764145
0.2962580919265747 -0.10664331167936325 0.13565129041671753
0.2736278176307678 0.006378700025379658 0.15603891015052795
-0.29964306950569153 -0.3282802104949951 0.04795270785689354
-0.19379359483718872 -0.39843419194221497 0.10954422503709793
0.1578909158706665 -0.3799564242362976 0.1430090218782425
-0.2668890655040741 0.3732433319091797 0.024063000455498695
-0.2968033254146576 -0.3142443001270294 0.11736340820789337
0.05305609479546547 0.23066426813602448 -0.11848418414592743
0.07417517155408859 0.22616709768772125 -0.04318927973508835
0.0072046006098389626 0.20938432216644287 -0.24163994193077087
0.26466789841651917 -0.24943387508392334 0.10302481055259705
0.297047883272171 0.12455812841653824 0.015640059486031532
-0.2725924849510193 -0.09878068417310715 0.04656677320599556
0.054058656096458435 0.0017188274068757892 0.1679515689611435
0.30204927921295166 -0.19590143859386444 -0.06522739678621292
-0.26805633306503296 0.42812854051589966 0.08447757363319397
-0.07027864456176758 0.09655462205410004 -0.13560503721237183
-0.09986323863267899 -0.13574081659317017 -0.1357928216457367
0.2783510684967041 0.4922981858253479 -0.014294387772679329
-0.005577877163887024 -0.19264636933803558 -0.13585346937179565
0.2919135093688965 0.3662748336791992 -0.03800247237086296
-0.11524307727813721 0.22869357466697693 -0.04892662540078163
-0.2681790888309479 -0.032018616795539856 -0.0765375941991806
-0.23151661455631256 -0.033411238342523575 -0.136177197098732
0.04129796475172043 0.23275427520275116 -0.11022967845201492
0.19805628061294556 0.2282785028219223 0.059116948395967484
0.16669057309627533 -0.25059598684310913 -0.08149023354053497
0.21868419647216797 -0.379182904958725 -0.08953870832920074
0.2253313660621643 -0.04418081417679787 -0.13577356934547424
0.29822617769241333 -0.18592733144760132 -0.001488760462962091
-0.182904452085495 0.4984004497528076 0.01635458506643772
-0.2708873152732849 -0.12147878110408783 -0.006168540101498365
0.24096816778182983 0.12718893587589264 -0.13593412935733795
0.08487590402364731 -0.1693178415298462 0.16552963852882385
0.26024994254112244 0.12196340411901474 -0.136243999004364
0.18669994175434113 -0.03567037731409073 0.1691802740097046
0.21720737218856812 0.22909562289714813 -0.04571213200688362
-0.24814914166927338 -0.45671674609184265 -0.06421934068202972
0.16340413689613342 -0.44499877095222473 0.03575732931494713
-0.2710326910018921 -0.23187114298343658 -0.060691509395837784
-0.0314556322991848 0.22788992524147034 0.05935639515519142
-0.23990565538406372 -0.27367860078811646 -0.024214647710323334
-0.25581225752830505 0.411734938621521 -0.05143725126981735
-0.17532029747962952 -0.36756631731987 -0.02478918805718422
0.2866802215576172 -0.36204883456230164 0.036247044801712036
0.021234290674328804 0.1692582666873932 -0.1359674036502838
0.2979936897754669 -0.11425784975290298 -0.10544386506080627
-0.1800035834312439 -0.27730056643486023 0.059723999351263046
0.203960582613945 -0.40246686339378357 -0.08322169631719589
0.16935600340366364 -0.30891454219818115 -0.037710145115852356
-0.24489031732082367 0.4909830093383789 0.02676389180123806
-0.164005309343338 -0.29065200686454773 -0.031947389245033264
0.27623307704925537 0.01826181821525097 -0.1339590698480606
0.03157436102628708 0.10214221477508545 -0.16765207052230835
-0.29294049739837646 -0.39936578273773193 0.13857588171958923
-0.16464275121688843 0.2264336496591568 0.12826745212078094
0.23390324413776398 -0.13501323759555817 -0.13582655787467957
-0.24100974202156067 0.4933722913265228 0.07286342978477478
0.2528917193412781 0.17524072527885437 -0.13570407032966614
-0.26227548718452454 -0.41280028223991394 0.178772434592247
0.1791176199913025 0.36889588832855225 0.07788736373186111
0.1776372194290161 0.4550674855709076 0.021703166887164116
-0.269302636384964 -0.2226559817790985 0.0460246205329895
0.22113347053527832 0.32998648285865784 -0.04897746443748474
-0.07547545433044434 0.22862131893634796 -0.11120547354221344
-0.08521104604005814 -0.10357779264450073 -0.1362859010696411
0.15163974463939667 0.05205046385526657 -0.13726584613323212
-0.061050981283187866 -0.08658112585544586 0.17250744998455048
-0.21008089184761047 0.44612520933151245 0.08561697602272034
-0.27053847908973694 -0.05210740491747856 0.05030255764722824
0.035577431321144104 -0.050687555223703384 0.16799615323543549
0.21372374892234802 0.5072139501571655 -0.006866144947707653
-0.003642468946054578 0.13472096621990204 -0.21273869276046753
0.19560977816581726 -0.3208799958229065 0.09566107392311096
0.1400826871395111 0.2271518111228943 0.07571002840995789
0.2940119206905365 0.19479019939899445 -0.012407803907990456
-0.2705366909503937 0.1849948912858963 -0.010378987528383732
-0.24043689668178558 -0.01565469615161419 -0.13575877249240875
-0.21093519032001495 -0.2539125978946686 0.12713167071342468
-0.209596648812294 -0.4452514350414276 -0.02917570061981678
0.0511602945625782 -0.011868614703416824 -0.13866335153579712
0.2979836165904999 -0.157217875123024 -0.07980279624462128
0.2974849343299866 0.0773516520857811 -0.06446144729852676
-0.05303049087524414 -0.06410931795835495 0.17156162858009338
-0.1707439422607422 0.4827858507633209 0.04972464591264725
0.2848268449306488 0.39534804224967957 -0.06305909156799316
-0.18771836161613464 -0.2525920569896698 0.09106819331645966
-0.14599177241325378 0.06620580703020096 0.1690816879272461
0.18022707104682922 -0.31436553597450256 -0.051852308213710785
-0.2919224202632904 0.005576170049607754 -0.2599301040172577
0.2979443669319153 -0.2330062836408615 0.08849254250526428
-0.20926658809185028 -0.07160381227731705 -0.1373589038848877
0.2989862859249115 -0.22062212228775024 -0.08758992701768875
-0.18214944005012512 -0.4028893709182739 -0.013408457860350609
0.15054979920387268 -0.16095314919948578 0.16759927570819855
-0.07008302956819534 -0.07371939718723297 -0.13573531806468964
0.03885018453001976 -0.13021932542324066 0.16656598448753357
-0.2688991129398346 -0.23270602524280548 -0.06734111160039902
-0.19286152720451355 0.056409962475299835 0.16903181374073029
0.044404733926057816 0.2273232340812683 0.0042387801222503185
-0.23345810174942017 0.2087121158838272 -0.13762028515338898
0.19708868861198425 -0.4467551112174988 -0.011721122078597546
-0.27077093720436096 -0.02355167269706726 0.0005397388595156372
-0.0003979313187301159 -0.11662177741527557 -0.1357642561197281
0.15439511835575104 0.010402067564427853 0.16942733526229858
0.2511644661426544 -0.25125226378440857 -0.07829353213310242
0.2482851892709732 -0.035365499556064606 -0.13576778769493103
0.1983197033405304 0.23031368851661682 -0.07553843408823013
-0.03602788224816322 -0.2518160045146942 0.09737036377191544
-0.081126369535923 -0.05435265228152275 -0.13571956753730774
0.1481463462114334 -0.2496747523546219 0.10242888331413269
0.0248662568628788 0.11130422353744507 0.16917501389980316
-0.15306922793388367 0.001018785173073411 -0.13841407001018524
-0.2706092596054077 0.1293824315071106 0.05235498398542404
0.05994269996881485 0.22839653491973877 0.020859116688370705
-0.2398681491613388 -0.450460821390152 0.11110145598649979
0.20379231870174408 -0.027618590742349625 -0.13371950387954712
0.206476628780365 0.11335617303848267 -0.1368379294872284
0.04317605867981911 0.057053182274103165 -0.13559243083000183
-0.19162195920944214 -0.05486880987882614 0.16897881031036377
0.06221732124686241 0.22872227430343628 -0.11295919120311737
-0.16153085231781006 -0.2531033456325531 -0.06540720164775848
-0.12801681458950043 -0.010992263443768024 0.17188628017902374
0.2541397511959076 0.23106825351715088 -0.051680151373147964
-0.22631427645683289 0.22700700163841248 0.13847921788692474
0.29887494444847107 0.015275411307811737 0.00279230740852654
-0.0235319584608078 -0.24866029620170593 -0.0830230712890625
-0.00027234142180532217 0.09437660872936249 0.1691453754901886
-0.26890265941619873 0.016105027869343758 0.05255282670259476
-0.08087348192930222 0.2253478318452835 -0.059742484241724014
0.12506961822509766 -0.21302920579910278 0.15310102701187134
-0.2710131108760834 -0.18115489184856415 0.09485951066017151
0.2795848250389099 -0.1829434335231781 -0.13516192138195038
0.2793133556842804 -0.08231368660926819 0.15848129987716675
0.055225636810064316 0.08775010704994202 0.16915705800056458
0.2635466456413269 -0.2750760614871979 0.023538459092378616
0.09725715965032578 -0.21449804306030273 -0.13693608343601227
0.08277155458927155 -0.018025752156972885 -0.13724380731582642
0.14417582750320435 -0.25162097811698914 -0.11568048596382141
-0.2711215019226074 0.032700929790735245 -0.025409338995814323
-0.09826194494962692 -0.15836863219738007 0.17123393714427948
0.009306518360972404 -0.2508133351802826 0.08802331238985062
-0.25751417875289917 -0.2886802852153778 0.052317842841148376
-0.16718029975891113 0.4772913455963135 0.048152364790439606
0.11962849646806717 0.021294699981808662 -0.13507430255413055
-0.09352681785821915 -0.2519013285636902 0.11230264604091644
-0.2737712860107422 -0.041355814784765244 0.056967295706272125
-0.27080684900283813 0.030044706538319588 0.1218266561627388
-0.2715755105018616 -0.21184566617012024 0.11925477534532547
0.18413935601711273 0.22668462991714478 0.031900640577077866
0.19044844806194305 0.002972870832309127 -0.13400763273239136
0.14521218836307526 -0.4060075879096985 -0.01210342813283205
-0.14419254660606384 -0.009283487685024738 -0.13672347366809845
0.25549983978271484 -0.2555880844593048 -0.0764436274766922
0.29798364639282227 -0.15622298419475555 0.022093987092375755
0.2766006886959076 -0.2509298622608185 0.04049798846244812
-0.19340071082115173 -0.30470699071884155 -0.05830669403076172
-0.06661423295736313 -0.2499244660139084 0.06237107887864113
-0.27081242203712463 -0.03535095229744911 0.041334010660648346
-0.24576418101787567 0.1316549926996231 -0.13645108044147491
0.00623893178999424 0.02922608144581318 0.17264395952224731
0.2979746162891388 -0.17091478407382965 0.008540712296962738
-0.27023014426231384 0.07349878549575806 -0.06238937005400658
0.28035974502563477 -0.40394142270088196 -0.045424796640872955
0.24844923615455627 -0.2492692619562149 -0.1144818365573883
0.2948296070098877 0.039372704923152924 -0.08645600080490112
0.04224622994661331 0.06339418143033981 -0.13578782975673676
0.2006862908601761 0.43740609288215637 -0.06965314596891403
-0.16633303463459015 0.47907954454421997 0.07478538900613785
0.0657508447766304 0.14662939310073853 0.16915687918663025
0.16229380667209625 -0.011174550279974937 0.169184148311615
0.2979738116264343 0.12666991353034973 0.1164507120847702
0.16783230006694794 0.22615814208984375 0.05887159705162048
-0.2337602972984314 0.22781458497047424 -0.07292697578668594
0.20472288131713867 -0.24860644340515137 0.10255484282970428
-0.21203169226646423 0.15680238604545593 -0.13407357037067413
-0.20498178899288177 0.06998670101165771 -0.13352744281291962
-0.11559091508388519 -0.2504197955131531 -0.11521657556295395
0.08368571102619171 -0.034423213452100754 0.1670961081981659
-0.2700493037700653 -0.10792791843414307 0.09226909279823303
-0.24685953557491302 -0.27661845088005066 -0.007528267335146666
-0.26931291818618774 -0.1691964864730835 0.1262023150920868
-0.09686020761728287 -0.0003343903226777911 0.17331402003765106
0.10306443274021149 -0.06460682302713394 -0.13803793489933014
-0.05770094692707062 -0.12354068458080292 0.1713317483663559
-0.14122988283634186 -0.2527732849121094 0.0664537250995636
0.0956571027636528 0.06289201974868774 0.17110282182693481
-0.22885337471961975 0.43687981367111206 0.0961221307516098
-0.2516690492630005 0.47846415638923645 0.030933231115341187
0.18767143785953522 0.22871096432209015 0.02629757672548294
-0.18030720949172974 0.4942660629749298 0.011180590838193893
0.199761763215065 0.12371815741062164 -0.13803152740001678
0.24104595184326172 -0.1091979518532753 -0.13583025336265564
0.0921035036444664 -0.2499867081642151 -0.06382723897695541
-0.1582273691892624 0.3973061144351959 -0.022475803270936012
-0.0712001621723175 -0.143332839012146 0.16695192456245422
-0.26842164993286133 -0.011757676489651203 0.11138679832220078
0.29738467931747437 -0.029218528419733047 0.042594097554683685
-0.04463815689086914 -0.2509932518005371 0.01649419590830803
0.17548230290412903 -0.06286229193210602 0.16972973942756653
-0.19961488246917725 -0.2149718701839447 0.1564542055130005
0.1732197403907776 -0.44640052318573 0.15537336468696594
0.2070399969816208 -0.1379242092370987 -0.13756956160068512
-0.1758124828338623 0.0688391625881195 -0.13628631830215454
0.13650551438331604 -0.10701391100883484 -0.1357937753200531
0.22720235586166382 0.22921541333198547 -0.045888129621744156
-0.29167529940605164 -0.3187577426433563 0.04161868616938591
-0.1711793690919876 -0.27533596754074097 -0.037943750619888306
0.21361565589904785 -0.38516584038734436 -0.08654087781906128
-0.26966241002082825 0.0006564271170645952 0.0012363408459350467
0.06434749066829681 0.09142518043518066 -0.13819506764411926
-0.17359372973442078 -0.13727588951587677 -0.13875937461853027
-0.1643657237291336 0.44780081510543823 -0.015207843855023384
0.294521301984787 0.03518565371632576 -0.005776950158178806
0.07518020272254944 -0.2505074441432953 -0.11403350532054901
-0.00739461462944746 0.17643775045871735 -0.13560089468955994
-0.18639984726905823 -0.046128977090120316 0.1701216697692871
-0.20929446816444397 0.3356669843196869 -0.04416560381650925
-0.18017788231372833 0.48909834027290344 -0.01937609724700451
-0.31252023577690125 -0.33466845750808716 0.10419577360153198
0.2980126142501831 0.12620492279529572 0.00185530970338732
0.1649021953344345 0.22864466905593872 0.11773345619440079
-0.2218407839536667 -0.37482771277427673 0.15688447654247284
0.22044675052165985 -0.04303572699427605 0.16919153928756714
-0.2706037163734436 0.09647302329540253 0.02593768760561943
-0.2959875166416168 -0.3541111648082733 -0.0488208644092083
-0.11305366456508636 0.01151718944311142 -0.1332802176475525
0.29572150111198425 -0.12183605879545212 -0.03165838122367859
-0.2701811194419861 0.1745692789554596 0.06639136373996735
0.14880453050136566 0.2287035882472992 0.022409532219171524
-0.28608420491218567 -0.43335187435150146 0.05355193838477135
-0.31183093786239624 -0.4129613935947418 0.03706066310405731
-0.19305244088172913 0.16475826501846313 -0.13563625514507294
-0.2725192904472351 -0.06142093613743782 0.11943232268095016
-0.2709875702857971 -0.18373186886310577 0.05187445506453514
0.0481063649058342 -0.2502690851688385 0.13621678948402405
0.19930464029312134 0.32402828335762024 -0.012641091831028461
-0.0695156529545784 -0.2530719041824341 0.06138413026928902
-0.1897781938314438 -0.38628774881362915 0.10236835479736328
0.18000096082687378 -0.16578364372253418 0.16910934448242188
0.2762904763221741 0.42898544669151306 0.117352195084095
0.3004838824272156 0.4401157796382904 0.06895876675844193
0.1893119066953659 0.32793328166007996 0.007709674071520567
0.15518011152744293 -0.30590903759002686 -0.0036468403413891792
0.17679904401302338 -0.4168521463871002 0.19217245280742645
0.0500127375125885 0.23010224103927612 0.0922701358795166
0.1919480264186859 0.4382365047931671 -0.05493013188242912
0.18578505516052246 -0.14425233006477356 0.17160120606422424
-0.209711492061615 0.017031213268637657 -0.1369750201702118
-0.2404957413673401 0.04164300858974457 0.15536168217658997
-0.13015393912792206 0.22782090306282043 0.06407002359628677
-0.2705760896205902 0.15253649652004242 0.04480985552072525
0.09875953197479248 -0.25092121958732605 -0.00398279819637537
0.29650965332984924 -0.18646344542503357 0.08459992706775665
0.17803794145584106 0.18458764255046844 -0.13826999068260193
0.09916123747825623 0.22557498514652252 0.11450877785682678
-0.19117654860019684 0.22792282700538635 -0.0637604370713234
0.277889609336853 -0.31956836581230164 0.024953538551926613
-0.2601436674594879 0.34691229462623596 -0.006155563052743673
-0.2696022689342499 0.18296054005622864 -0.05322222411632538
-0.3066693842411041 -0.33888378739356995 0.056267596781253815
-0.18619267642498016 0.22868433594703674 0.12354325503110886
-0.28701937198638916 -0.030114028602838516 -0.28006502985954285
0.03309771046042442 -0.1104000061750412 -0.1337323784828186
0.03976747766137123 0.22876200079917908 -0.012518441304564476
0.207152858376503 -0.03007100708782673 0.17241500318050385
-0.18397104740142822 -0.3624729812145233 0.07423509657382965
0.14504319429397583 -0.2526308000087738 0.006620533298701048
0.3009725511074066 -0.14069636166095734 -0.0825268030166626
-0.032700251787900925 0.22596512734889984 -0.020963162183761597
-0.27046650648117065 0.1081794798374176 -0.1053328886628151
0.2345152199268341 0.41005024313926697 -0.09289178252220154
0.2984692454338074 -0.07936515659093857 -0.09606753289699554
0.2695099115371704 -0.3544105291366577 -0.06312751770019531
-0.02263675630092621 0.22923554480075836 0.07524845004081726
0.16932086646556854 -0.05406143143773079 -0.1357300728559494
0.13759180903434753 -0.12963169813156128 -0.13582256436347961
0.08025114238262177 -0.2508091330528259 0.042149607092142105
-0.07962210476398468 0.1734626591205597 -0.13365016877651215
0.19309163093566895 0.2287513166666031 -0.012253745459020138
0.20263023674488068 -0.2450464963912964 0.13278412818908691
-0.2609157860279083 -0.2890046536922455 0.011521263048052788
0.04547117277979851 0.22879241406917572 -0.04756630212068558
0.14975911378860474 -0.20711584389209747 0.16037078201770782
0.059871606528759 -0.11979620158672333 0.16591361165046692
0.044661153107881546 0.2256564050912857 0.11715536564588547
0.24742910265922546 0.12549494206905365 -0.13125503063201904
0.27180227637290955 -0.41132280230522156 -0.06608285754919052
-0.3235175311565399 -0.3914775550365448 0.07668378204107285
-0.15411324799060822 0.4387766718864441 0.05195626616477966
-0.14507228136062622 0.04678890481591225 0.16906137764453888
-0.2835204005241394 -0.3526243567466736 -0.0763414055109024
0.27769726514816284 -0.3806931674480438 -0.04570023715496063
-0.08671139925718307 -0.2505660653114319 0.030359506607055664
0.2652384042739868 0.2264687418937683 0.08135291188955307
0.03265386447310448 0.04493975639343262 -0.1365726888179779
0.24447160959243774 0.5170551538467407 0.04280046746134758
-0.270693838596344 -0.016811762005090714 -0.0710836872458458
-0.09695229679346085 -0.1174401268362999 -0.135923832654953
-0.06782717257738113 0.19718803465366364 0.15600019693374634
0.29865753650665283 -0.16689756512641907 0.11214610934257507
0.028366554528474808 0.004039089195430279 0.16910859942436218
0.237030029296875 -0.16883692145347595 -0.13725925981998444
-0.26954013109207153 -0.10044457763433456 -0.04536477103829384
-0.13847096264362335 -0.03712007775902748 -0.13573287427425385
-0.29493123292922974 -0.32325637340545654 0.05395621433854103
0.17464029788970947 0.22865045070648193 -0.009321334771811962
0.0503433458507061 0.14859315752983093 -0.13560204207897186
0.20199847221374512 0.3414847254753113 0.07890421152114868
-0.27072933316230774 0.016385141760110855 0.030429495498538017
0.29430148005485535 -0.05948248133063316 -0.08365596830844879
-0.2705821096897125 0.04462270066142082 -0.08064498007297516
0.27523934841156006 -0.3830619156360626 -0.05484127253293991
-0.2917572557926178 -0.4010503590106964 0.13483527302742004
-0.004467132966965437 -0.2511484920978546 0.0495728924870491
-0.2562265396118164 0.23223663866519928 -0.05496540293097496
0.27021273970603943 0.04479563608765602 0.15599170327186584
0.3000134825706482 0.08229273557662964 -0.021428335458040237
-0.06920428574085236 0.22869454324245453 -0.0024341847747564316
0.13858547806739807 -0.38313254714012146 0.03073267638683319
-0.27150464057922363 -0.14547130465507507 0.07450146228075027
0.2774433195590973 -0.37645819783210754 -0.04874759167432785
-0.27072474360466003 -0.06334508210420609 -0.056176915764808655
-0.3301011919975281 -0.3404647707939148 0.14011050760746002
0.29801544547080994 -0.0463910736143589 0.040005557239055634
0.2688807547092438 0.22607912123203278 -0.06951738148927689
0.15172089636325836 -0.06602372974157333 -0.1344013214111328
-0.2703007161617279 -0.18987615406513214 -0.06830337643623352
0.1779986023902893 0.3942417502403259 -0.024989672005176544
-0.15474990010261536 0.4243357181549072 0.073155477643013
0.19236265122890472 0.48288458585739136 0.09568679332733154
0.26186510920524597 0.18417830765247345 0.1520078033208847
-0.2673056721687317 0.40966087579727173 0.06698933988809586
-0.2704956829547882 -0.08355394005775452 0.10364358872175217
0.2996734380722046 0.1883343607187271 -0.10991168022155762
-0.23691444098949432 0.48600879311561584 -0.02400343306362629
0.29749083518981934 -0.23503939807415009 0.0639927089214325
0.20011691749095917 0.22808583080768585 -0.08905067294836044
-0.17271222174167633 0.18524771928787231 -0.13861282169818878
-0.10714513808488846 0.10762075334787369 -0.13562054932117462
0.17947335541248322 0.3605717718601227 0.05423976853489876
-0.12249686568975449 -0.08048783242702484 -0.13576334714889526
0.29799026250839233 -0.11930343508720398 -0.0920293927192688
-0.17419153451919556 0.2286459505558014 -0.10361101478338242
-0.16804230213165283 -0.2520252466201782 0.09271155297756195
0.14261648058891296 -0.42686957120895386 -0.0011848399881273508
0.24734482169151306 -0.3616380989551544 -0.08589071780443192
0.2615853548049927 -0.27376633882522583 0.02587531879544258
0.11290478706359863 0.22878021001815796 -0.10507218539714813
0.21750053763389587 -0.28961023688316345 0.08581769466400146
-0.27362096309661865 0.040322382003068924 -0.11636681109666824
0.26540836691856384 -0.2885291576385498 -0.02717483974993229
0.24227897822856903 0.23082585632801056 0.08778563886880875
-0.16184531152248383 0.448067843914032 -0.02272438071668148
0.20810095965862274 -0.25131186842918396 0.0897340327501297
-0.011617003940045834 0.12980011105537415 -0.1337098330259323
0.25782009959220886 0.034716878086328506 -0.1356346607208252
0.22576287388801575 -0.4464949369430542 0.030764924362301826
0.27835729718208313 -0.3462364375591278 -0.03569246828556061
0.2992313504219055 0.06359308212995529 -0.05503836274147034
0.21423199772834778 -0.3464706242084503 0.1362132877111435
-0.21929600834846497 -0.460517942905426 -0.020593831315636635
0.1875782012939453 0.4908800721168518 0.07205187529325485
0.30227795243263245 -0.008771305903792381 0.07139495760202408
-0.1521400809288025 0.22869902849197388 0.020904093980789185
-0.06800109148025513 0.15568006038665771 -0.13561734557151794
0.2689245641231537 -0.40739181637763977 -0.07359275221824646
-0.052908800542354584 0.003185898531228304 -0.1376386433839798
0.1651565283536911 0.18828944861888885 0.1576509326696396
0.2861877679824829 0.4787786900997162 0.009715120308101177
0.186087965965271 0.17814025282859802 -0.13567164540290833
0.24633042514324188 0.23089300096035004 -0.04982811212539673
-0.20825360715389252 0.20469310879707336 0.15664468705654144
0.10152440518140793 -0.25112593173980713 -0.02773408032953739
-0.16721411049365997 0.14430609345436096 -0.13422414660453796
0.22445358335971832 -0.24981345236301422 -0.12253914028406143
-0.2710447311401367 -0.22629430890083313 -0.026159321889281273
0.29862555861473083 0.3527269959449768 -0.023157255724072456
0.024003468453884125 0.07007159292697906 -0.13485227525234222
-0.25139105319976807 -0.0063614374957978725 0.15928111970424652
0.08972612768411636 -0.0914623886346817 -0.1349150687456131
0.27128684520721436 0.08144360780715942 0.15478280186653137
-0.2493506371974945 0.10767015069723129 0.1565171480178833
-0.27197426557540894 -0.04506254941225052 0.13330039381980896
0.10753726214170456 0.1472029834985733 0.16919159889221191
-0.24582938849925995 0.2526801824569702 0.006294898223131895
0.13021785020828247 -0.08104294538497925 0.17132164537906647
0.08900614827871323 -0.16482043266296387 0.16987960040569305
0.04762302711606026 -0.24872498214244843 -0.04466499015688896
0.2934982478618622 0.4660981297492981 -0.007116869557648897
-0.09020186960697174 0.22841450572013855 0.13006442785263062
0.1954304575920105 -0.2884155809879303 0.07528885453939438
0.23149028420448303 0.18883313238620758 -0.13621337711811066
0.23991435766220093 -0.2524271309375763 -0.10302812606096268
-0.22845639288425446 -0.14452920854091644 -0.13377095758914948
-0.03382214903831482 0.12193182110786438 -0.16467319428920746
0.2980373799800873 0.026493240147829056 -0.013998164795339108
0.2899196445941925 0.45828816294670105 -0.034192703664302826
-0.29025349020957947 -0.03637261316180229 -0.27157169580459595
-0.13009774684906006 -0.24968910217285156 0.10099339485168457
-0.16466043889522552 0.22786860167980194 -0.0592469722032547
0.29798105359077454 -0.21918132901191711 -0.05168868228793144
-0.2685364782810211 0.15406331419944763 0.07607381045818329
-0.046406131237745285 0.1310102790594101 0.16770422458648682
-0.03958076238632202 -0.24983778595924377 -0.007051847409456968
0.24357980489730835 -0.3894086480140686 0.19047676026821136
-0.27058321237564087 0.1722346544265747 0.11296002566814423
-0.17571476101875305 -0.3933749198913574 -0.009834891185164452
0.01947210170328617 0.06777404993772507 0.16914181411266327
0.2980262339115143 0.1371583342552185 -0.03189368546009064
0.19811037182807922 0.22767668962478638 0.008521911688148975
0.05886086821556091 -0.25090324878692627 -0.08488591015338898
0.035668402910232544 -0.15011267364025116 -0.13581141829490662
0.25474196672439575 -0.250304639339447 -0.10417549312114716
-0.07866347581148148 -0.25262394547462463 0.061173804104328156
0.27990075945854187 -0.3596141040325165 -0.03629622235894203
0.0388333760201931 0.07838785648345947 0.16946719586849213
0.07298259437084198 0.14428462088108063 0.16668516397476196
0.03163822740316391 0.0012488476932048798 0.17029397189617157
-0.29122263193130493 -0.34930679202079773 -0.0335782989859581
0.14619076251983643 -0.36099568009376526 -0.012138769030570984
-0.15892834961414337 0.4578397274017334 0.06246862933039665
0.29617834091186523 -0.1323229968547821 0.13999530673027039
0.17498868703842163 0.4115860164165497 0.012037156149744987
-0.18014447391033173 -0.4084552824497223 0.026306580752134323
0.09262287616729736 -0.017720747739076614 -0.13552486896514893
-0.26703640818595886 0.1596234291791916 -0.10233928263187408
-0.2683258652687073 0.022298108786344528 0.12800192832946777
0.12867063283920288 0.13422879576683044 -0.13721702992916107
-0.14097297191619873 0.23082390427589417 -0.01647181250154972
0.2965930998325348 -0.05528536066412926 -0.07451558858156204
0.2980239987373352 0.1394221931695938 -0.025889603421092033
0.06563878059387207 -0.0001369109668303281 0.16947396099567413
-0.06067497283220291 0.22642074525356293 0.12881606817245483
-0.09733979403972626 -0.25121429562568665 -0.06931962817907333
0.25388792157173157 -0.23254425823688507 -0.1374983936548233
-0.08957503736019135 0.22936633229255676 0.0974263995885849
0.15846869349479675 -0.38253775238990784 -0.03493295609951019
-0.12200427055358887 0.08531463891267776 0.17080698907375336
0.017437728121876717 -0.13373534381389618 -0.13344159722328186
0.2989901900291443 -0.06702297925949097 -0.08532203733921051
0.16532033681869507 0.22551701962947845 0.03857347369194031
0.16835707426071167 0.22856011986732483 0.1209283322095871
0.0345071479678154 0.22946691513061523 -0.10712959617376328
0.2223174124956131 0.19140416383743286 -0.13569173216819763
-0.2725169360637665 -0.012036171741783619 -0.007545058615505695
0.29794976115226746 -0.222944438457489 0.023787526413798332
0.05465364083647728 -0.25468629598617554 0.004169103689491749
-0.1569586992263794 0.37654978036880493 -0.012818782590329647
0.06354939192533493 0.22994452714920044 -0.04161616042256355
0.2989788353443146 -0.21095162630081177 0.0629289373755455
-0.2795833945274353 -0.3578437566757202 -0.08115869015455246
0.08740409463644028 -0.25125476717948914 -0.055467672646045685
-0.12946449220180511 0.13250789046287537 -0.1354164183139801
0.20222797989845276 -0.005281195975840092 -0.13606669008731842
-0.2679798901081085 0.20907658338546753 -0.11797147244215012
-0.24352937936782837 -0.44345712661743164 0.1284451186656952
-0.18523462116718292 -0.034357666969299316 -0.13593187928199768
-0.19522975385189056 0.5022990107536316 0.06243410333991051
-0.12346756458282471 -0.24954110383987427 -0.0029726987704634666
-0.1667722463607788 0.35361045598983765 -0.03342806547880173
0.08724859356880188 0.023260798305273056 -0.13562846183776855
-0.30726495385169983 -0.3261241316795349 0.09542430937290192
0.014499478042125702 0.1925746500492096 0.15458428859710693
0.1557486206293106 -0.15679948031902313 0.1665119230747223
0.15889303386211395 0.22776146233081818 0.015204213559627533
-0.24417859315872192 0.18249523639678955 0.15604521334171295
-0.2697642147541046 -0.02708868309855461 -0.0445847250521183
-0.16427507996559143 -0.10866151005029678 -0.1361437737941742
-0.20577014982700348 0.33959683775901794 -0.05086831748485565
0.2980090081691742 0.016778822988271713 0.1215316578745842
0.06280794739723206 -0.12600596249103546 -0.13445021212100983
-0.16026777029037476 0.10716216266155243 -0.1377100944519043
0.1188337579369545 -0.2501685917377472 0.09527955949306488
0.29802921414375305 -0.06847769767045975 -0.005542393308132887
0.20829401910305023 -0.34055718779563904 -0.08034704625606537
-0.19328360259532928 -0.02815433219075203 -0.13593092560768127
0.17599809169769287 0.36994263529777527 0.035136837512254715
0.009002533741295338 -0.039343081414699554 -0.13488298654556274
-0.14297834038734436 -0.07475579530000687 0.1698264479637146
0.29003018140792847 -0.4110482931137085 0.10185796022415161
0.17425991594791412 0.22635649144649506 -0.018060535192489624
-0.2931850254535675 -0.023392239585518837 -0.2695087790489197
0.09619627892971039 -0.1373678743839264 -0.1336309313774109
-0.15739142894744873 0.3891817331314087 0.06992305815219879
0.05034075677394867 0.04705333337187767 0.16579246520996094
0.18286171555519104 0.4516591429710388 -0.0354892760515213
0.14929307997226715 0.17298030853271484 -0.13387838006019592
0.17626027762889862 -0.4451993703842163 0.15289154648780823
0.012446473352611065 -0.17456302046775818 -0.1339438557624817
-0.3040928542613983 -0.40438514947891235 0.10015731304883957
-0.039053548127412796 0.1538291573524475 -0.17260290682315826
-0.09615157544612885 -0.25096395611763 0.09263497591018677
0.1291545331478119 -0.06674940884113312 0.1691209375858307
-0.07332280278205872 0.11651328206062317 0.16915401816368103
0.2979613244533539 0.18559390306472778 0.08221693336963654
-0.22777563333511353 0.1333642303943634 -0.13811473548412323
-0.018170475959777832 -0.24911363422870636 0.033469781279563904
0.005249873735010624 -0.22695979475975037 -0.13422255218029022
-0.2705575227737427 -0.11148219555616379 0.1042550727725029
-0.002643491141498089 0.06933046132326126 0.1688694804906845
0.3021756112575531 0.10186255723237991 0.012057021260261536
-0.27225667238235474 -0.18322235345840454 -0.10751182585954666
0.1070702075958252 0.23064815998077393 -0.016019627451896667
-0.22431838512420654 -0.2069222331047058 0.15834489464759827
0.1816880702972412 0.4626573622226715 0.09151803702116013
0.2175975739955902 -0.4494237005710602 0.037507034838199615
0.16853395104408264 -0.018574543297290802 0.16918058693408966
-0.2062496542930603 0.34264126420021057 -0.057306330651044846
0.18306219577789307 -0.13386136293411255 -0.1357506960630417
0.2598366439342499 -0.07404462993144989 -0.13655446469783783
-0.22006748616695404 0.20061810314655304 -0.13775308430194855
-0.32176604866981506 -0.3764382600784302 -0.030475055798888206
0.2625201344490051 -0.27898430824279785 0.04260426387190819
-0.24645738303661346 -0.27674955129623413 -0.021574335172772408
0.17060282826423645 -0.2286611646413803 0.15610536932945251
0.28606078028678894 -0.3612736761569977 0.02487659640610218
0.12029797583818436 -0.1351478546857834 0.16909591853618622
-0.0719674751162529 -0.2507758140563965 -0.07964451611042023
-0.07345905900001526 -0.2511674165725708 0.0647437646985054
0.21019789576530457 0.22661902010440826 -0.07585417479276657
0.22886714339256287 -0.25074800848960876 0.11284426599740982
0.29779404401779175 -0.08690351992845535 -0.10256871581077576
0.29614660143852234 0.03949199616909027 -0.016078006476163864
0.009734639897942543 0.14794811606407166 -0.13239721953868866
0.13079161942005157 -0.25109028816223145 -0.07307873666286469
-0.13815245032310486 -0.019518030807375908 0.17102384567260742
-0.01751742884516716 -0.1884184181690216 -0.13584525883197784
-0.181125670671463 0.08392976224422455 -0.1339017152786255
-0.13469260931015015 0.13301217555999756 -0.13738466799259186
0.22777782380580902 -0.44717544317245483 -0.07441656291484833
0.1919555515050888 0.4889248311519623 -0.015212487429380417
-0.26934167742729187 0.14539781212806702 0.006692172959446907
0.18357062339782715 -0.2509082853794098 0.10607007890939713
-0.24322642385959625 -0.471872478723526 0.02731071598827839
0.207288920879364 0.22868840396404266 -0.11684250831604004
0.2039472907781601 0.11392766982316971 -0.1356748640537262
0.01787830889225006 0.0051141660660505295 -0.13565143942832947
0.2979796528816223 -0.21754717826843262 -0.10950096696615219
-0.26393046975135803 -0.44096922874450684 0.07863491773605347
-0.02071814425289631 0.05567289516329765 -0.1356181800365448
-0.26518407464027405 0.44571399688720703 0.07025850564241409
0.15495693683624268 -0.3234430253505707 -0.01972021907567978
-0.15095262229442596 0.22868148982524872 0.10729211568832397
-0.22305549681186676 -0.39611753821372986 -0.0750989243388176
-0.04984988644719124 0.12063497304916382 -0.13597151637077332
-0.24189823865890503 -0.3943605422973633 -0.09461544454097748
-0.18556345999240875 -0.2944908142089844 -0.05293084681034088
0.02274704910814762 -0.2507760524749756 0.06320754438638687
-0.01638304814696312 -0.07028426229953766 -0.13590414822101593
0.17189376056194305 0.4162498414516449 0.025147924199700356
-0.27155566215515137 0.005092089995741844 0.05672946944832802
0.04359947517514229 0.04449734836816788 -0.13476303219795227
0.2993031144142151 -0.20302972197532654 0.03249693289399147
0.03719678521156311 0.22854940593242645 0.032607439905405045
-0.26789021492004395 0.007488274481147528 -0.04811415076255798
-0.05232454836368561 -0.25096696615219116 -0.05625923350453377
0.2273484617471695 -0.3604615032672882 -0.08924955129623413
-0.1907532960176468 0.08230692893266678 0.1686883419752121
-0.030102713033556938 -0.04217010736465454 -0.13731110095977783
-0.05039399117231369 0.2286979705095291 -0.09668014943599701
0.19771553575992584 -0.4470031261444092 0.07514411956071854
0.1721455454826355 -0.11632487922906876 0.16643397510051727
0.29600590467453003 -0.016037054359912872 0.12733608484268188
0.056698162108659744 0.04314405843615532 -0.1356121152639389
-0.26941484212875366 -0.29892778396606445 0.06627359986305237
-0.20192809402942657 -0.029466180130839348 0.1689266860485077
0.29855772852897644 0.15063145756721497 -0.10850995779037476
-0.1899106204509735 0.04327388480305672 0.1680862307548523
-0.057014599442481995 -0.02019311860203743 0.17242442071437836
-0.10441324859857559 0.22865867614746094 -0.10184181481599808
-0.25146734714508057 -0.2871973216533661 0.06085475906729698
0.27138522267341614 -0.052299100905656815 -0.13581112027168274
0.11773180216550827 0.2314237356185913 -0.10782463103532791
-0.2704630196094513 0.17409203946590424 -0.09917861968278885
0.30001139640808105 0.021753055974841118 -0.024544842541217804
0.24507062137126923 0.5166525840759277 0.019444188103079796
-0.27058273553848267 0.05364522710442543 -0.06874594837427139
-0.1910814791917801 -0.10422196239233017 -0.13235513865947723
0.029875921085476875 -0.02013341337442398 0.1682245284318924
0.17221668362617493 -0.4455886781215668 -0.02979164943099022
0.16622760891914368 -0.15710197389125824 0.16954562067985535
-0.2675267159938812 0.14235416054725647 0.09586551040410995
0.018543900921940804 0.2626320719718933 -0.2122345119714737
-0.1689724624156952 -0.023990999907255173 -0.135224387049675
-0.27137553691864014 -0.12358488142490387 0.09713084995746613
-0.13705860078334808 -0.028934678062796593 -0.13188426196575165
-0.26655855774879456 -0.20120349526405334 -0.08296966552734375
-0.2701660990715027 0.022229446098208427 -0.01640493981540203
-0.01950914040207863 0.2286643534898758 -0.10847976803779602
-0.2750037610530853 -0.09038925170898438 0.03035334125161171
-0.2706388831138611 0.09128673374652863 0.07265914231538773
0.13907793164253235 0.12919825315475464 0.1692395657300949
-0.3091849088668823 -0.3380044996738434 0.053880590945482254
-0.1778576821088791 -0.36269694566726685 0.05318620055913925
0.14523912966251373 -0.4209219515323639 -0.012281764298677444
-0.16167350113391876 -0.31536298990249634 0.04391985014081001
0.08106943964958191 -0.019368143752217293 0.17110322415828705
0.042872730642557144 0.12365233898162842 -0.13698336482048035
-0.21214833855628967 -0.37047165632247925 0.13135437667369843
-0.13759765028953552 0.16094987094402313 -0.13766738772392273
0.30027589201927185 0.09423042088747025 -0.07008685171604156
-0.18782731890678406 0.11810562014579773 0.1708061844110489
0.2980259954929352 0.1514105349779129 -0.03938987851142883
0.2980889678001404 -0.17126606404781342 -0.07334835082292557
-0.254115492105484 -0.4262062907218933 0.1602163463830948
0.29981887340545654 -0.14623109996318817 0.10822874307632446
-0.2715509831905365 -0.12400633841753006 0.11186297237873077
-0.2105601280927658 -0.22734591364860535 0.15597783029079437
0.250600665807724 -0.25019869208335876 -0.10679758340120316
-0.2704862654209137 0.1669737994670868 -0.059459760785102844
-0.22098378837108612 0.2285836935043335 0.12848353385925293
0.27277153730392456 -0.31621211767196655 -0.022129196673631668
0.234897181391716 0.2342742681503296 -0.06144718825817108
0.29794007539749146 -0.21506501734256744 0.051715295761823654
-0.06590352207422256 -0.2509702742099762 -0.0343233197927475
0.12157527357339859 -0.09849138557910919 -0.1342153400182724
0.29800549149513245 -0.08219794183969498 0.01867147721350193
-0.2709195017814636 -0.1751878410577774 -0.03625469282269478
0.19905878603458405 -0.25074902176856995 0.1164075955748558
-0.07416431605815887 0.13128790259361267 -0.1366472691297531
-0.22886505722999573 0.1389225423336029 -0.13330648839473724
0.0064356280490756035 -0.029833626002073288 -0.13567321002483368
-0.20594365894794464 -0.3946785032749176 0.14201585948467255
0.11425908654928207 -0.251026451587677 -0.03700770437717438
-0.2897583246231079 0.05908669903874397 -0.29893049597740173
0.2974351644515991 0.01077509205788374 0.11169706284999847
0.17696799337863922 -0.37759673595428467 0.1530676931142807
0.2161654829978943 -0.44708019495010376 0.11592702567577362
-0.17025087773799896 -0.2853010594844818 -0.04544892534613609
-0.16190913319587708 -0.2506870627403259 0.13020871579647064
-0.25604671239852905 0.39671334624290466 -0.052377499639987946
0.050674695521593094 -0.14418108761310577 0.1680999994277954
0.06545871496200562 -0.2528405487537384 0.1073351576924324
0.17221707105636597 -0.44345641136169434 0.14382228255271912
0.2996369004249573 -0.13882461190223694 0.06532387435436249
0.25988107919692993 0.00466127460822463 -0.13389651477336884
0.25710102915763855 -0.4442112445831299 0.021958939731121063
-0.1330087035894394 -0.18351952731609344 -0.13306625187397003
-0.12248732149600983 -0.25539472699165344 -0.04059230908751488
0.05470410734415054 -0.24850673973560333 0.14067968726158142
0.042651765048503876 0.22697608172893524 -0.011683689430356026
-0.26389163732528687 0.45523601770401 0.04112540930509567
0.28912854194641113 0.38215017318725586 -0.05526605248451233
0.12905707955360413 0.22994938492774963 0.12657363712787628
0.2803637385368347 -0.1634080559015274 0.15711018443107605
0.0723416656255722 0.03150134161114693 -0.13530398905277252
-0.26878830790519714 0.4341147243976593 0.03767126053571701
0.2261466234922409 -0.0794111117720604 -0.13415762782096863
0.2667141258716583 -0.02515736222267151 0.15583519637584686
0.19551517069339752 0.22483699023723602 -0.07350688427686691
0.1939050704240799 -0.4453856945037842 0.11748439818620682
0.005134310107678175 0.25548651814460754 -0.2035961002111435
-0.26389941573143005 -0.31113117933273315 -0.04824983701109886
0.29794561862945557 -0.20595476031303406 -0.04560046270489693
0.15242524445056915 -0.311549574136734 -0.010083685629069805
-0.05122099444270134 0.13288822770118713 0.16773536801338196
0.07469706982374191 -0.2130594402551651 -0.13563446700572968
-0.2667681574821472 0.43805649876594543 0.04127875342965126
-0.25739577412605286 0.41932788491249084 -0.04596441984176636
-0.2706183195114136 0.12936866283416748 0.10028562694787979
-0.1976815015077591 -0.09610994160175323 -0.13481786847114563
0.25236624479293823 -0.3407893478870392 -0.07970203459262848
-0.270864337682724 -0.0365244559943676 0.0809241384267807
-0.2635233402252197 0.45829418301582336 0.08686405420303345
0.12127788364887238 0.22527176141738892 0.07109291106462479
0.25948530435562134 -0.21345530450344086 -0.13527318835258484
0.13099758327007294 0.03045930340886116 0.1726933866739273
0.2992914021015167 0.0066073061898350716 -0.0250722523778677
0.03877004608511925 -0.20844466984272003 -0.13695627450942993
-0.1430255025625229 0.14416082203388214 0.16676665842533112
0.060715269297361374 -0.1129850447177887 -0.13577820360660553
0.2978311777114868 0.0028432465624064207 0.0968206599354744
0.17231281101703644 -0.1825874298810959 -0.13590107858181
-0.22918114066123962 0.16682708263397217 -0.13071738183498383
0.17033879458904266 0.20745937526226044 0.1571657955646515
0.03458070755004883 0.19923937320709229 -0.2296818643808365
0.037492770701646805 0.22875480353832245 0.01958461105823517
-0.22297441959381104 -0.10565785318613052 -0.13525886833667755
0.1368354707956314 0.23012959957122803 -0.01801590994000435
-0.09656503796577454 0.22861722111701965 0.13339939713478088
0.1455525904893875 -0.4229402244091034 0.1537838578224182
-0.07902985066175461 -0.144644096493721 0.16860148310661316
0.17886729538440704 0.4464535117149353 0.033570222556591034
0.034476377069950104 0.21312753856182098 -0.16315624117851257
0.02221684344112873 0.105471171438694 0.1694253385066986
-0.18518953025341034 -0.4119739532470703 0.04803841561079025
0.1512690931558609 -0.07022157311439514 0.174456387758255
-0.2716712951660156 -0.040478166192770004 -0.06845911592245102
0.10892815887928009 0.02510729990899563 -0.13564136624336243
-0.027264779433608055 0.06399765610694885 -0.13845863938331604
0.2743169069290161 0.5022562742233276 0.08538719266653061
-0.21516087651252747 -0.46377506852149963 0.035153329372406006
-0.14123877882957458 -0.09362559020519257 0.16895724833011627
0.08274295181035995 0.227570042014122 0.02187167853116989
0.08995962888002396 -0.037276700139045715 -0.13228674232959747
-0.13516709208488464 0.2286016345024109 -0.10811755061149597
0.05944646894931793 -0.10542970895767212 0.17135140299797058
-0.12300901114940643 -0.15168671309947968 -0.1354706734418869
-0.271360844373703 0.060527265071868896 0.0661439448595047
-0.0825977623462677 -0.22637666761875153 0.15407735109329224
-0.2708580195903778 -0.015054660849273205 0.13759741187095642
0.18734031915664673 0.14473360776901245 -0.13503235578536987
0.1521005481481552 -0.3228496313095093 0.01304150652140379
