-0.19836336374282837 0.23149649798870087 0.0603981614112854
-0.03863704949617386 0.12735548615455627 -0.14488175511360168
-0.25344040989875793 -0.04234990477561951 -0.29251331090927124
0.2313401997089386 0.33872002363204956 -0.06691765040159225
0.29222291707992554 0.19851095974445343 0.15131297707557678
0.1584310084581375 0.1764388084411621 0.15364980697631836
0.27933478355407715 -0.4383115768432617 0.19178082048892975
-0.32821914553642273 -0.35129812359809875 0.1879684031009674
0.29047006368637085 0.33797687292099 0.05217414349317551
-0.26565825939178467 0.20363658666610718 0.15292352437973022
0.27356866002082825 -0.34931910037994385 0.13359498977661133
-0.2255588322877884 0.2972120940685272 -0.0169517882168293
-0.24164383113384247 -0.48186925053596497 -0.014965387061238289
-0.0945735052227974 0.15887697041034698 0.16629886627197266
0.24357008934020996 -0.4410208463668823 0.20448091626167297
-0.2493620067834854 -0.020502667874097824 -0.23255202174186707
0.29523882269859314 -0.2528087794780731 0.12886399030685425
-0.20785018801689148 0.3897840082645416 0.09016546607017517
0.27530527114868164 0.36987751722335815 0.12735958397388458
-0.2199200838804245 -0.2610131800174713 -0.05108126997947693
-0.2654723525047302 0.21084582805633545 -0.3512868881225586
-0.1658121943473816 0.34013086557388306 0.03282736614346504
0.09623394906520844 -0.2459545135498047 -0.1327551156282425
0.048897434026002884 0.21333757042884827 -0.13863958418369293
-0.26881512999534607 -0.24992743134498596 0.14596977829933167
-0.21595251560211182 0.38806313276290894 0.09008307009935379
-0.17320965230464935 -0.24775269627571106 0.14843788743019104
-0.15417048335075378 -0.25754353404045105 -0.02468276023864746
0.2976115345954895 0.18219143152236938 0.1533539891242981
-0.08668532967567444 0.16113442182540894 0.167899951338768
-0.03332483395934105 0.2863953113555908 -0.2909739911556244
-0.2388218343257904 0.3644547462463379 0.10806044936180115
-0.29341310262680054 0.05961199849843979 -0.31300193071365356
0.2497003823518753 0.026793817058205605 0.15830902755260468
-0.2675286829471588 0.08756290376186371 0.15043386816978455
0.2974831461906433 0.22694334387779236 0.04825817421078682
-0.03197723999619484 -0.23025017976760864 0.1527734249830246
0.020116576924920082 0.17003630101680756 0.15784084796905518
0.21526627242565155 0.2653660178184509 0.024225709959864616
0.21497151255607605 -0.2439775913953781 -0.13347327709197998
-0.174011692404747 0.4557326138019562 -0.04547589272260666
0.11545725911855698 -0.19577684998512268 0.1512768417596817
-0.20873595774173737 -0.17573796212673187 0.1646343469619751
0.2213093489408493 0.5135552883148193 0.008634163066744804
0.2961849570274353 -0.13941392302513123 0.15927954018115997
-0.14212492108345032 -0.23697540163993835 -0.13457152247428894
-0.2704662084579468 -0.09096609055995941 -0.24350938200950623
0.28687041997909546 -0.16904176771640778 -0.14212578535079956
-0.02519749291241169 0.22033071517944336 0.15669113397598267
0.13175903260707855 -0.23947402834892273 -0.13378040492534637
-0.26808619499206543 -0.2394775152206421 0.11032120883464813
-0.040438976138830185 0.3233097791671753 -0.28642842173576355
-0.006363599095493555 0.19969941675662994 -0.14578357338905334
-0.23587891459465027 0.06967233866453171 0.15385830402374268
-0.23323316872119904 0.2830200493335724 -0.3346545696258545
0.22823691368103027 -0.2520231306552887 -0.06492728739976883
0.23327238857746124 0.22650110721588135 -0.025921422988176346
-0.012944535352289677 0.2297959327697754 0.14795148372650146
-0.15963950753211975 -0.27806246280670166 -0.026295922696590424
0.2613346576690674 0.512539267539978 0.05182749405503273
0.25594383478164673 -0.14741624891757965 0.15523633360862732
-0.23911741375923157 0.35402002930641174 0.103482685983181
-0.03941024839878082 -0.18843990564346313 0.15770745277404785
-0.24435080587863922 0.35973605513572693 -0.060984838753938675
0.29149749875068665 0.4193315804004669 0.12861371040344238
-0.016890835016965866 0.10058356076478958 -0.1571875512599945
-0.26435530185699463 -0.17153184115886688 -0.13441146910190582
-0.13996683061122894 0.3184880316257477 -0.3279704451560974
-0.22058960795402527 -0.17596374452114105 0.16663607954978943
0.22172915935516357 0.4383911192417145 -0.08615917712450027
0.0801185891032219 0.16693387925624847 0.16065901517868042
-0.2981402575969696 -0.31244105100631714 0.150608628988266
0.2643052339553833 -0.23701511323451996 -0.13304799795150757
0.2438589483499527 0.5056143403053284 -0.03824422508478165
-0.0034713493660092354 0.21224014461040497 0.15426282584667206
-0.27364012598991394 -0.22550681233406067 0.15177468955516815
0.22352254390716553 -0.23940765857696533 0.15837739408016205
0.20910289883613586 0.28690314292907715 0.017127860337495804
-0.042493149638175964 0.1837470531463623 0.15363457798957825
0.26400452852249146 0.28806111216545105 -0.012563759461045265
0.006391417235136032 -0.19866962730884552 0.14895649254322052
-0.2619606852531433 -0.09026193618774414 -0.2659794092178345
-0.22543013095855713 0.5013332962989807 0.025401439517736435
-0.19133666157722473 0.47573062777519226 -0.05077442154288292
0.24112552404403687 -0.24946868419647217 0.08216192573308945
-0.2930525243282318 -0.3104264438152313 0.14663317799568176
-0.2705090343952179 -0.23907752335071564 0.11246874183416367
-0.15834349393844604 0.358513742685318 0.03158560395240784
0.1882152557373047 0.2127821445465088 0.15647824108600616
0.08407768607139587 -0.2488393485546112 -0.1337842047214508
-0.22499650716781616 0.2880761921405792 -0.34575992822647095
0.2943311035633087 0.2276821732521057 0.048799339681863785
0.2937152087688446 0.3521912097930908 0.053028590977191925
-0.2715398371219635 -0.24732434749603271 -0.10647349059581757
-0.19732823967933655 0.37035056948661804 0.11067420989274979
0.058442749083042145 -0.18258248269557953 0.1671871542930603
0.22508081793785095 0.4507354497909546 -0.08563156425952911
0.25922691822052 -0.2698253393173218 0.037414707243442535
0.2587427496910095 -0.33940589427948 -0.07344581931829453
-0.159129336476326 0.16671597957611084 0.16010865569114685
-0.2725204527378082 0.08882009238004684 -0.322425901889801
0.14621640741825104 0.15976351499557495 0.16849976778030396
-0.1537528783082962 -0.25841110944747925 0.02183699980378151
-0.02158675342798233 0.28421321511268616 -0.2904927134513855
-0.27354368567466736 0.22653310000896454 0.1410609483718872
-0.1838570386171341 0.2833854556083679 0.018552076071500778
0.2879734933376312 -0.4310850203037262 0.17711426317691803
0.18737229704856873 -0.24520297348499298 -0.04147299379110336
0.0450374074280262 0.17764779925346375 -0.21152693033218384
-0.021298522129654884 0.22976498305797577 -0.18964412808418274
-0.032561834901571274 0.11712584644556046 -0.13641920685768127
0.06101642921566963 0.17006753385066986 -0.14407917857170105
0.2000754177570343 0.325415700674057 0.04651277884840965
0.28828173875808716 -0.027313919737935066 -0.142140194773674
0.24781154096126556 0.24071566760540009 -0.02313297986984253
-0.2540190815925598 0.04620964452624321 -0.25305041670799255
-0.25848639011383057 -0.21419845521450043 0.15310227870941162
-0.33827584981918335 -0.40726667642593384 -0.040954481810331345
0.10833746939897537 -0.25058162212371826 0.15017257630825043
-0.17590542137622833 0.4041854739189148 0.09988002479076385
-0.237310528755188 0.3675636053085327 -0.07487694174051285
-0.29545852541923523 -0.42946431040763855 -0.08569198101758957
-0.24943169951438904 0.2265021950006485 -0.0003345492877997458
0.28269433975219727 0.22471977770328522 -0.13729025423526764
0.05732128769159317 0.16226428747177124 -0.1351865530014038
0.1543959081172943 -0.43787509202957153 -0.03945641219615936
0.2580886483192444 0.37261542677879333 -0.08611761033535004
0.24704506993293762 -0.3820229172706604 -0.08778397738933563
-0.02092886157333851 0.20253467559814453 -0.13756759464740753
0.24714544415473938 -0.1459299623966217 0.16692441701889038
-0.17541496455669403 0.48833128809928894 0.05590876191854477
0.26107704639434814 -0.2493979036808014 0.14102204144001007
-0.27876150608062744 -0.3942113220691681 0.2029324769973755
0.2134566456079483 0.23582012951374054 0.039910249412059784
0.29677119851112366 0.1906563937664032 0.14847978949546814
0.027189165353775024 -0.25032663345336914 0.15064571797847748
0.2551960349082947 0.26462522149086 -0.014016423374414444
0.21526049077510834 -0.2012695074081421 0.15092076361179352
0.28854748606681824 -0.25701454281806946 -0.019678853452205658
-0.23205412924289703 -0.1202930137515068 0.15532226860523224
0.2880224585533142 -0.2506750524044037 -0.09579631686210632
-0.30575990676879883 -0.3170034885406494 0.14450661838054657
-0.18451721966266632 0.28687313199043274 0.022925501689314842
-0.26616621017456055 0.17369727790355682 -0.1354699432849884
-0.21997572481632233 0.4979153573513031 0.10190335661172867
-0.19121241569519043 0.3278796076774597 0.047438088804483414
0.28574690222740173 -0.004394404590129852 -0.13724380731582642
-0.23798516392707825 -0.23908673226833344 0.1537756323814392
0.25457921624183655 0.38470765948295593 0.112547867000103
-0.24584810435771942 0.2445528209209442 0.0259722713381052
0.19883161783218384 0.3716098368167877 0.11454249918460846
-0.23619049787521362 -0.4364123046398163 0.18523168563842773
-0.28836533427238464 0.037839125841856 -0.3115181624889374
0.19135627150535583 0.40390744805336 0.1140294000506401
0.2391052395105362 -0.04551588371396065 0.16720739006996155
0.22914595901966095 0.49572938680648804 -0.04504171013832092
-0.23265784978866577 -0.4330066740512848 0.1873088926076889
0.04482593387365341 0.11026524007320404 -0.13679800927639008
-0.21045668423175812 0.462693989276886 0.08885269612073898
-0.23960837721824646 0.14547371864318848 0.15241338312625885
-0.2546197772026062 0.2787178158760071 -0.3284784257411957
-0.2627718150615692 -0.2512854337692261 -0.01513984240591526
-0.15302316844463348 0.32100340723991394 -0.33082115650177
-0.03173248842358589 0.30961862206459045 -0.30150502920150757
-0.20387418568134308 0.31027472019195557 -0.02266688458621502
0.24502268433570862 -0.0053470684215426445 0.16415342688560486
0.2130720615386963 0.4610457420349121 -0.07859212160110474
0.193655863404274 0.4939618706703186 0.07040305435657501
0.2295931726694107 -0.17975826561450958 0.1662244200706482
0.04129980131983757 0.1295415759086609 -0.2058146595954895
-0.27147597074508667 0.14520710706710815 -0.3345926105976105
0.20702216029167175 0.23893390595912933 0.019849585369229317
0.293795108795166 -0.24826835095882416 0.1586468368768692
-0.2632138729095459 0.1712484061717987 -0.3349985182285309
0.2913728356361389 0.10560621321201324 -0.13737429678440094
-0.27482619881629944 0.1292007565498352 -0.13087114691734314
0.28681740164756775 -0.4456639885902405 0.05914565175771713
-0.23049040138721466 0.3947147727012634 0.09543829411268234
0.14290758967399597 -0.439668208360672 0.15033283829689026
0.22611530125141144 0.4659646451473236 0.10207384079694748
-0.03736378252506256 0.2018900364637375 -0.19684937596321106
0.23612557351589203 -0.05846283584833145 0.16641627252101898
0.2214532196521759 0.33518698811531067 -0.061947051435709
-0.0313405767083168 0.31547579169273376 -0.27439719438552856
-0.253093421459198 -0.03586844727396965 0.15759269893169403
-0.014675900340080261 -0.2402459979057312 -0.1311352252960205
-0.22245994210243225 0.07521764934062958 0.1541929990053177
0.19002556800842285 0.4080875813961029 0.11504729092121124
-0.2549309730529785 0.040833547711372375 -0.2507539689540863
0.15861140191555023 0.16056783497333527 0.16564898192882538
0.11423050612211227 0.17318877577781677 0.15049625933170319
-0.2796317934989929 0.05130448192358017 -0.31981316208839417
-0.22776493430137634 -0.1809079349040985 0.1639435738325119
0.24545696377754211 -0.07488662749528885 0.16717979311943054
0.22830303013324738 -0.2627202868461609 -0.055676963180303574
-0.25218215584754944 -0.25421804189682007 -0.033874914050102234
0.2436949908733368 -0.2787907123565674 -0.05886490270495415
-0.21301496028900146 0.22701944410800934 -0.04706750437617302
0.2697030305862427 0.42224082350730896 -0.08170688152313232
-0.26906347274780273 -0.16868695616722107 0.1484752893447876
-0.2677591145038605 0.2259020358324051 -0.09125132113695145
-0.215803861618042 -0.046389538794755936 0.1636478751897812
-0.27141687273979187 0.22048009932041168 0.11843196302652359
-0.1886436492204666 0.22804856300354004 0.14218592643737793
-0.2316797524690628 -0.32193490862846375 -0.0782073363661766
0.2769938111305237 -0.4441681504249573 0.03930839151144028
-0.22364488244056702 -0.1205834299325943 0.15509988367557526
-0.09702546894550323 0.2283799797296524 0.1471194326877594
-0.22208181023597717 0.12652887403964996 0.1552751511335373
0.06770748645067215 0.1293274462223053 -0.13880272209644318
0.2128559648990631 -0.24880212545394897 0.14850081503391266
0.2623216509819031 0.5143432021141052 0.055065035820007324
-0.250698447227478 -0.48381373286247253 -0.032933831214904785
-0.3318715989589691 -0.3575771152973175 0.15097901225090027
-0.27983760833740234 0.07681600004434586 -0.2631088197231293
-0.21932335197925568 0.34728989005088806 -0.06529007852077484
0.2358536273241043 -0.20847885310649872 0.15531247854232788
0.2567378580570221 -0.26431286334991455 0.008328189142048359
-0.24480228126049042 0.2613365650177002 -0.3602798581123352
-0.22141633927822113 -0.09956028312444687 0.15932458639144897
0.29479867219924927 -0.06688271462917328 -0.13971367478370667
0.21888045966625214 0.4386063814163208 0.09895717352628708
-0.23713912069797516 0.39537569880485535 0.10454285889863968
-0.3305174708366394 -0.3268875479698181 0.17420251667499542
-0.025355659425258636 0.3087979853153229 -0.26696065068244934
-0.0690775066614151 0.3293881416320801 -0.3002505600452423
-0.23681822419166565 0.26878026127815247 0.005618602503091097
-0.25966259837150574 0.13698221743106842 0.1544373482465744
0.2603628933429718 -0.32170742750167847 -0.06872164458036423
0.1985652595758438 -0.42088690400123596 0.19694627821445465
-0.23098182678222656 0.3792884945869446 -0.07968021929264069
0.2363584339618683 -0.2702435255050659 -0.05309406667947769
-0.19283248484134674 0.33444079756736755 -0.039327505975961685
0.055999428033828735 0.1259671002626419 -0.167606920003891
0.20484787225723267 -0.23527108132839203 0.15548531711101532
0.2798759937286377 -0.25570762157440186 0.057018764317035675
0.2963259220123291 -0.24770575761795044 -0.068015918135643
-0.26215410232543945 -0.24907642602920532 0.01674102060496807
0.1831340342760086 -0.2385561466217041 -0.13378708064556122
0.23491983115673065 0.5098457932472229 -0.02439127489924431
0.276447057723999 0.3281266987323761 0.056320399045944214
0.23785385489463806 0.5174478888511658 0.06060637906193733
-0.3375485837459564 -0.36171120405197144 0.10211680829524994
-0.2692408859729767 -0.1770537793636322 -0.1243310272693634
0.29704686999320984 -0.09041902422904968 -0.13980592787265778
-0.2676912546157837 -0.10613144189119339 -0.12660911679267883
0.2381882220506668 -0.24945642054080963 0.1491926908493042
-0.033905450254678726 0.21300113201141357 -0.20271535217761993
-0.09688278287649155 0.22408825159072876 -0.13625606894493103
0.18215158581733704 -0.24714159965515137 0.15439964830875397
-0.27635300159454346 -0.015790482982993126 -0.3092327117919922
0.26982051134109497 0.3443413972854614 0.10394538938999176
-0.25750571489334106 -0.2507711946964264 -0.09212040901184082
0.00038841005880385637 0.2644816040992737 -0.2700170576572418
-0.2524259090423584 -0.009831305593252182 -0.23981128633022308
-0.2643320560455322 0.22747844457626343 -0.014928058721125126
0.2661812901496887 -0.24645106494426727 -0.13354212045669556
0.266095370054245 0.2726333439350128 0.0013652892084792256
-0.1528436690568924 -0.2534257173538208 0.02385929971933365
0.2968253195285797 0.22405606508255005 -0.1121739000082016
-0.25984594225883484 -0.07432391494512558 -0.28484225273132324
-0.25892913341522217 -0.2449713498353958 0.14951232075691223
-0.219691202044487 0.013530269265174866 0.1626923382282257
0.11982694268226624 0.22470538318157196 0.1550372838973999
0.28353819251060486 -0.4427194595336914 0.013707163743674755
-0.23144173622131348 -0.4777725338935852 -0.0012340350076556206
-0.26147210597991943 0.1479908972978592 0.15431027114391327
-0.23592008650302887 0.1063564345240593 0.15234163403511047
0.28387168049812317 0.2259671539068222 -0.0399186909198761
0.2834904193878174 -0.23009447753429413 -0.13676734268665314
-0.34167495369911194 -0.37854355573654175 0.017676886171102524
0.27371829748153687 0.47436097264289856 0.12722069025039673
0.29628369212150574 0.09483012557029724 0.15550391376018524
0.19042691588401794 -0.2638275921344757 -0.03557071462273598
-0.23566585779190063 0.2984732687473297 -0.0035671526566147804
0.05095386505126953 0.2094939947128296 -0.1795489490032196
-0.05391827970743179 0.3216410279273987 -0.30380022525787354
0.25929686427116394 0.18252675235271454 0.1557961404323578
0.2328246682882309 0.17298385500907898 0.15463003516197205
-0.23506315052509308 0.3466613292694092 0.08917639404535294
0.05899027734994888 0.18655814230442047 -0.17068055272102356
0.24046288430690765 -0.4130711555480957 0.19775110483169556
-0.22218893468379974 0.2981276512145996 -0.3647141456604004
0.19132176041603088 -0.3232327997684479 0.09631556272506714
-0.2687836289405823 -0.14849558472633362 0.14722076058387756
-0.263769268989563 0.17763034999370575 -0.13281704485416412
0.27388495206832886 0.4872051179409027 0.12462284415960312
-0.2546848654747009 0.058858722448349 -0.27767834067344666
-0.19581395387649536 0.31616002321243286 -0.3341706395149231
0.30357682704925537 0.21158048510551453 -0.13177967071533203
0.19528454542160034 0.17529872059822083 0.15006351470947266
-0.18151870369911194 0.31783604621887207 0.02438277378678322
-0.23114077746868134 -0.07505028694868088 0.1541711539030075
-0.21346978843212128 0.2979550063610077 -0.36330950260162354
-0.17543694376945496 0.22741788625717163 -0.13491828739643097
0.29268497228622437 0.16702386736869812 0.15251240134239197
-0.26394617557525635 0.07294043153524399 0.15366950631141663
-0.25009429454803467 -0.02699899859726429 -0.2348681390285492
-0.20763377845287323 0.4876401424407959 0.11238843947649002
0.25825822353363037 0.516872763633728 0.10312889516353607
0.27006107568740845 0.2971608638763428 -0.0039422959089279175
-0.24142161011695862 -0.2508523762226105 0.054898638278245926
-0.26848939061164856 0.07939779758453369 -0.31938430666923523
-0.010705343447625637 0.3015025556087494 -0.25891759991645813
0.23646493256092072 -0.4259290099143982 -0.08979884535074234
-0.2391016185283661 -0.2996548116207123 -0.06551302224397659
-0.26312386989593506 0.18185821175575256 -0.31978294253349304
0.2822299599647522 -0.44488435983657837 0.1754968911409378
-0.2749086618423462 0.21214431524276733 0.14403794705867767
-0.14771336317062378 -0.251316636800766 0.008376468904316425
0.07738381624221802 0.1476639360189438 -0.13724975287914276
-0.03947863355278969 0.30785492062568665 -0.25713130831718445
0.2968032658100128 -0.030596017837524414 0.15680773556232452
0.28391867876052856 -0.448642373085022 0.1277063488960266
0.20734204351902008 -0.4414485692977905 0.20071159303188324
0.04744023084640503 0.1214536651968956 -0.13645777106285095
-0.014462095685303211 0.10233654826879501 -0.16615785658359528
-0.10233672708272934 0.3187102973461151 -0.31376248598098755
0.01161171030253172 0.19755613803863525 -0.1367667019367218
-0.023734604939818382 0.10662978887557983 -0.16072916984558105
-0.33065974712371826 -0.3480682969093323 0.17486368119716644
-0.2588041424751282 -0.11578598618507385 -0.1344364583492279
0.24302680790424347 -0.28075677156448364 0.0836951807141304
0.17564520239830017 -0.24017110466957092 -0.13369394838809967
-0.2625129222869873 0.06409488618373871 -0.1397596150636673
-0.20418517291545868 -0.27519136667251587 0.08014636486768723
-0.2860051989555359 -0.03512716293334961 -0.2406463772058487
-0.2606527805328369 0.1612333208322525 0.1543649584054947
-0.19758272171020508 0.3781090974807739 0.10975676774978638
-0.2781856954097748 0.2273237705230713 -0.34792575240135193
0.2617819607257843 0.1112193763256073 0.15578266978263855
0.2598646879196167 -0.18506328761577606 0.1536133587360382
0.2595835328102112 -0.32395923137664795 -0.06876523047685623
0.22890274226665497 0.49457257986068726 0.12012907862663269
0.2658488154411316 -0.4413766860961914 -0.06336498260498047
-0.2575531601905823 0.2263852059841156 -0.13706031441688538
0.04495793581008911 0.19503459334373474 -0.15384787321090698
0.008801225572824478 0.10913768410682678 -0.20312188565731049
0.11807134002447128 0.22965595126152039 0.1536613255739212
-0.17082750797271729 -0.25884395837783813 -0.03782527148723602
0.20400768518447876 -0.179282546043396 0.168667271733284
-0.2444113790988922 0.3069278597831726 0.019567852839827538
-0.2188822478055954 0.32160481810569763 -0.33477452397346497
0.2827715575695038 -0.4247831702232361 0.1908818483352661
-0.26967597007751465 -0.23097474873065948 0.1438291221857071
0.07825925201177597 -0.23659950494766235 0.15448512136936188
-0.24956852197647095 0.3633098304271698 0.10410599410533905
-0.2685733735561371 -0.042829953134059906 0.15083926916122437
-0.24612358212471008 0.4270535707473755 0.09879551082849503
0.25191983580589294 -0.15951359272003174 0.15346723794937134
-0.021503154188394547 0.20941761136054993 -0.1743624359369278
0.24518536031246185 -0.2600701153278351 -0.04574955999851227
0.24918580055236816 0.1376992166042328 0.1568756401538849
0.257925808429718 0.3319278061389923 -0.06323886662721634
-0.21596866846084595 0.49903589487075806 -0.021048622205853462
0.196268692612648 -0.25467851758003235 -0.03395787999033928
-0.1778973788022995 0.337593674659729 -0.33828452229499817
-0.22097359597682953 -0.2514902949333191 -0.03496318310499191
-0.2653062641620636 0.031105030328035355 -0.2401893585920334
-0.22016394138336182 0.07391908019781113 0.16249819099903107
-0.04761367291212082 -0.24430057406425476 -0.1334698647260666
-0.21108752489089966 -0.2720954418182373 0.07835891097784042
0.06378011405467987 -0.24115079641342163 0.15555208921432495
0.04463175684213638 0.11942934989929199 -0.19600582122802734
-0.20051051676273346 0.2299070805311203 0.1536637842655182
-0.23170910775661469 0.3014700710773468 -0.015555374324321747
0.006393309682607651 0.2924530804157257 -0.25175103545188904
-0.1285102665424347 -0.25014057755470276 -0.1344245821237564
0.274537056684494 0.24129155278205872 0.005228838417679071
-0.1741226613521576 0.4536017179489136 0.10652223229408264
-0.038096845149993896 0.13403187692165375 -0.15533588826656342
-0.33698949217796326 -0.3562690317630768 0.12402313202619553
0.012860472314059734 0.1249336451292038 -0.21180875599384308
-0.038649607449769974 0.18193799257278442 -0.18268121778964996
-0.18748509883880615 -0.18819889426231384 0.16047824919223785
0.11034023016691208 0.15501996874809265 0.1660153567790985
0.29337283968925476 -0.2533344328403473 -0.041751205921173096
-0.08276067674160004 -0.18449999392032623 0.16756470501422882
0.2545221745967865 0.438765287399292 -0.0876573920249939
0.20034700632095337 0.22242200374603271 -0.13269026577472687
-0.17689287662506104 -0.19254831969738007 0.15010690689086914
-0.22878240048885345 0.361430823802948 0.11140310764312744
-0.2692798972129822 0.12155014276504517 0.15151244401931763
0.28657010197639465 -0.4416736960411072 0.18694205582141876
0.25918442010879517 -0.3358066976070404 -0.07576298713684082
0.16356241703033447 -0.44935914874076843 0.17598889768123627
0.1853289157152176 -0.36985689401626587 0.15786680579185486
0.032623641192913055 0.2072525918483734 -0.23089109361171722
0.10583227872848511 -0.23868629336357117 0.1553228199481964
0.19880881905555725 -0.1787319779396057 0.17058011889457703
-0.24798153340816498 -0.05442684143781662 -0.27500468492507935
-0.2692812383174896 0.12822416424751282 0.154780775308609
0.2685413062572479 -0.04479871317744255 0.15297022461891174
0.257902592420578 0.24762655794620514 0.041424211114645004
-0.25997626781463623 0.2253895401954651 0.14404010772705078
0.09342613816261292 -0.17865586280822754 0.1685834676027298
0.022755028679966927 0.2767687439918518 -0.26148056983947754
-0.16915442049503326 0.3881148397922516 0.0949464738368988
0.06454219669103622 0.22822895646095276 -0.13740506768226624
-0.1763910949230194 0.3218408226966858 0.007253898307681084
0.2942350208759308 0.12804710865020752 -0.13886944949626923
0.24579253792762756 0.11459948122501373 0.1678272783756256
-0.06405087560415268 0.3244428038597107 -0.28922438621520996
-0.25812774896621704 -0.38146957755088806 0.20295102894306183
0.2050406038761139 0.2273833155632019 0.026214756071567535
0.18777719140052795 -0.24308611452579498 -0.1353607475757599
-0.2856133282184601 0.12366257607936859 -0.31210288405418396
-0.1969243586063385 0.21681132912635803 0.15654994547367096
0.24578940868377686 0.05750596150755882 0.16354088485240936
-0.24763432145118713 -0.3154767155647278 -0.07679567486047745
0.21077534556388855 0.31090447306632996 0.040525197982788086
-0.3405025005340576 -0.37685471773147583 0.03219350427389145
-0.2526208162307739 -0.024400940164923668 -0.23103483021259308
-0.05933393910527229 -0.24062766134738922 -0.13426996767520905
0.27482104301452637 0.2235088050365448 -0.13667608797550201
-0.005969231016933918 0.20623676478862762 -0.1364903450012207
0.2504153251647949 -0.25978314876556396 0.05442093685269356
-0.04137575626373291 0.2837909460067749 -0.2618357241153717
-0.26235681772232056 0.22695843875408173 0.03200004622340202
-0.1270320862531662 0.2292391061782837 0.15011246502399445
0.28907597064971924 -0.43362900614738464 0.13755057752132416
-0.2695792317390442 -0.4003843069076538 0.20573648810386658
-0.2568095922470093 0.22815276682376862 0.13641253113746643
0.26714885234832764 0.22607366740703583 -0.13430258631706238
-0.28594619035720825 0.10687317699193954 -0.31138044595718384
-0.2814177870750427 0.12948136031627655 -0.29777297377586365
0.2755538821220398 0.23074577748775482 0.03828499838709831
-0.23709973692893982 -0.27017349004745483 0.03236057609319687
0.267500102519989 0.5033261179924011 -0.021875031292438507
-0.2754916250705719 0.12977711856365204 -0.288709819316864
-0.030222581699490547 0.22623863816261292 -0.22675888240337372
-0.16401930153369904 0.4152703881263733 0.09924345463514328
0.1783006191253662 -0.2523505687713623 -0.012746859341859818
0.2090642750263214 0.228146493434906 -0.023005854338407516
0.2528035640716553 -0.16860458254814148 0.14930114150047302
0.25052088499069214 -0.014573710039258003 0.15771658718585968
0.2976601719856262 -0.1149308830499649 -0.1432904750108719
-0.245489239692688 -0.06540035456418991 -0.24128518998622894
-0.0736924409866333 0.30677828192710876 -0.30345824360847473
-0.2603819668292999 -0.076727494597435 -0.22275756299495697
0.255486398935318 0.47979140281677246 -0.06501004844903946
-0.23594549298286438 -0.42998006939888 0.1929931491613388
0.06487983465194702 -0.18320447206497192 0.16749216616153717
0.20048798620700836 0.46054506301879883 0.10919875651597977
-0.27073606848716736 -0.24801146984100342 0.14412565529346466
-0.2289280891418457 -0.260710746049881 -0.0015529142692685127
0.2958909869194031 -0.02836090698838234 -0.13882969319820404
0.29636627435684204 -0.24167399108409882 -0.06442295014858246
-0.2271239161491394 0.2592061758041382 0.04205881431698799
-0.10283034294843674 -0.1857275515794754 0.16420824825763702
-0.25252583622932434 -0.23731012642383575 0.1534711867570877
0.27962130308151245 -0.38287773728370667 0.1679360419511795
-0.2707345187664032 0.22350016236305237 -0.13334675133228302
0.26138055324554443 0.22194775938987732 -0.13519597053527832
-0.18759401142597198 -0.2539424002170563 -0.06730351597070694
0.28540605306625366 -0.25117000937461853 0.14444398880004883
0.29271048307418823 -0.15061482787132263 -0.13069109618663788
-0.2514842748641968 0.3608079254627228 0.10121238976716995
0.2963401675224304 -0.10552261024713516 0.15547914803028107
-0.24607297778129578 -0.24731215834617615 0.15263336896896362
-0.23185685276985168 0.31994786858558655 -0.02527986839413643
-0.25140249729156494 0.34568777680397034 -0.04399867355823517
0.20950470864772797 -0.4402128756046295 -0.08287414163351059
-0.17706196010112762 0.3841303884983063 0.10527171194553375
-0.1588209569454193 0.3165449798107147 -0.33919739723205566
0.2562095820903778 -0.4166131019592285 -0.08664950728416443
0.2846525013446808 -0.4341503381729126 0.013281024992465973
-0.2826060950756073 -0.053604189306497574 -0.2823387384414673
0.10372190177440643 0.22294437885284424 0.15851837396621704
0.23581025004386902 -0.42254161834716797 0.1989474594593048
0.24800151586532593 0.4509280323982239 -0.0866493284702301
0.22521421313285828 0.2295004427433014 -0.02462106943130493
-0.2864937484264374 0.11108340322971344 -0.2963360548019409
0.18616950511932373 0.33774590492248535 -0.004372821655124426
-0.2649466395378113 -0.24720273911952972 -0.09726005792617798
-0.26846298575401306 -0.1485314667224884 -0.13464607298374176
-0.25045695900917053 0.23406468331813812 0.020514030009508133
-0.26536789536476135 -0.30479696393013 0.10363298654556274
0.174692764878273 -0.261146605014801 -0.003097739303484559
-0.12285502254962921 0.32501381635665894 -0.31301403045654297
0.2225218117237091 0.3989277780056 -0.09435530751943588
-0.22166146337985992 -0.42482510209083557 0.1885681003332138
0.24259203672409058 -0.14954397082328796 0.16998399794101715
-0.2787843644618988 0.16353332996368408 -0.33935701847076416
-0.2669476270675659 -0.06668584048748016 -0.2198529988527298
-0.12047525495290756 -0.1867745816707611 0.16372498869895935
0.19161565601825714 -0.3766898810863495 0.1642352193593979
0.04766217991709709 0.22976382076740265 -0.23027333617210388
0.014692478813230991 -0.2306857854127884 0.15337017178535461
-0.2641561031341553 -0.24505357444286346 0.1479899287223816
-0.26457566022872925 0.09260670840740204 -0.2756310999393463
0.273609459400177 0.40489447116851807 0.1232554242014885
0.21979393064975739 0.25426921248435974 -0.012766667641699314
0.23746483027935028 -0.0005253041163086891 0.16869044303894043
-0.22019299864768982 0.32147887349128723 0.05165310949087143
-0.21913285553455353 0.49135473370552063 -0.03489481657743454
-0.2187674641609192 0.027606751769781113 0.1643148809671402
-0.13893960416316986 0.16503335535526276 0.1613297164440155
0.2937223017215729 0.4440164566040039 0.1280622035264969
-0.2648613452911377 -0.3980773985385895 0.2056996077299118
0.21676991879940033 0.2239760458469391 0.15508250892162323
-0.12987779080867767 0.2281857132911682 0.14961136877536774
-0.24030202627182007 0.33548644185066223 0.06526140123605728
-0.2654031813144684 0.08643051981925964 -0.320831835269928
-0.2209787219762802 0.12575390934944153 0.161551371216774
0.24588023126125336 -0.3162941336631775 -0.07505305856466293
-0.013831287622451782 0.16674615442752838 -0.22179493308067322
-0.24362246692180634 0.3640121519565582 -0.06564556062221527
0.2005724012851715 -0.40705686807632446 0.18995456397533417
-0.041679300367832184 0.19158196449279785 -0.13662201166152954
-0.1656867116689682 0.41960474848747253 0.09667562693357468
-0.21982792019844055 -0.07544548064470291 0.15514278411865234
-0.2695835828781128 -0.1668221801519394 -0.1303049921989441
-0.2488388866186142 0.49155670404434204 0.042930539697408676
0.24093902111053467 -0.03061911091208458 0.16727514564990997
0.2618016004562378 0.2525060474872589 -0.010057401843369007
-0.25087428092956543 -0.0008411573944613338 -0.29790398478507996
0.23046092689037323 -0.3028305172920227 -0.07192733883857727
0.030018212273716927 0.16772671043872833 0.16270749270915985
-0.27107974886894226 0.00375372264534235 0.15600918233394623
0.24592439830303192 0.08060803264379501 0.16342924535274506
-0.06769772619009018 0.3186689615249634 -0.3198283910751343
0.2916589379310608 0.20426975190639496 -0.1382063329219818
0.22009539604187012 -0.44344595074653625 0.20049037039279938
-0.2701904773712158 -0.09958124905824661 -0.1343536227941513
-0.24861080944538116 0.3425356447696686 0.07427710294723511
0.20010291039943695 0.33081650733947754 0.054707981646060944
-0.22636817395687103 -0.28205615282058716 -0.059904489666223526
-0.23128126561641693 -0.25031578540802 0.0709824189543724
0.0361006036400795 0.2113635092973709 -0.13818974792957306
-0.26016414165496826 0.0766238123178482 -0.2721443474292755
-0.25606200098991394 -0.16408883035182953 -0.1337152123451233
0.2809736728668213 0.2297801524400711 0.04897402226924896
-0.2690182626247406 0.03514203429222107 0.15275320410728455
-0.17367880046367645 -0.24351412057876587 -0.13572637736797333
-0.26913708448410034 0.06165037304162979 0.15354354679584503
-0.2715192139148712 0.21510498225688934 0.1315121054649353
-0.02764565497636795 0.2215217798948288 -0.19682182371616364
0.29735055565834045 0.22869987785816193 0.11270768195390701
-0.26149842143058777 -0.2330903708934784 0.1524915099143982
0.29508692026138306 -0.26259365677833557 0.030362838879227638
-0.24089743196964264 -0.4824432134628296 -0.0018296344205737114
0.2298847734928131 -0.18702863156795502 0.1676165908575058
0.2854733169078827 0.04806854575872421 -0.13665279746055603
-0.23645859956741333 0.45469188690185547 -0.06622572243213654
0.22318708896636963 0.3579816520214081 0.1213807612657547
-0.0345613993704319 0.18573948740959167 -0.2028781920671463
0.2578212320804596 0.17956532537937164 0.15793640911579132
-0.16537438333034515 0.46772852540016174 0.09427091479301453
0.1666003167629242 -0.4462250769138336 0.16739001870155334
0.0211036279797554 0.11401420086622238 -0.20560024678707123
0.060815759003162384 0.1642308533191681 -0.13564924895763397
-0.3241809606552124 -0.3275446891784668 0.1776469498872757
0.2836824357509613 0.41761112213134766 -0.06806520372629166
-0.18874824047088623 0.3117983341217041 -0.016746189445257187
-0.2176985740661621 0.1675659418106079 0.1626245230436325
0.2389632612466812 -0.3417991101741791 -0.0838477611541748
-0.26431575417518616 0.07388608157634735 -0.13367213308811188
0.25751492381095886 -0.4200826585292816 0.19952623546123505
0.014203839004039764 0.22513540089130402 -0.13361160457134247
0.2467888593673706 -0.4401235580444336 -0.08325525373220444
-0.2129090577363968 0.22900071740150452 0.0655607357621193
0.10981400310993195 -0.19056446850299835 0.15744136273860931
-0.1907346397638321 0.22377578914165497 -0.13223500549793243
-0.265843003988266 -0.23768630623817444 0.10049967467784882
0.254343718290329 0.011493019759654999 0.15197578072547913
-0.23756635189056396 0.29468947649002075 -0.33137428760528564
0.23284834623336792 0.48802071809768677 -0.0690208375453949
-0.2268363982439041 0.1493844836950302 0.14846833050251007
-0.1878390908241272 0.2924073338508606 0.023261889815330505
-0.25482532382011414 0.06372497975826263 -0.2905738055706024
-0.2319967895746231 0.3790857791900635 0.11405432224273682
-0.2839764654636383 0.16775909066200256 -0.3275599181652069
0.23777326941490173 -0.030254706740379333 0.17157110571861267
-0.266573429107666 0.1214083582162857 0.15209214389324188
-0.2215082347393036 -0.058278970420360565 0.16153453290462494
0.14047236740589142 -0.4341261386871338 0.008319311775267124
-0.2361990362405777 0.3421178162097931 -0.06688518077135086
-0.017502503469586372 0.2561987340450287 -0.2614257037639618
0.2867988049983978 0.22714391350746155 -0.06259386241436005
0.2351335883140564 -0.18372493982315063 0.16741934418678284
0.2187349647283554 -0.248002290725708 0.07763394713401794
-0.18267370760440826 0.3199576437473297 0.030821487307548523
0.24979770183563232 0.14820018410682678 0.15575627982616425
-0.2497827112674713 0.2825574278831482 -0.36570629477500916
-0.19520550966262817 0.2654435634613037 -0.01848444901406765
-0.19385138154029846 0.3277209401130676 -0.33377495408058167
0.22612346708774567 0.31804338097572327 -0.033196620643138885
-0.2136915922164917 -0.09536107629537582 0.16426698863506317
-0.24740858376026154 0.22662648558616638 -0.13141277432441711
0.19367648661136627 0.4944002330303192 0.023927174508571625
0.24608133733272552 0.07040579617023468 0.1605466604232788
-0.19126321375370026 -0.2500794231891632 0.07424081116914749
-0.0026955311186611652 0.12275311350822449 -0.20752374827861786
0.2958580553531647 -0.258618026971817 0.02995792031288147
-0.26106342673301697 0.28202196955680847 -0.33241772651672363
-0.02486894093453884 0.2635924816131592 -0.22378414869308472
0.16594243049621582 -0.24082595109939575 -0.13372954726219177
0.2049044370651245 0.39155733585357666 0.11027307063341141
-0.2692725360393524 -0.20420007407665253 0.15032859146595
0.19981136918067932 0.17588433623313904 0.1523488312959671
0.2701399326324463 -0.24705395102500916 -0.13367432355880737
-0.24633777141571045 0.24671396613121033 -0.35725584626197815
-0.1199902817606926 0.32934558391571045 -0.33897027373313904
0.042568057775497437 0.12274175137281418 -0.20512434840202332
0.205641508102417 -0.39619749784469604 0.18718646466732025
-0.27577629685401917 -0.37510040402412415 -0.09241235256195068
0.26480063796043396 -0.3627447187900543 0.1624772846698761
0.2341122329235077 0.26084762811660767 0.039820048958063126
-0.12335094809532166 0.22821518778800964 0.14883098006248474
0.2880442440509796 -0.438566118478775 0.10250411927700043
0.008900378830730915 0.09753261506557465 -0.14708010852336884
-0.21266235411167145 -0.19440875947475433 0.15513525903224945
-0.28451186418533325 -0.3750518262386322 -0.08763855695724487
0.26424095034599304 0.4847288131713867 -0.057732999324798584
0.24858610332012177 -0.12525546550750732 0.16132903099060059
-0.2621747553348541 0.1325610876083374 -0.31297367811203003
0.20443877577781677 0.22478964924812317 -0.06448021531105042
-0.02007409743964672 0.15750755369663239 0.16955995559692383
-0.25737354159355164 -0.3378785252571106 -0.08086290955543518
0.007528581190854311 0.21736863255500793 0.15675655007362366
0.29574790596961975 0.22683392465114594 -0.09146048128604889
-0.11686550080776215 0.33240681886672974 -0.33069396018981934
0.2293253391981125 0.17691045999526978 0.149703711271286
-0.03782088682055473 0.14044518768787384 -0.1377907246351242
0.20774999260902405 0.24378229677677155 0.024687256664037704
0.1404905766248703 -0.20729732513427734 0.1548004150390625
0.1528371423482895 0.17121468484401703 0.15870589017868042
-0.25793492794036865 0.28080254793167114 -0.3487977087497711
0.10348206013441086 -0.24084272980690002 -0.1330617070198059
-0.27099376916885376 0.17894811928272247 -0.34564322233200073
0.29100117087364197 0.23066481947898865 -0.07165191322565079
0.13646450638771057 -0.4338071048259735 0.12024100124835968
-0.14658264815807343 0.32105740904808044 -0.32899120450019836
-0.009128966368734837 0.1128818541765213 -0.13766373693943024
0.21673546731472015 -0.25151458382606506 0.0678253024816513
0.23121440410614014 0.28281697630882263 0.04036129638552666
0.23865170776844025 -0.13837596774101257 0.17002838850021362
0.06576279550790787 0.22236455976963043 0.1605028212070465
0.2805476784706116 0.4347134530544281 -0.07034360617399216
0.20474790036678314 0.22919809818267822 0.04313940554857254
-0.17226453125476837 0.47716382145881653 0.09058438986539841
-0.27778905630111694 0.17239980399608612 -0.3057221472263336
0.25361135601997375 0.3102094829082489 -0.029523340985178947
0.2227395623922348 0.17460307478904724 0.14869046211242676
-0.25879690051078796 0.049833137542009354 -0.311087042093277
0.12734092772006989 0.17435331642627716 0.14886586368083954
-0.2129027247428894 0.37565237283706665 0.106211356818676
0.2418670952320099 -0.0078118471428751945 0.16865579783916473
-0.2560059428215027 0.47157374024391174 0.09788799285888672
0.05278891697525978 0.2059278041124344 -0.17980945110321045
-0.2558715343475342 0.22759707272052765 0.035938605666160583
-0.18752695620059967 0.33440735936164856 -0.036762867122888565
0.28507307171821594 -0.2592276632785797 0.07702931016683578
-0.1753750890493393 0.31740543246269226 -0.3363838195800781
-0.22730129957199097 -0.25444185733795166 -0.04663247987627983
-0.018379606306552887 0.14485687017440796 -0.21252518892288208
-0.3358556032180786 -0.3423857092857361 0.18335621058940887
0.2864913046360016 -0.2167356014251709 0.15764257311820984
-0.26246875524520874 0.04477643966674805 0.15571655333042145
0.19790741801261902 0.3224823772907257 0.0354183129966259
0.08697127550840378 0.15498994290828705 0.16850973665714264
-0.21435673534870148 0.3423413634300232 -0.06291590631008148
0.29045408964157104 -0.1665855497121811 0.1570802628993988
-0.2947271764278412 -0.3753679096698761 0.20548966526985168
-0.006967185530811548 0.2710893154144287 -0.27836665511131287
0.2830510139465332 -0.37607935070991516 0.1521480828523636
-0.25643590092658997 0.1179179847240448 0.15581084787845612
0.18122640252113342 0.4465847611427307 0.09651797264814377
0.023933131247758865 0.2437020242214203 -0.25759491324424744
0.2937510013580322 -0.19603069126605988 0.1553548276424408
-0.2626037895679474 0.06735089421272278 -0.3149793744087219
0.049949172884225845 0.10784254223108292 -0.16022005677223206
-0.2668985426425934 -0.17447780072689056 -0.12641459703445435
-0.22863014042377472 -0.1338987946510315 0.15007223188877106
-0.22436128556728363 -0.28873613476753235 -0.06613972783088684
0.0527397021651268 0.2021411806344986 -0.21034738421440125
0.29348650574684143 0.34464138746261597 0.04966627433896065
0.25863802433013916 -0.35651445388793945 0.1506435126066208
-0.2622206211090088 -0.0009182686335407197 -0.3112837076187134
0.2966098487377167 -0.0009616371244192123 0.1515638828277588
0.29342636466026306 0.22640152275562286 -0.0540117472410202
0.2527024447917938 0.17332592606544495 0.14968881011009216
-0.22966895997524261 0.05687647685408592 0.1509561389684677
-0.029246598482131958 0.11418130993843079 -0.13575932383537292
0.29692643880844116 -0.2352057546377182 0.15306152403354645
-0.2562550902366638 0.05312126502394676 -0.2687583863735199
-0.25598031282424927 0.22699733078479767 -0.0252683088183403
0.2932145595550537 0.11609279364347458 0.15700171887874603
0.22231344878673553 -0.18243619799613953 0.1687919944524765
0.29915672540664673 0.10287322103977203 -0.13099652528762817
0.20561483502388 -0.24941013753414154 0.1406772881746292
-0.2583591341972351 0.46807461977005005 0.09808561950922012
-0.25244176387786865 -0.24246597290039062 0.1470852941274643
-0.2039867788553238 0.25001147389411926 0.048586346209049225
-0.03474173694849014 0.22672587633132935 -0.13380067050457
-0.2683368921279907 -0.24274630844593048 0.1572158932685852
-0.2054530829191208 0.2635250985622406 0.03742542862892151
0.26289045810699463 -0.44162142276763916 -0.07812177389860153
0.1974334418773651 0.22993645071983337 -0.13172706961631775
0.2594398558139801 -0.2399894893169403 -0.13322916626930237
-0.2862296998500824 -0.3840348720550537 -0.0893784761428833
-0.2503552734851837 -0.1854832023382187 0.1544809639453888
-0.27200037240982056 0.11041685193777084 -0.28096169233322144
-0.27584028244018555 -0.06562936305999756 -0.23641106486320496
0.24135541915893555 0.44950756430625916 -0.09114505350589752
0.2517243027687073 -0.24315711855888367 -0.13649071753025055
-0.048675552010536194 0.3173714876174927 -0.31092968583106995
-0.2645396590232849 -0.07278815656900406 -0.22146323323249817
0.297913521528244 0.2256070077419281 -0.1358877420425415
-0.2684512734413147 0.11434841901063919 -0.28152620792388916
-0.25617989897727966 0.00794564001262188 -0.23394934833049774
0.25836214423179626 0.4038833975791931 0.10928522795438766
-0.26936066150665283 -0.17237746715545654 -0.12426963448524475
-0.2430182695388794 0.42041289806365967 -0.07509402185678482
0.19535744190216064 0.45772138237953186 0.11025567352771759
0.28463685512542725 -0.008158605545759201 0.15410487353801727
-0.23110218346118927 -0.45104461908340454 0.15023072063922882
-0.18328824639320374 0.22897574305534363 -0.022821977734565735
0.027539843693375587 0.11975135654211044 -0.20665676891803741
0.21949708461761475 0.32195326685905457 -0.03054659441113472
-0.18227483332157135 0.49171414971351624 0.07995631545782089
-0.25594136118888855 0.2077038586139679 0.15435101091861725
-0.31458646059036255 -0.32097747921943665 0.1709662526845932
-0.22803713381290436 0.2849036455154419 0.03331833705306053
0.2933503985404968 -0.24482931196689606 -0.13315485417842865
-0.02195391058921814 0.2695481777191162 -0.27143049240112305
-0.27484697103500366 0.23934823274612427 -0.32227447628974915
-0.20146752893924713 0.4605521261692047 0.08867596089839935
-0.21418125927448273 0.36268869042396545 -0.07850080728530884
0.2915816307067871 0.45597630739212036 0.11978913843631744
-0.031030673533678055 0.2602750062942505 -0.24612410366535187
0.018590722233057022 0.2768081724643707 -0.23940320312976837
-0.27709367871284485 -0.38271939754486084 -0.09490633755922318
0.258988618850708 0.3745148479938507 0.12363991886377335
-0.2612082362174988 0.06107302010059357 0.15387336909770966
0.04162951931357384 0.2494286447763443 -0.24132463335990906
-0.19800768792629242 -0.2519916892051697 0.07911233603954315
0.11815060675144196 0.227041095495224 -0.13300450146198273
0.2627802789211273 0.01420372724533081 0.1550203561782837
0.2521710991859436 0.41245073080062866 -0.09312214702367783
-0.09860970079898834 0.32972028851509094 -0.326030433177948
0.25442108511924744 -0.24708141386508942 -0.13591516017913818
0.27868449687957764 -0.380758136510849 0.17065535485744476
-0.2580493092536926 -0.2524303197860718 -0.08998909592628479
-0.21591120958328247 -0.005058698356151581 0.16436828672885895
-0.24271279573440552 -0.2437407225370407 -0.12852320075035095
0.26220768690109253 -0.1431765854358673 0.15731386840343475
0.17253759503364563 -0.44258859753608704 -0.06194595992565155
-0.2780805230140686 0.17090921103954315 -0.33871355652809143
0.26694929599761963 0.24817651510238647 0.0012254699831828475
-0.023025261238217354 0.22838735580444336 -0.13386088609695435
-0.03176548331975937 0.22170346975326538 -0.2094551920890808
-0.21635179221630096 0.11572740972042084 0.1666625291109085
-0.061988458037376404 0.2171528935432434 0.15734951198101044
0.26705414056777954 0.3094194531440735 0.03943810984492302
0.10182802379131317 -0.24440118670463562 0.15589715540409088
-0.22719457745552063 -0.17254532873630524 0.15358546376228333
-0.2552728056907654 -0.2448064386844635 -0.1219426691532135
0.24682147800922394 0.447508305311203 -0.091566301882267
-0.034069254994392395 0.2646469473838806 -0.25442132353782654
0.25121527910232544 -0.43340691924095154 -0.08834938704967499
-0.17670388519763947 0.42558690905570984 0.09294509887695312
0.15918396413326263 -0.4407855272293091 0.17884758114814758
-0.24174806475639343 -0.40628933906555176 0.20039571821689606
0.173972487449646 0.1620863378047943 0.16658958792686462
-0.2586837112903595 -0.29886534810066223 0.0875464454293251
-0.1389157921075821 0.3406442701816559 -0.32428476214408875
-0.19669529795646667 0.3618001937866211 -0.07421132922172546
0.03029651753604412 0.18205121159553528 0.1543450504541397
0.18315662443637848 -0.2649793326854706 -0.03535696491599083
0.24864153563976288 0.515134334564209 0.003965056035667658
0.24706831574440002 -0.249188631772995 0.1486806720495224
0.256971538066864 -0.08173997700214386 0.15515407919883728
-0.2855350077152252 0.12791240215301514 -0.29948264360427856
0.21329744160175323 0.2993805706501007 -0.011561601422727108
-0.2661823332309723 -0.2481171041727066 -0.10535947233438492
0.2887711226940155 -0.4292364716529846 0.17021241784095764
0.28667163848876953 -0.09886152297258377 -0.13844642043113708
-0.3335765600204468 -0.3511650264263153 0.12319526076316833
0.20636241137981415 -0.39473778009414673 0.18456633388996124
0.2977519929409027 0.013102250173687935 0.15608084201812744
0.22328931093215942 -0.43316030502319336 -0.08734511584043503
-0.15563540160655975 -0.24687346816062927 0.152768075466156
0.06289618462324142 0.1556304544210434 -0.1355631798505783
-0.23624755442142487 0.40319880843162537 0.09720019996166229
-0.06069165840744972 0.16911104321479797 0.15828640758991241
-0.2658468186855316 -0.3465108871459961 -0.082044318318367
0.22540993988513947 -0.25262463092803955 -0.04864992946386337
-0.2751891314983368 -0.3512270748615265 0.19153934717178345
-0.24721300601959229 0.2798749804496765 -0.3305017948150635
-0.2423255741596222 -0.476847380399704 -0.03030708059668541
