0.2403937727212906 -0.17930763959884644 0.1672046184539795
-0.265289843082428 0.21864402294158936 -0.1049516424536705
0.27897366881370544 -0.44372886419296265 0.18815521895885468
0.19681499898433685 -0.26503047347068787 -0.04267986863851547
0.19908438622951508 -0.4409855008125305 0.19645379483699799
-0.2228216826915741 0.5022236108779907 0.05151398107409477
-0.15137922763824463 -0.2679561376571655 -0.011540137231349945
0.2599153518676758 0.5105399489402771 0.0019531790167093277
0.1863563507795334 -0.249883770942688 -0.1319768875837326
0.2462977021932602 -0.41127169132232666 -0.08713897317647934
-0.24347887933254242 -0.24987086653709412 0.05440380796790123
0.2546148896217346 -0.44383183121681213 -0.024099521338939667
-0.1714455485343933 0.1554444134235382 0.16860388219356537
0.20105990767478943 -0.25204917788505554 0.1463254690170288
0.041638705879449844 0.08513949066400528 -0.13502341508865356
-0.29640501737594604 -0.4554861783981323 -0.06512438505887985
0.23223832249641418 -0.18275822699069977 0.1671132594347
0.15751172602176666 -0.42673060297966003 0.17762793600559235
-0.11197131872177124 0.21632133424282074 -0.13516239821910858
0.29565179347991943 -0.21245455741882324 -0.12224534898996353
0.2939172685146332 0.22218483686447144 0.06422650814056396
-0.011607198044657707 0.2188107967376709 -0.16896575689315796
0.18093737959861755 0.43131524324417114 -0.013941915705800056
0.1530693918466568 -0.44546636939048767 0.05782946199178696
-0.24680663645267487 0.36590373516082764 0.10960470139980316
-0.03125015273690224 0.14584994316101074 -0.20151151716709137
0.2917155921459198 -0.22673673927783966 0.15710413455963135
0.2961503565311432 0.22387227416038513 -0.09403575956821442
-0.32801881432533264 -0.389790803194046 0.0721549466252327
-0.2916797995567322 -0.3791806697845459 -0.08454599976539612
0.25167912244796753 0.22656509280204773 -0.1246877908706665
0.29381656646728516 -0.039833229035139084 0.15549854934215546
-0.2050272524356842 -0.20290741324424744 0.15550479292869568
0.04633069783449173 0.20254218578338623 -0.13484767079353333
0.15213046967983246 -0.3816084563732147 0.14039117097854614
-0.16628387570381165 -0.17580246925354004 0.17060494422912598
0.2554338574409485 -0.3544680178165436 0.15171946585178375
-0.266448974609375 -0.001009989995509386 -0.13269712030887604
0.285325288772583 -0.17067259550094604 -0.13289351761341095
-0.04511704295873642 0.14896821975708008 0.16959939897060394
0.29746389389038086 -0.24418967962265015 0.13414399325847626
0.01805710792541504 -0.22202333807945251 -0.13192445039749146
-0.18990711867809296 0.2282441407442093 -0.08786040544509888
0.1793896108865738 0.4452381432056427 0.06274737417697906
-0.18423844873905182 -0.24972806870937347 -0.12734746932983398
-0.2684660851955414 0.022844165563583374 -0.13372525572776794
0.29732102155685425 0.22255556285381317 0.004866467788815498
0.29683002829551697 0.15907806158065796 -0.1263837069272995
0.2434796392917633 -0.4032491147518158 -0.09094325453042984
0.12813881039619446 0.1651446372270584 0.15813153982162476
0.23006516695022583 0.22816605865955353 0.0632767379283905
-0.2714563310146332 -0.10890866070985794 -0.12878677248954773
-0.26231324672698975 -0.25144481658935547 -0.06736801564693451
-0.2702482044696808 0.024199828505516052 -0.13302353024482727
0.23522919416427612 0.05529101565480232 0.17054907977581024
0.29310256242752075 -0.02474132925271988 0.14895552396774292
-0.25995033979415894 -0.2541603446006775 -0.0950343981385231
-0.27093106508255005 0.01712910458445549 0.14434926211833954
-0.2700802683830261 -0.23976540565490723 -0.05510298162698746
-0.2604405879974365 -0.25099629163742065 -0.018661044538021088
-0.27097025513648987 0.037926167249679565 0.14758867025375366
0.21756213903427124 -0.32267963886260986 -0.0788024514913559
-0.2598874568939209 0.1862320899963379 0.1558033525943756
0.25491857528686523 0.2318214774131775 -0.02606995962560177
0.1818099021911621 -0.24879951775074005 0.15634581446647644
0.29389816522598267 -0.15959976613521576 0.14888831973075867
0.27924659848213196 -0.443052738904953 0.08238992840051651
0.28780049085617065 0.09102755784988403 -0.13601148128509521
-0.024132531136274338 0.17357811331748962 -0.13529184460639954
-0.2652478814125061 -0.13887575268745422 -0.13363663852214813
0.2828198969364166 -0.24063406884670258 -0.1323472559452057
0.24560998380184174 -0.24560697376728058 0.1495804637670517
0.17255745828151703 -0.19640904664993286 -0.13262808322906494
0.10946314036846161 -0.20165659487247467 0.15488874912261963
0.04641023650765419 0.16484789550304413 0.15675336122512817
-0.26369157433509827 -0.329719215631485 -0.07476271688938141
-0.2698292136192322 -0.2115802764892578 -0.13032075762748718
0.037637706845998764 -0.1802174150943756 0.16932138800621033
-0.2676931619644165 -0.0202413909137249 -0.06604266911745071
-0.22662152349948883 0.08289886265993118 0.15329718589782715
-0.2180817425251007 -0.08471081405878067 -0.13207468390464783
-0.15733079612255096 -0.24972914159297943 0.14797185361385345
0.12594875693321228 -0.2489631026983261 -0.12233704328536987
0.28830528259277344 0.20975789427757263 -0.13536445796489716
-0.0523640438914299 -0.016848742961883545 -0.13354583084583282
0.24680060148239136 -0.3368600308895111 0.13272587954998016
-0.261734277009964 -0.16740743815898895 -0.1336686909198761
0.28483840823173523 -0.14582177996635437 -0.13407471776008606
0.29754406213760376 -0.02986137755215168 -0.08959397673606873
0.2989811599254608 -0.2411327362060547 0.0008503161370754242
0.22056502103805542 0.49168819189071655 -0.05312695354223251
-0.15747705101966858 -0.2395542711019516 0.1583043336868286
-0.22119861841201782 0.17025500535964966 0.15241310000419617
0.232743039727211 -0.17151352763175964 0.16861604154109955
0.036569710820913315 -0.05674898624420166 -0.1340440958738327
-0.27092990279197693 -0.24616310000419617 -0.13087044656276703
-0.28952062129974365 -0.37316858768463135 -0.0831441879272461
-0.21835997700691223 -0.4530567228794098 0.12355462461709976
0.24584627151489258 0.409486323595047 -0.09299422055482864
-0.2685976028442383 0.21508462727069855 -0.11887455731630325
0.19458112120628357 0.43019551038742065 0.11321219801902771
-0.22672228515148163 0.13583816587924957 0.15187880396842957
0.1127789095044136 -0.18347512185573578 0.16772077977657318
-0.26854923367500305 0.0488756038248539 -0.13291676342487335
-0.24693343043327332 0.436994731426239 0.1129918321967125
-0.12894144654273987 0.2272634655237198 -0.12402308732271194
0.2078128606081009 0.4514840841293335 0.10146583616733551
0.20267632603645325 -0.251716673374176 -0.12170601636171341
0.277321994304657 -0.4418811500072479 0.06449954211711884
-0.3223554491996765 -0.42475393414497375 -0.05814965441823006
0.2221965491771698 0.2269943505525589 -0.10497377812862396
0.2845883369445801 0.13608413934707642 -0.13339808583259583
-0.2699944078922272 -0.1428074985742569 -0.12605606019496918
-0.338121622800827 -0.37890517711639404 0.02457326091825962
0.2170286327600479 0.1701985001564026 -0.1347149759531021
0.29591402411460876 -0.08092134445905685 -0.1270749568939209
0.28074753284454346 -0.433895468711853 -0.03196122124791145
-0.13959041237831116 0.22752916812896729 -0.09458993375301361
-0.3336346745491028 -0.34865838289260864 0.10636600852012634
0.20421206951141357 0.37348392605781555 -0.06430333107709885
-0.28949636220932007 -0.4233853816986084 0.07029745727777481
-0.15466780960559845 0.22927387058734894 0.1478717178106308
-0.2699063718318939 0.16114981472492218 0.1410897821187973
0.17265039682388306 -0.2564634382724762 0.03223024308681488
0.13496072590351105 -0.4348549544811249 0.06572388112545013
-0.26851895451545715 -0.08022665977478027 -0.13215848803520203
-0.22381691634655 -0.4615672826766968 0.10466907173395157
-0.27055925130844116 0.1114434227347374 -0.132073312997818
-0.1246732547879219 -0.24956786632537842 -0.1240328699350357
-0.2617146968841553 -0.2523021996021271 -0.058192115277051926
-0.2608555853366852 -0.06272643804550171 0.1570243239402771
0.2567710280418396 0.22818517684936523 0.07298602908849716
-0.16906188428401947 0.46245837211608887 0.0976678654551506
-0.2335730493068695 -0.2877284288406372 -0.062314994633197784
0.28771650791168213 -0.1535157561302185 -0.13285726308822632
-0.029351528733968735 0.16598373651504517 0.15698276460170746
-0.22972245514392853 0.027492696419358253 0.15402285754680634
-0.27031898498535156 0.1733991801738739 0.14420190453529358
-0.23303158581256866 -0.24351295828819275 -0.13202133774757385
-0.001408652402460575 0.1467069685459137 0.16975481808185577
0.17046482861042023 -0.4354453384876251 -0.05761473625898361
-0.11993031948804855 0.1574329435825348 0.16529153287410736
0.2934229075908661 0.22531698644161224 0.0012037698179483414
-0.27006909251213074 -0.030655071139335632 -0.13591790199279785
0.2864283323287964 -0.20953670144081116 0.15667837858200073
0.2789066433906555 0.456552654504776 0.12237115204334259
0.2416323721408844 -0.33799269795417786 -0.08164986968040466
-0.26879099011421204 0.04431639239192009 -0.07782277464866638
-0.2667429447174072 0.04947076737880707 0.026464756578207016
-0.02033330500125885 -0.2412891685962677 0.1592133641242981
-0.20607316493988037 0.03773918002843857 0.17041611671447754
0.23760986328125 -0.013180134817957878 0.16918301582336426
-0.3006751239299774 -0.395021915435791 -0.0839652493596077
0.2277827262878418 -0.20344474911689758 0.1551072895526886
0.2776041328907013 0.22806884348392487 -0.12512081861495972
0.24080003798007965 0.31272056698799133 -0.031081411987543106
-0.10587535053491592 -0.24932867288589478 0.11640949547290802
0.13955500721931458 -0.4174489974975586 0.004460768308490515
-0.052485574036836624 0.2288534939289093 -0.12086468189954758
-0.27271151542663574 -0.2238004058599472 0.14337733387947083
0.2870922386646271 0.17645753920078278 -0.1350586861371994
-0.16210049390792847 -0.33013734221458435 -0.01066936831921339
0.08279311656951904 0.15206249058246613 0.16829030215740204
0.17238955199718475 0.171784445643425 0.15254373848438263
-0.2165951281785965 0.019626140594482422 0.1657944619655609
0.16127091646194458 0.01042194478213787 0.17033575475215912
0.28543898463249207 0.1661491096019745 -0.13468767702579498
-0.24456492066383362 -0.47599753737449646 0.007723839487880468
0.10358522087335587 0.17546513676643372 0.15467970073223114
-0.28228721022605896 -0.3872729539871216 0.20428308844566345
-0.09585228562355042 -0.24768631160259247 0.15425720810890198
-0.26863810420036316 -0.2509687840938568 -0.13157743215560913
0.296975314617157 0.17292657494544983 0.14796729385852814
-0.17249992489814758 0.2281751185655594 0.04860645905137062
0.29347702860832214 0.22112801671028137 -0.12398800253868103
-0.09129742532968521 -0.17967088520526886 0.1701553910970688
0.2970922887325287 0.22342918813228607 -0.010550128296017647
-0.09043627232313156 -0.24131032824516296 -0.133518248796463
-0.2787151634693146 -0.315960556268692 0.13781799376010895
-0.1957208514213562 -0.2685033082962036 0.07638586312532425
0.29784950613975525 -0.24220333993434906 -0.08015437424182892
0.20588603615760803 -0.20463521778583527 0.15563127398490906
-0.26476848125457764 -0.37379008531570435 -0.09328417479991913
-0.22931325435638428 -0.06321623921394348 0.15371397137641907
0.24682104587554932 -0.10823632776737213 0.16329187154769897
-0.07442839443683624 -0.1803390085697174 0.16933023929595947
-0.2782025933265686 -0.38780274987220764 0.20323780179023743
0.2965960204601288 0.17645974457263947 -0.12410032749176025
0.295680969953537 0.00026538874953985214 0.1507548689842224
-0.2471124231815338 -0.39207056164741516 0.19806654751300812
0.20421487092971802 0.23025426268577576 0.06916818022727966
0.29103928804397583 0.013070926070213318 -0.13286228477954865
0.13128581643104553 0.21223193407058716 0.15699823200702667
0.2887229919433594 -0.1764138787984848 -0.13178788125514984
0.24938341975212097 0.22896318137645721 -0.03497067838907242
0.2547640800476074 -0.09559102356433868 0.15458428859710693
-0.2711895704269409 -0.048906151205301285 -0.12120543420314789
-0.006923058535903692 -0.2050601840019226 0.1561822146177292
-0.0721370130777359 0.05356490612030029 -0.13276098668575287
-0.25946706533432007 0.11729095876216888 -0.1344597190618515
0.18323814868927002 -0.25505968928337097 -0.03292207047343254
0.2896985113620758 0.1789264976978302 -0.13443055748939514
0.19745542109012604 0.34255823493003845 0.06619635224342346
0.07839902490377426 0.12490494549274445 -0.13479657471179962
0.28500306606292725 0.0009159911423921585 0.15618787705898285
-0.22720769047737122 0.050781335681676865 0.15164317190647125
0.29611867666244507 0.06688734889030457 0.1501140594482422
0.2868736684322357 -0.23527516424655914 -0.13297629356384277
0.09082929790019989 -0.24414321780204773 0.157195046544075
0.2609379291534424 -0.4280090034008026 -0.07692994922399521
0.2890842854976654 -0.20541417598724365 0.1561744660139084
-0.22287066280841827 0.5044326782226562 0.023156384006142616
0.23515436053276062 0.05871867761015892 0.17015781998634338
0.16545715928077698 -0.1968792974948883 0.1533135324716568
-0.09144210815429688 0.17595705389976501 0.15387625992298126
-0.2676888704299927 0.0937507301568985 -0.13301879167556763
0.263203501701355 -0.3493744134902954 -0.07387063652276993
-0.26930224895477295 0.21763652563095093 0.13611724972724915
0.2709639072418213 -0.44223731756210327 -0.007868312299251556
-0.24629084765911102 0.008134105242788792 -0.2620558440685272
-0.30198240280151367 -0.32576218247413635 0.18252551555633545
-0.2683270275592804 0.12110176682472229 0.15529920160770416
-0.24432717263698578 0.39736640453338623 -0.06927202641963959
-0.2722695767879486 0.039167918264865875 -0.13095620274543762
0.298019140958786 -0.13589242100715637 -0.056965745985507965
-0.1665804386138916 0.36124905943870544 0.08580261468887329
0.29723232984542847 0.14409086108207703 0.015968233346939087
0.1277499496936798 0.22870692610740662 0.002651671878993511
0.15579435229301453 -0.44631269574165344 0.1557077169418335
0.2514807879924774 -0.28518128395080566 0.07392967492341995
0.24585480988025665 -0.25278058648109436 -0.02245223894715309
-0.14496049284934998 0.2205025851726532 -0.13491353392601013
-0.15119668841362 0.2266668975353241 -0.12845206260681152
0.23062746226787567 0.01267842948436737 -0.1352783888578415
-0.1296774446964264 0.14896993339061737 0.17016398906707764
-0.07915441691875458 -0.24755904078483582 0.15503673255443573
0.29105645418167114 -0.0678202211856842 0.15616947412490845
0.29126083850860596 0.04434489086270332 -0.13329480588436127
0.08581714332103729 -0.24907226860523224 -0.11852235347032547
-0.2689075469970703 -0.12809091806411743 -0.13020700216293335
-0.1625833511352539 0.3440023362636566 0.009499686770141125
-0.1550174057483673 -0.31072112917900085 0.01441061682999134
0.27215486764907837 -0.4429669976234436 0.19295497238636017
0.0014505190774798393 0.17654693126678467 0.15410001575946808
-0.2777949273586273 -0.3960525691509247 -0.09328530728816986
0.2953364849090576 0.11835701018571854 -0.1222938671708107
-0.2676585614681244 0.22661226987838745 0.050901174545288086
0.26497557759284973 -0.4454318881034851 0.1820964366197586
0.2631661295890808 -0.4028651714324951 -0.07648908346891403
-0.23330651223659515 -0.25365522503852844 -0.030156053602695465
0.0615183562040329 0.18134263157844543 -0.16181258857250214
-0.2958429157733917 -0.3261317312717438 0.03045632876455784
-0.2567048966884613 -0.24754704535007477 0.15532273054122925
-0.32745084166526794 -0.41782084107398987 -0.02778640016913414
0.09122049808502197 -0.25236639380455017 0.15595780313014984
-0.2693871855735779 -0.06158586964011192 0.14572271704673767
0.2967245280742645 -0.11249354481697083 -0.12273278832435608
-0.0281025730073452 -0.2501468062400818 -0.11890652030706406
-0.2685512900352478 -0.14787112176418304 -0.13142967224121094
-0.22868648171424866 0.228293314576149 0.14219914376735687
0.09066973626613617 -0.24834880232810974 0.14791691303253174
-0.2606157064437866 0.22973288595676422 -0.08226685225963593
0.2681860029697418 0.33235740661621094 0.06010425090789795
0.28947752714157104 -0.09530223906040192 -0.13262006640434265
0.06361210346221924 -0.182447612285614 0.16861192882061005
-0.23641709983348846 -0.34081584215164185 -0.08504758775234222
0.29541122913360596 0.18027591705322266 -0.12852661311626434
-0.26625439524650574 0.22893887758255005 -0.04860251769423485
-0.14287379384040833 0.22556690871715546 -0.1273244023323059
-0.2516936957836151 0.2360522300004959 0.014730852097272873
-0.20668631792068481 0.15221910178661346 0.16903281211853027
0.13650523126125336 0.21344037353992462 -0.13458465039730072
0.1975107192993164 -0.24239026010036469 0.15607231855392456
0.1996365189552307 -0.17819082736968994 -0.13264068961143494
-0.23950371146202087 0.4209100306034088 -0.07298432290554047
0.29009655117988586 0.34912168979644775 0.08768220245838165
0.0008067204616963863 0.11096342653036118 -0.1910204440355301
-0.21403366327285767 -0.4214143455028534 0.16218286752700806
-0.1768546849489212 -0.2370665818452835 -0.136239156126976
0.22948621213436127 -0.17053817212581635 0.16932280361652374
0.16029220819473267 0.2273099273443222 -0.12338542938232422
-0.26916879415512085 -0.20390236377716064 -0.13275034725666046
0.22639155387878418 0.22940409183502197 0.1329309046268463
0.017220254987478256 0.08680866658687592 -0.13605937361717224
0.1570001244544983 0.2231622338294983 0.15513162314891815
0.2526799440383911 -0.25571951270103455 0.03526249900460243
0.2224738448858261 0.3225778341293335 -0.031563110649585724
-0.033853285014629364 0.17010095715522766 -0.13599970936775208
0.2964795231819153 -0.07623329758644104 0.07860478013753891
-0.2700361907482147 -0.19430166482925415 -0.12708008289337158
0.24102474749088287 -0.18097177147865295 0.16812948882579803
-0.2332775890827179 0.23107513785362244 -0.026388205587863922
-0.0007582064718008041 -0.24323028326034546 0.15765641629695892
0.2993945777416229 0.441356897354126 0.087614044547081
0.03146446868777275 -0.24771645665168762 -0.12465555965900421
0.25493380427360535 -0.2618776559829712 0.028686095029115677
0.10260435193777084 -0.251740962266922 0.15233637392520905
0.20416396856307983 0.4416348338127136 0.10289772599935532
-0.23180747032165527 -0.302048921585083 0.09484696388244629
0.186111718416214 -0.2545945346355438 0.07014763355255127
0.2889482080936432 0.22180426120758057 -0.13360409438610077
-0.23641765117645264 -0.24036160111427307 -0.1317475140094757
0.2987551987171173 0.16357266902923584 -0.1255212426185608
-0.26847273111343384 -0.004403260070830584 -0.13172630965709686
0.259600967168808 0.17018350958824158 0.15377390384674072
-0.21554628014564514 0.02525547333061695 0.16753388941287994
0.28959497809410095 0.08237239718437195 0.15627072751522064
0.2843165099620819 0.48065289855003357 0.10377944260835648
-0.2694239914417267 -0.14223605394363403 -0.12678518891334534
-0.26633742451667786 0.05163702368736267 0.15578870475292206
-0.17841531336307526 0.3151257038116455 -0.005227298941463232
0.24790418148040771 0.231276735663414 0.05674291029572487
0.045792412012815475 0.2151578664779663 -0.2287711203098297
0.28741440176963806 0.1608573943376541 -0.1343248188495636
0.29655012488365173 -0.07859118282794952 0.14502957463264465
0.28257089853286743 -0.1647544652223587 -0.1338413506746292
0.285109281539917 0.10503184795379639 -0.1354052871465683
0.2646388113498688 -0.3136155605316162 -0.05272306501865387
-0.20687749981880188 -0.24444930255413055 -0.13527154922485352
0.2932184040546417 -0.041397642344236374 0.15583644807338715
0.29566872119903564 -0.24318526685237885 -0.06802085041999817
0.2796512246131897 -0.35082629323005676 0.0904490053653717
-0.2113349735736847 0.011387709528207779 0.16997030377388
-0.2263939082622528 -0.09702953696250916 0.15248577296733856
0.0689828172326088 -0.2465863972902298 0.15553709864616394
-0.26094043254852295 -0.12106699496507645 -0.133536696434021
0.13824081420898438 -0.20592457056045532 0.15510344505310059
-0.26875630021095276 0.09588880836963654 -0.13303636014461517
-0.2691933810710907 -0.17360958456993103 -0.13262900710105896
0.11219171434640884 -0.24838748574256897 -0.12330084294080734
-0.22575554251670837 -0.43210774660110474 0.17632344365119934
0.14846570789813995 -0.44416141510009766 0.09312958270311356
-0.21922922134399414 -0.030219871550798416 0.16140511631965637
-0.26877376437187195 -0.1425897479057312 -0.1320587545633316
0.2906929850578308 -0.0359966978430748 -0.13270030915737152
0.026729155331850052 0.22808192670345306 0.145226389169693
0.2970104515552521 0.04114343598484993 -0.11960247904062271
-0.2126748263835907 -0.06568165123462677 0.1714247316122055
-0.2694440186023712 0.0864519476890564 0.15449754893779755
-0.04030507057905197 -0.24761740863323212 -0.12648315727710724
-0.26894158124923706 -0.1580999791622162 0.14906349778175354
0.09927644580602646 0.15268781781196594 0.16836832463741302
-0.0993032306432724 -0.04184415191411972 -0.13295671343803406
-0.19910788536071777 -0.1889091581106186 0.16577138006687164
0.04258658364415169 0.22752168774604797 -0.12251628190279007
-0.04235082492232323 0.22802414000034332 -0.1225525289773941
-0.024752698838710785 0.18361608684062958 -0.134474977850914
0.292491614818573 0.22518813610076904 -0.11865158379077911
-0.021873218938708305 0.15016649663448334 0.16957177221775055
-0.26595404744148254 -0.07121820002794266 -0.13291168212890625
0.2881859540939331 0.19174081087112427 -0.1341165453195572
0.29630592465400696 -0.24025315046310425 0.13341709971427917
-0.19715532660484314 0.22781024873256683 -0.12177333235740662
-0.271943598985672 -0.0830325111746788 -0.12167626619338989
-0.16144058108329773 0.05647216737270355 0.1694602519273758
0.07569298148155212 -0.24737119674682617 -0.11966663599014282
0.031032588332891464 0.11761181056499481 -0.2040814459323883
-0.01457768864929676 0.15837834775447845 -0.13618050515651703
-0.25473690032958984 -0.24915876984596252 0.009815581142902374
-0.2686031758785248 0.22578881680965424 0.09967725723981857
0.1761820912361145 -0.2459617555141449 0.15679512917995453
-0.24067315459251404 -0.3171218931674957 -0.07608267664909363
-0.2618945240974426 0.22670049965381622 -0.07447618991136551
-0.26856887340545654 0.05364478379487991 -0.11659777909517288
0.03534521907567978 0.23872871696949005 -0.2504122853279114
-0.27144742012023926 -0.2269410938024521 -0.13401280343532562
-0.26654762029647827 0.4251616597175598 0.10344067215919495
-0.2361045628786087 -0.4708375036716461 0.052427977323532104
0.2839948832988739 -0.443928986787796 0.12759757041931152
0.053108494728803635 -0.23770658671855927 0.15835171937942505
-0.2062404900789261 0.251390665769577 0.0484594888985157
0.2899487316608429 -0.17016160488128662 0.15608076751232147
0.29476121068000793 -0.08711773157119751 0.15718087553977966
-0.1003904789686203 0.22660626471042633 0.04830525070428848
0.11067037284374237 -0.1896798014640808 0.15602265298366547
-0.2705344259738922 0.21702323853969574 0.10599204152822495
-0.21085533499717712 0.49844133853912354 0.09962807595729828
-0.17159008979797363 -0.2373000979423523 -0.13421723246574402
-0.09502246975898743 0.227202907204628 -0.1278708279132843
0.28570517897605896 -0.2521326541900635 0.09610579162836075
0.2716318964958191 -0.4456882178783417 0.1685541719198227
0.16421520709991455 -0.4011950194835663 0.17842034995555878
-0.26771432161331177 -0.06410372257232666 0.04250907897949219
0.19290240108966827 -0.2491883635520935 -0.04745686426758766
-0.2676721215248108 -0.09441395103931427 -0.0913921669125557
0.22326111793518066 -0.4240695536136627 0.20661869645118713
0.25397565960884094 -0.17626041173934937 0.15429061651229858
-0.23888620734214783 0.37266969680786133 0.11450007557868958
0.19550999999046326 -0.44380655884742737 0.19515147805213928
-0.26895231008529663 -0.12948592007160187 -0.13106511533260345
-0.14457149803638458 -0.2573257088661194 0.0033537382259964943
-0.2694686949253082 -0.17443902790546417 -0.1268160194158554
-0.2448333501815796 -0.47848933935165405 -0.008120241574943066
0.2957369089126587 -0.0949375107884407 0.14813821017742157
0.06552484631538391 -0.18730488419532776 0.16553983092308044
-0.21921852231025696 0.23420938849449158 0.05475235730409622
0.14939990639686584 -0.4441242814064026 0.038260992616415024
-0.18167388439178467 0.23076386749744415 -0.12765878438949585
-0.3358422517776489 -0.35467129945755005 0.1630491018295288
0.0601269006729126 -0.18290933966636658 0.16829122602939606
0.2983735203742981 0.16987431049346924 -0.1348000317811966
0.21638959646224976 -0.26581689715385437 0.07509918510913849
0.2936205267906189 0.22222401201725006 0.09073017537593842
-0.21747125685214996 0.22807975113391876 0.06535166501998901
-0.2704910635948181 0.17606723308563232 0.1433165967464447
0.2915906310081482 0.14281423389911652 -0.13454623520374298
0.16193720698356628 -0.18500353395938873 0.16777494549751282
-0.18008433282375336 0.27068084478378296 0.0218617282807827
0.2604917287826538 0.2281152456998825 -0.12571068108081818
0.2059628963470459 -0.4426015317440033 -0.06774900108575821
0.2914349436759949 -0.25099554657936096 -0.07282150536775589
0.29073071479797363 0.028978727757930756 -0.1339552253484726
0.020655348896980286 0.22670383751392365 -0.13095274567604065
-0.12064754962921143 -0.2393123358488083 0.15710656344890594
0.2542031407356262 -0.2424435317516327 -0.13251745700836182
-0.21099963784217834 0.18362116813659668 0.1543079912662506
-0.271844744682312 -0.11654311418533325 0.11175237596035004
-0.2198467254638672 -0.47246357798576355 0.04299972578883171
0.06567732989788055 0.18825262784957886 -0.13748469948768616
-0.07830384373664856 0.21174073219299316 0.15680153667926788
-0.21413695812225342 -0.16123215854167938 0.16942401230335236
-0.2635315954685211 -0.46668490767478943 -0.0606490783393383
-0.2712359130382538 0.02359934151172638 0.1458067148923874
-0.2419363409280777 0.3134268522262573 -0.006105158478021622
0.297256201505661 -0.06966466456651688 -0.1206447035074234
-0.2810695171356201 -0.3496672511100769 0.1970544308423996
0.23907148838043213 -0.0816546306014061 0.16981148719787598
0.2555798888206482 -0.25112372636795044 0.012948926538228989
-0.24722082912921906 0.2313644140958786 0.04514551907777786
0.25737079977989197 -0.32389283180236816 -0.06982691586017609
0.2741534411907196 -0.4448254108428955 0.002452181652188301
-0.2859131991863251 0.09277617931365967 -0.30232587456703186
0.19145327806472778 0.43052974343299866 0.11416779458522797
-0.27867045998573303 -0.06967031210660934 -0.2667737603187561
-0.22208699584007263 -0.17152151465415955 0.16110755503177643
0.1781967431306839 -0.20102395117282867 0.15459300577640533
-0.17123885452747345 0.013202724978327751 0.16946649551391602
0.29338812828063965 -0.18548321723937988 0.15510588884353638
-0.22101235389709473 0.3332776427268982 -0.04188363626599312
0.30133146047592163 0.4440467655658722 0.0399995818734169
-0.10239438712596893 0.21705231070518494 -0.13745243847370148
0.13152718544006348 0.22738301753997803 0.14031270146369934
-0.32727566361427307 -0.41469767689704895 -0.04859725385904312
-0.2678765654563904 0.017245445400476456 -0.1303807944059372
-0.27233341336250305 -0.012272277846932411 -0.12593604624271393
0.17561160027980804 -0.2528017461299896 -0.010017997585237026
0.2150086611509323 0.5115769505500793 0.071734219789505
-0.26621124148368835 -0.14438751339912415 0.15680310130119324
0.11693650484085083 0.22770176827907562 -0.129941925406456
0.13799706101417542 -0.438991516828537 0.08154574036598206
-0.24479615688323975 0.49511584639549255 0.04918032884597778
-0.18207812309265137 0.3309030532836914 0.037722352892160416
-0.19772672653198242 0.15705402195453644 0.16952919960021973
-0.2673279941082001 -0.09857387840747833 -0.13094952702522278
0.05480615049600601 -0.12125471234321594 0.1714608073234558
-0.33139854669570923 -0.41374993324279785 -0.04271543771028519
-0.0641326904296875 -0.03858863562345505 0.17003288865089417
0.22844430804252625 -0.27458110451698303 -0.06057007983326912
0.2983975112438202 0.16384190320968628 0.09479668736457825
0.25693923234939575 -0.07193055748939514 0.15343622863292694
0.29513612389564514 -0.10242544859647751 0.15537706017494202
0.29754993319511414 0.21394741535186768 0.06887941062450409
-0.2738572359085083 -0.06510889530181885 -0.1233842745423317
-0.18566250801086426 -0.27471062541007996 -0.048577480018138885
0.24357134103775024 -0.24152259528636932 -0.13275925815105438
0.24821403622627258 -0.3213992118835449 0.11762256920337677
-0.2565852999687195 -0.24844151735305786 0.019158221781253815
-0.29379186034202576 -0.37876957654953003 0.20273754000663757
0.04326832294464111 -0.24833808839321136 -0.1219957023859024
0.2493918240070343 0.09775758534669876 0.1587969809770584
0.2968350052833557 -0.09681694209575653 -0.1241421028971672
-0.06280604004859924 -0.021106062456965446 0.17009375989437103
0.2709735929965973 -0.33210012316703796 0.10255637764930725
-0.33795487880706787 -0.35646629333496094 0.14919672906398773
-0.04566819220781326 0.12849830090999603 -0.13494406640529633
-0.25852662324905396 -0.12988275289535522 -0.1341523677110672
-0.2140214741230011 -0.03536928445100784 0.16733196377754211
-0.270319402217865 -0.099659763276577 -0.13256677985191345
0.13833504915237427 -0.3890783190727234 0.0965173989534378
0.28330740332603455 -0.37385645508766174 0.047292474657297134
-0.18845397233963013 -0.2765105664730072 -0.048548340797424316
0.25920355319976807 -0.026861805468797684 0.1541263908147812
-0.20882603526115417 -0.23920296132564545 -0.13421779870986938
0.0018173102289438248 0.22755266726016998 -0.119990773499012
-0.25423988699913025 0.33903488516807556 -0.009875033982098103
-0.13605615496635437 -0.24175865948200226 0.1554037630558014
-0.18406935036182404 -0.26350823044776917 0.07338110357522964
0.05667058005928993 0.19888561964035034 -0.1359756737947464
0.24651840329170227 -0.41759034991264343 -0.08997461944818497
-0.2697271704673767 -0.21175429224967957 -0.13273154199123383
-0.00018894905224442482 0.25957417488098145 -0.2676316201686859
-0.14735707640647888 0.15454277396202087 0.16799402236938477
0.06768175214529037 0.2266329675912857 0.1540285050868988
0.18233296275138855 0.22687041759490967 -0.12912417948246002
0.20372608304023743 0.4286910891532898 0.10185320675373077
-0.013390665873885155 0.290700227022171 -0.2403915673494339
-0.20870253443717957 0.16698870062828064 0.16097331047058105
0.2223246693611145 0.5048074126243591 0.11391997337341309
0.061321958899497986 0.1977648288011551 -0.1716092973947525
-0.26126375794410706 -0.3144236207008362 0.12523500621318817
0.01480497419834137 0.1905738115310669 -0.1353251039981842
0.0292122233659029 0.23195600509643555 -0.24627161026000977
0.03474876284599304 -0.18167027831077576 -0.13289563357830048
-0.2379157543182373 -0.47765374183654785 0.02185906656086445
-0.23541387915611267 -0.24625451862812042 -0.1327389031648636
0.29243576526641846 0.20035138726234436 -0.13406845927238464
-0.2658970057964325 0.009430596604943275 0.1558673083782196
-0.26738518476486206 0.1889081746339798 -0.1243496909737587
-0.2238055318593979 -0.46270447969436646 0.09357473254203796
-0.17090922594070435 0.39945974946022034 0.10235270857810974
0.2922789752483368 0.0829293504357338 -0.1337442547082901
0.29861682653427124 -0.0024137720465660095 -0.005777569487690926
-0.2590888440608978 0.3498706817626953 0.06443323940038681
0.26249098777770996 0.06937059015035629 0.15633615851402283
0.2582593858242035 -0.08671221137046814 0.15466555953025818
0.2813716530799866 -0.4326291084289551 -0.04194490611553192
0.2871646285057068 0.1888352334499359 -0.1345335841178894
-0.11416999995708466 -0.2504326403141022 0.14519646763801575
0.19993197917938232 0.3254815638065338 0.0300835520029068
-0.267821341753006 -0.1881798654794693 -0.1330985426902771
-0.24424679577350616 -0.11451757699251175 -0.1332903653383255
0.2969297468662262 -0.1961214244365692 -0.12970618903636932
0.2720806896686554 -0.4277256727218628 -0.06962377578020096
-0.19209277629852295 -0.16358330845832825 0.17177242040634155
0.29553842544555664 -0.03032848984003067 -0.11699993163347244
0.2605915665626526 0.4027295708656311 0.10788290947675705
-0.27005934715270996 -0.21667365729808807 -0.13280916213989258
0.2554771602153778 -0.2661083936691284 -0.011867372319102287
-0.26807183027267456 0.09901805222034454 -0.12586180865764618
-0.0275855865329504 -0.19456540048122406 0.15582595765590668
0.26523274183273315 0.506324291229248 0.08942173421382904
0.25025129318237305 -0.005534390918910503 0.15826329588890076
0.2074524164199829 -0.14633657038211823 -0.1319415271282196
-0.25046488642692566 -0.25041183829307556 0.09710346162319183
0.2711467444896698 -0.4420695900917053 0.08026175200939178
-0.2690359652042389 -0.006775122135877609 -0.13163705170154572
0.25363659858703613 -0.16438451409339905 0.15418729186058044
0.22712095081806183 -0.35289502143859863 -0.0868813544511795
0.2957472503185272 -0.24772976338863373 0.07167130708694458
-0.00014971941709518433 0.15908420085906982 0.16378284990787506
-0.23794439435005188 -0.24988242983818054 -0.1265680491924286
0.2912357449531555 -0.23722855746746063 -0.1333690732717514
0.22287507355213165 0.22708234190940857 0.15436986088752747
-0.26828324794769287 -0.11816751956939697 -0.12438789755105972
-0.21525651216506958 0.1809631884098053 0.15399202704429626
-0.008909262716770172 -0.24933403730392456 0.1476655900478363
-0.2935280203819275 -0.4137524366378784 -0.09046757221221924
-0.30262765288352966 -0.3759922683238983 0.2028811275959015
-0.2718222439289093 -0.16049107909202576 0.1494002640247345
0.28919559717178345 0.356791615486145 0.10102087259292603
0.0788716971874237 -0.17898406088352203 0.16985611617565155
0.28619101643562317 -0.4147769808769226 0.17467087507247925
-0.2715412378311157 -0.21746671199798584 0.154057115316391
-0.15258699655532837 0.22597114741802216 -0.12974576652050018
0.25057345628738403 -0.25038737058639526 -0.011242115870118141
-0.2459302544593811 -0.2519582509994507 0.09581982344388962
0.058015283197164536 0.22823159396648407 0.05071108043193817
-0.2922990322113037 -0.4095182716846466 -0.09070165455341339
0.291225403547287 0.21981026232242584 -0.13399936258792877
0.260232537984848 -0.4338279366493225 -0.07867980003356934
0.29382920265197754 0.21578191220760345 0.15336322784423828
-0.23828083276748657 0.4341122806072235 -0.06813760101795197
0.29525741934776306 0.050463248044252396 0.15522420406341553
-0.2727557122707367 -0.2472919225692749 -0.1280943751335144
-0.26966556906700134 -0.07694098353385925 -0.13193586468696594
-0.15537874400615692 0.34471824765205383 0.012731920927762985
-0.22514061629772186 0.49092891812324524 -0.03307761996984482
-0.27081596851348877 -0.09614451974630356 -0.13184517621994019
-0.214933380484581 0.08768904954195023 0.1679820418357849
0.06939250230789185 0.1057221069931984 -0.1351572871208191
0.2984079420566559 -0.24382008612155914 0.13533863425254822
0.28722840547561646 0.1760028898715973 -0.1336006224155426
0.2969895303249359 0.0852138102054596 0.14793889224529266
0.29799938201904297 -0.006310919299721718 -0.10395251959562302
0.2889147400856018 0.12455596774816513 -0.13589894771575928
-0.2689629793167114 0.006961014121770859 -0.13275937736034393
-0.23464813828468323 -0.30340859293937683 0.09747374057769775
-0.2596239447593689 -0.25078853964805603 -0.10944610834121704
-0.014501492492854595 0.23337039351463318 -0.1890365034341812
0.28463461995124817 -0.2146383672952652 -0.1313702017068863
0.16414090991020203 -0.2515788972377777 -0.02698996104300022
-0.25955668091773987 0.17858123779296875 -0.13573089241981506
0.2643863260746002 -0.44389069080352783 -0.03719111531972885
-0.17323067784309387 0.22787131369113922 -0.019004274159669876
0.22369776666164398 -0.23968003690242767 -0.1365230530500412
0.21420711278915405 0.31324124336242676 -0.018876228481531143
0.16703388094902039 -0.2484564632177353 0.15294602513313293
-0.15090075135231018 -0.19600243866443634 0.15687087178230286
0.2896061837673187 0.44946175813674927 0.1277799904346466
0.2839032709598541 0.08200788497924805 0.15639711916446686
0.2912335991859436 0.16911742091178894 -0.1339702606201172
0.19598311185836792 0.3974698781967163 0.11508908867835999
0.25793009996414185 -0.44398388266563416 -0.0634702667593956
0.2967362701892853 0.21664473414421082 0.06553073227405548
-0.07318171858787537 -0.1767922341823578 0.16937154531478882
0.23670652508735657 0.382210373878479 0.10794898867607117
-0.2575635313987732 0.3500446379184723 -0.02918778359889984
0.2415694147348404 -0.3283414840698242 0.12470140308141708
-0.13568688929080963 0.2167767584323883 -0.13442613184452057
0.046462126076221466 -0.25007492303848267 0.012513081543147564
0.23101136088371277 -0.24361953139305115 -0.13434934616088867
-0.27176085114479065 -0.15588198602199554 -0.1235010176897049
-0.2679445743560791 -0.04811544716358185 0.04321444779634476
0.2522219717502594 -0.17097672820091248 0.15366950631141663
-0.33089882135391235 -0.33801859617233276 0.15074628591537476
0.23829986155033112 0.3757997155189514 -0.08945786952972412
-0.16531036794185638 0.4348893463611603 0.10425728559494019
-0.0600254163146019 0.22778120636940002 -0.12770795822143555
0.19378139078617096 0.33665746450424194 -0.01894192583858967
-0.1594465672969818 0.15106366574764252 -0.1355298012495041
0.22760659456253052 -0.4449300467967987 0.02446865290403366
-0.25339555740356445 0.47428616881370544 0.11011087894439697
0.1991613805294037 -0.23821522295475006 -0.13582643866539001
-0.2545521855354309 -0.20235367119312286 -0.13177068531513214
0.2926511764526367 0.21900364756584167 -0.13501867651939392
0.12605701386928558 -0.24174588918685913 0.15745270252227783
-0.21887771785259247 -0.45207276940345764 0.1302492916584015
0.031360648572444916 0.15016129612922668 0.17014750838279724
0.23513633012771606 0.03138074278831482 0.16908739507198334
-0.2658330798149109 -0.36488860845565796 0.19885936379432678
-0.27020564675331116 -0.23886963725090027 -0.115432009100914
-0.22591717541217804 0.08708430826663971 0.15206214785575867
0.05518465116620064 -0.2443099021911621 0.1585732251405716
0.2864798307418823 -0.4346942603588104 0.006756424438208342
0.2853167951107025 -0.21170827746391296 -0.1320279985666275
-0.2538042664527893 0.2282358556985855 0.13095037639141083
0.05163208395242691 0.1503857523202896 0.17020420730113983
0.23349127173423767 -0.2551690638065338 -0.06253135204315186
-0.26031386852264404 0.19094015657901764 0.15534119307994843
0.2920818030834198 0.45027869939804077 0.11997748911380768
0.29643043875694275 -0.12750034034252167 -0.1228693425655365
-0.26996684074401855 0.04383179545402527 -0.13164979219436646
-0.11737997084856033 0.2251948118209839 0.15013085305690765
-0.2667088806629181 0.09045889973640442 -0.13167712092399597
-0.23838098347187042 0.27001890540122986 0.019697796553373337
0.26673609018325806 -0.24573493003845215 -0.13313183188438416
-0.19794723391532898 0.5051108598709106 0.06191980838775635
-0.2688581943511963 0.045707665383815765 -0.132053405046463
0.28670188784599304 -0.43103158473968506 0.0036225756630301476
-0.2835165858268738 0.029496558010578156 -0.24388374388217926
-0.20209699869155884 -0.14281746745109558 0.17114639282226562
-0.270080029964447 0.21803772449493408 0.10888324677944183
-0.270355224609375 0.11030139774084091 0.04341767728328705
0.24086053669452667 0.11504305154085159 0.16794149577617645
0.21129721403121948 0.3151977062225342 0.04177430272102356
-0.19849175214767456 0.4960441589355469 -0.02825108729302883
-0.2608398497104645 -0.14628666639328003 -0.13258640468120575
-0.24937301874160767 0.48576620221138 0.0741686299443245
-0.11531352996826172 0.1764475256204605 0.15449468791484833
0.006020344793796539 0.04795682430267334 -0.13374434411525726
0.26369911432266235 0.4618779122829437 -0.07678873091936111
-0.27003011107444763 0.027949858456850052 -0.13455748558044434
-0.2707173526287079 -0.34781613945961 0.1884632706642151
-0.28899961709976196 -0.4312908351421356 -0.08807503432035446
-0.2762205898761749 -0.365048885345459 -0.08783980458974838
0.21440736949443817 0.5119020342826843 0.07194460928440094
0.10668811202049255 0.227804034948349 0.15001222491264343
0.27739661931991577 0.22636200487613678 -0.0301566943526268
-0.2686026692390442 0.011436223983764648 -0.10927477478981018
0.23940593004226685 -0.14853209257125854 0.1692727953195572
0.038198523223400116 0.17933282256126404 -0.13568100333213806
0.19828054308891296 -0.26468977332115173 0.06765197217464447
0.25489071011543274 -0.03203623741865158 0.15294727683067322
0.20179827511310577 0.40213924646377563 0.10785955935716629
-0.21435880661010742 0.2643108367919922 -0.02274894528090954
-0.2250516563653946 0.1058758869767189 0.1524200737476349
-0.02018839865922928 -0.2505197823047638 -0.038218509405851364
-0.3083863854408264 -0.3704414963722229 0.20345984399318695
0.16169196367263794 0.22879265248775482 0.14956074953079224
-0.11797654628753662 0.18091200292110443 0.1552315503358841
0.10803849995136261 0.2287287712097168 -0.13106773793697357
-0.218174010515213 -0.41564327478408813 0.1724686324596405
-0.12552931904792786 0.030769454315304756 -0.13283118605613708
-0.26053914427757263 -0.2216210961341858 0.15815038979053497
-0.009757664054632187 0.22695982456207275 -0.13259831070899963
0.2608749568462372 -0.2528131306171417 -0.06135588139295578
0.03943465277552605 0.18215541541576385 -0.13950903713703156
-0.269775390625 0.19161255657672882 -0.1230563223361969
-0.26850003004074097 -0.07792821526527405 -0.13288389146327972
0.20670437812805176 -0.4322587549686432 -0.0826195478439331
0.05610615760087967 -0.05983529984951019 0.17008760571479797
0.2891361117362976 -0.43164733052253723 0.13862255215644836
0.22072455286979675 0.2286262959241867 0.15097160637378693
-0.20046758651733398 0.22801728546619415 0.06137112155556679
0.2415449321269989 -0.1760258972644806 0.16771188378334045
0.2725898027420044 -0.42759400606155396 -0.05786685645580292
-0.26898032426834106 -0.18104739487171173 -0.1332790106534958
-0.2705437242984772 -0.17966817319393158 -0.061971355229616165
-0.18951264023780823 0.15803839266300201 0.16677452623844147
-0.21352246403694153 0.010162844322621822 0.16945351660251617
-0.1650242656469345 0.3680710792541504 0.06278559565544128
-0.26950350403785706 -0.08930811285972595 0.1537187397480011
0.29600030183792114 0.2121020257472992 -0.12096109986305237
0.2859629988670349 -0.40258505940437317 0.17271974682807922
0.21276967227458954 0.28653332591056824 0.02210238203406334
-0.22626574337482452 0.22943276166915894 0.10737276077270508
0.28883782029151917 0.22190889716148376 -0.13374808430671692
-0.2729928195476532 -0.10642644017934799 -0.1209476888179779
0.2945950925350189 -0.1877717524766922 0.02034297212958336
-0.27022990584373474 0.1942579299211502 -0.12533336877822876
-0.2692195773124695 0.22235943377017975 -0.06215183064341545
-0.06566724181175232 -0.24765633046627045 0.14493447542190552
0.18150407075881958 0.22868633270263672 0.14301910996437073
-0.19998669624328613 0.3319329619407654 0.05700453743338585
0.18449470400810242 -0.25393712520599365 0.058075860142707825
0.2750656306743622 -0.4497547149658203 0.17812074720859528
-0.25293850898742676 0.3531351685523987 0.08754143118858337
-0.19720423221588135 0.47433575987815857 -0.054677195847034454
0.0759906992316246 -0.2508833110332489 0.14455801248550415
-0.2682552635669708 -0.11745652556419373 -0.13373039662837982
-0.13198810815811157 0.16572698950767517 0.15868932008743286
0.24628758430480957 0.47418302297592163 0.10774054378271103
0.28570666909217834 -0.25081127882003784 0.0034774350933730602
0.26912862062454224 0.2283586859703064 -0.03455951064825058
0.26494553685188293 -0.4168502688407898 -0.07721520215272903
-0.24903593957424164 -0.47840607166290283 -0.018486062064766884
-0.2096163034439087 0.2639327347278595 -0.02207566797733307
-0.167114719748497 -0.25582820177078247 -0.03427992761135101
-0.27483895421028137 0.08730503916740417 0.15348149836063385
-0.20218735933303833 -0.24743977189064026 -0.12800496816635132
-0.16224046051502228 0.04824347794055939 -0.1312456727027893
0.20086127519607544 0.33161792159080505 0.05134149640798569
-0.16538217663764954 -0.2534370720386505 0.07011184096336365
-0.02274341508746147 -0.18945980072021484 0.16500738263130188
0.14319084584712982 -0.3577617108821869 0.02541957050561905
0.25234276056289673 -0.03830159083008766 0.15605413913726807
-0.21632333099842072 -0.1341686248779297 0.1685008406639099
-0.1692521572113037 0.23116298019886017 0.028409816324710846
-0.24636417627334595 -0.38364526629447937 0.19835683703422546
0.04732342064380646 -0.19567976891994476 0.15476086735725403
0.29096779227256775 0.2205352634191513 -0.13325808942317963
0.21060916781425476 0.3815538287162781 -0.07640907168388367
-0.15294452011585236 -0.2751947045326233 -0.014542651362717152
-0.24895985424518585 0.476386696100235 0.11062439531087875
-0.04476354271173477 0.12932941317558289 -0.1323460191488266
-0.26870712637901306 0.09271515905857086 -0.13122904300689697
0.197085440158844 0.21854685246944427 0.15613505244255066
0.2612726092338562 0.08676522970199585 0.1557784080505371
-0.2714441120624542 -0.36324048042297363 0.20046477019786835
-0.2706519365310669 -0.09441789239645004 -0.12933696806430817
-0.22363166511058807 -0.47521793842315674 0.023400768637657166
-0.2513493299484253 -0.38432663679122925 0.1995161473751068
0.251301646232605 -0.30669814348220825 0.09557435661554337
0.28950250148773193 0.004204465076327324 -0.13272324204444885
0.28994810581207275 -0.0344676747918129 -0.13341006636619568
-0.28874555230140686 -0.4258193373680115 -0.08899000287055969
0.17052462697029114 -0.44094163179397583 0.018937643617391586
0.21358689665794373 0.2299317568540573 0.05061868205666542
-0.2670019567012787 -0.0006103720515966415 -0.1327144205570221
-0.04873129725456238 0.1388833075761795 -0.13416500389575958
0.04540414735674858 0.16992077231407166 -0.21643374860286713
-0.26561620831489563 0.11024043709039688 -0.13326315581798553
-0.2694305181503296 -0.20513010025024414 -0.12908689677715302
-0.25942808389663696 0.44813379645347595 0.11558540165424347
-0.2820909321308136 -0.38658156991004944 0.1991935819387436
0.17886224389076233 -0.24741549789905548 0.15133404731750488
0.2734554708003998 0.5000163316726685 0.09497687220573425
-0.2674016058444977 0.18688112497329712 0.1517002135515213
-0.17031767964363098 0.22819273173809052 0.10245968401432037
0.060815293341875076 0.03401976451277733 0.1701931357383728
0.29412326216697693 0.1656111776828766 0.1439921259880066
-0.22610586881637573 -0.2633677124977112 -0.045290447771549225
-0.2866845428943634 -0.42676910758018494 -0.09072250127792358
0.034896012395620346 0.2204393595457077 0.15759608149528503
-0.2538681626319885 0.37271785736083984 0.10337209701538086
-0.2382676601409912 -0.47995129227638245 -0.022167589515447617
0.2717779278755188 0.22764702141284943 -0.03346623480319977
-0.04156549274921417 0.13787585496902466 -0.13900400698184967
0.2978379428386688 -0.24023029208183289 -0.1105257123708725
0.2811186611652374 -0.14169365167617798 -0.132785364985466
-0.2907125949859619 0.04295390844345093 -0.2645826041698456
0.23899276554584503 -0.3097071945667267 -0.07460173219442368
-0.1959814876317978 0.3701742887496948 -0.06990960240364075
0.2949288487434387 -0.22495535016059875 0.1527872532606125
0.0674896165728569 0.0976809412240982 -0.13502533733844757
-0.13347357511520386 0.22630538046360016 0.005417473614215851
-0.0022482569329440594 0.18348932266235352 -0.13693055510520935
-0.13216526806354523 -0.19060499966144562 0.1620585024356842
0.26313138008117676 -0.15848320722579956 -0.13354504108428955
-0.2712584435939789 0.051851335912942886 0.1436764895915985
0.24058641493320465 0.2376307249069214 -0.028371315449476242
-0.2178596556186676 -0.11049224436283112 0.16594885289669037
-0.20822423696517944 0.32593977451324463 0.054149456322193146
0.2506805956363678 -0.4455064535140991 0.010055825114250183
0.18257808685302734 0.226022869348526 0.15512287616729736
-0.01670071855187416 -0.236165389418602 -0.1350504755973816
0.2597839832305908 -0.11701279133558273 0.15446190536022186
0.2706947922706604 0.2292177379131317 -0.06301330775022507
0.11164052784442902 0.03155779466032982 0.16951856017112732
-0.27010297775268555 -0.13096237182617188 -0.13142162561416626
