0.21019384264945984 0.30532747507095337 0.03485836461186409
-0.21742035448551178 0.3272608816623688 0.05586492642760277
-0.2562479078769684 0.22983233630657196 -0.02118305116891861
0.10133291780948639 0.22656558454036713 0.05792348086833954
-0.08851687610149384 -0.17621168494224548 0.16832587122917175
-0.2702830135822296 0.2202916443347931 0.12101936340332031
0.021326232701539993 -0.029053162783384323 -0.13606931269168854
0.23864534497261047 -0.013619285076856613 0.16892294585704803
0.28370609879493713 0.2274107038974762 0.014718077145516872
0.22148117423057556 0.5077797770500183 0.10480162501335144
0.07238271087408066 0.16404035687446594 0.1617262065410614
-0.26800552010536194 0.2242623269557953 -0.07207995653152466
-0.2921532988548279 -0.42985638976097107 -0.08856773376464844
-0.2220451831817627 -0.19068944454193115 0.1556144505739212
-0.3262515664100647 -0.3366817533969879 0.180021733045578
-0.21349607408046722 -0.17774710059165955 0.16801755130290985
-0.031841833144426346 0.22593708336353302 -0.1304253339767456
-0.27065032720565796 0.21953077614307404 0.009161234833300114
-0.019820567220449448 -0.24627216160297394 -0.13499484956264496
0.28002291917800903 0.34072068333625793 -0.04976063221693039
-0.26780661940574646 -0.09623968601226807 -0.13603894412517548
-0.26994767785072327 -0.06472910195589066 -0.12209299951791763
-0.2630766034126282 -0.16084173321723938 -0.13505719602108002
0.28941088914871216 -0.1931988000869751 -0.1365813910961151
-0.2120514065027237 0.3562806248664856 -0.07324487715959549
-0.21808353066444397 -0.09439146518707275 0.16410993039608002
0.29011937975883484 -0.4305468499660492 0.04630524665117264
-0.08279823511838913 -0.2476833462715149 -0.12727975845336914
0.20371057093143463 0.18802045285701752 -0.13688524067401886
0.1334158480167389 0.22689522802829742 -0.12852181494235992
-0.2705667018890381 0.21853885054588318 -0.032096415758132935
0.18732479214668274 0.34576353430747986 0.06653386354446411
0.2544803321361542 -0.2510707974433899 0.0005621901946142316
-0.19638097286224365 0.2748575806617737 -0.015159999951720238
0.2650710940361023 0.23073965311050415 -0.03245311230421066
-0.12319052219390869 0.22831429541110992 -0.1269640177488327
0.2840456962585449 -0.0016780402511358261 -0.13545672595500946
-0.33250734210014343 -0.4018890857696533 -0.04054075479507446
-0.24034740030765533 -0.2667306363582611 0.012133107520639896
-0.24972185492515564 -0.24393290281295776 -0.13564658164978027
-0.21504198014736176 -0.24702878296375275 -0.13075169920921326
-0.250060498714447 0.13268058001995087 -0.136848583817482
-0.21036963164806366 -0.35163822770118713 0.10903611779212952
-0.166667640209198 0.34550032019615173 0.04780072346329689
-0.2694563865661621 0.02888498082756996 -0.12997396290302277
0.016251377761363983 0.23038719594478607 0.009131633676588535
-0.2688555419445038 0.08330047875642776 0.15390285849571228
-0.03781827911734581 -0.19511592388153076 0.1511591225862503
-0.2685425877571106 -0.004552546888589859 -0.13519641757011414
-0.2249498963356018 0.2256017029285431 -0.12376746535301208
-0.044876858592033386 0.12610483169555664 -0.13730500638484955
0.25106722116470337 0.33307188749313354 0.07327181100845337
-0.04690714552998543 0.23037496209144592 0.1347421109676361
0.2761231064796448 0.22666646540164948 0.09073210507631302
-0.2705465257167816 -0.10902279615402222 -0.13411182165145874
0.06131695955991745 -0.18595655262470245 0.16241063177585602
0.27263250946998596 -0.44500142335891724 0.1796388030052185
0.28563499450683594 -0.20010367035865784 -0.13599340617656708
-0.2522128224372864 0.22853317856788635 0.047131121158599854
0.2486221194267273 0.3183898627758026 0.05621297284960747
0.2328912317752838 0.07530806958675385 0.1700146645307541
-0.2694566547870636 0.11737208068370819 0.15798881649971008
0.2856843173503876 0.34237292408943176 -0.03606460988521576
0.27943456172943115 -0.4447794258594513 0.10841349512338638
-0.2707616090774536 0.08123599737882614 -0.12985141575336456
-0.2705986201763153 0.09879007935523987 0.15309296548366547
-0.012230591848492622 -0.17440970242023468 0.1684938222169876
0.277206689119339 0.41949662566185 -0.0716480240225792
-0.018391404300928116 -0.25056785345077515 -0.12242427468299866
-0.23143036663532257 0.019256820902228355 0.1529238373041153
0.2856845557689667 -0.17818254232406616 -0.1369839906692505
-0.027398068457841873 -0.20129793882369995 0.1535368710756302
0.21089550852775574 0.31698882579803467 -0.025734055787324905
-0.2327682226896286 -0.1425139456987381 0.15361782908439636
0.20200207829475403 -0.10026155412197113 0.16888423264026642
0.13499459624290466 -0.1812477707862854 0.16768711805343628
-0.26689308881759644 0.18504175543785095 -0.13223698735237122
0.007175871171057224 0.2893565893173218 -0.24058394134044647
-0.1851900815963745 0.34039127826690674 -0.04540955275297165
0.2771092355251312 0.3707491159439087 -0.07085827738046646
-0.18901433050632477 0.3383898437023163 -0.03985363990068436
0.26909905672073364 -0.22056758403778076 -0.1341600865125656
0.2936263680458069 0.43702390789985657 0.12796077132225037
0.2974781394004822 -0.09302584826946259 0.14594680070877075
0.1618153154850006 0.1610693335533142 0.1666843593120575
-0.2590949237346649 -0.09581829607486725 -0.1358087956905365
0.20011454820632935 -0.36068376898765564 0.14674872159957886
-0.32496294379234314 -0.4159063696861267 -0.0742419883608818
-0.074638232588768 -0.2521328926086426 0.04218808561563492
-0.25829461216926575 -0.1306023895740509 -0.135850191116333
-0.17223134636878967 0.2363899052143097 0.014117984101176262
0.29544010758399963 -0.15251091122627258 0.029588626697659492
0.2945725619792938 0.016954824328422546 -0.13283276557922363
0.22432106733322144 0.3120230436325073 -0.030250072479248047
-0.2703210115432739 -0.009893178939819336 0.10208116471767426
-0.27123406529426575 -0.2098846137523651 -0.12570545077323914
-0.2703554928302765 -0.4355508089065552 0.08847646415233612
-0.07482044398784637 0.15430229902267456 0.16966715455055237
0.24266983568668365 0.08842065185308456 0.16606716811656952
-0.26452749967575073 -0.24555253982543945 0.15243713557720184
0.2991184592247009 -0.15869532525539398 -0.122794970870018
0.2872298061847687 -0.24959614872932434 0.055990010499954224
0.2955816090106964 0.0229891799390316 0.13330397009849548
-0.2687051594257355 -0.09256075322628021 -0.13517872989177704
0.273682177066803 -0.3849441409111023 0.17601020634174347
-0.059936776757240295 -0.1808033585548401 0.16672790050506592
0.24199143052101135 -0.2508304715156555 -0.12419748306274414
-0.05001861974596977 -0.17504754662513733 0.16836293041706085
0.2495662122964859 0.3264773488044739 0.06575305759906769
0.046076223254203796 0.22608616948127747 -0.1303015947341919
-0.2658894658088684 0.12993261218070984 -0.13428589701652527
-0.2548559904098511 -0.2491855025291443 -0.06480355560779572
-0.23935283720493317 -0.2964349389076233 0.08709537982940674
0.291534960269928 0.45832890272140503 0.11904013156890869
0.18219095468521118 -0.26158928871154785 -0.029288381338119507
0.2940059304237366 -0.4350728392601013 0.08997313678264618
0.2610928416252136 -0.24857236444950104 -0.12541308999061584
0.06120695918798447 0.11095994710922241 -0.1356806457042694
-0.27220264077186584 -0.3673929274082184 -0.09265796095132828
0.2012711614370346 0.4652298092842102 -0.06423638015985489
0.1589280664920807 -0.4444452226161957 0.1575554609298706
-0.32276642322540283 -0.32923489809036255 0.16930679976940155
-0.20881761610507965 -0.07261469960212708 0.16957059502601624
0.28462231159210205 -0.3710813522338867 0.1350846290588379
-0.16154071688652039 -0.18860724568367004 0.15862077474594116
-0.1726241260766983 0.2355104237794876 0.00029703089967370033
0.15772205591201782 -0.3791511058807373 -0.041232116520404816
0.2962343394756317 -0.18839183449745178 -0.12798771262168884
-0.0435451976954937 0.16263151168823242 0.16402080655097961
-0.2689529359340668 -0.0336650088429451 0.1545563042163849
0.012587632983922958 0.22851859033107758 -0.12977257370948792
-0.21540214121341705 0.4283507168292999 -0.08055312931537628
0.14098815619945526 0.1678154468536377 0.15832915902137756
0.24741899967193604 0.009775876998901367 0.16567373275756836
-0.2615031898021698 -0.4691726267337799 -0.05412186682224274
-0.29004770517349243 -0.40696263313293457 -0.09419306367635727
0.2622300386428833 -0.39064377546310425 -0.08047063648700714
0.011861066333949566 0.08438175916671753 -0.137419655919075
-0.08606129884719849 0.2309720516204834 0.14401757717132568
-0.301880806684494 -0.3275560736656189 0.060475632548332214
-0.18078500032424927 0.23246724903583527 0.04867725074291229
0.29085251688957214 0.21873202919960022 -0.13600453734397888
0.2795438766479492 0.48566994071006775 -0.010703936219215393
-0.11122153699398041 0.16807766258716583 0.15614385902881622
-0.15540239214897156 -0.2577893137931824 0.04135647416114807
-0.27107977867126465 0.03198488429188728 -0.09405350685119629
0.27337461709976196 -0.44537025690078735 0.024257589131593704
-0.25751805305480957 0.051872193813323975 -0.1364697813987732
0.2113855630159378 0.22896884381771088 -0.02706983871757984
-0.0919620543718338 0.2269783914089203 -0.12956993281841278
0.19973045587539673 0.23009245097637177 -0.0016334339743480086
0.026088804006576538 0.18313820660114288 -0.13877888023853302
0.21228304505348206 0.1956929862499237 -0.13699758052825928
0.13801416754722595 -0.24548906087875366 0.14998659491539001
-0.22934459149837494 -0.3167533576488495 -0.07665256410837173
-0.18539753556251526 -0.25121212005615234 0.07925476133823395
0.29652726650238037 -0.022359315305948257 0.14581046998500824
0.16168001294136047 0.2315879762172699 -0.09158889949321747
0.2875543236732483 -0.0641985833644867 -0.13620100915431976
-0.16628387570381165 -0.17590942978858948 0.16841888427734375
0.286289244890213 0.19635629653930664 -0.1358048915863037
0.2223483920097351 -0.039592064917087555 -0.13793206214904785
-0.31815311312675476 -0.35627228021621704 0.19954930245876312
0.2962154150009155 -0.08344241976737976 -0.12471087276935577
0.2977694272994995 0.21698316931724548 -0.04051093012094498
0.03256453201174736 0.24725356698036194 -0.25048714876174927
0.2752462923526764 -0.3888472616672516 0.18139787018299103
0.09933396428823471 -0.1964874416589737 0.15197595953941345
0.2818658649921417 0.23027896881103516 0.01973038725554943
0.09503959864377975 -0.24863596260547638 0.08432790637016296
0.1180042251944542 0.2200648933649063 0.15609396994113922
-0.2584499418735504 -0.13450051844120026 -0.13424423336982727
-0.10131131112575531 0.15684539079666138 0.16848169267177582
0.22147393226623535 -0.44579896330833435 0.1593414694070816
0.03837600350379944 0.18010839819908142 -0.13846811652183533
0.2210896909236908 0.14643630385398865 0.17006906867027283
-0.1596049815416336 0.36958643794059753 0.0886421799659729
0.09949848055839539 -0.01282871887087822 0.1703762263059616
0.29580867290496826 -0.11477596312761307 -0.13192838430404663
-0.26862141489982605 0.2222955822944641 0.14877763390541077
-0.26855945587158203 -0.1263006329536438 0.15073160827159882
-0.255621075630188 -0.24002352356910706 -0.13410821557044983
-0.2693859040737152 0.006595575250685215 -0.13528744876384735
0.2321796864271164 0.24761448800563812 -0.025165343657135963
0.1759716123342514 0.40450412034988403 0.0685075968503952
0.22408200800418854 -0.2506227493286133 -0.12460692971944809
-0.22209984064102173 -0.256954163312912 0.056325703859329224
0.17379915714263916 -0.26468247175216675 -0.0186743326485157
0.2744602859020233 0.23436087369918823 0.007822424173355103
0.12016451358795166 0.22747786343097687 -0.12157763540744781
0.29632121324539185 -0.0674179196357727 0.019247446209192276
-0.26824620366096497 -0.20546285808086395 0.15647555887699127
-0.16099630296230316 0.4410897493362427 0.09171376377344131
-0.19780367612838745 0.2557978928089142 0.04424884170293808
0.17953145503997803 0.3472445011138916 0.02816646918654442
-0.2251577228307724 -0.41035136580467224 0.18274164199829102
-0.28411245346069336 -0.371015340089798 -0.08846614509820938
-0.2714919447898865 0.02542003244161606 -0.12269140034914017
-0.24316413700580597 -0.2815929353237152 0.06998378038406372
0.10729407519102097 0.21778063476085663 0.1563287079334259
0.2512286305427551 -0.350387841463089 0.14445427060127258
-0.21232269704341888 0.39328041672706604 -0.08501729369163513
0.2957817614078522 0.009775206446647644 -0.0840001180768013
-0.21675819158554077 0.5003862380981445 -0.016445830464363098
-0.18081213533878326 0.26606202125549316 0.012561796233057976
0.19629770517349243 0.431115984916687 0.10912758111953735
0.29591768980026245 0.06647542119026184 -0.12695632874965668
0.2914692163467407 0.13873291015625 -0.13493484258651733
0.23542016744613647 -0.4031204283237457 -0.09241646528244019
0.2642957270145416 -0.25455981492996216 -0.12215165793895721
0.19378916919231415 -0.24693229794502258 0.147630974650383
0.10596869885921478 0.22527261078357697 -0.1373259276151657
-0.2688618302345276 -0.240747332572937 -0.13415126502513885
0.23590794205665588 -0.25036317110061646 -0.12455347925424576
-0.22299747169017792 0.33458223938941956 -0.045501723885536194
-0.2166617512702942 0.17662550508975983 0.15208235383033752
0.29154345393180847 0.22117756307125092 0.15370483696460724
-0.03388391062617302 0.15430948138237 -0.13564631342887878
0.11152957379817963 -0.25215280055999756 0.14303097128868103
-0.26777422428131104 0.18543857336044312 0.1553601771593094
0.22660909593105316 0.3537141680717468 -0.0820404589176178
0.25042158365249634 -0.24926987290382385 -0.023252900689840317
-0.2674081325531006 0.019065655767917633 -0.13623878359794617
-0.26787862181663513 0.21990922093391418 -0.07518774271011353
-0.27020737528800964 0.04389042779803276 -0.08519357442855835
0.2816379964351654 -0.22831936180591583 -0.13518564403057098
-0.1925143599510193 0.49932143092155457 0.015214656479656696
0.2835768461227417 0.1456245481967926 -0.13552868366241455
0.29288896918296814 0.22464630007743835 0.06322061270475388
0.24088601768016815 0.40436723828315735 -0.09441748261451721
-0.1463644802570343 -0.24895083904266357 0.14347253739833832
0.05269727110862732 0.10981567203998566 -0.13506656885147095
0.2615090608596802 -0.06738857924938202 0.15628889203071594
-0.2518045902252197 0.22809980809688568 0.045767590403556824
0.2906380593776703 -0.43531644344329834 0.08946870267391205
-0.2943041920661926 -0.3489808738231659 0.19856390357017517
0.2755589485168457 -0.24871337413787842 0.14141221344470978
0.29633551836013794 0.16354668140411377 -0.10724721848964691
0.044575538486242294 0.228557750582695 -0.12197240442037582
-0.1814165860414505 0.48276475071907043 -0.022774649783968925
-0.2382449507713318 -0.383092999458313 -0.08930471539497375
0.23926624655723572 0.5105671286582947 0.10617773234844208
-0.2669621706008911 -0.13752764463424683 -0.1373806744813919
0.24984320998191833 -0.27529391646385193 0.07424278557300568
-0.26463329792022705 0.22141402959823608 -0.13471809029579163
0.09815278649330139 -0.17925947904586792 0.1651952862739563
-0.27057722210884094 -0.19299359619617462 0.15432319045066833
-0.22306014597415924 -0.45193082094192505 0.12807245552539825
0.22911140322685242 0.22662889957427979 -0.1366337239742279
-0.24547526240348816 0.421245813369751 0.1073959618806839
0.059092819690704346 0.15312504768371582 0.16994217038154602
0.25443315505981445 -0.2520408630371094 0.019328825175762177
-0.10266624391078949 0.23044483363628387 0.1446322500705719
-0.12700168788433075 0.15267696976661682 0.1695438176393509
-0.25010326504707336 -0.3330744802951813 -0.08378634601831436
-0.07946944236755371 0.22809191048145294 -0.031204624101519585
0.28884458541870117 0.2177259922027588 -0.135614275932312
0.2642550468444824 -0.2468719482421875 -0.13508984446525574
0.19146358966827393 0.22466586530208588 0.1530228853225708
0.21427330374717712 0.46073588728904724 -0.07553224265575409
0.2873789370059967 0.10189909487962723 -0.13512979447841644
0.0520038828253746 -0.2503175437450409 0.141533762216568
0.29382970929145813 -0.24508388340473175 -0.02385856956243515
0.2369549572467804 -0.11754170060157776 0.16860134899616241
0.20933111011981964 0.3618352711200714 -0.07524574548006058
0.18738578259944916 -0.4444670081138611 -0.05896575748920441
0.13318516314029694 -0.18904897570610046 0.15764494240283966
0.09466738998889923 -0.0514163039624691 0.16917985677719116
0.28435707092285156 -0.2495148926973343 0.08909186720848083
0.26387616991996765 0.37258291244506836 -0.084896519780159
-0.2624272108078003 0.22726047039031982 -0.08109398186206818
0.08760221302509308 -0.2522442936897278 -0.1258040964603424
-0.0451166070997715 0.14672043919563293 -0.13590380549430847
-0.3161400556564331 -0.35683825612068176 0.19963392615318298
-0.1207076907157898 -0.1810433268547058 0.16616342961788177
-0.26845329999923706 0.04161005839705467 -0.13104842603206635
0.28985753655433655 0.2177215963602066 -0.13381154835224152
-0.3011939227581024 -0.3298148214817047 0.18610452115535736
0.14887474477291107 -0.44460201263427734 0.06146713346242905
0.24780797958374023 0.06038700044155121 0.1594025045633316
0.062264781445264816 0.1359785795211792 -0.13392868638038635
-0.204963818192482 0.5026109218597412 0.0802423506975174
0.1856541931629181 0.439117968082428 0.11419978737831116
-0.17849263548851013 -0.2617599070072174 0.0632222592830658
0.283748596906662 0.12289873510599136 -0.13640446960926056
0.14120113849639893 -0.42647016048431396 0.002473757602274418
-0.05977662652730942 -0.1723259687423706 0.16848915815353394
0.23351211845874786 -0.4423229992389679 0.09604790061712265
0.17801612615585327 -0.4368879199028015 -0.06290765106678009
-0.24183189868927002 -0.3778650760650635 0.18807494640350342
0.28968480229377747 0.13634349405765533 -0.13677063584327698
-0.25964605808258057 -0.0583624430000782 0.1572829633951187
0.17561662197113037 -0.3814539313316345 -0.06679314374923706
0.29097309708595276 0.20135098695755005 -0.134466290473938
0.284618616104126 0.07064594328403473 -0.13663865625858307
0.24329255521297455 0.25330379605293274 -0.022857820615172386
-0.22010497748851776 -0.13479267060756683 0.15981072187423706
0.2451930195093155 -0.3247917890548706 0.11420752853155136
0.04728129878640175 -0.24834230542182922 0.1443995237350464
0.16188113391399384 -0.3880477845668793 0.16402949392795563
0.29460182785987854 0.19096457958221436 -0.1306108981370926
0.2913818359375 0.2268943190574646 -0.12782692909240723
0.18159334361553192 -0.2530742287635803 0.044269200414419174
0.1280003935098648 0.20279237627983093 -0.13598793745040894
-0.2630069851875305 -0.1189400851726532 -0.13701237738132477
0.24513043463230133 0.05487367510795593 0.16373251378536224
0.2952363193035126 0.21761322021484375 0.02772848680615425
0.29313239455223083 -0.4254845082759857 0.16954496502876282
-0.23012730479240417 -0.4538527727127075 0.11653928458690643
-0.18997932970523834 -0.2398560494184494 0.15528057515621185
-0.2706993520259857 0.22048920392990112 -0.07776056975126266
0.11116400361061096 -0.24908596277236938 0.1437889039516449
-0.13584917783737183 -0.25341540575027466 0.008385754190385342
0.2858600616455078 -0.443154513835907 0.08666639775037766
-0.017402783036231995 -0.24481120705604553 -0.13538269698619843
-0.1733512282371521 -0.3779868483543396 -0.007293065078556538
-0.04410114884376526 -0.23849597573280334 -0.1347629874944687
-0.2958126664161682 -0.4155706465244293 -0.09169398993253708
-0.2702568769454956 0.21729961037635803 -0.11381008476018906
-0.26051440834999084 -0.24726858735084534 0.04844272509217262
0.24366067349910736 -0.0010347384959459305 0.16663847863674164
0.2913832664489746 -0.12568245828151703 -0.13523127138614655
0.10609997808933258 0.22738845646381378 -0.12529703974723816
-0.022850897163152695 0.18023234605789185 -0.13647614419460297
-0.0004625394940376282 0.2011307030916214 -0.15764997899532318
-0.11129873991012573 0.22549091279506683 -0.1293046772480011
-0.17848944664001465 0.4517320990562439 0.09424281120300293
0.25641244649887085 0.22933834791183472 -0.04064825549721718
0.07634711265563965 0.231923907995224 0.05819844827055931
-0.04475528746843338 0.1348297894001007 -0.1374795138835907
-0.10538075864315033 -0.23614610731601715 -0.1361684948205948
-0.2700997292995453 -0.0875130444765091 0.055010437965393066
0.2890516519546509 0.21858002245426178 -0.13549363613128662
-0.2071254402399063 -0.08667844533920288 0.16878585517406464
0.2976164221763611 0.1720101237297058 0.14871475100517273
-0.2202327996492386 -0.1715146005153656 0.1634160280227661
-0.27034294605255127 -0.36215871572494507 0.19927376508712769
0.04330023378133774 0.22678187489509583 -0.1297300010919571
-0.2606241703033447 0.06716282665729523 0.15752457082271576
-0.2606569230556488 0.226501002907753 0.06051967293024063
-0.26072293519973755 -0.16470354795455933 -0.13515232503414154
0.2878440022468567 0.2224491983652115 -0.13198210299015045
0.2780229449272156 -0.235945463180542 -0.13477849960327148
0.29691144824028015 -0.24141347408294678 0.05323219671845436
0.20158647000789642 -0.265796422958374 -0.048792846500873566
-0.03332369402050972 -0.24335971474647522 -0.1356775462627411
0.298584520816803 -0.054710980504751205 -0.1351519525051117
0.2871684730052948 -0.4423251450061798 0.052382372319698334
0.15245428681373596 0.12506181001663208 -0.13618417084217072
0.27860546112060547 -0.24089469015598297 -0.1373281180858612
-0.16753172874450684 0.442202627658844 0.10284309089183807
-0.26937586069107056 0.08009862899780273 0.1444385051727295
-0.1614798754453659 -0.12779763340950012 0.16848881542682648
0.2819479703903198 -0.16686110198497772 -0.137050598859787
-0.23103728890419006 -0.03473612293601036 0.15353481471538544
0.013684636913239956 -0.2484479695558548 0.14804211258888245
-0.22552533447742462 -0.4590911865234375 0.10197293758392334
-0.2907615005970001 -0.41888228058815 -0.09424164891242981
-0.1954939067363739 0.4826023280620575 -0.04723846912384033
0.010163676925003529 0.1003054678440094 -0.1751556098461151
-0.28816500306129456 0.03614252805709839 -0.25113117694854736
-0.2204917073249817 -0.1795215755701065 0.16305243968963623
0.2855394780635834 0.1187436580657959 -0.13770729303359985
-0.24908900260925293 -0.062142401933670044 -0.2702004909515381
-0.2093064785003662 0.27084600925445557 -0.020855648443102837
0.19594885408878326 -0.4239208996295929 -0.07848840951919556
-0.0493030771613121 -0.24282443523406982 -0.13652083277702332
0.16917599737644196 -0.4434727430343628 -0.04399179667234421
0.2975803315639496 0.43515968322753906 0.1218327134847641
-0.22370955348014832 -0.2446618229150772 -0.13448916375637054
0.281111478805542 -0.4427698850631714 -0.009558061137795448
-0.2684114873409271 -0.24788014590740204 0.08585718274116516
-0.22203244268894196 -0.47197654843330383 0.009138690307736397
0.267471581697464 -0.4117252230644226 0.19870856404304504
0.28721946477890015 0.33478304743766785 0.05462128669023514
0.21001015603542328 0.3526497185230255 -0.07601276785135269
0.14650723338127136 -0.24587580561637878 -0.13484600186347961
0.22373205423355103 -0.2365359514951706 -0.13478271663188934
0.27741095423698425 -0.2367878556251526 -0.13438962399959564
0.29556432366371155 0.08125591278076172 0.025141391903162003
0.24497899413108826 -0.09386471658945084 0.16503393650054932
0.2610585391521454 0.4651532471179962 -0.07492490112781525
0.2948266565799713 -0.02717200294137001 4.9309805035591125e-05
-0.24207064509391785 -0.2659473419189453 0.020500460639595985
-0.2405969798564911 -0.26385584473609924 0.006267525255680084
0.29671838879585266 0.0677148774266243 0.14727643132209778
-0.16778935492038727 0.4744991064071655 -0.013862951658666134
-0.3328307867050171 -0.4136829376220703 -0.04407648742198944
0.2463691532611847 0.21702136099338531 -0.1365930587053299
-0.2632398307323456 -0.24802668392658234 -0.11079787462949753
-0.2652076780796051 -0.1215377151966095 -0.1353822946548462
-0.19374793767929077 0.22579790651798248 0.059232864528894424
0.2877448797225952 0.35795164108276367 -0.04683772847056389
0.18783734738826752 0.4640175700187683 -0.036693524569272995
0.294625848531723 0.048627372831106186 0.09331998229026794
0.2542819380760193 -0.25455209612846375 0.024847816675901413
0.09449803829193115 0.22748276591300964 0.1469319760799408
-0.315217524766922 -0.35767662525177 0.19942951202392578
0.13806046545505524 -0.43769150972366333 0.08281384408473969
-0.16851921379566193 -0.23730047047138214 0.1553473323583603
-0.2717275321483612 -0.2000628113746643 -0.12385935336351395
0.031464140862226486 0.16709543764591217 0.15743865072727203
0.20632682740688324 0.28265079855918884 0.013200672343373299
0.2916264533996582 0.34490272402763367 -0.02307017333805561
0.2895260453224182 -0.09721191227436066 0.15646740794181824
-0.2707177996635437 0.21616286039352417 -0.06260228157043457
-0.26941925287246704 -0.125002920627594 0.14595599472522736
-0.13879689574241638 -0.2517109215259552 -0.009767480194568634
-0.27041560411453247 0.038265716284513474 -0.13258276879787445
0.288054496049881 0.22686472535133362 -0.12701644003391266
-0.030758069828152657 0.09777792543172836 -0.13781526684761047
0.29016998410224915 0.21885859966278076 -0.13502338528633118
0.28995952010154724 0.2271147221326828 0.033167485147714615
-0.22971631586551666 0.22923149168491364 0.05621125549077988
-0.049780309200286865 -0.20340529084205627 0.15437383949756622
0.16958943009376526 -0.17826931178569794 0.16806229948997498
0.10768608748912811 0.22974874079227448 0.019737055525183678
0.29075026512145996 0.3599180579185486 0.08676569163799286
-0.2654309868812561 0.22361576557159424 -0.09495390206575394
0.23306243121623993 0.2510186731815338 -0.02316383272409439
-0.11555235087871552 -0.19347108900547028 0.15280243754386902
0.29539817571640015 0.1752597987651825 0.1569189429283142
-0.271815687417984 -0.1629321575164795 -0.12591072916984558
-0.24114573001861572 -0.3511602282524109 -0.08812283724546432
0.22371815145015717 0.46463707089424133 0.10335196554660797
0.29060041904449463 0.19940847158432007 -0.13530968129634857
-0.258602112531662 -0.1460680067539215 -0.13424701988697052
-0.3227066397666931 -0.34811118245124817 0.19384540617465973
-0.2721565365791321 0.2232741415500641 0.051764219999313354
0.20616427063941956 0.45058709383010864 0.10088511556386948
0.15976202487945557 -0.41653522849082947 0.1810094714164734
0.2278996855020523 0.5063536763191223 0.11070501804351807
-0.20634931325912476 0.0029816962778568268 0.1703464537858963
-0.3118637204170227 -0.3981375992298126 0.0793599858880043
0.18173527717590332 -0.4455258250236511 -0.047390181571245193
-0.18839223682880402 -0.18945491313934326 0.15691334009170532
0.28748819231987 -0.248966783285141 -0.04112929105758667
-0.22322630882263184 0.21883456408977509 0.15643705427646637
0.1985991895198822 0.22926367819309235 0.041425008326768875
0.29601147770881653 0.11342279613018036 -0.12897121906280518
-0.25883376598358154 0.021410398185253143 -0.1360490322113037
-0.2916741967201233 -0.014621704816818237 -0.27340376377105713
0.2400127351284027 0.22068993747234344 -0.1355244219303131
-0.3032005727291107 -0.32017654180526733 0.16558492183685303
0.20142123103141785 -0.313562273979187 -0.06732349842786789
0.28969985246658325 -0.028622465208172798 -0.13671457767486572
0.23211096227169037 0.13401314616203308 0.1689089834690094
0.28205379843711853 0.06413392722606659 -0.13647475838661194
0.037319764494895935 -0.24694527685642242 0.1531922072172165
-0.08279544115066528 0.16653165221214294 0.15764400362968445
-0.18753865361213684 0.1517266184091568 0.16990552842617035
-0.22117145359516144 -0.22603517770767212 -0.13491447269916534
0.01816878281533718 0.16860778629779816 0.15487562119960785
0.26782068610191345 -0.36851322650909424 -0.0781560093164444
0.011277521029114723 -0.03832954168319702 0.17015662789344788
0.29733067750930786 -0.21313846111297607 -0.1235816702246666
0.23781195282936096 -0.3950994312763214 -0.09328772872686386
-0.23763245344161987 0.2280932515859604 -0.12283594161272049
0.13552550971508026 0.21945808827877045 0.156368687748909
-0.19138863682746887 0.2510794699192047 -0.017516134306788445
0.2211621254682541 0.5167980790138245 0.008271011523902416
0.2762797474861145 0.23249147832393646 0.027514047920703888
0.20522649586200714 0.22896377742290497 0.14340418577194214
0.27901363372802734 0.23035304248332977 0.025389745831489563
0.19519934058189392 -0.2524307072162628 -0.05425859987735748
-0.18070828914642334 -0.340366929769516 0.06385953724384308
-0.14035974442958832 -0.25212687253952026 0.03195154666900635
-0.08700983226299286 0.22895076870918274 0.12695136666297913
0.28816768527030945 0.16577835381031036 0.15662185847759247
-0.05027630552649498 0.12434794753789902 -0.13567550480365753
-0.20263764262199402 0.2122829258441925 0.15753842890262604
-0.22718293964862823 -0.4732896685600281 -0.002421414479613304
-0.24889269471168518 -0.24289168417453766 0.15537002682685852
-0.257598340511322 0.2290804535150528 -0.03768477588891983
-0.20912906527519226 -0.023406527936458588 0.16990205645561218
0.10549554973840714 0.21625354886054993 -0.13622190058231354
0.25892695784568787 0.231191024184227 -0.03236011043190956
0.04713418334722519 -0.24187541007995605 0.15528583526611328
0.2901332974433899 0.10347340255975723 -0.13662688434123993
-0.269340455532074 0.22026647627353668 -0.010932744480669498
0.2954578399658203 0.004669949412345886 -0.12564845383167267
0.04850544035434723 -0.24520966410636902 -0.13445347547531128
-0.22054705023765564 -0.14275068044662476 0.1590750813484192
-0.2292792946100235 -0.46723443269729614 0.07456536591053009
0.2892010807991028 -0.24869054555892944 0.07088735699653625
-0.03537196293473244 0.15837809443473816 -0.150953009724617
0.2680816054344177 -0.4297352135181427 -0.0707530751824379
0.021688584238290787 0.10648272186517715 0.1700420081615448
-0.03527803346514702 0.17512455582618713 -0.1417255401611328
0.15936468541622162 -0.35476720333099365 0.10898645222187042
0.28949713706970215 0.07558508217334747 -0.1362534612417221
-0.28874456882476807 -0.03818799927830696 -0.2435491979122162
-0.08923885226249695 -0.243682861328125 -0.1356516033411026
0.2627319395542145 -0.3686893880367279 0.16479530930519104
-0.3314592242240906 -0.4156934916973114 -0.0605379119515419
-0.23661452531814575 0.24538347125053406 -0.01767382025718689
-0.23303528130054474 -0.08105935156345367 0.15393923223018646
0.25055989623069763 0.11120665818452835 0.1556776612997055
-0.1677405685186386 0.22830966114997864 0.001452584401704371
0.29113489389419556 -0.12261609733104706 -0.1362837702035904
-0.27134206891059875 0.21732129156589508 -0.0839117243885994
-0.06060485541820526 0.16277864575386047 0.16386203467845917
-0.17546702921390533 0.3392905294895172 -0.028126312419772148
0.1348605751991272 0.11015204340219498 0.16976162791252136
-0.20688515901565552 -0.1800766885280609 0.16906599700450897
-0.2356882393360138 -0.2522662580013275 0.059272460639476776
0.18845424056053162 0.3595829904079437 0.0949452668428421
-0.07491473853588104 0.000920906662940979 0.1702152043581009
-0.2707655429840088 -0.20113138854503632 -0.06068975105881691
0.2965572476387024 0.10592248290777206 0.11874105781316757
0.022132907062768936 0.09507277607917786 -0.13647940754890442
0.29405447840690613 -0.11584215611219406 0.01478876918554306
0.2727234363555908 -0.33892983198165894 0.10825543105602264
0.00955425575375557 0.22918714582920074 0.14604559540748596
0.22907167673110962 -0.24865637719631195 0.14366388320922852
-0.272367924451828 0.07203257083892822 -0.1241474449634552
0.21679820120334625 -0.4479120373725891 0.19547753036022186
-0.04358428716659546 -0.06859932839870453 -0.13601572811603546
0.2960498332977295 0.03592560812830925 -0.007695813663303852
-0.2688193917274475 -0.21842913329601288 -0.13396504521369934
0.22838343679904938 0.3677018880844116 -0.08469005674123764
-0.015368986874818802 0.22324523329734802 -0.17782197892665863
-0.2852272391319275 0.045706771314144135 -0.24849511682987213
0.29288631677627563 0.026044923812150955 0.15493524074554443
-0.1664007306098938 0.2280799299478531 -0.06376205384731293
-0.02368699386715889 0.10109975188970566 -0.13572163879871368
-0.06951611489057541 -0.25030237436294556 0.1423587203025818
-0.02785700000822544 -0.1828347146511078 0.16357523202896118
0.13862647116184235 -0.4367031157016754 0.10165980458259583
-0.2641926407814026 0.14567390084266663 -0.13536396622657776
-0.09199398010969162 0.22957450151443481 0.03190983831882477
-0.030326509848237038 0.17014898359775543 -0.20622000098228455
0.29464030265808105 0.048092275857925415 -0.13103869557380676
-0.2677325904369354 -0.21285195648670197 -0.13365229964256287
-0.27014797925949097 0.2116035521030426 -0.045763641595840454
-0.26863014698028564 -0.11281246691942215 -0.13341905176639557
-0.2684691548347473 0.055401161313056946 0.14833298325538635
0.18182100355625153 -0.17619109153747559 0.16874772310256958
0.05408394709229469 0.12536072731018066 -0.1360776275396347
-0.16744989156723022 0.2275201976299286 -0.0038257630076259375
0.2961408495903015 -0.14396241307258606 -0.13116231560707092
-0.27105218172073364 -0.2507812976837158 -0.06584851443767548
-0.10440701246261597 -0.2496950626373291 -0.12102144956588745
0.28881406784057617 0.12955152988433838 -0.13563285768032074
-0.11065316200256348 0.22090908885002136 -0.13487905263900757
-0.26284581422805786 -0.23075062036514282 -0.13531285524368286
-0.3366168141365051 -0.3837644159793854 0.05441036820411682
-0.27484971284866333 -0.20068663358688354 -0.08699613809585571
-0.26150935888290405 -0.25193023681640625 0.060148999094963074
-0.2648237347602844 -0.10904999822378159 0.1570146232843399
0.20933043956756592 -0.3144710659980774 -0.0734434723854065
0.28564000129699707 -0.1594228893518448 -0.13706442713737488
0.22805443406105042 0.2401045262813568 0.04936465248465538
0.11834146827459335 0.22528193891048431 -0.13118478655815125
0.03903425112366676 -0.25063273310661316 -0.12200384587049484
0.004101276397705078 -0.2388329803943634 -0.1351310908794403
-0.21150535345077515 0.23197413980960846 0.05671105906367302
-0.2891762852668762 0.09011724591255188 -0.2842129170894623
-0.18139666318893433 -0.35916274785995483 0.07052552700042725
-0.2569439709186554 0.012624843046069145 0.15690065920352936
-0.2315303236246109 -0.061971619725227356 0.1539243459701538
0.29471340775489807 0.13658620417118073 0.15451282262802124
0.14572492241859436 0.23061507940292358 -0.09208972752094269
-0.2691231369972229 0.009715845808386803 -0.12837103009223938
-0.26946142315864563 0.03418485447764397 -0.1313885599374771
-0.2676791250705719 0.42978861927986145 0.03765233978629112
0.0007912274450063705 0.08027584850788116 -0.13665807247161865
0.2965426445007324 0.425167441368103 -0.0072843944653868675
0.057573381811380386 0.18339815735816956 -0.15965718030929565
0.29254093766212463 0.2229851484298706 -0.1241777092218399
0.19686807692050934 0.22483764588832855 0.15291544795036316
0.18045851588249207 -0.2026045322418213 0.15461613237857819
0.17142337560653687 -0.26574569940567017 -0.005264348350465298
0.24178946018218994 0.23197883367538452 0.056061964482069016
0.16657666862010956 -0.42448949813842773 0.18848374485969543
-0.2261614054441452 0.15812057256698608 0.15161718428134918
0.2952539920806885 0.18567556142807007 -0.12398844212293625
0.01930014044046402 0.23321980237960815 0.12471333146095276
0.002974648028612137 -0.24099765717983246 -0.1358385980129242
0.19696460664272308 0.17595550417900085 0.15409879386425018
0.2884058952331543 0.19023820757865906 -0.1358616054058075
-0.23537485301494598 0.22440806031227112 0.15430805087089539
0.21339258551597595 -0.42479607462882996 0.20381104946136475
0.25376445055007935 -0.12698332965373993 -0.13730482757091522
0.29844847321510315 -0.08868105709552765 -0.1263313889503479
-0.2599227726459503 0.2288946956396103 0.055533360689878464
-0.16879190504550934 0.4711099863052368 -0.021511351689696312
-0.2714589536190033 0.12499798834323883 -0.1288963258266449
-0.25125983357429504 0.4376412034034729 0.11321202665567398
-0.1467658281326294 -0.20139570534229279 0.1535172313451767
-0.15759363770484924 0.4065362215042114 0.09100038558244705
-0.2549012303352356 -0.11599527299404144 -0.1352754384279251
-0.21671639382839203 -0.2439890205860138 -0.13479728996753693
-0.091295525431633 -0.23497740924358368 -0.13635262846946716
0.24464735388755798 -0.020852943882346153 0.16461417078971863
0.29843825101852417 -0.09133820980787277 0.14475393295288086
0.29407602548599243 0.18212640285491943 -0.1306760311126709
0.1368681788444519 -0.24528656899929047 -0.1362212747335434
0.15379464626312256 0.22944599390029907 -0.02560735121369362
-0.2688525319099426 -0.24017009139060974 -0.13283951580524445
0.250584214925766 -0.2760252058506012 0.07001816481351852
0.22871026396751404 -0.24856384098529816 0.1446472704410553
0.2938616871833801 -0.13320210576057434 -0.12250791490077972
0.095940962433815 -0.14629659056663513 0.1681220978498459
-0.26892465353012085 0.1853349208831787 -0.1122908741235733
-0.2244664877653122 0.25249698758125305 -0.024482816457748413
0.043885812163352966 0.13787005841732025 -0.208538219332695
-0.26794666051864624 -0.08200444281101227 0.1424204409122467
0.19112640619277954 -0.2469586431980133 0.15106016397476196
0.19838546216487885 0.4712446630001068 0.11562012881040573
-0.16196556389331818 -0.00882810540497303 0.16917651891708374
0.2248413860797882 -0.25124454498291016 -0.12050912529230118
0.28569984436035156 0.15258657932281494 -0.135187566280365
-0.26926106214523315 0.22159378230571747 0.1356128752231598
-0.23597849905490875 -0.3098464906215668 0.09872844815254211
-0.11743979901075363 0.17529819905757904 0.15288668870925903
0.2897127866744995 0.22126246988773346 -0.13577136397361755
-0.2624129056930542 -0.14100411534309387 -0.1369870901107788
-0.25778695940971375 0.02903207391500473 0.15717582404613495
-0.26468056440353394 0.07637950778007507 0.1572868525981903
-0.2530897557735443 0.3459171950817108 0.05113859847187996
-0.04627794027328491 0.16830690205097198 -0.13632529973983765
0.08599471300840378 -0.251752108335495 -0.06921124458312988
0.2475675344467163 -0.2485383152961731 0.05026710405945778
-0.2686895430088043 -0.07377712428569794 -0.12946006655693054
-0.26976534724235535 -0.16328725218772888 0.12891878187656403
0.11195675283670425 0.2180599719285965 0.15680474042892456
-0.26540207862854004 -0.18426285684108734 -0.134878471493721
-0.21521049737930298 -0.035981982946395874 0.1669175773859024
0.018397575244307518 0.21482136845588684 0.1568256914615631
-0.2513784170150757 -0.24455875158309937 0.15372779965400696
0.28352832794189453 0.12609639763832092 -0.1364125907421112
-0.25393596291542053 0.22678034007549286 0.1250496357679367
-0.27099090814590454 -0.14965030550956726 -0.1251610517501831
-0.2705647945404053 0.21991337835788727 -0.07344245910644531
-0.26790380477905273 -0.06924542039632797 -0.13571007549762726
-0.21618007123470306 -0.25078222155570984 -0.12333142757415771
0.27999773621559143 0.46148398518562317 0.1272161602973938
0.271777868270874 0.23334704339504242 0.04575055465102196
-0.23072198033332825 -0.44783586263656616 0.13301792740821838
0.0871669128537178 0.22928446531295776 0.14250387251377106
0.2071874886751175 0.30786752700805664 0.03243911638855934
0.17007461190223694 -0.24992556869983673 0.13996246457099915
-0.2702741026878357 0.14253178238868713 -0.13167299330234528
-0.2610580325126648 -0.15474343299865723 -0.13651195168495178
0.1788482964038849 0.3401202857494354 -0.002934476360678673
0.28358086943626404 -0.2507028877735138 0.09193022549152374
0.2096702754497528 -0.25233885645866394 0.08274299651384354
0.29680052399635315 -0.047574371099472046 0.025184979662299156
0.2953389585018158 0.22594377398490906 0.10479333251714706
-0.0072974576614797115 0.25757184624671936 -0.2655675411224365
0.16557250916957855 0.22847609221935272 0.1407776176929474
-0.2712291181087494 -0.3834942579269409 -0.09641986340284348
0.1907590627670288 -0.24933703243732452 0.054905373603105545
-0.15441372990608215 -0.2506321668624878 -0.12316778302192688
0.27666738629341125 -0.3507673740386963 0.11829935014247894
0.2061862349510193 0.22979192435741425 0.008474988862872124
0.2951539158821106 -0.11882849782705307 0.1555350422859192
-0.27069127559661865 0.1413518190383911 -0.12879535555839539
-0.3150297701358795 -0.3929201364517212 -0.06618794798851013
0.009363699704408646 -0.23992888629436493 -0.13667215406894684
-0.2664717733860016 0.228168323636055 0.08193255960941315
0.1687021106481552 -0.04679611325263977 0.17020700871944427
-0.2709312438964844 -0.07910895347595215 -0.12552784383296967
0.261970579624176 -0.24615003168582916 0.15307989716529846
0.23232853412628174 -0.4114629924297333 -0.09398549795150757
-0.298747718334198 -0.32180336117744446 0.17229725420475006
-0.04873450845479965 0.22879956662654877 0.15155325829982758
0.1888563483953476 -0.18635328114032745 0.1615130454301834
0.2466535121202469 -0.15484333038330078 0.15977869927883148
-0.32888293266296387 -0.3599301874637604 0.1573297381401062
0.2702054977416992 -0.35600078105926514 0.1349760740995407
0.2487851232290268 0.22704406082630157 0.05736713483929634
0.24458514153957367 0.3250795304775238 0.059005700051784515
-0.2724103629589081 -0.16759654879570007 -0.12947022914886475
0.28988584876060486 -0.23364320397377014 -0.13562577962875366
-0.1597275584936142 0.343067467212677 -0.002422923222184181
0.2559049129486084 0.22843964397907257 0.1452285796403885
0.1468474119901657 0.2268344908952713 0.142913818359375
0.29515424370765686 -0.09816652536392212 0.15361911058425903
-0.16906970739364624 0.23111845552921295 -0.010794930160045624
0.1820811927318573 0.41612958908081055 0.10845218598842621
0.2958511710166931 0.2188338041305542 0.05838828533887863
0.21211573481559753 -0.4413755238056183 -0.07825859636068344
0.07864420861005783 0.2175445258617401 0.1565537303686142
-0.31277257204055786 -0.43865513801574707 -0.07083536684513092
-0.19611585140228271 -0.2503418028354645 -0.06292896717786789
0.25541529059410095 0.44710052013397217 -0.08244606107473373
-0.3364362120628357 -0.39918649196624756 -0.013742987997829914
-0.1589527279138565 0.41625499725341797 0.09478288143873215
0.25102370977401733 0.10036778450012207 0.15545478463172913
0.21479204297065735 -0.44346967339515686 -0.07926856726408005
0.2939205467700958 0.08557591587305069 -0.012646552175283432
0.2903599441051483 -0.07963571697473526 -0.13548238575458527
0.21547317504882812 0.15051992237567902 0.1701650321483612
-0.31990551948547363 -0.4325493574142456 -0.06405048072338104
-0.2668338716030121 0.19612635672092438 0.15736502408981323
-0.2969318628311157 -0.374480664730072 0.20105832815170288
-0.25360557436943054 -0.07305312901735306 -0.27583393454551697
0.2897612154483795 0.21916237473487854 -0.13581079244613647
0.28516799211502075 -0.4471586346626282 0.08176936209201813
-0.038533009588718414 0.10971752554178238 -0.13598720729351044
-0.2131008356809616 0.2258683741092682 0.15031316876411438
0.19200894236564636 -0.07021869719028473 -0.1372954398393631
0.14548872411251068 -0.42837080359458923 -0.010229287669062614
-0.21153214573860168 -0.18697991967201233 0.1583227813243866
-0.3293924927711487 -0.41990143060684204 -0.0583813339471817
0.2849181592464447 -0.23523089289665222 -0.13485769927501678
0.17825283110141754 0.37300941348075867 -0.0036528490018099546
-0.2691739797592163 0.003308817744255066 -0.1303960233926773
-0.29132169485092163 -0.37410077452659607 0.20608645677566528
0.2849690914154053 -0.2235596776008606 -0.13499699532985687
-0.2323678731918335 -0.24684779345989227 0.15224513411521912
0.29453474283218384 -0.0896352231502533 0.14751988649368286
0.29282236099243164 0.08657928556203842 -0.13546131551265717
-0.26878511905670166 0.013803398236632347 -0.13182313740253448
-0.006690077483654022 0.20607587695121765 -0.13219504058361053
0.2860749363899231 -0.23477855324745178 -0.13493980467319489
0.27462342381477356 -0.3845036029815674 0.1739705502986908
-0.3128514885902405 -0.4045429229736328 -0.0762409046292305
-0.2720377743244171 -0.022045474499464035 -0.12242787331342697
-0.26898595690727234 -0.24605843424797058 -0.062228091061115265
-0.26805129647254944 -0.21188223361968994 -0.13339382410049438
0.29023605585098267 0.204941987991333 -0.13479706645011902
0.24936847388744354 -0.18232345581054688 0.15418361127376556
-0.2689313292503357 0.22143429517745972 0.1470058709383011
0.05159616470336914 0.13227437436580658 -0.1353626251220703
-0.03922402486205101 0.16107353568077087 -0.13626229763031006
-0.26837366819381714 0.2260880470275879 0.062062911689281464
-0.11096088588237762 -0.251922607421875 0.14227014780044556
0.20392999053001404 -0.4255891442298889 -0.08616512268781662
0.2927185297012329 -0.06348270922899246 -0.13472262024879456
0.20365092158317566 0.22849011421203613 -0.1283864974975586
-0.2060975432395935 -0.1922033578157425 0.15568898618221283
-0.2416328340768814 -0.26491832733154297 -0.008417414501309395
0.0804230347275734 -0.07612841576337814 -0.1361173838376999
-0.27148187160491943 0.10471754521131516 -0.02779991552233696
-0.22412380576133728 -0.4754279553890228 0.01656481623649597
-0.2701430916786194 -0.06962118297815323 -0.13310961425304413
0.2781263291835785 -0.44600799679756165 0.009743649512529373
0.29528987407684326 -0.006830044090747833 -0.13024428486824036
-0.2716139853000641 -0.16655127704143524 -0.12467733770608902
-0.04093926027417183 -0.2359485924243927 0.15626412630081177
-0.02308778651058674 0.1882629096508026 -0.14681574702262878
0.29506567120552063 -0.2323213517665863 -0.04389568418264389
-0.035115960985422134 0.22732874751091003 -0.13094359636306763
-0.17934781312942505 0.17504838109016418 0.15244737267494202
-0.26744189858436584 -0.2496434599161148 0.14011693000793457
0.28852400183677673 0.22560560703277588 -0.12809595465660095
0.255392462015152 -0.2495393455028534 0.02001808024942875
0.045915208756923676 0.22764381766319275 0.14656466245651245
0.2476668804883957 -0.2903304398059845 -0.05931805446743965
-0.05035087466239929 0.22996202111244202 0.14477410912513733
-0.2587481439113617 -0.2939080595970154 0.08129801601171494
-0.2092643678188324 -0.0908157080411911 0.16844697296619415
0.13976909220218658 -0.43588942289352417 0.01043762732297182
-0.10842839628458023 -0.2516368329524994 -0.12170029431581497
-0.21988347172737122 0.07960411161184311 0.1645088493824005
-0.27051159739494324 -0.13497091829776764 -0.12452095746994019
-0.181568905711174 -0.19183504581451416 0.15350982546806335
0.29311424493789673 -0.02585674449801445 0.1570027768611908
0.295367032289505 0.14064733684062958 -0.13019774854183197
-0.2566041946411133 0.02756296843290329 -0.30475687980651855
-0.2701548933982849 0.09734281897544861 -0.13005241751670837
0.26487210392951965 0.4390560984611511 -0.08160290122032166
-0.187502920627594 -0.2638982832431793 0.06938280910253525
-0.26990950107574463 0.10005384683609009 -0.1299857348203659
-0.335313081741333 -0.36698588728904724 0.13150212168693542
0.2623041570186615 -0.13471579551696777 0.155623197555542
0.29605841636657715 0.14340904355049133 0.11560525745153427
0.25430598855018616 0.5119573473930359 0.013736670836806297
0.01590784080326557 -0.25081032514572144 -0.01139784511178732
-0.2326904982328415 0.25525110960006714 -0.01625974103808403
0.20394504070281982 0.22928456962108612 -0.018652670085430145
-0.05677356570959091 0.19241632521152496 -0.13447755575180054
0.23213878273963928 0.018886622041463852 0.16958336532115936
-0.1671265810728073 0.2214292287826538 -0.13504712283611298
0.2769731879234314 -0.44419294595718384 0.025706611573696136
-0.17561979591846466 0.0784306675195694 0.16977879405021667
0.1754581332206726 -0.2558678090572357 -0.01354481466114521
0.29222235083580017 0.22404193878173828 -0.11671307682991028
0.22845245897769928 0.1282929927110672 0.1696845442056656
0.15896987915039062 -0.24754594266414642 0.15261170268058777
0.20078015327453613 -0.4463421702384949 -0.010436823591589928
0.2558024227619171 0.10433752834796906 0.15446488559246063
-0.2687702476978302 -0.046386733651161194 0.149360790848732
0.03368974104523659 0.2303808182477951 -0.12018289417028427
0.2909420132637024 0.0590803287923336 0.1572572886943817
-0.1451999843120575 0.22753828763961792 0.0001441827043890953
0.2948590815067291 -0.11072593182325363 0.1556091010570526
0.2823330760002136 -0.22738787531852722 -0.13629016280174255
