0.28204619884490967 -0.21145066618919373 -0.13091348111629486
-0.2711278200149536 -0.3026929497718811 0.05845692381262779
-0.23860511183738708 0.22707496583461761 0.10963871330022812
-0.21705752611160278 0.22187113761901855 -0.13395288586616516
0.027474362403154373 0.22606046497821808 -0.1299615055322647
0.08386589586734772 0.22422176599502563 -0.13190960884094238
-0.23928792774677277 0.22079917788505554 -0.1331746131181717
-0.2702879011631012 -0.10197187215089798 0.1354544758796692
-0.06737108528614044 -0.2518613934516907 -0.05142249912023544
0.12215884029865265 0.22724789381027222 -0.13069188594818115
0.10019457340240479 -0.24896156787872314 0.0376925952732563
-0.24779030680656433 -0.24833302199840546 0.13110370934009552
-0.1444043517112732 0.2299000471830368 0.02708645910024643
-0.27088189125061035 -0.11448820680379868 -0.12585322558879852
0.24577420949935913 0.019493471831083298 -0.1305970549583435
-0.33595454692840576 -0.3531722128391266 0.08589635044336319
0.18170678615570068 0.4369259178638458 -0.018142586573958397
-0.2643502950668335 0.21555855870246887 -0.13766926527023315
-0.2690901756286621 0.027168428525328636 0.13724404573440552
-0.262144535779953 0.04101213812828064 -0.13231168687343597
0.17614513635635376 -0.226484015583992 -0.13363154232501984
-0.010388556867837906 -0.01706741750240326 0.17241600155830383
0.2718251645565033 0.22736003994941711 -0.12004639953374863
-0.05654805898666382 -0.25498852133750916 -0.004283940885215998
0.2790575623512268 -0.21058818697929382 -0.1347707360982895
-0.3263453543186188 -0.36375585198402405 0.014403381384909153
0.2962425649166107 0.07693102210760117 0.15566040575504303
-0.24536274373531342 -0.21046216785907745 -0.13526438176631927
0.008120975457131863 0.22963660955429077 -0.13330696523189545
0.2636854946613312 -0.209407776594162 -0.13344606757164001
-0.2764042615890503 -0.03531694412231445 -0.13466453552246094
0.27844589948654175 -0.2519416809082031 -0.06022917106747627
-0.3055560886859894 -0.3886345326900482 0.13825054466724396
0.29804450273513794 -0.16252899169921875 0.08696558326482773
0.2967739999294281 0.21039919555187225 0.15381306409835815
0.0019831201061606407 0.13585461676120758 -0.13474009931087494
0.2228769212961197 0.22557199001312256 -0.13087229430675507
0.12196847796440125 -0.2507650852203369 0.12264943867921829
0.2737656235694885 0.06971580535173416 -0.13202476501464844
0.24240140616893768 0.09806831181049347 0.16315120458602905
0.29534411430358887 0.3642040491104126 -0.02592046931385994
0.2181912660598755 -0.17941054701805115 0.15647709369659424
0.2020467072725296 0.3943294286727905 -0.07762943208217621
0.2991170883178711 0.23859098553657532 0.12008248269557953
0.23601427674293518 -0.2473905384540558 -0.11665236204862595
-0.17427578568458557 -0.34404146671295166 0.05930863693356514
0.2435987889766693 -0.12249773740768433 0.1593099981546402
-0.2432313859462738 -0.21228915452957153 -0.13535018265247345
-0.05992015823721886 0.06550240516662598 0.17006166279315948
0.29760900139808655 0.23473234474658966 0.07165268063545227
-0.2711593806743622 -0.2055077999830246 0.008242502808570862
-0.008790798485279083 0.22758546471595764 -0.10380367934703827
-0.1706794947385788 0.1567857563495636 0.16662174463272095
0.04343392699956894 -0.22157898545265198 -0.13365904986858368
-0.32635846734046936 -0.36253225803375244 0.1706891804933548
-0.270622581243515 -0.02168591134250164 0.13267305493354797
-0.27495500445365906 -0.4493677020072937 0.013563428074121475
0.2735280394554138 0.12644816935062408 -0.1321304589509964
-0.26966312527656555 -0.15306611359119415 0.13389013707637787
-0.2450963705778122 -0.058808669447898865 -0.24525302648544312
0.06016705185174942 0.1845555603504181 -0.18179725110530853
-0.26857882738113403 0.01849108748137951 0.13071703910827637
-0.19162620604038239 0.4941589832305908 0.07349853217601776
0.22114485502243042 -0.170481875538826 0.1696588397026062
-0.24757373332977295 -0.017513426020741463 -0.27023541927337646
0.1268618404865265 -0.22221285104751587 -0.1324537992477417
0.1969531774520874 -0.3347601890563965 0.11299029737710953
0.12747548520565033 0.15489748120307922 0.16905105113983154
0.19334813952445984 0.2242993265390396 -0.12776023149490356
0.2380034476518631 -0.2037176638841629 -0.13255001604557037
-0.26991793513298035 0.0062701087445020676 -0.13331617414951324
0.18627884984016418 -0.09498956054449081 -0.134934201836586
-0.27014628052711487 0.20150677859783173 -0.12999022006988525
-0.24420668184757233 0.22938261926174164 -0.045973826199769974
0.22970207035541534 0.22579331696033478 -0.11765949428081512
-0.15847788751125336 0.22819650173187256 0.028349580243229866
-0.04041781276464462 -0.24825811386108398 0.12469352781772614
-0.2624870836734772 -0.14757868647575378 -0.13061384856700897
0.2743995785713196 0.2033391296863556 -0.13384783267974854
0.2960510551929474 -0.19270065426826477 -0.02310505136847496
-0.2415049970149994 -0.39565983414649963 -0.09184340387582779
0.26711681485176086 -0.2473784238100052 -0.0900566503405571
0.15713036060333252 -0.3541952669620514 -0.027979794889688492
-0.20909270644187927 -0.33139732480049133 -0.07840578258037567
0.20672130584716797 -0.20553460717201233 -0.13482777774333954
0.13771121203899384 -0.42220714688301086 0.02846801094710827
-0.2939043641090393 -0.02153616212308407 -0.2579759955406189
0.1365301012992859 0.16960826516151428 -0.1352076679468155
0.15835300087928772 0.171843484044075 0.15868906676769257
-0.19427475333213806 -0.3669150471687317 -0.05707382410764694
-0.27001631259918213 0.2308555394411087 0.025564495474100113
-0.18280179798603058 0.3125618100166321 -0.0031116395257413387
0.2801593244075775 -0.4429195523262024 0.1449594348669052
-0.10122034698724747 -0.2517039477825165 0.10487110912799835
0.29558563232421875 0.05014483258128166 0.16492803394794464
0.24589437246322632 -0.14362406730651855 -0.13323645293712616
-0.06604807823896408 -0.2485218495130539 -0.14150863885879517
-0.043279554694890976 -0.22686532139778137 -0.1357792466878891
0.0036756107583642006 -0.24874459207057953 -0.1121387779712677
-0.3240188956260681 -0.33214691281318665 0.15062519907951355
0.1815379559993744 0.35542353987693787 -0.012475380674004555
0.18557043373584747 0.4754370152950287 0.06969939172267914
0.1352720409631729 -0.25221800804138184 -0.001043151132762432
0.13309097290039062 -0.42099952697753906 0.11857046186923981
0.27677375078201294 -0.3492620885372162 -0.023711083456873894
-0.1012304499745369 0.21271449327468872 -0.13660386204719543
-0.16475094854831696 0.22990399599075317 -0.13319547474384308
-0.2724471986293793 -0.11979866027832031 -0.028510719537734985
-0.1966530829668045 -0.40643903613090515 0.10656631737947464
-0.011369200423359871 -0.24960355460643768 -0.14195044338703156
0.00231373542919755 0.22372116148471832 -0.13143542408943176
-0.1734413206577301 -0.14553239941596985 0.16851066052913666
0.24879756569862366 0.200170636177063 -0.13394814729690552
0.007830418646335602 -0.0984564870595932 -0.13501274585723877
-0.15407484769821167 0.3966529965400696 0.04151855409145355
0.22731775045394897 -0.09736454486846924 0.16634757816791534
0.2964344620704651 0.00795719027519226 -0.003622300922870636
0.10937382280826569 -0.2513386309146881 0.026862069964408875
-0.27486974000930786 -0.07122288644313812 -0.13075873255729675
0.29873448610305786 0.2067728191614151 0.09976376593112946
-0.23170718550682068 -0.27618178725242615 -0.04982879012823105
0.2150837481021881 -0.03216850757598877 -0.1342235505580902
0.18579110503196716 -0.2256374955177307 -0.13383203744888306
-0.2721712589263916 -0.04143097624182701 -0.1279149055480957
0.079673171043396 0.19289425015449524 0.15648336708545685
0.22631056606769562 -0.2524455487728119 0.09880685061216354
0.17918002605438232 0.45580926537513733 0.03778666630387306
-0.09117042273283005 0.153984934091568 0.1665925234556198
0.08136692643165588 0.20418693125247955 0.15475764870643616
-0.009891239926218987 0.15146124362945557 0.1694778949022293
0.11098012328147888 0.17352616786956787 0.15879805386066437
0.028493914753198624 -0.25161775946617126 0.014912799000740051
-0.14935721457004547 0.18474656343460083 0.15538115799427032
-0.28403493762016296 -0.41566863656044006 -0.0937974825501442
0.07058035582304001 -0.22583380341529846 -0.1327335387468338
-0.26714250445365906 0.06521009653806686 -0.13738714158535004
0.05806020647287369 -0.251825213432312 0.003405660390853882
-0.17818540334701538 0.49167826771736145 0.022169576957821846
0.09236692637205124 -0.24849964678287506 -0.1173320859670639
0.17467355728149414 -0.448272168636322 0.1725194752216339
-0.26814019680023193 0.16683456301689148 0.1252824068069458
-0.27299341559410095 -0.2275744527578354 0.1138107180595398
-0.2140747457742691 0.0356966033577919 0.16998860239982605
-0.2978278696537018 -0.3278137445449829 0.028029337525367737
-0.15454863011837006 0.2301187515258789 -0.022974129766225815
-0.27151209115982056 0.03324752300977707 -0.13527131080627441
0.22737310826778412 -0.24657267332077026 -0.07849985361099243
-0.28505176305770874 -0.041827086359262466 -0.2474372237920761
0.07725195586681366 -0.20434162020683289 -0.132955402135849
0.2956481873989105 0.39301180839538574 0.10244312882423401
-0.19752199947834015 0.22533652186393738 -0.04687335342168808
-0.2683572769165039 -0.19972336292266846 -0.1279868185520172
0.2948867678642273 0.020889952778816223 0.16062061488628387
0.19471099972724915 0.15409310162067413 0.1690855175256729
0.05090519040822983 -0.1696753054857254 0.16911634802818298
-0.2063102126121521 0.413618803024292 0.09107393771409988
0.24934431910514832 -0.24725350737571716 -0.10246327519416809
-0.15954600274562836 0.40313026309013367 -0.02015412412583828
0.23995675146579742 -0.3479047119617462 0.1401212364435196
0.11541923135519028 -0.2500739097595215 -0.12299859523773193
-0.25018075108528137 -0.2529693841934204 0.128256157040596
-0.26642486453056335 0.11029374599456787 -0.13732092082500458
0.2866768538951874 0.47793105244636536 0.03530733659863472
-0.27211207151412964 -0.029476463794708252 -0.13203176856040955
-0.2533508837223053 0.22525593638420105 -0.13319653272628784
0.2984955906867981 0.380442351102829 0.06311164051294327
-0.11321549862623215 -0.22559358179569244 0.15725348889827728
-0.003233303315937519 0.22816714644432068 0.11247222870588303
-0.3072105944156647 -0.38332369923591614 0.15509697794914246
-0.011656821705400944 0.2282184511423111 -0.13318641483783722
-0.03441488370299339 0.16169330477714539 0.1639898121356964
0.29864296317100525 0.05435465648770332 0.1454697549343109
-0.22338351607322693 -0.2299795299768448 -0.13481631875038147
-0.21039488911628723 -0.04124227911233902 0.17040708661079407
0.20705625414848328 -0.2736128270626068 -0.04768156632781029
0.012515918351709843 0.199995219707489 -0.23092466592788696
-0.3188418447971344 -0.4265553057193756 -0.05354258790612221
0.27567362785339355 -0.44583067297935486 0.17171640694141388
0.30097949504852295 0.35118380188941956 0.01739400252699852
0.2780357599258423 -0.4408174455165863 0.1435309201478958
-0.26754099130630493 0.37722647190093994 -0.0035456076730042696
0.09510473161935806 0.22385291755199432 0.13096307218074799
-0.1718529760837555 -0.3509569764137268 -0.0270388126373291
0.26465311646461487 0.22719071805477142 0.1023939996957779
-0.1817111074924469 0.23016001284122467 0.097042977809906
-0.269871324300766 -0.23850053548812866 0.0031274817883968353
0.2792505621910095 -0.40104052424430847 -0.03616403043270111
0.0596146285533905 0.16292518377304077 0.16410842537879944
0.2049030214548111 0.4498869478702545 -0.07082822918891907
0.032035090029239655 -0.2284565269947052 -0.13240648806095123
0.1128472238779068 -0.250994473695755 -0.008213388733565807
-0.27030149102211 -0.065720334649086 0.13551367819309235
0.2918508052825928 -0.010597407817840576 0.15035054087638855
0.2796379029750824 0.19786669313907623 -0.13727739453315735
-0.03403933346271515 0.23035085201263428 0.13410215079784393
0.29894739389419556 0.2311273217201233 0.058583203703165054
0.2810048758983612 -0.41826337575912476 -0.03756226599216461
0.27987828850746155 -0.3642474412918091 0.01654263772070408
0.2991775572299957 0.0786001980304718 0.1371414065361023
0.20160645246505737 -0.18416863679885864 0.15611064434051514
0.26749706268310547 -0.2976696193218231 -0.018078038468956947
0.1716918796300888 0.22867484390735626 0.049094006419181824
0.13182677328586578 0.22412778437137604 -0.13099579513072968
0.21098262071609497 0.357525497674942 -0.07430015504360199
0.2004992663860321 0.1700744479894638 0.15496481955051422
0.12234348803758621 -0.20670132339000702 -0.13291458785533905
-0.2680359482765198 0.41599154472351074 0.028516922146081924
0.2610495388507843 0.42078936100006104 0.10723791271448135
0.29287782311439514 -0.08431893587112427 0.1586725264787674
-0.07827682793140411 -0.21137431263923645 0.15420210361480713
0.26563870906829834 -0.308716356754303 0.09958603978157043
0.29340294003486633 -0.21819444000720978 0.09633736312389374
0.2791149914264679 0.20407961308956146 -0.13642099499702454
-0.1468202769756317 0.22808857262134552 -0.13546214997768402
-0.2684069573879242 -0.1640126258134842 -0.05248664319515228
0.024009086191654205 -0.25012776255607605 -0.11832454800605774
-0.26946428418159485 -0.06602538377046585 -0.13421574234962463
0.14543524384498596 -0.38523486256599426 0.1264069378376007
0.2682145833969116 0.49669039249420166 -0.022395581007003784
-0.2724872827529907 -0.20236489176750183 -0.12429220229387283
0.25735145807266235 -0.3719682991504669 0.16516675055027008
0.29408392310142517 0.22369533777236938 0.11602973192930222
0.2953921854496002 -0.1259164810180664 0.15572813153266907
-0.0485408678650856 -0.25008851289749146 0.1277308613061905
0.2958916425704956 -0.07000772655010223 0.1543009728193283
-0.11753302067518234 -0.25165313482284546 0.12305716425180435
0.2754896581172943 -0.2495708018541336 0.08382806926965714
-0.041319672018289566 0.2244102954864502 -0.13169816136360168
0.08302558213472366 0.18458697199821472 0.15619036555290222
-0.272086501121521 -0.03916217386722565 -0.1318063586950302
0.1798000931739807 -0.23183536529541016 -0.13146628439426422
0.2704983651638031 -0.43999531865119934 0.10384675860404968
0.18033556640148163 -0.12898245453834534 0.1634107381105423
-0.270185261964798 -0.19048981368541718 -0.12967689335346222
0.25964272022247314 -0.2051507830619812 -0.13272947072982788
-0.24595317244529724 -0.3987370431423187 -0.09332238882780075
0.29583925008773804 0.21863222122192383 0.13688068091869354
0.07669755071401596 0.2263689935207367 -0.09126746654510498
0.2780892252922058 -0.22345764935016632 -0.13074174523353577
-0.09772787243127823 0.20602913200855255 0.15564411878585815
-0.1735832840204239 0.22777211666107178 -0.13549402356147766
0.1689673215150833 0.2278548926115036 0.10225099325180054
0.27562570571899414 -0.11953738331794739 -0.13337235152721405
0.16855764389038086 -0.24942561984062195 0.0734168142080307
-0.2709336280822754 0.17903102934360504 0.128262460231781
-0.27371448278427124 -0.01651144027709961 -0.13515186309814453
0.10645613074302673 0.07774591445922852 -0.13520276546478271
0.299268901348114 0.16657030582427979 0.1597001552581787
0.1598406434059143 0.2282990664243698 -0.12458935379981995
-0.26020991802215576 0.1713465005159378 -0.13264034688472748
-0.20465700328350067 0.22860461473464966 -0.12317796051502228
0.010746198706328869 0.10290038585662842 -0.1654268354177475
0.23438364267349243 0.13408267498016357 -0.13399693369865417
0.29626306891441345 0.23593491315841675 0.13264413177967072
0.2958260476589203 -0.10265728831291199 0.15389853715896606
-0.183009535074234 -0.17597216367721558 0.16704061627388
0.1994372308254242 0.2301379293203354 -0.001838479656726122
0.12349070608615875 -0.22782990336418152 -0.13095414638519287
0.2475893497467041 -0.32649552822113037 0.11545834690332413
-0.2334456890821457 0.23226693272590637 -0.13376718759536743
-0.2001960575580597 -0.35333728790283203 0.09748955816030502
-0.2638480067253113 0.15649548172950745 -0.1341383159160614
0.21283423900604248 0.22597424685955048 -0.12731796503067017
0.05507403612136841 0.22609125077724457 -0.02246778830885887
0.22115375101566315 -0.4161059856414795 -0.08956541121006012
-0.2715219259262085 -0.047082893550395966 -0.1309066265821457
-0.24199753999710083 0.49139323830604553 0.09508851170539856
-0.20678626000881195 0.04389767348766327 0.17526760697364807
0.29533419013023376 0.08230415731668472 0.1588723361492157
-0.16063308715820312 0.23159265518188477 0.07428690046072006
-0.260926753282547 0.1580463945865631 -0.1336401104927063
-0.12868696451187134 0.22663874924182892 -0.04473547637462616
-0.23160500824451447 -0.36347028613090515 -0.08951282501220703
-0.22304129600524902 -0.2278260588645935 -0.13463269174098969
-0.25166088342666626 0.17009307444095612 0.1592421978712082
0.2696475088596344 -0.22234734892845154 -0.13211940228939056
-0.2700479030609131 0.18034222722053528 -0.13375014066696167
0.166468545794487 -0.37002503871917725 -0.05104491114616394
-0.23320892453193665 0.22719453275203705 -0.040090952068567276
-0.1665167212486267 0.48443347215652466 0.05270737037062645
-0.27260130643844604 0.035087235271930695 -0.1354222148656845
-0.20104506611824036 -0.3703145682811737 -0.06431141495704651
0.2971414029598236 -0.05351398140192032 0.15875816345214844
-0.1727011352777481 -0.06603408604860306 0.17213958501815796
0.2944815754890442 -0.012283116579055786 0.1659155786037445
0.2069912701845169 0.4819784462451935 -0.04364532232284546
-0.3292062282562256 -0.381984680891037 -0.027526015415787697
-0.2718655467033386 0.17048966884613037 -0.1347741186618805
0.042490746825933456 0.2265515774488449 -0.04043307155370712
-0.2897486090660095 -0.012794776819646358 -0.29128187894821167
0.17017090320587158 -0.44692444801330566 0.07732126861810684
-0.09968781471252441 -0.2512678802013397 -0.032403990626335144
-0.2253493219614029 -0.2276187539100647 -0.13357137143611908
-0.10569807887077332 -0.2301267683506012 -0.13474996387958527
0.053553737699985504 -0.132904052734375 0.1701669842004776
-0.27327755093574524 0.10155776143074036 -0.12571081519126892
0.300374835729599 0.23049405217170715 0.1545800417661667
-0.2910912036895752 -0.36619833111763 -0.0779200941324234
0.2985726594924927 0.2329181283712387 0.004793435335159302
0.2954651713371277 -0.13500326871871948 0.162800133228302
-0.2708287835121155 0.19066698849201202 -0.13149158656597137
0.04225526005029678 -0.25419121980667114 -0.03570818156003952
-0.185542032122612 -0.3785088360309601 -0.03982757031917572
-0.2709234058856964 0.07115530967712402 0.06442177295684814
-0.245260089635849 -0.2852252721786499 0.05961041525006294
-0.22260674834251404 -0.38432496786117554 -0.08192837983369827
-0.20445606112480164 -0.23644395172595978 -0.1383504718542099
-0.05737762153148651 -0.25184208154678345 -0.07816734910011292
-0.3182036578655243 -0.37038204073905945 0.1682536005973816
0.29851821064949036 0.22893556952476501 0.03399457782506943
-0.2310463935136795 0.4972585439682007 0.0909585952758789
-0.27093860507011414 -0.23400765657424927 -0.03720724210143089
0.058713797479867935 -0.25574684143066406 0.02166595496237278
0.29463016986846924 -0.05433141440153122 0.16140015423297882
-0.30737003684043884 -0.4183802902698517 0.03068138100206852
-0.09212424606084824 -0.22635658085346222 -0.13528725504875183
0.17063133418560028 -0.3172804117202759 -0.04242193326354027
-0.08244845271110535 0.22694653272628784 -0.08005192875862122
-0.1722574681043625 0.3342551589012146 0.0044042146764695644
-0.3000905513763428 -0.3567916452884674 -0.04818311706185341
-0.05777506157755852 -0.17025485634803772 0.16553327441215515
-0.2656755745410919 0.05598936602473259 -0.13292117416858673
-0.18527330458164215 0.2277088314294815 -0.09588059782981873
0.26052525639533997 -0.22676032781600952 -0.1319771409034729
0.23475758731365204 0.021561387926340103 0.16196414828300476
0.2838071882724762 -0.3474939167499542 0.0893130898475647
-0.08131653070449829 0.17840774357318878 0.15645982325077057
-0.2694096267223358 0.20090174674987793 0.1260642111301422
0.29623112082481384 0.09177238494157791 -0.09498517215251923
0.25036758184432983 -0.1332235187292099 0.15581931173801422
0.07453876733779907 -0.08466126769781113 0.171174556016922
-0.2737610936164856 -0.08898308873176575 -0.13343730568885803
-0.24860262870788574 -0.05708488076925278 0.1570928543806076
0.1837133765220642 0.4705865979194641 0.07048551738262177
0.1666044443845749 -0.3950188159942627 0.18206143379211426
-0.19197086989879608 0.14750003814697266 0.1607818901538849
0.014086287468671799 -0.19660338759422302 0.15690170228481293
-0.27358055114746094 -0.40250808000564575 0.18752451241016388
0.1947123110294342 -0.24974185228347778 0.09859014302492142
-0.2448866367340088 -0.005533404182642698 -0.27676787972450256
0.05644351243972778 -0.22357898950576782 -0.13048075139522552
0.29669883847236633 0.23121629655361176 -0.057060834020376205
0.19693371653556824 -0.17411479353904724 0.16513632237911224
0.262092649936676 -0.19435906410217285 -0.1345716118812561
2.4635810405015945e-05 0.23038315773010254 -0.13072076439857483
0.08100641518831253 0.22308826446533203 -0.13235145807266235
0.26141273975372314 -0.1324070245027542 -0.13333383202552795
0.3016609847545624 0.4408933222293854 0.04138531535863876
0.11371856182813644 -0.24630393087863922 -0.1218014657497406
0.2222539782524109 0.37111908197402954 -0.08496120572090149
0.2964200973510742 -0.1546722650527954 0.15576578676700592
-0.0184710044413805 0.22658199071884155 -0.028267916291952133
-0.18131785094738007 0.40683066844940186 -0.06520765274763107
0.2969040870666504 0.2346373200416565 0.10113419592380524
-0.26023054122924805 0.15341581404209137 0.16007162630558014
-0.008411502465605736 0.14950968325138092 -0.13556626439094543
0.30030131340026855 -0.1861862689256668 0.11439678072929382
0.12604448199272156 -0.24802382290363312 0.014172151684761047
0.2793036699295044 0.10433587431907654 -0.1313515454530716
0.301369309425354 0.3769162595272064 -0.0010861342307180166
-0.03020656853914261 0.22671560943126678 -0.1334686428308487
0.1446564495563507 0.17250308394432068 0.16183599829673767
-0.04148299992084503 -0.2320994734764099 -0.1334707885980606
0.2983040511608124 -0.2190852016210556 0.061067573726177216
0.19958725571632385 0.1536874920129776 0.170272096991539
0.29445719718933105 0.22971747815608978 0.022871118038892746
0.12377502024173737 0.22808216512203217 0.08636145293712616
0.17869876325130463 0.3751957416534424 0.06955689936876297
0.2104525864124298 0.2265416532754898 -0.07408738136291504
-0.21488457918167114 -0.03622496873140335 0.17114292085170746
0.27139875292778015 0.17883607745170593 0.15737056732177734
0.14269621670246124 -0.36983722448349 0.09395843744277954
0.2535896301269531 -0.3504865765571594 -0.08324708044528961
0.24591492116451263 -0.36563196778297424 -0.0856030061841011
0.273613840341568 0.043140262365341187 -0.13119708001613617
0.2928294241428375 0.09021459519863129 0.16204264760017395
0.08989493548870087 0.07918263971805573 -0.13523413240909576
0.2935410439968109 0.2283383458852768 0.11055101454257965
-0.1716548651456833 -0.29820573329925537 -0.03565897420048714
-0.21425879001617432 0.017585497349500656 0.16895027458667755
-0.17668943107128143 -0.29242655634880066 -0.044762447476387024
-0.24404901266098022 -0.4198887348175049 -0.08547037094831467
-0.2681937515735626 0.12387733161449432 -0.13334891200065613
0.27533677220344543 0.20809462666511536 -0.13549299538135529
-0.2723923325538635 0.17628686130046844 0.02361162006855011
0.15704947710037231 -0.2503560781478882 0.11249630898237228
0.21933069825172424 -0.17428846657276154 0.16525225341320038
-0.2437022477388382 0.228998064994812 0.12351648509502411
0.12631022930145264 -0.23019960522651672 -0.1330234855413437
0.29482388496398926 0.10688169300556183 0.15676997601985931
-0.12308941036462784 -0.2290717363357544 -0.13027305901050568
0.1200932115316391 0.2284531146287918 -0.1252795159816742
-0.2489958554506302 0.017916906625032425 -0.29124292731285095
0.2936488687992096 -0.14671635627746582 0.1580750048160553
0.273654580116272 -0.4445766508579254 0.17606894671916962
0.29905375838279724 0.2379676103591919 0.1280563920736313
0.296451210975647 -0.21397627890110016 0.1329812854528427
-0.0361095666885376 0.22672583162784576 -0.0385160930454731
-0.11707023531198502 0.22599127888679504 -0.1280817687511444
0.00800275057554245 -0.2277030348777771 -0.1319660097360611
0.21720248460769653 0.1724417358636856 0.1558348685503006
-0.3243590295314789 -0.3635295331478119 0.18192368745803833
0.005701090209186077 0.19322335720062256 0.15824443101882935
0.29525667428970337 0.22655348479747772 0.07493145018815994
0.2711743116378784 0.21464402973651886 -0.13338834047317505
0.29369404911994934 0.08662149310112 0.16152071952819824
-0.25075939297676086 0.037596117705106735 -0.1328093409538269
0.24696382880210876 -0.22614839673042297 -0.1340397149324417
0.21619467437267303 0.5101016163825989 0.04012737050652504
-0.2563575208187103 0.22745928168296814 -0.13160289824008942
-0.027391783893108368 0.21636062860488892 -0.13706964254379272
0.28970152139663696 -0.400190144777298 0.0540546178817749
-0.13781456649303436 0.1398484855890274 -0.1350596398115158
0.03847428038716316 0.1481654793024063 -0.13714009523391724
-0.16554242372512817 0.22825205326080322 0.06460893154144287
-0.06853795051574707 0.04132620245218277 0.1707574874162674
-0.26844656467437744 -0.23693500459194183 -0.022486621513962746
0.20636190474033356 0.3318309187889099 0.07869715988636017
0.2942882180213928 0.22514377534389496 0.10715857148170471
-0.16596733033657074 -0.3322966396808624 -0.021818555891513824
0.25784188508987427 -0.2217404991388321 -0.13596412539482117
-0.049144595861434937 -0.19107075035572052 0.15360985696315765
0.06750299036502838 0.15725493431091309 -0.1610751897096634
-0.1624334156513214 -0.32707905769348145 0.028367139399051666
0.1652468740940094 -0.38283413648605347 -0.052598439157009125
0.05517931282520294 -0.24702177941799164 -0.14300626516342163
-0.2586158812046051 0.46695029735565186 0.012712427414953709
0.24486684799194336 0.15216675400733948 0.1575135439634323
-0.17469878494739532 -0.27490195631980896 -0.04267292469739914
-0.0014349892735481262 -0.20841094851493835 0.15556906163692474
0.25603705644607544 -0.36131206154823303 0.1544853001832962
-0.19848281145095825 -0.36105313897132874 0.09935494512319565
-0.24699236452579498 0.33386632800102234 -0.023573236539959908
-0.2919008433818817 0.04874538257718086 -0.3047235906124115
-0.21825648844242096 -0.4380352795124054 0.1507062464952469
0.08075881749391556 -0.22959348559379578 -0.13396187126636505
-0.1991869956254959 0.23024681210517883 -0.13364779949188232
-0.27010729908943176 0.009793577715754509 -0.13510742783546448
0.18600550293922424 -0.39793646335601807 -0.07411295175552368
0.21051698923110962 -0.3450923264026642 -0.07857371866703033
-0.16178292036056519 0.37043750286102295 0.06057428568601608
-0.271091103553772 -0.06397982686758041 -0.13251478970050812
-0.14813117682933807 -0.24853816628456116 -0.13760194182395935
0.2056364119052887 0.23183846473693848 -0.014594489708542824
0.17918942868709564 0.4295697808265686 -0.016358347609639168
0.1542988121509552 -0.3147054612636566 0.04667927324771881
-0.06778641790151596 -0.17720453441143036 0.16364924609661102
-0.24660071730613708 0.007920702919363976 -0.26413723826408386
-0.28529593348503113 -0.43794167041778564 0.01183910109102726
0.04310428723692894 0.20776714384555817 -0.16110005974769592
-0.2263207584619522 0.49419936537742615 0.09399393945932388
-0.2649928331375122 -7.364526391029358e-05 -0.13625845313072205
0.08791574835777283 0.2247108370065689 -0.13169236481189728
0.2948826551437378 0.03824163228273392 0.017098359763622284
0.30083271861076355 0.22950607538223267 0.028149258345365524
0.2991355061531067 -0.20861275494098663 -0.12928417325019836
0.13441318273544312 0.0035367831587791443 0.16983842849731445
-0.1136402115225792 0.14998139441013336 0.16917701065540314
0.2791280746459961 0.3160393536090851 0.016516664996743202
0.1821095049381256 -0.24956604838371277 -0.10052447766065598
-0.14567320048809052 -0.22058890759944916 0.15427640080451965
-0.19405804574489594 -0.2464558631181717 -0.12376083433628082
0.1815163940191269 0.46073228120803833 0.0871754139661789
-0.2173299938440323 0.5082722306251526 0.06599453091621399
-0.25392961502075195 0.3741614520549774 -0.03476082161068916
0.12357908487319946 0.22795921564102173 -0.11695566773414612
-0.2018648386001587 0.3378804326057434 0.07252547889947891
0.1655144840478897 -0.22614802420139313 -0.1350543051958084
0.23164333403110504 -0.3760620951652527 -0.09204629808664322
0.23572346568107605 0.18952195346355438 -0.13449475169181824
0.04362566024065018 0.148276224732399 -0.13659615814685822
-0.17317435145378113 0.48559752106666565 0.06748083233833313
0.02443304844200611 0.245217964053154 -0.19342420995235443
0.06241317838430405 -0.2513607442378998 0.05384388566017151
0.22555053234100342 -0.3022439777851105 0.09453374147415161
-0.07156816124916077 0.22658443450927734 0.10615957528352737
7.24156852811575e-05 0.20161770284175873 0.15725241601467133
0.05641351267695427 -0.2520897090435028 -0.024465342983603477
-0.2653830945491791 0.07753746956586838 -0.1342458575963974
0.28421270847320557 0.03930601477622986 -0.13595964014530182
0.29587966203689575 0.06682727485895157 0.08486409485340118
-0.32063138484954834 -0.41976436972618103 -0.029641585424542427
0.30039292573928833 0.43228811025619507 0.07671766728162766
0.2636384069919586 0.48273712396621704 -0.05835679545998573
0.27778953313827515 -0.4403459429740906 -0.018846409395337105
0.15617157518863678 -0.24747294187545776 -0.14266952872276306
0.2260444015264511 -0.2758309841156006 0.08145123720169067
-0.2545495927333832 0.22990649938583374 -0.133039191365242
0.08381839841604233 -0.18805146217346191 0.15882307291030884
0.29554927349090576 -0.12965351343154907 0.16454607248306274
0.1906987726688385 -0.27203187346458435 -0.037179477512836456
-0.15522581338882446 -0.252127081155777 0.09617404639720917
-0.1993609219789505 -0.2492513805627823 -0.13032498955726624
0.21066856384277344 0.020416896790266037 -0.1337866485118866
-0.2692866325378418 0.12551790475845337 -0.13279958069324493
-0.009388331323862076 -0.25491419434547424 -0.014267021790146828
0.24343420565128326 0.32113558053970337 0.06321944296360016
0.2951655387878418 0.23025435209274292 -0.04768083989620209
0.23103992640972137 0.22730135917663574 -0.07125619053840637
0.25213441252708435 -0.43953216075897217 -0.06043653562664986
0.27319204807281494 -0.4416411221027374 -0.014711019583046436
0.13215544819831848 -0.22630621492862701 0.1577676385641098
0.2493893802165985 0.22747762501239777 -0.039243388921022415
-0.23308250308036804 0.22905182838439941 -0.08661345392465591
0.06533871591091156 0.22647075355052948 -0.12393862009048462
0.09012281149625778 -0.25257712602615356 0.07160834968090057
0.2536303997039795 0.22683650255203247 -0.06095832213759422
-0.2705831527709961 0.09749250113964081 -0.1344677209854126
-0.07943087071180344 0.2243966907262802 0.08511892706155777
-0.17348280549049377 -0.2517625689506531 0.12029695510864258
-0.27171841263771057 -0.03410353139042854 -0.13255000114440918
-0.311859667301178 -0.385372132062912 -0.06602447479963303
0.03720712289214134 -0.22907058894634247 -0.1381361335515976
0.29761794209480286 0.23586097359657288 0.11179688572883606
-0.1733500212430954 0.2259821593761444 0.04728984460234642
-0.09157568216323853 -0.2234967201948166 -0.13523326814174652
-0.3104240894317627 -0.3954100012779236 0.1008048728108406
0.19890911877155304 -0.44593146443367004 0.1580474078655243
0.018724799156188965 0.19714218378067017 0.15593017637729645
-0.18276794254779816 -0.25106075406074524 -0.11917513608932495
-0.2696259319782257 0.21506091952323914 0.09338842332363129
-0.27096840739250183 -0.20890763401985168 -0.11085930466651917
-0.2544759511947632 0.44941380620002747 -0.03416874632239342
0.29791560769081116 0.20360414683818817 0.16305163502693176
-0.06699509173631668 0.22811192274093628 -0.1333979219198227
0.08960847556591034 0.2245105803012848 -0.13147902488708496
0.07465124130249023 -0.2503976821899414 0.08019891381263733
0.2783281207084656 0.16802431643009186 -0.13341324031352997
0.2965475618839264 0.23327948153018951 0.1503293216228485
-0.27510276436805725 0.20363405346870422 0.021400462836027145
0.29830220341682434 -0.08338360488414764 0.15538212656974792
-0.08419238775968552 0.22490361332893372 -0.07008691132068634
-0.25310468673706055 0.4146745800971985 -0.05930281803011894
-0.2710418701171875 -0.44469308853149414 0.034280065447092056
-0.04875610023736954 -0.22435596585273743 -0.1342260092496872
0.293261855840683 0.07429436594247818 0.16481541097164154
-0.2655671536922455 -0.14683565497398376 -0.08828316628932953
0.2994421422481537 0.23005792498588562 0.07334430515766144
-0.32237252593040466 -0.41605648398399353 -0.029456868767738342
-0.2113020122051239 -0.3837534487247467 0.1473112851381302
-0.016048425808548927 0.18797773122787476 -0.13332897424697876
-0.26998478174209595 0.11059531569480896 -0.05499659478664398
-0.26594090461730957 -0.20888184010982513 -0.13570721447467804
0.2580511271953583 -0.2979949414730072 -0.056308917701244354
0.23749369382858276 0.16940425336360931 0.15433871746063232
0.18651939928531647 -0.09916676580905914 -0.1347953826189041
0.19810713827610016 0.3262527287006378 -0.02225896716117859
-0.17688585817813873 -0.3252362012863159 -0.04268009960651398
-0.20418216288089752 0.22341324388980865 -0.1337585747241974
-0.1891838014125824 -0.4241328239440918 0.03716256842017174
0.2924257516860962 0.36420291662216187 -0.027516448870301247
0.1516282707452774 -0.17210212349891663 0.1675330251455307
0.29741573333740234 0.22248220443725586 0.12161779403686523
0.2998218834400177 0.19090621173381805 0.12658601999282837
0.010307276621460915 -0.25000351667404175 -0.1208357959985733
-0.20589208602905273 -0.4155872166156769 0.1445089429616928
0.18193842470645905 0.4632766544818878 0.08754927664995193
0.14934007823467255 -0.22817248106002808 -0.13270048797130585
-0.2746555805206299 0.017758890986442566 -0.13557851314544678
0.2970537543296814 0.22536733746528625 0.16056939959526062
0.27705320715904236 -0.19124871492385864 -0.13579878211021423
-0.10547412931919098 -0.25045979022979736 -0.08413618803024292
-0.05936004966497421 0.15821148455142975 0.16463762521743774
0.011436378583312035 0.20746056735515594 -0.23632927238941193
-0.2671118974685669 0.05173817276954651 -0.13113781809806824
-0.15241900086402893 -0.250431627035141 0.15120476484298706
0.2805021405220032 -0.18761606514453888 -0.13266430795192719
-0.12724733352661133 0.19617602229118347 -0.1332576870918274
-0.20952752232551575 0.3377002775669098 0.0803021639585495
0.3042479157447815 0.3897080421447754 0.04064816236495972
-0.18150514364242554 -0.3967096507549286 0.03787332400679588
-0.2707338333129883 0.18493245542049408 0.11277858912944794
0.21013973653316498 -0.2749854624271393 -0.053325802087783813
-0.15614403784275055 -0.1910621076822281 0.16074292361736298
0.22183308005332947 0.175928995013237 0.15509887039661407
0.016762372106313705 0.24120035767555237 -0.25458988547325134
0.17769862711429596 0.3776557445526123 0.06622906774282455
0.2954966425895691 0.035182707011699677 0.15537601709365845
0.2983551025390625 0.22958993911743164 0.08441337943077087
0.2732638120651245 -0.1281873881816864 -0.12649457156658173
-0.1368975043296814 0.22642607986927032 -0.1299421340227127
0.26620930433273315 0.47602349519729614 -0.06117909774184227
-0.3019731342792511 -0.3275099992752075 0.052655138075351715
0.13387790322303772 -0.2505674958229065 0.15237009525299072
-0.052824437618255615 0.18304529786109924 -0.134628027677536
-0.26779666543006897 0.04471155256032944 -0.13394543528556824
0.11707751452922821 0.17270255088806152 -0.1354662925004959
-0.16149728000164032 -0.31462952494621277 0.02446318417787552
-0.2719264626502991 0.21919171512126923 -0.12002712488174438
0.2913781702518463 0.3350811302661896 0.027398202568292618
0.2959789037704468 0.2330656796693802 0.025184564292430878
-0.2690047025680542 -0.1996547132730484 -0.12815172970294952
-0.180811807513237 -0.17726440727710724 0.1633031666278839
0.28616803884506226 -0.43527740240097046 0.02759607881307602
-0.2545309066772461 -0.08141671866178513 0.15555135905742645
0.24334129691123962 -0.3107897639274597 0.10011037439107895
0.26564159989356995 -0.2259770631790161 -0.13138149678707123
-0.14065232872962952 -0.2508102059364319 -0.11804667115211487
-0.29315629601478577 -0.0028183264657855034 -0.2549949884414673
-0.2000107765197754 0.22582821547985077 0.09882964193820953
0.17999601364135742 0.4591507017612457 0.06541966646909714
0.2973830997943878 0.4477698802947998 0.07201308012008667
-0.15702076256275177 0.23123688995838165 0.09303373098373413
0.0006872187950648367 0.24328948557376862 -0.25631749629974365
0.17292797565460205 -0.44682279229164124 0.16656550765037537
0.1619173288345337 -0.049163829535245895 -0.1363050788640976
-0.15662941336631775 -0.22931335866451263 -0.13517126441001892
-0.27210384607315063 -0.2269868701696396 -0.1153588518500328
0.28071197867393494 0.4704936444759369 -0.03952479362487793
-0.1041649729013443 -0.25199854373931885 0.11038285493850708
0.05890510603785515 0.22424492239952087 -0.12991198897361755
0.203975111246109 -0.3193831145763397 0.09885412454605103
-0.1739533245563507 0.48068398237228394 0.05030662566423416
-0.27097851037979126 0.07905839383602142 -0.13190165162086487
-0.10920901596546173 0.22825318574905396 -0.1277213990688324
0.298652321100235 0.03591571003198624 0.16643917560577393
0.18089202046394348 0.18628999590873718 0.15464487671852112
0.1823350042104721 -0.24894344806671143 -0.1310608834028244
-0.3170432150363922 -0.38410013914108276 -0.060799188911914825
0.2893907129764557 0.39763566851615906 -0.05363398417830467
0.21084894239902496 -0.4478878080844879 0.01435677707195282
-0.2614033818244934 0.14297321438789368 -0.13250015676021576
0.22795556485652924 -0.2181955873966217 0.15490850806236267
-0.19339831173419952 0.204125314950943 0.15716661512851715
0.2644491195678711 0.22880932688713074 0.13775278627872467
0.14183524250984192 -0.410340279340744 0.16277074813842773
0.07019703835248947 -0.22568172216415405 -0.13019084930419922
0.2429877668619156 0.07162097096443176 0.15183576941490173
-0.16095538437366486 0.3565497398376465 -0.006180324126034975
-0.29350849986076355 -0.39306119084358215 0.16891159117221832
-0.2731892466545105 -0.06379728019237518 -0.1342223435640335
0.22658847272396088 -0.2991589605808258 -0.06947633624076843
0.20052045583724976 0.4758688807487488 -0.04611529782414436
-0.2720355689525604 0.22096793353557587 -0.07183828949928284
0.2940502166748047 -0.08430857956409454 0.16218271851539612
-0.18881645798683167 -0.1975899040699005 -0.13504478335380554
-0.19159434735774994 0.43253278732299805 -0.07215984910726547
-0.08214234560728073 0.22821207344532013 0.13880041241645813
0.2314453125 0.04574666917324066 0.16074921190738678
-0.1729564070701599 0.13600629568099976 -0.13576878607273102
0.19126760959625244 0.45562878251075745 -0.04986053332686424
0.2379363477230072 0.013803493231534958 -0.13325144350528717
0.255709171295166 0.22718049585819244 -0.10953784734010696
0.20278649032115936 -0.35891664028167725 -0.07698821276426315
-0.06327961385250092 0.22669102251529694 0.03369790315628052
0.2771998345851898 0.49042555689811707 -0.014824992045760155
-0.18791060149669647 -0.42100369930267334 0.0371369868516922
0.293885737657547 -0.06370324641466141 0.15543203055858612
0.2961975038051605 0.2317889928817749 0.09613281488418579
-0.2715557813644409 0.009575214236974716 -0.13549871742725372
-0.27014750242233276 -0.1862996220588684 0.06328429281711578
0.27313125133514404 -0.09040141105651855 -0.1336258053779602
0.08863774687051773 -0.24997271597385406 0.09021852910518646
0.19540256261825562 0.18190251290798187 0.15243084728717804
0.11495836079120636 -0.25094640254974365 0.04356157407164574
0.297219842672348 -0.13692128658294678 0.15579180419445038
-0.05334228277206421 -0.2495279610157013 -0.13630887866020203
-0.268399715423584 -0.21451568603515625 -0.13368400931358337
0.2954522371292114 0.1098424643278122 0.06706149876117706
-0.271481454372406 0.08634213358163834 -0.13525328040122986
0.15573382377624512 -0.2531871497631073 0.09285147488117218
0.15112118422985077 -0.42395108938217163 0.18218590319156647
-0.11714067310094833 0.15006093680858612 0.1705169975757599
0.14201770722866058 -0.37668246030807495 0.10260803997516632
-0.24774368107318878 -0.36869749426841736 -0.09840930998325348
0.11861054599285126 0.2253645360469818 -0.13194239139556885
-0.10362381488084793 0.22341515123844147 -0.13564640283584595
0.2808825969696045 -0.1601579189300537 -0.13145898282527924
-0.29701873660087585 -0.3259901702404022 0.18178832530975342
0.20133733749389648 0.46871960163116455 -0.0524471178650856
-0.32807186245918274 -0.333410382270813 0.16842707991600037
0.010176192969083786 0.17196784913539886 -0.1343291848897934
0.17747561633586884 0.35455816984176636 0.022356973960995674
0.2980020046234131 0.16960670053958893 -0.045494258403778076
0.20014049112796783 0.22802703082561493 0.06436774879693985
0.29968100786209106 0.1348688006401062 0.006444200873374939
-0.2642976641654968 0.3856278359889984 -0.01629185862839222
0.19459454715251923 0.2249106764793396 -0.009533967822790146
0.243597149848938 0.08113369345664978 -0.131694033741951
0.19722330570220947 0.22726579010486603 0.05475621297955513
-0.27576586604118347 -0.4677408039569855 -0.04276617243885994
-0.20158083736896515 -0.413432776927948 0.11853612959384918
0.20408490300178528 -0.19342678785324097 0.15670378506183624
0.08046913892030716 -0.24887511134147644 -0.10471325367689133
0.2947204113006592 -0.052841588854789734 0.15981031954288483
0.26454848051071167 -0.354511022567749 -0.06994708627462387
0.22494372725486755 0.045593664050102234 0.16715310513973236
0.15577341616153717 -0.18453459441661835 0.16108757257461548
-0.10890445113182068 0.17696425318717957 -0.13506773114204407
0.10113006830215454 -0.25040099024772644 -0.11305417865514755
-0.2739608585834503 0.03965175896883011 -0.13482333719730377
0.18270911276340485 0.40433263778686523 -0.025438856333494186
-0.3296445906162262 -0.3728497326374054 0.11680848896503448
0.13549497723579407 -0.2512497305870056 -0.07440973818302155
0.2848852872848511 -0.4361150562763214 0.04603884369134903
-0.018481872975826263 0.22717957198619843 -0.12607260048389435
-0.27191776037216187 -0.22887954115867615 0.09857197850942612
0.29815810918807983 0.12284821271896362 -0.06884093582630157
0.25030672550201416 -0.24690759181976318 -0.11530670523643494
-0.2751823663711548 0.18446320295333862 -0.1360047459602356
-0.17675578594207764 0.2272704541683197 -0.06816086918115616
0.29126545786857605 0.03369104862213135 0.16422699391841888
-0.2731132209300995 0.2146516889333725 -0.13590440154075623
-0.19816239178180695 -0.4109502136707306 0.1148252785205841
0.29880234599113464 0.4436968266963959 0.04853565990924835
-0.26669272780418396 0.07035356014966965 -0.13404180109500885
0.2955555021762848 -0.13601785898208618 0.15341979265213013
0.19623441994190216 -0.4485644996166229 -0.05185234546661377
-0.0830356627702713 0.2232227325439453 -0.13013234734535217
0.2569736838340759 0.5135401487350464 0.08519810438156128
-0.20183144509792328 -0.2530905604362488 0.10470458120107651
0.2990766763687134 0.1689830869436264 0.11528021842241287
0.27192971110343933 -0.1253245323896408 -0.13328474760055542
-0.32145097851753235 -0.3455917239189148 0.0515611506998539
0.2429155707359314 -0.22728417813777924 -0.13335183262825012
-0.05162833258509636 -0.25132089853286743 0.062446705996990204
-0.2374882847070694 -0.36508291959762573 -0.08821247518062592
0.29677870869636536 0.2287900298833847 -0.0999736487865448
-0.26940232515335083 0.08849132806062698 0.12749424576759338
-0.009105034172534943 0.18491293489933014 -0.13678744435310364
-0.18878576159477234 0.4923933148384094 -0.015495562925934792
0.2636188268661499 0.23066455125808716 -0.1290568709373474
0.035322099924087524 -0.23072291910648346 -0.13278383016586304
-0.2689535915851593 0.24090975522994995 0.0637199878692627
0.23506426811218262 0.005321536213159561 0.1606254279613495
-0.2716539800167084 0.11840661615133286 -0.13389012217521667
0.015326857566833496 -0.2211167812347412 -0.13030432164669037
0.20976155996322632 0.1551181823015213 0.16557134687900543
-0.17696250975131989 0.22739064693450928 0.1005946546792984
-0.2668921649456024 0.4139615297317505 -0.002461828524246812
0.2758271396160126 -0.3402654826641083 0.025426704436540604
0.23282121121883392 -0.0405622199177742 0.16637222468852997
0.2947300970554352 0.4533441364765167 0.08128831535577774
-0.2125822752714157 -0.2509806752204895 -0.0930960476398468
-0.17487885057926178 0.04058419540524483 0.17081902921199799
-0.1095300167798996 -0.2511378526687622 -0.04524305462837219
-0.270583838224411 0.22581714391708374 0.11925412714481354
0.04348807409405708 -0.16444522142410278 0.16579322516918182
0.25633397698402405 -0.24797947704792023 -0.09797117859125137
0.2817060351371765 -0.18797750771045685 -0.13516268134117126
0.15256305038928986 0.22732892632484436 -0.12935256958007812
0.23267167806625366 0.22789549827575684 0.07609233260154724
-0.27081096172332764 0.22501765191555023 -0.11694271862506866
0.27376627922058105 -0.08250081539154053 -0.13195382058620453
-0.19946114718914032 0.5053357481956482 0.054700419306755066
-0.2706727087497711 -0.14341598749160767 -0.13481661677360535
0.09782163798809052 0.04598269239068031 0.1710025817155838
0.294071227312088 0.11983586847782135 0.16331976652145386
0.23482167720794678 0.22872748970985413 -0.051611173897981644
0.28055763244628906 -0.2109837383031845 -0.13243158161640167
-0.00039132125675678253 0.2256537228822708 -0.12855033576488495
-0.25230398774147034 -0.00046585872769355774 -0.13285650312900543
0.07858075201511383 -0.1324218064546585 -0.13549606502056122
-0.2646633982658386 -0.1280219405889511 -0.1347135305404663
0.29760316014289856 0.23368650674819946 0.05778053402900696
0.2975517213344574 -0.19532814621925354 0.10218937695026398
0.2981174886226654 0.1499236822128296 0.12274391949176788
0.05098384618759155 -0.22944271564483643 -0.1309065818786621
0.09787695109844208 0.2305440902709961 -0.05879770219326019
0.17379845678806305 -0.22572384774684906 -0.13579435646533966
0.29559820890426636 0.04032793641090393 0.07613274455070496
0.27735406160354614 0.4853968620300293 -0.025903182104229927
0.2808308005332947 -0.14383989572525024 -0.13689765334129333
-0.2927815020084381 -0.4267513155937195 -0.09691331535577774
-0.19458015263080597 -0.3117082715034485 -0.06189557537436485
-0.23207838833332062 -0.36376529932022095 0.1557377576828003
-0.17652826011180878 0.42332643270492554 -0.05313858017325401
0.20378397405147552 -0.25199031829833984 -0.05754777789115906
-0.16846249997615814 0.44328123331069946 -0.03192058950662613
0.0985095426440239 -0.227708101272583 0.15818743407726288
-0.1799580156803131 -0.35211119055747986 0.07077436149120331
0.27462124824523926 -0.18065227568149567 -0.13909801840782166
-0.20700085163116455 -0.3369666039943695 0.10486888885498047
-0.016934145241975784 0.2248934656381607 -0.13095560669898987
-0.18024156987667084 -0.3217895030975342 -0.04872824624180794
-0.09173624962568283 -0.22394858300685883 0.1551034301519394
-0.32117369771003723 -0.38354364037513733 -0.04789307713508606
-0.27878832817077637 -0.4193497598171234 0.1156921461224556
-0.2719564139842987 0.010615251027047634 -0.1344987154006958
-0.2706416845321655 0.0553102046251297 -0.13397735357284546
-0.07045585662126541 0.19186127185821533 0.15805009007453918
-0.26161447167396545 0.1799536943435669 -0.1319737434387207
0.18846790492534637 -0.3244257867336273 0.09838410466909409
0.044407010078430176 -0.2127722054719925 -0.13065561652183533
0.27933162450790405 0.07412371039390564 -0.1326638162136078
-0.1334046721458435 0.2307356745004654 0.05887845531105995
0.29477259516716003 -0.07500407099723816 0.16290108859539032
0.2983923852443695 0.08042515814304352 -0.07253517210483551
-0.2635139226913452 0.44089600443840027 -0.0014288309030234814
0.2326470911502838 0.17059898376464844 0.16136586666107178
