0.19775822758674622 0.22853218019008636 0.010183758102357388
-0.2727842628955841 0.21878263354301453 0.06875643879175186
-0.23195905983448029 -0.009058712050318718 0.15438276529312134
0.29703789949417114 -0.14201760292053223 0.14720360934734344
0.23218047618865967 -0.15829166769981384 0.17101073265075684
0.2512238025665283 -0.13929463922977448 0.15734204649925232
-0.23963835835456848 -0.3763633966445923 -0.08811353892087936
-0.29399463534355164 -0.3458259105682373 0.19894203543663025
-0.15450072288513184 -0.28568923473358154 0.017178094014525414
0.2833697199821472 -0.15767338871955872 -0.1360495239496231
0.23513133823871613 -0.24960680305957794 0.15094329416751862
0.29470086097717285 0.2262144237756729 -0.13034947216510773
0.04002726078033447 0.17409579455852509 0.15215975046157837
-0.01535302959382534 0.22567890584468842 0.1468731164932251
0.28666383028030396 0.135108083486557 0.1566806137561798
-0.24066784977912903 -0.2998371422290802 -0.06581928580999374
-0.2704456150531769 0.21906529366970062 0.01985669508576393
0.2680250406265259 0.41810664534568787 -0.08418785035610199
0.29129689931869507 -0.24979518353939056 -0.04600623995065689
-0.23285767436027527 0.3844436705112457 0.11194320023059845
0.294264554977417 0.22756986320018768 -0.055103600025177
0.01753493770956993 0.22683511674404144 -0.12056601047515869
-0.2134508192539215 0.43115872144699097 -0.08136042952537537
0.24306067824363708 -0.4011157155036926 -0.09266503155231476
-0.2592235207557678 -0.24880866706371307 -0.0388951413333416
0.2970370352268219 0.2193010151386261 -0.12406367808580399
-0.21681524813175201 0.22745758295059204 -0.1336735486984253
-0.27012690901756287 -0.020114608108997345 0.019097549840807915
0.2994040548801422 0.38205239176750183 0.060927532613277435
-0.21223679184913635 0.5058711767196655 0.06704827398061752
0.22406822443008423 0.15350572764873505 0.16980664432048798
0.2110472321510315 0.4792276918888092 -0.060579147189855576
0.16297051310539246 -0.07249236106872559 -0.13659781217575073
0.013856276869773865 0.0969206839799881 -0.16481180489063263
0.20085014402866364 0.22856424748897552 0.006413920782506466
-0.3381422460079193 -0.39300304651260376 0.023348739370703697
-0.19095511734485626 0.4163663983345032 0.08904965221881866
0.2926153838634491 -0.031758807599544525 0.15752796828746796
0.29680418968200684 -0.13819581270217896 0.14868320524692535
0.2038763165473938 -0.23623301088809967 0.1554398536682129
-0.18357768654823303 0.2615894377231598 -0.009862283244729042
-0.17100484669208527 0.22431983053684235 -0.13357916474342346
0.24665668606758118 -0.09551119059324265 0.1623239815235138
-0.18533071875572205 -0.4000604450702667 0.07896708697080612
0.29710015654563904 -0.09292881190776825 0.1544460952281952
-0.27161863446235657 0.05290532112121582 0.14618296921253204
0.2240169644355774 0.16085979342460632 0.16514110565185547
-0.21670258045196533 -0.1042737364768982 0.16639208793640137
-0.28693318367004395 0.009596491232514381 -0.24417085945606232
-0.036402925848960876 0.22371156513690948 0.15577048063278198
0.2840781807899475 -0.2509056031703949 -0.029774639755487442
-0.31313154101371765 -0.39764806628227234 -0.0723852813243866
0.2767579257488251 -0.3900996446609497 0.17871248722076416
-0.3048740327358246 -0.4024030864238739 0.0878991186618805
0.10549342632293701 -0.24099138379096985 -0.13565070927143097
-0.2022877335548401 -0.29411906003952026 -0.06474646925926208
0.07171210646629333 0.15122084319591522 0.17157311737537384
-0.14182263612747192 0.14913207292556763 -0.1351567655801773
-0.27049168944358826 -0.2413962483406067 0.04124825820326805
-0.2908431589603424 -0.3838794529438019 0.17822755873203278
-0.24297362565994263 -0.30523669719696045 0.09430801868438721
-0.2168797254562378 0.24233773350715637 0.04958711192011833
0.2938845157623291 0.0761861503124237 0.15101541578769684
0.24589936435222626 0.17052212357521057 0.15336668491363525
-0.20998769998550415 0.3705172836780548 -0.0790044367313385
0.28763049840927124 -0.25374457240104675 -0.1027795597910881
0.20545752346515656 0.22778645157814026 -0.12189910560846329
0.29659682512283325 -0.19561462104320526 -0.13337965309619904
-0.3378483057022095 -0.3802875876426697 0.007669268175959587
-0.25909292697906494 -0.32272961735725403 -0.07452616095542908
0.2588993012905121 -0.015858113765716553 0.15554450452327728
-0.2715802788734436 0.21687886118888855 0.1318012773990631
0.2361384928226471 -0.37033358216285706 -0.08964782953262329
0.27361875772476196 0.23688042163848877 0.025528378784656525
0.15826764702796936 -0.43592458963394165 -0.03855748474597931
-0.25606709718704224 -0.24782052636146545 0.07070087641477585
0.01417480781674385 0.17272993922233582 0.15375518798828125
0.25054648518562317 -0.13674771785736084 0.16040001809597015
-0.2675260603427887 -0.07027102261781693 -0.13291633129119873
-0.26910853385925293 -0.24192029237747192 0.02516763098537922
-0.2701435089111328 -0.1789267212152481 0.04936189949512482
-0.2710859179496765 -0.24748121201992035 0.09048327803611755
0.25848811864852905 -0.022310253232717514 0.1546730250120163
0.2944818139076233 0.2283814549446106 0.014843679964542389
-0.11220422387123108 -0.07793787866830826 -0.13586634397506714
0.21732661128044128 0.23026099801063538 0.15222889184951782
-0.23279473185539246 -0.24274322390556335 -0.13434793055057526
-0.2729325592517853 0.1893388330936432 0.14647187292575836
-0.27134689688682556 -0.23313507437705994 -0.11777985095977783
0.253795862197876 0.11585425585508347 0.15066653490066528
0.21270494163036346 0.47701841592788696 -0.06281424313783646
-0.23076872527599335 -0.25261035561561584 0.0716598629951477
-0.26050013303756714 -0.08009275048971176 -0.13327926397323608
-0.20941132307052612 -0.3023746609687805 -0.06930689513683319
0.21721546351909637 0.5102265477180481 0.10837473720312119
0.2934019863605499 0.210001140832901 -0.13479217886924744
0.2732120752334595 0.2254941761493683 0.1551482081413269
-0.06578376889228821 -0.25311362743377686 -0.016213685274124146
-0.21501781046390533 -0.06893506646156311 0.167024165391922
-0.26887139678001404 -0.2406957745552063 -0.02074427902698517
0.27658963203430176 0.39431366324424744 0.12686268985271454
-0.25182029604911804 -0.2800394296646118 0.0312829352915287
0.2927550673484802 0.378479540348053 -0.048127058893442154
-0.2601611018180847 0.15620000660419464 0.15701082348823547
-0.24456453323364258 -0.2455885261297226 -0.1345396339893341
0.24654695391654968 0.056635066866874695 0.16479119658470154
-0.2508479058742523 0.47289180755615234 0.11635897308588028
0.28184497356414795 -0.4439053237438202 0.11021894216537476
-0.26386985182762146 -0.004876982420682907 -0.13532055914402008
0.021007785573601723 -0.2470865696668625 -0.0729154571890831
-0.19885610044002533 0.21892480552196503 -0.13401763141155243
0.034986041486263275 0.11734268814325333 -0.14116719365119934
-0.025229254737496376 0.1008063480257988 -0.13646219670772552
0.25955384969711304 -0.17002642154693604 0.15190386772155762
-0.2172357738018036 -0.24827978014945984 -0.1297006607055664
0.28656005859375 0.03278367221355438 -0.13522528111934662
-0.2002657800912857 -0.19147446751594543 0.15781518816947937
0.2875353991985321 0.11563742905855179 -0.13426056504249573
0.2899438738822937 -0.4269225001335144 0.030377428978681564
-0.2694362699985504 -0.2379954308271408 -0.12866491079330444
0.1646067202091217 -0.25135666131973267 -0.003257535398006439
-0.26993000507354736 0.10334014892578125 -0.060688335448503494
-0.22626569867134094 0.20969197154045105 -0.13339851796627045
0.25455808639526367 0.12749645113945007 0.15212827920913696
-0.2696720361709595 0.1984693855047226 0.15441754460334778
-0.19339028000831604 -0.249515563249588 -0.1276254504919052
0.19442693889141083 0.3153197765350342 0.0025137406773865223
0.05122174322605133 0.03983096778392792 -0.13631102442741394
0.2859223484992981 -0.061382222920656204 -0.13533589243888855
0.2834782600402832 0.0403360053896904 -0.1357475221157074
0.232140451669693 -0.36359697580337524 -0.08888047188520432
0.15231014788150787 -0.44433191418647766 0.07574190199375153
0.28613004088401794 0.1510445773601532 -0.13566061854362488
0.10465164482593536 -0.24314549565315247 -0.13540318608283997
-0.29443225264549255 -0.42436423897743225 -0.09333846718072891
-0.26687976717948914 0.1084112673997879 -0.13209794461727142
0.29312753677368164 0.2291109710931778 -0.12898454070091248
-0.28502681851387024 -0.31352630257606506 0.13743096590042114
0.29508957266807556 -0.24181309342384338 0.089081309735775
0.2592698931694031 -0.3212893605232239 -0.06642717868089676
-0.25987622141838074 -0.1541997641324997 -0.13525092601776123
0.2420344054698944 0.2303457111120224 -0.04260079562664032
0.19484931230545044 -0.250627726316452 -0.03617424517869949
0.29359012842178345 0.225757896900177 -0.010097641497850418
0.2955789566040039 0.21432630717754364 -0.01573270559310913
0.25704285502433777 -0.05641496926546097 0.15588724613189697
-0.005793166346848011 0.17369015514850616 0.15148556232452393
-0.18692518770694733 0.22684507071971893 -0.12484091520309448
0.2976608872413635 -0.00884447991847992 0.054779086261987686
0.19433972239494324 0.3890319764614105 0.1152350902557373
0.2901659905910492 0.1807137280702591 -0.13734397292137146
-0.22090409696102142 0.17781829833984375 0.15230070054531097
0.05285491794347763 0.218255877494812 -0.21161939203739166
0.29254278540611267 0.22448435425758362 0.11370684951543808
0.25062787532806396 0.03355017676949501 0.15758506953716278
-0.0016703251749277115 0.22203516960144043 -0.17637458443641663
-0.19105841219425201 -0.27308768033981323 0.07045891880989075
0.2626194655895233 0.40180182456970215 -0.08913763612508774
-0.24409614503383636 0.47428110241889954 0.11541903018951416
0.264789342880249 0.3601236939430237 -0.07589185982942581
0.15730968117713928 -0.13327522575855255 -0.1359281837940216
-0.13278084993362427 -0.24965915083885193 -0.12491080164909363
0.28667035698890686 0.22833092510700226 -0.13396044075489044
-0.22127099335193634 -0.4474911689758301 0.12459462881088257
0.255953311920166 -0.15382811427116394 0.15497179329395294
-0.2187095731496811 0.22655493021011353 -0.13301755487918854
0.009627116844058037 0.15360791981220245 0.16782450675964355
-0.23689301311969757 -0.23803383111953735 -0.1336183100938797
-0.26113858819007874 -0.04555966705083847 -0.13625873625278473
0.2874199151992798 -0.23567047715187073 -0.135511115193367
0.23620755970478058 0.01869669184088707 0.1701200157403946
-0.26543304324150085 0.07248105108737946 -0.13274246454238892
-0.27097636461257935 -0.03447488322854042 -0.007740774191915989
0.2946335971355438 0.22226238250732422 0.11982862651348114
-0.22397665679454803 -0.47370606660842896 0.006091053131967783
0.2609177529811859 -0.1233418881893158 0.1554087996482849
0.2959049344062805 0.2173956036567688 0.13328561186790466
-0.2978951930999756 -0.3760717213153839 0.20954430103302002
-0.15354831516742706 0.4526536166667938 0.011730087921023369
0.2789692282676697 -0.4421840310096741 0.004749808460474014
0.19097134470939636 -0.4231772720813751 -0.07417081296443939
-0.21805714070796967 -0.1238132193684578 0.16559331119060516
0.2998131215572357 -0.21653884649276733 -0.016108937561511993
0.23922038078308105 0.3863486647605896 -0.09029616415500641
0.12658095359802246 -0.055963754653930664 0.1705998182296753
0.28885096311569214 -0.44275960326194763 0.13993729650974274
0.059692978858947754 0.2261071801185608 -0.04705600440502167
-0.32440483570098877 -0.4205031394958496 -0.0656290203332901
0.09327438473701477 -0.19543054699897766 0.1547851711511612
0.012545287609100342 0.2240430861711502 0.1554030328989029
-0.271486759185791 -0.1911180317401886 -0.0003795977681875229
0.16233296692371368 -0.1844039112329483 0.16528336703777313
0.26005256175994873 0.1422300785779953 0.15503589808940887
-0.2851087152957916 -0.4571533501148224 -0.06952181458473206
-0.26922500133514404 0.21880337595939636 -0.13307452201843262
0.2955707013607025 0.2181241661310196 0.04158572852611542
0.2946704030036926 0.038679055869579315 0.14326369762420654
-0.28513002395629883 -0.0022450704127550125 -0.24199803173542023
-0.2146865427494049 0.4054841101169586 -0.08284372091293335
0.28127238154411316 0.3632134199142456 -0.06459236145019531
-0.26885685324668884 0.13808920979499817 -0.11885920912027359
0.04747997224330902 -0.0057068560272455215 -0.13604424893856049
0.2772255837917328 -0.44732365012168884 0.1794271320104599
0.2866770625114441 -0.1775219440460205 -0.1371551752090454
-0.15171711146831512 0.22828631103038788 -0.1338714361190796
-0.21687504649162292 -0.13411080837249756 0.16688579320907593
0.02922135964035988 0.18780842423439026 -0.13767027854919434
-0.07265553623437881 -0.06273911893367767 0.16966071724891663
0.049971990287303925 -0.2476300299167633 -0.12451185286045074
0.18809102475643158 -0.24324236810207367 -0.13710813224315643
0.24221201241016388 -0.3619476556777954 -0.08853066712617874
0.20698189735412598 -0.25463929772377014 -0.04294938966631889
0.2818302512168884 -0.06046555936336517 -0.1355147361755371
-0.09489478170871735 -0.048675745725631714 0.1708212047815323
-0.26821669936180115 -0.24156798422336578 -0.08648891001939774
0.11528046429157257 0.22450673580169678 -0.1340629756450653
0.2871534526348114 -0.03588416799902916 -0.13659247756004333
0.2893441915512085 0.22801430523395538 -0.13499557971954346
0.2717144191265106 0.23492762446403503 -0.006663866341114044
0.26781800389289856 0.35237619280815125 -0.07229414582252502
-0.24000777304172516 0.22568383812904358 -0.1335819661617279
-0.13557781279087067 -0.1761188954114914 -0.13436035811901093
-0.26087379455566406 0.17029954493045807 -0.13391058146953583
0.2910732924938202 0.2247684746980667 -0.13534507155418396
0.22898787260055542 -0.3495337665081024 -0.08674994111061096
-0.25116056203842163 -0.25168710947036743 -0.043022915720939636
-0.23774303495883942 0.4973903000354767 0.020162485539913177
0.22887256741523743 -0.1991131752729416 0.15192794799804688
0.2029721736907959 -0.38610243797302246 0.1799623966217041
0.19847474992275238 0.4757329225540161 0.113814577460289
0.20784354209899902 0.4650309681892395 -0.06876120716333389
0.29079288244247437 -0.2506778836250305 0.007655240595340729
0.21838665008544922 -0.4422301650047302 0.19026800990104675
0.2959384620189667 0.0061355531215667725 -0.08072024583816528
0.23797652125358582 0.026530329138040543 0.16771966218948364
-0.1939953714609146 0.4925738573074341 -0.03360571712255478
-0.28936710953712463 -0.4265987277030945 -0.09166345000267029
0.23476967215538025 -0.25371062755584717 -0.0541490837931633
0.1688326597213745 -0.2524656355381012 0.0017355969175696373
0.29768550395965576 0.09763944149017334 0.1546899378299713
0.29592421650886536 0.017374373972415924 -0.1334720402956009
-0.14970481395721436 -0.26469141244888306 0.01115137618035078
-0.22936169803142548 -0.4733956754207611 -0.019937848672270775
0.29832950234413147 -0.04519078508019447 0.14764145016670227
-0.23849329352378845 0.22738006711006165 -0.12688656151294708
0.1109766811132431 0.22803767025470734 0.15108369290828705
-0.2701028883457184 -0.24838094413280487 0.07620938122272491
0.14891184866428375 -0.25148895382881165 0.03405527397990227
0.2859267294406891 -0.42258745431900024 0.013433080166578293
0.2505507469177246 -0.29826563596725464 0.08784749358892441
-0.2714577913284302 0.10862421989440918 0.1484561562538147
-0.2419968545436859 -0.3312848210334778 -0.08493014425039291
0.2867925465106964 -0.2510027587413788 -0.0710163563489914
-0.23319430649280548 0.3211607038974762 0.03760560601949692
-0.26866665482521057 0.11936979740858078 -0.1217297911643982
0.27866631746292114 0.3466194272041321 0.09465284645557404
-0.2741662561893463 0.14985892176628113 0.01435899082571268
0.2963961362838745 0.21345070004463196 0.13085117936134338
0.24248555302619934 0.0648253858089447 0.16781458258628845
0.18724024295806885 0.4120527505874634 0.11442398279905319
-0.037297844886779785 0.17298100888729095 0.1522773653268814
0.19019106030464172 0.10285632312297821 -0.13748764991760254
0.292761892080307 0.22353331744670868 -0.13473156094551086
0.29394739866256714 0.2156379520893097 0.15811634063720703
0.04745647311210632 0.16096293926239014 -0.13491861522197723
0.17224198579788208 0.22678199410438538 -0.1314319223165512
-0.21777617931365967 -0.23735573887825012 -0.13474208116531372
-0.15642189979553223 -0.310974657535553 -0.0025221770629286766
0.29736265540122986 0.10407225787639618 -0.12329809367656708
-0.03977011889219284 -0.2521386444568634 0.0014213426038622856
0.2567618787288666 -0.15512722730636597 0.15225258469581604
0.2223052829504013 -0.2505577802658081 0.13918980956077576
0.16666512191295624 -0.2676590085029602 0.009459119290113449
-0.17899256944656372 -0.17510594427585602 0.1700422316789627
0.1845073401927948 0.3375784158706665 -0.00471019372344017
-0.07682916522026062 0.2318428009748459 -0.12680548429489136
0.21783311665058136 0.38385263085365295 -0.0855492651462555
0.024487890303134918 0.2173519730567932 -0.1761581301689148
-0.2146064043045044 0.11360590904951096 0.16774795949459076
0.2912079989910126 0.10186941921710968 0.15657787024974823
-0.19920147955417633 -0.42444077134132385 0.12614566087722778
-0.23709426820278168 -0.21287760138511658 0.15430651605129242
0.15587681531906128 -0.42343395948410034 0.179695263504982
0.03191598504781723 0.1602296531200409 -0.22054603695869446
0.2473979890346527 -0.44419193267822266 -0.0768771842122078
-0.04356694221496582 -0.2409413754940033 -0.1353379189968109
0.12320590019226074 0.2251950204372406 0.1541920006275177
0.22294220328330994 0.3572496175765991 -0.08214231580495834
0.2850326895713806 0.1588974893093109 -0.13590192794799805
0.2868954837322235 0.40932613611221313 0.1274016797542572
-0.11226806044578552 0.22812847793102264 -0.12068020552396774
-0.20077896118164062 -0.2476598024368286 -0.12707194685935974
-0.2691379487514496 -0.2052445113658905 -0.12843048572540283
0.28917041420936584 -0.3772619962692261 0.088343545794487
-0.2296343892812729 -0.47707778215408325 0.00886231567710638
-0.2577499449253082 -0.03601855784654617 -0.13412508368492126
0.0021623950451612473 -0.24314746260643005 -0.13648836314678192
-0.2677058279514313 -0.02503303438425064 -0.12200156599283218
0.2183016687631607 0.3966355323791504 -0.08663493394851685
0.1662541925907135 -0.4305388331413269 0.18916445970535278
-0.269440621137619 0.22423945367336273 0.10450918972492218
-0.26213815808296204 0.08416695147752762 -0.13457269966602325
0.24451866745948792 0.04502219706773758 0.16756793856620789
-0.26925772428512573 -0.23956674337387085 0.008140303194522858
0.2571125626564026 -0.06298429518938065 0.1522725373506546
0.12236429750919342 -0.12139681726694107 -0.13642702996730804
-0.26944786310195923 -0.13520896434783936 -0.12316432595252991
0.27350863814353943 0.2349630892276764 0.030374128371477127
-0.009682249277830124 0.17220847308635712 0.15321919322013855
-0.25586259365081787 -0.2509501278400421 -0.10116959363222122
0.29541870951652527 0.22120526432991028 0.14844146370887756
-0.28332772850990295 -0.044321224093437195 -0.24308784306049347
0.263960599899292 -0.2868996858596802 0.033237382769584656
0.16462108492851257 -0.41163310408592224 0.1824980229139328
0.13410064578056335 -0.17814752459526062 0.16759465634822845
-0.25192928314208984 0.4652770757675171 -0.03785164654254913
0.1381872147321701 -0.24914008378982544 -0.12870138883590698
-0.2534266412258148 0.22939981520175934 -0.017594624310731888
0.1897490918636322 0.4178538918495178 0.1121346578001976
0.20359301567077637 0.5053053498268127 0.08935901522636414
0.17993983626365662 0.22866573929786682 -0.12047984451055527
0.22700946033000946 0.37093624472618103 -0.08839786797761917
0.29502683877944946 -0.11201412975788116 0.153584286570549
0.27097657322883606 -0.3782908320426941 0.17098069190979004
0.0004463247023522854 -0.23310264945030212 0.15431320667266846
0.3010956048965454 -0.10153152048587799 0.14683198928833008
-0.20718669891357422 0.07855647802352905 0.1686263084411621
0.297042578458786 -0.2367548942565918 -0.04690130427479744
0.29749199748039246 0.1359259933233261 -0.13079114258289337
-0.17923912405967712 -0.2514466345310211 -0.11028186976909637
-0.22692503035068512 -0.3058066964149475 -0.07451912760734558
-0.2133626788854599 0.16850623488426208 0.15925996005535126
-0.21946384012699127 -0.01928686536848545 0.16586150228977203
-0.265331894159317 0.17787441611289978 -0.13397030532360077
-0.2662737965583801 -0.22475451231002808 -0.1292877346277237
0.20452508330345154 0.33708456158638 -0.04546728730201721
-0.10911563038825989 -0.24907217919826508 0.14983804523944855
-0.17386963963508606 0.35294532775878906 -0.05078745260834694
-0.3342342674732208 -0.34773173928260803 0.12871292233467102
0.22968962788581848 0.22528192400932312 0.15546275675296783
-0.04082295671105385 0.17551174759864807 -0.17507222294807434
0.25423723459243774 0.12934833765029907 0.1520867794752121
0.29772016406059265 -0.017701730132102966 -0.1289326399564743
-0.20096686482429504 0.22787460684776306 0.0640033707022667
0.2073405385017395 -0.2474057823419571 0.1436648666858673
0.17565655708312988 -0.44296520948410034 0.18756231665611267
-0.10179095715284348 0.22795630991458893 0.15078599750995636
0.29842549562454224 -0.09229730069637299 -0.09700334817171097
0.20953737199306488 0.22677843272686005 -0.13256797194480896
0.1703139692544937 -0.2691715657711029 0.03396681696176529
0.20748120546340942 -0.1963927447795868 0.15470904111862183
0.2842177450656891 -0.24993427097797394 -0.11659704893827438
0.14002549648284912 -0.4318148195743561 0.12872478365898132
-0.03626362979412079 0.021190019324421883 0.1710350215435028
0.058410465717315674 0.2262049913406372 -0.1297072321176529
0.2959912121295929 0.21457064151763916 -0.03015108034014702
-0.07519076019525528 -0.19226711988449097 0.15647074580192566
0.23927415907382965 -0.43969377875328064 -0.07695373892784119
-0.23332719504833221 -0.25191646814346313 0.07680321484804153
-0.13462600111961365 -0.24776965379714966 0.15216434001922607
-0.1736930012702942 -0.2552988529205322 -0.05808383226394653
0.2794877588748932 -0.3460880219936371 0.07601575553417206
0.22400517761707306 0.23107324540615082 0.14342118799686432
-0.21167246997356415 -0.42088717222213745 0.16485857963562012
0.29518258571624756 -0.2500820755958557 0.11667262017726898
0.15119946002960205 -0.44382673501968384 0.04824944585561752
0.2915647327899933 0.22722002863883972 -0.13541996479034424
0.2865551710128784 0.16456516087055206 -0.1362789124250412
0.2983928620815277 0.09064639359712601 0.03362014889717102
0.2979511022567749 -0.24381643533706665 0.08428841829299927
0.2711601257324219 -0.4317452609539032 -0.06767873466014862
0.039657607674598694 -0.2508181035518646 -0.09086298942565918
0.24735628068447113 0.504642903804779 0.11888996511697769
-0.27011188864707947 0.1911127120256424 -0.11852505803108215
0.2693418264389038 0.31034907698631287 -0.010903352871537209
-0.22679778933525085 0.2232862412929535 -0.1350436806678772
-0.33176130056381226 -0.34029319882392883 0.15211844444274902
0.2852935194969177 0.06676822900772095 0.15709981322288513
-0.27263832092285156 0.21835796535015106 -0.0718650370836258
0.2396593987941742 -0.010773523710668087 0.16763553023338318
0.19038225710391998 0.36857500672340393 0.10184988379478455
-0.25690537691116333 0.06014416366815567 -0.1350267380475998
-0.21711614727973938 0.10272682458162308 0.16614462435245514
-0.12549281120300293 0.22077393531799316 -0.13267338275909424
0.14714163541793823 -0.43182122707366943 -0.01700638234615326
0.2871013581752777 -0.12636448442935944 -0.13640354573726654
-0.10035347938537598 -0.24905942380428314 -0.12911272048950195
-0.2691003978252411 -0.24562138319015503 -0.01788339763879776
0.2877788245677948 0.22811248898506165 -0.1357436180114746
-0.25642701983451843 0.11052300035953522 -0.1352689564228058
0.2955808937549591 -0.24651478230953217 0.10452162474393845
-0.19731102883815765 0.22393330931663513 -0.13286450505256653
0.1372005194425583 -0.4230037331581116 0.11623315513134003
0.1986076384782791 0.2277168333530426 -0.03960465267300606
0.08642779290676117 -0.19652126729488373 0.1524532288312912
-0.24011659622192383 0.2271936535835266 -0.12309318780899048
-0.19365492463111877 -0.2590128481388092 0.0828600823879242
0.014541547745466232 -0.19722609221935272 0.15343651175498962
0.24996936321258545 -0.288087397813797 -0.06095896661281586
0.2948363721370697 -0.23698869347572327 0.03643345832824707
0.15714538097381592 -0.43560078740119934 -0.03720064088702202
-0.012103304266929626 0.17085394263267517 0.15532749891281128
0.27503448724746704 0.22810742259025574 -0.04584147408604622
-0.24675455689430237 -0.2768285274505615 0.03167633339762688
0.28660815954208374 -0.0793641060590744 0.1558491736650467
-0.26628637313842773 -0.247426837682724 -0.008746625855565071
0.1212100237607956 -0.247678741812706 -0.13570638000965118
0.26916733384132385 0.36506497859954834 -0.07500056177377701
0.27978020906448364 0.02353476732969284 -0.13477060198783875
-0.020218998193740845 -0.19831466674804688 0.15128810703754425
0.29275575280189514 -0.24989283084869385 -0.016912467777729034
0.22849570214748383 -0.24972549080848694 -0.12374013662338257
0.24758781492710114 -0.4436552822589874 0.18271631002426147
-0.19979840517044067 -0.2860651910305023 0.07717891782522202
-0.33484968543052673 -0.35925355553627014 0.14225256443023682
0.25509077310562134 -0.11644916236400604 0.15461379289627075
-0.22099365293979645 -0.09632880985736847 0.15986381471157074
0.2533326745033264 -0.24547703564167023 -0.13670283555984497
0.2879005968570709 0.21297219395637512 -0.1358366459608078
0.24074360728263855 -0.35948264598846436 -0.0888509526848793
0.1819295883178711 -0.4460908770561218 0.1810130923986435
0.20076018571853638 0.22684592008590698 0.009849500842392445
-0.1331852376461029 -0.23983967304229736 0.15540283918380737
0.07720313966274261 -0.25010237097740173 -0.12052147090435028
-0.2394489198923111 0.4269927144050598 0.10250363498926163
-0.07972892373800278 0.16729752719402313 0.16137905418872833
-0.2220410406589508 0.15669551491737366 0.16112813353538513
-0.20130696892738342 0.24784815311431885 0.04358356446027756
-0.06174653023481369 -0.24092131853103638 -0.13481362164020538
-0.2815987765789032 -0.44997188448905945 -0.07983212172985077
0.25459903478622437 0.22790484130382538 -0.13523127138614655
-0.19655495882034302 -0.24304315447807312 -0.1342841386795044
-0.20527157187461853 -0.41124072670936584 0.15452544391155243
0.2550806999206543 -0.3265380263328552 0.10703811049461365
-0.26878294348716736 0.011067681014537811 -0.12983790040016174
0.2981182634830475 0.1423986852169037 -0.12268953770399094
0.29008665680885315 -0.43421313166618347 0.02654300257563591
0.08301497995853424 -0.1858583688735962 0.16669732332229614
-0.23267516493797302 0.4980529546737671 0.0013213753700256348
0.20857545733451843 0.4910208582878113 0.11712755262851715
0.24269331991672516 -0.25209587812423706 0.07513007521629333
-0.2648947238922119 -0.39828482270240784 -0.09389898180961609
-0.26777127385139465 -0.02497907727956772 0.15766265988349915
0.21787481009960175 0.1401592344045639 -0.1354660987854004
-0.2590087354183197 -0.47431913018226624 -0.03067300096154213
-0.03954692557454109 0.14823628962039948 -0.13692331314086914
-0.018308836966753006 -0.23985555768013 -0.13476024568080902
0.052753083407878876 0.22128736972808838 -0.1346912682056427
-0.005212671123445034 0.08887971937656403 -0.13978756964206696
-0.1078881025314331 0.0884471982717514 -0.1359720081090927
-0.261233925819397 0.4498004615306854 0.1042737290263176
0.27180933952331543 0.31578901410102844 0.029301196336746216
0.19368059933185577 -0.20014967024326324 0.1549898386001587
-0.13806188106536865 -0.2553771138191223 0.029727894812822342
0.06178055703639984 -0.24466444551944733 0.15245893597602844
0.2964683771133423 0.03707674890756607 -0.1310192048549652
0.2140713930130005 0.2271019071340561 -0.13248275220394135
0.2825733721256256 0.031233474612236023 -0.1347874104976654
-0.27045130729675293 -0.0872877985239029 -0.1281934231519699
0.25380218029022217 0.5097939372062683 -0.007563315331935883
0.25959673523902893 0.01823187619447708 0.1548060178756714
0.038824647665023804 0.22346089780330658 -0.23759065568447113
-0.08616706728935242 0.15307311713695526 0.16922423243522644
0.15837568044662476 0.22770479321479797 -0.12926442921161652
0.2044234424829483 0.22844025492668152 0.074607715010643
0.29864656925201416 -0.09338034689426422 0.14473176002502441
0.24137182533740997 0.030994705855846405 0.16750580072402954
-0.2683301270008087 0.07477270066738129 -0.13177630305290222
0.04732179641723633 0.10700730234384537 -0.1379982978105545
0.2670444846153259 0.44800853729248047 -0.0787692666053772
-0.17900371551513672 -0.23626792430877686 -0.13734082877635956
-0.27122801542282104 -0.05042809993028641 0.14732596278190613
0.2606111466884613 -0.19102561473846436 0.15405292809009552
-0.002182893455028534 -0.24960315227508545 -0.12998338043689728
-0.26904451847076416 0.13725043833255768 0.15680058300495148
0.2902790307998657 -0.0964292362332344 -0.13583841919898987
0.14364871382713318 -0.43552884459495544 0.11301945149898529
0.2962926924228668 0.13211730122566223 0.14453919231891632
0.07841268181800842 -0.17633584141731262 0.16956639289855957
0.2803601026535034 0.22947221994400024 -0.06935209780931473
-0.2724369764328003 0.10279221087694168 -0.039075981825590134
0.14539596438407898 0.22740823030471802 -0.06633037328720093
-0.07177083194255829 -0.2536967992782593 -0.012995753437280655
-0.20279830694198608 -0.2681465744972229 0.07394050061702728
0.21836674213409424 0.2257215678691864 -0.1323089301586151
0.1866920441389084 -0.24256937205791473 0.1549321711063385
-0.2061913013458252 0.3764716386795044 -0.07897170633077621
-0.1507696658372879 -0.17760147154331207 0.16935621201992035
0.08321968466043472 -0.23216630518436432 -0.13598527014255524
-0.2686387002468109 0.078636534512043 -0.13418243825435638
0.1823846995830536 0.22089067101478577 0.15639595687389374
0.29743969440460205 -0.23580867052078247 0.14341062307357788
0.24182286858558655 -0.15064305067062378 0.16528981924057007
-0.17743808031082153 -0.39529556035995483 -0.021828612312674522
-0.011214015074074268 0.09214262664318085 -0.1360810250043869
0.19743162393569946 0.474395751953125 0.11301801353693008
0.01405416801571846 -0.25041425228118896 -0.05048675462603569
0.2057403177022934 0.22836174070835114 -0.018472855910658836
-0.16884629428386688 -0.17538651823997498 -0.13581451773643494
0.27353841066360474 0.34591519832611084 -0.06342398375272751
0.1645771563053131 -0.4258597493171692 0.18946334719657898
0.24078866839408875 -0.4134003520011902 -0.09389783442020416
0.0354570597410202 0.17958953976631165 -0.13775992393493652
0.26093965768814087 -0.11413070559501648 0.15286366641521454
0.2972409427165985 -0.2417004108428955 0.12885470688343048
0.21818694472312927 -0.4460848569869995 0.18738645315170288
-0.2470720261335373 0.41938409209251404 -0.06808914989233017
-0.266896516084671 -0.3157082796096802 0.12954699993133545
0.18081632256507874 -0.2526225447654724 0.05177012085914612
0.2863933742046356 -0.42803025245666504 -0.00190643104724586
0.0742914229631424 -0.1539127230644226 -0.1364811360836029
0.15584416687488556 -0.3268795907497406 0.015400498174130917
0.2226424217224121 0.5138261914253235 0.021281147375702858
-0.014906661584973335 0.15270905196666718 0.16893930733203888
0.1278318464756012 -0.2489302158355713 -0.13419802486896515
-0.26985764503479004 0.04744283854961395 -0.12951251864433289
0.21285180747509003 -0.25018149614334106 -0.1249321773648262
0.055022988468408585 0.02674969471991062 0.16796709597110748
-0.2656334340572357 0.15013571083545685 -0.13538599014282227
0.10798445343971252 0.1672639101743698 0.15997202694416046
-0.027784984558820724 -0.25435900688171387 -0.06768157333135605
-0.24313852190971375 0.4465688169002533 0.10584507137537003
-0.27123671770095825 0.21812789142131805 0.006374385207891464
0.2888040840625763 0.22793489694595337 -0.13452358543872833
-0.266142874956131 0.19819733500480652 -0.13294246792793274
0.03622467443346977 -0.02007107064127922 -0.13539966940879822
-0.014887726865708828 0.2476404756307602 -0.20277105271816254
-0.28859424591064453 -0.43751946091651917 -0.08943173289299011
-0.19811676442623138 -0.4323873817920685 0.11767023801803589
-0.26918303966522217 -0.24148651957511902 0.06899476051330566
0.11461764574050903 -0.25111302733421326 0.08399174362421036
0.2944866716861725 0.2214089184999466 -0.016194313764572144
-0.07551350444555283 -0.12785108387470245 -0.13436144590377808
-0.20271293818950653 0.23173736035823822 -0.035535555332899094
-0.29418203234672546 -0.45387473702430725 -0.05419590696692467
0.1824718713760376 0.2268819510936737 -0.1302298605442047
-0.24189887940883636 -0.059292905032634735 -0.24877940118312836
0.20477980375289917 -0.2400994896888733 -0.13547472655773163
-0.27006521821022034 0.13545478880405426 -0.12657330930233002
0.258624404668808 -0.06379061937332153 0.15252180397510529
0.2906898558139801 -0.1385134756565094 0.15719354152679443
0.12046675384044647 -0.24140900373458862 -0.13578996062278748
-0.26024186611175537 0.22745661437511444 0.1305774748325348
-0.1273689568042755 0.2204860895872116 -0.1345061957836151
-0.27080246806144714 -0.24128636717796326 0.06998174637556076
-0.20887982845306396 0.11817000061273575 0.16936194896697998
0.23488080501556396 -0.16434773802757263 0.17020335793495178
-0.0432962030172348 0.21705932915210724 -0.13638640940189362
-0.26052069664001465 -0.1102091446518898 -0.13665731251239777
0.12520067393779755 -0.19863055646419525 0.1550435572862625
0.02592090703547001 0.14657266438007355 0.17062725126743317
0.2743180990219116 -0.3722591698169708 0.16027061641216278
0.21568331122398376 0.4962470829486847 -0.041504427790641785
-0.26626086235046387 0.20943400263786316 -0.1338464468717575
-0.2267400473356247 -0.44379493594169617 0.14684149622917175
0.021026913076639175 -0.2487596869468689 -0.12091365456581116
0.018618829548358917 0.22153572738170624 0.15532530844211578
-0.0036503635346889496 -0.19774703681468964 0.15320006012916565
-0.3305610120296478 -0.41797468066215515 -0.05249568074941635
0.04464259371161461 -0.18885499238967896 0.15989769995212555
0.2831176519393921 -0.1068001240491867 -0.1351359784603119
0.2900809049606323 -0.13517390191555023 -0.13560058176517487
-0.10501774400472641 0.21437807381153107 -0.13449810445308685
0.003012804314494133 0.09297241270542145 -0.1362742781639099
0.28645485639572144 0.007232934236526489 -0.13550296425819397
0.29576021432876587 -0.10966775566339493 0.1563994288444519
-0.06547114253044128 -0.23975007236003876 -0.13532491028308868
-0.26110824942588806 0.20322832465171814 0.15801674127578735
-0.011502346023917198 0.17180588841438293 0.15261031687259674
0.016123419627547264 -0.25221362709999084 0.02572283148765564
-0.0853624939918518 -0.1984173059463501 0.15266801416873932
0.0606379508972168 -0.1861083209514618 0.16495822370052338
-0.2461337149143219 -0.2457248866558075 -0.13419754803180695
-0.24484017491340637 -0.3763788640499115 -0.09100513905286789
-0.26540014147758484 -0.21468988060951233 0.15781179070472717
0.12958040833473206 -0.197440043091774 0.1515951305627823
0.286662757396698 0.2148071527481079 -0.13706950843334198
-0.2707040011882782 -0.19965828955173492 -0.12844102084636688
-0.2531432509422302 -0.25136223435401917 -0.1285109966993332
0.29519402980804443 0.22379910945892334 0.0332283154129982
0.2960459589958191 0.07322351634502411 0.15278378129005432
0.0898616760969162 0.16955281794071198 0.15842045843601227
0.13830408453941345 0.22751647233963013 -0.05800499767065048
0.2169554978609085 0.3014736473560333 -0.018777260556817055
0.2468508630990982 -0.024088557809591293 0.16872017085552216
-0.15476715564727783 0.08725341409444809 -0.135543555021286
-0.2097817063331604 -0.1287630796432495 0.17210176587104797
-0.08617144823074341 -0.1950424611568451 0.15391743183135986
0.2371700257062912 -0.25166359543800354 0.14877529442310333
0.013839730992913246 -0.25310367345809937 -0.051387712359428406
-0.0773019790649414 -0.0033828280866146088 -0.13504138588905334
0.2575051188468933 -0.05332227796316147 0.1540077179670334
-0.21462684869766235 -0.07740876823663712 0.16791032254695892
0.28377315402030945 0.43385061621665955 0.12671267986297607
0.2976468503475189 -0.07668456435203552 -0.1252269446849823
-0.2701268196105957 0.061577823013067245 -0.08565346151590347
0.002746710553765297 -0.17253078520298004 0.17113237082958221
-0.2018197476863861 0.245792418718338 -0.026819974184036255
0.28265929222106934 0.098312146961689 -0.13566824793815613
-0.28483420610427856 0.006961394101381302 -0.24071745574474335
-0.2128569334745407 0.22666756808757782 -0.12349532544612885
-0.23559628427028656 0.4987214505672455 0.07496927678585052
-0.02882503718137741 0.0023629721254110336 0.1688433736562729
-0.2567364275455475 -0.1337765008211136 -0.13505849242210388
-0.009074597619473934 0.2858808934688568 -0.23495697975158691
0.0505075640976429 0.1412627398967743 -0.20466667413711548
-0.25465458631515503 0.37865158915519714 0.09880796074867249
0.278732031583786 0.22740218043327332 -0.04670744761824608
-0.26836854219436646 -0.0612744577229023 0.15580610930919647
-0.2559923827648163 -0.4740414619445801 -0.03848259896039963
-0.27015334367752075 0.06961210817098618 -0.12878219783306122
0.25299689173698425 -0.261409193277359 0.04821082949638367
0.2563250660896301 -0.26034343242645264 -0.010574056766927242
-0.2436152845621109 -0.47288697957992554 -0.03730013221502304
-0.20406265556812286 -0.42647191882133484 -0.041484247893095016
0.08041109889745712 -0.14981187880039215 -0.13866128027439117
0.25227975845336914 0.016834940761327744 0.15551765263080597
0.29200923442840576 0.2270236611366272 -0.13636380434036255
0.18842536211013794 -0.43952471017837524 -0.07290107011795044
-0.2653234302997589 -0.01419147104024887 -0.13531562685966492
0.21129733324050903 -0.04556242749094963 -0.1358371078968048
-0.2923530340194702 0.04819287359714508 -0.2695366144180298
0.16778403520584106 -0.23645761609077454 0.15474340319633484
0.29806122183799744 0.029026854783296585 -0.00618382915854454
-0.23447340726852417 0.2496158331632614 -0.01932559907436371
0.24587145447731018 0.3083955645561218 0.05089308321475983
-0.2645818889141083 -0.308305948972702 0.11110793054103851
0.26745063066482544 0.4632047116756439 -0.07251827418804169
-0.27100566029548645 0.039988093078136444 0.1493683159351349
0.1376786231994629 -0.4167352616786957 0.06249041482806206
0.22103014588356018 0.12772586941719055 0.1675548106431961
0.25741004943847656 -0.05345946177840233 0.1543225347995758
0.2386663407087326 0.0959213450551033 0.16878405213356018
0.2833001911640167 -0.24838384985923767 -0.04261080175638199
0.29249587655067444 -0.25054749846458435 -0.061164289712905884
0.19699136912822723 0.2299143671989441 0.0028966940008103848
-0.2620404064655304 0.12080937623977661 -0.13463999330997467
0.08699909597635269 0.22433912754058838 -0.1312018632888794
0.2574770450592041 -0.1435227245092392 0.1515275239944458
0.29657211899757385 0.22676458954811096 -0.043084003031253815
-0.27735063433647156 -0.30892184376716614 0.10504897683858871
-0.24463914334774017 0.33227065205574036 0.027484610676765442
-0.28348714113235474 0.014329315163195133 -0.24056653678417206
-0.24536198377609253 -0.3220840394496918 0.11935649067163467
0.2447664588689804 -0.12930487096309662 0.16670601069927216
0.2179141491651535 0.22601962089538574 0.14075177907943726
-0.2581009268760681 -0.056546010076999664 -0.13530655205249786
0.2879946231842041 -0.24436108767986298 0.15278178453445435
-0.26909253001213074 -0.18828774988651276 -0.12739254534244537
0.28201398253440857 0.22813361883163452 -0.019217994064092636
0.2476457953453064 0.35856616497039795 -0.08178749680519104
-0.2692696750164032 -0.15991173684597015 -0.12537355720996857
-0.18614865839481354 -0.18731342256069183 0.15408529341220856
-0.2365644872188568 -0.38980892300605774 0.19170363247394562
0.13647538423538208 -0.4334374964237213 0.09132549166679382
-0.27312594652175903 -0.19964247941970825 0.1401643455028534
-0.16506336629390717 0.3954882323741913 0.09351473301649094
0.1617206633090973 -0.24785056710243225 -0.13365201652050018
-0.1745547205209732 0.22936443984508514 0.041737575083971024
-0.24713443219661713 -0.465915709733963 -0.05069463700056076
-0.26490557193756104 -0.0066437795758247375 -0.1346188187599182
0.16621389985084534 -0.25105541944503784 0.1449289619922638
-0.12358768284320831 0.17401622235774994 0.15440326929092407
0.29681795835494995 0.016743019223213196 -0.1337364763021469
-0.2628598213195801 0.09562166035175323 0.15691253542900085
0.25471025705337524 0.13023892045021057 0.15162651240825653
-0.19615799188613892 0.35339295864105225 0.10208833962678909
0.23307713866233826 0.4835740923881531 -0.06759268790483475
-0.32941728830337524 -0.42075324058532715 -0.04357161372900009
0.29616689682006836 -0.23982466757297516 0.038467273116111755
0.22762498259544373 0.22955594956874847 -0.12946519255638123
-0.2673487663269043 -0.21814250946044922 -0.13169248402118683
0.18544206023216248 0.34109535813331604 -0.009706856682896614
-0.2759542167186737 -0.3938233554363251 -0.09304870665073395
0.2838243544101715 -0.4176609218120575 0.18757450580596924
0.28946858644485474 -0.22719354927539825 0.15561850368976593
0.2508489787578583 0.49657535552978516 -0.05415204539895058
-0.2630106210708618 0.22586438059806824 -0.13387754559516907
0.29607081413269043 0.18256087601184845 -0.13512970507144928
-0.015501084737479687 0.2278260886669159 -0.07058549672365189
-0.26158449053764343 0.05176141485571861 -0.13597068190574646
-0.1928435117006302 -0.24644523859024048 0.1549227386713028
0.2986793518066406 0.025837015360593796 -0.11893618106842041
0.2885548174381256 0.22703833878040314 -0.13586165010929108
-0.18578803539276123 0.493108868598938 0.07346207648515701
-0.18821415305137634 -0.1749536693096161 0.1700795292854309
-0.15082445740699768 -0.26743659377098083 0.004034523386508226
-0.2706431448459625 0.1862993985414505 -0.1224832609295845
-0.2711726725101471 0.21699762344360352 0.08211066573858261
-0.24766014516353607 -0.38278552889823914 0.1967257559299469
0.2827862799167633 0.4353209435939789 -0.06563343852758408
0.08741447329521179 0.22631005942821503 -0.08133913576602936
-0.26141539216041565 0.018238304182887077 -0.13401126861572266
0.29480457305908203 0.1898837834596634 0.15752290189266205
-0.2088434398174286 0.23322224617004395 0.06047463044524193
0.2199259102344513 -0.2553761899471283 -0.06932073086500168
0.2698129117488861 0.3708439767360687 0.12559616565704346
-0.09359920024871826 -0.2476426064968109 0.08993615210056305
0.25810137391090393 0.22277086973190308 -0.13607534766197205
0.2955317497253418 -0.2318602353334427 0.1457212269306183
0.30195286870002747 -0.058314498513936996 0.14399199187755585
-0.2542158365249634 -0.4127555787563324 0.1968218833208084
0.29041650891304016 -0.1711493730545044 0.1571502983570099
-0.23766253888607025 0.27552616596221924 0.020994244143366814
-0.22734248638153076 0.2256462424993515 -0.1300095021724701
-0.27135923504829407 -0.07624032348394394 0.1562301069498062
0.21840637922286987 0.24008402228355408 -0.021988168358802795
0.003927409183233976 -0.2339477241039276 0.15469497442245483
-0.11583438515663147 0.18730194866657257 0.15437400341033936
-0.33288493752479553 -0.3570537865161896 0.08054785430431366
-0.11336071789264679 0.15253454446792603 0.16914547979831696
-0.2157697230577469 -0.2649400234222412 -0.0577080063521862
-0.23356637358665466 0.09196487814188004 0.15540499985218048
0.290605366230011 -0.24849379062652588 0.03197633475065231
-0.2667154371738434 -0.039836764335632324 -0.13482868671417236
-0.2653876543045044 0.14759591221809387 -0.1331883668899536
-0.2996646761894226 -0.344682902097702 0.1995268613100052
0.06419797241687775 -0.11279742419719696 0.1691090315580368
-0.27477067708969116 -0.3972029387950897 -0.09464190155267715
0.28774115443229675 -0.25162413716316223 0.014179900288581848
-0.0050147599540650845 -0.23623347282409668 0.155095636844635
0.27886366844177246 -0.3729605972766876 -0.032447315752506256
0.10592518746852875 -0.18332365155220032 0.1681816428899765
-0.27125564217567444 0.017957493662834167 -0.12379278987646103
-0.3357883095741272 -0.3517705202102661 0.16604691743850708
0.0188840851187706 0.23392772674560547 -0.18733841180801392
-0.17641286551952362 0.15745116770267487 0.1692463904619217
0.043401554226875305 -0.1873852014541626 0.16418442130088806
-0.1487814038991928 -0.2561555504798889 -0.033003974705934525
0.29523950815200806 -0.24496376514434814 0.07812507450580597
-0.016516296193003654 -0.25166237354278564 -0.028605438768863678
0.04098210483789444 -0.20012511312961578 0.1539614051580429
0.22039586305618286 -0.04553231596946716 -0.13654622435569763
0.26468661427497864 0.062101878225803375 -0.13708925247192383
0.2931799590587616 0.4598948359489441 0.1145610362291336
-0.20712999999523163 -0.4128018021583557 0.15477636456489563
-0.2714197337627411 0.012041786685585976 0.13779965043067932
0.27123335003852844 -0.44500091671943665 -0.045587144792079926
0.08680746704339981 0.22749768197536469 -0.04391590133309364
0.06514917314052582 0.10927657037973404 -0.13757143914699554
-0.23026517033576965 -0.2485051155090332 0.1462170034646988
-0.26183605194091797 -0.24968555569648743 -0.07222388684749603
-0.3359571099281311 -0.35803714394569397 0.07764111459255219
0.05953722447156906 -0.1776321828365326 0.16874828934669495
0.10462789982557297 -0.2412165403366089 -0.1358208954334259
0.05648914352059364 0.22660976648330688 -0.12524713575839996
-0.26899436116218567 -0.08988262712955475 -0.12060607224702835
0.2929571568965912 0.22676102817058563 -0.1379851996898651
-0.05126158520579338 0.22789977490901947 -0.11653981357812881
-0.18779179453849792 -0.26591557264328003 0.06855316460132599
0.2174825519323349 -0.42244115471839905 0.20339128375053406
-0.015578309074044228 -0.24224853515625 0.15522725880146027
0.2918420135974884 0.055552396923303604 -0.13443680107593536
0.2584247887134552 -0.24994860589504242 -0.020367959514260292
0.29470476508140564 0.06125142425298691 -0.13361243903636932
-0.1866656243801117 -0.11847122013568878 -0.13363860547542572
-0.3334199786186218 -0.3858473002910614 0.0576932467520237
0.030474983155727386 0.21072959899902344 -0.17005980014801025
0.23893529176712036 0.30410292744636536 0.046931058168411255
-0.24412904679775238 -0.23959937691688538 0.15532737970352173
0.23675420880317688 0.4233936667442322 -0.09392338246107101
-0.27134621143341064 0.1443248689174652 0.14872704446315765
-0.011551138013601303 0.1771465539932251 0.15025027096271515
-0.2667206823825836 -0.03751175105571747 -0.13424275815486908
0.2695621848106384 -0.3337465524673462 0.10470603406429291
0.0081991758197546 0.22350913286209106 0.156376451253891
0.00804385170340538 -0.19681808352470398 0.1525074690580368
-0.16970038414001465 -0.25565770268440247 0.06680099666118622
0.2649060785770416 0.42767423391342163 0.10809372365474701
0.28937816619873047 -0.4022811949253082 0.16796767711639404
-0.2679778039455414 -0.08514494448900223 -0.12542510032653809
-0.2180381715297699 0.22745563089847565 0.14590579271316528
-0.2688848674297333 -0.0577346533536911 -0.12182707339525223
-0.22647030651569366 0.24383723735809326 0.04710278660058975
-0.2574410140514374 0.07899364829063416 -0.1359122097492218
0.20954826474189758 0.2210310399532318 -0.13696378469467163
0.28910234570503235 0.23037278652191162 -0.13541384041309357
-0.16303300857543945 -0.2577544152736664 0.058375678956508636
0.04449858516454697 0.16923032701015472 -0.21638378500938416
0.29581257700920105 0.40098845958709717 0.1138729453086853
-0.2684636116027832 -0.08277120441198349 -0.12588487565517426
-0.00902131013572216 -0.25077053904533386 -0.1214485764503479
0.2925686538219452 0.21186041831970215 0.15795964002609253
-0.2055220901966095 -0.08958050608634949 0.16933278739452362
-0.2394477128982544 0.30336490273475647 0.0019644717685878277
-0.21757590770721436 0.1368887722492218 0.1664954423904419
-0.2835800051689148 -0.025251783430576324 -0.23482054471969604
-0.2716601490974426 -0.24274024367332458 0.04482687637209892
0.25475865602493286 -0.05187508463859558 0.1548776626586914
-0.2477428913116455 0.4604654610157013 -0.04861597716808319
