0.29794934391975403 -0.2429618239402771 0.13400861620903015
0.2957035005092621 -0.11779389530420303 0.14788085222244263
-0.22867383062839508 -0.44946813583374023 0.14203836023807526
0.2965390086174011 0.21730299293994904 -0.13271760940551758
0.2614021301269531 0.4398636221885681 -0.08687900751829147
0.29540321230888367 0.11956962943077087 0.15064303576946259
0.20558921992778778 -0.44397231936454773 -0.07004402577877045
0.05151325464248657 0.13872167468070984 -0.1323232352733612
0.2973107695579529 -0.2458789348602295 0.12330202758312225
0.28960272669792175 -0.2368006706237793 -0.13242937624454498
0.26575589179992676 -0.44860485196113586 -0.05774424970149994
-0.2654600739479065 -0.011236241087317467 -0.13445807993412018
-0.25767678022384644 -0.1368405520915985 -0.1364947259426117
-0.21528640389442444 -0.31644919514656067 -0.07055047154426575
0.29704082012176514 -0.10930109024047852 -0.1326577067375183
-0.24247241020202637 -0.39307254552841187 0.19912602007389069
0.2494105100631714 -0.15707214176654816 0.15684223175048828
-0.15230678021907806 0.1626562923192978 0.16588124632835388
0.03789868578314781 0.22941111028194427 0.14671270549297333
0.2116108536720276 0.30611664056777954 -0.017902828752994537
-0.2668174207210541 -0.37993714213371277 -0.09361771494150162
0.2835274636745453 0.05839253589510918 0.15706473588943481
0.19425983726978302 0.4796455502510071 -0.03179113566875458
-0.2988220751285553 -0.3148173689842224 0.14582155644893646
-0.27021175622940063 -0.17140008509159088 -0.13241854310035706
-0.13391833007335663 -0.06877914071083069 -0.13382717967033386
0.29652437567710876 -0.17085503041744232 0.14328959584236145
0.14702647924423218 -0.44311919808387756 0.04683484137058258
0.2961757481098175 -0.20486967265605927 0.1443672776222229
0.16261720657348633 -0.24597109854221344 -0.1346425563097
-0.21163970232009888 -0.09431710094213486 0.16688381135463715
-0.2706136107444763 0.08281377702951431 -0.13405904173851013
-0.21383453905582428 -0.07880664616823196 0.16762632131576538
0.20490401983261108 0.22430753707885742 -0.1271800398826599
0.24026061594486237 0.2248794436454773 0.15599633753299713
-0.3030586242675781 -0.36758121848106384 0.20480597019195557
0.2607152462005615 -0.07166393846273422 0.15452909469604492
0.18438266217708588 0.22781088948249817 0.12552820146083832
0.26839521527290344 0.33234256505966187 0.07717475295066833
0.018055405467748642 0.09331510215997696 -0.1366293877363205
-0.17794674634933472 0.35054007172584534 -0.04897622391581535
-0.2088603675365448 0.16143541038036346 0.16622497141361237
-0.33175191283226013 -0.37501955032348633 0.1110115647315979
0.22594796121120453 0.23231106996536255 0.05689056217670441
-0.2709309756755829 -0.002213740721344948 -0.1252177655696869
0.02346118539571762 0.2110150158405304 -0.1350342184305191
-0.333023339509964 -0.38363581895828247 0.06265799701213837
0.2973088324069977 -0.12303619086742401 -0.13359084725379944
-0.25790292024612427 -0.09468362480401993 -0.1349746137857437
-0.27007409930229187 -0.23907804489135742 -0.07761113345623016
-0.266812264919281 -0.37496206164360046 -0.09378010034561157
0.28078874945640564 -0.4432179629802704 0.016476042568683624
-0.1656314879655838 0.39726680517196655 0.10294553637504578
0.23574383556842804 -0.252665638923645 -0.0694081261754036
-0.16092558205127716 -0.2430460900068283 -0.13345852494239807
0.14103242754936218 -0.24837949872016907 -0.12253689765930176
-0.27205806970596313 -0.07902766019105911 -0.1311371922492981
-0.2674388289451599 -0.18565158545970917 -0.12402256578207016
-0.2649083137512207 -0.4711073338985443 -0.04684397578239441
0.2673555612564087 0.5031267404556274 0.10447479784488678
0.0947299674153328 0.2169998735189438 0.15695232152938843
0.293993204832077 0.3386998474597931 -0.006446556653827429
0.2580091059207916 -0.05719074606895447 0.15336410701274872
0.1997782289981842 0.3531469404697418 0.10541228950023651
-0.16872262954711914 -0.19247204065322876 0.1584826558828354
-0.008830519393086433 0.22843009233474731 0.03131359815597534
-0.2522406578063965 0.4822096824645996 0.06465892493724823
0.0679965391755104 0.22398553788661957 0.06990262866020203
-0.2533744275569916 -0.42892512679100037 0.1585140973329544
0.20443372428417206 0.22533978521823883 0.015855146571993828
-0.270700067281723 -0.058261796832084656 -0.12388104945421219
0.22228027880191803 -0.26470786333084106 -0.053198039531707764
-0.17935062944889069 -0.40015944838523865 -0.008409147150814533
-0.24553555250167847 -0.24743406474590302 -0.13146382570266724
0.28963935375213623 -0.05194072052836418 0.15558691322803497
0.2779388427734375 0.2269316017627716 0.13876190781593323
-0.26987695693969727 -0.1682388335466385 -0.13216906785964966
0.2909994423389435 0.015627019107341766 -0.13525959849357605
-0.25164198875427246 0.22925154864788055 -0.0335540808737278
-0.267668753862381 0.2233910858631134 0.10426440834999084
-0.21988321840763092 0.23159003257751465 0.05871132016181946
-0.32281893491744995 -0.33036574721336365 0.17124657332897186
-0.15310390293598175 -0.25200095772743225 0.07298123836517334
-0.039405979216098785 -0.24600768089294434 0.15509402751922607
-0.20934559404850006 0.07479308545589447 0.17069540917873383
0.295430451631546 0.22324243187904358 0.10762961208820343
-0.1870468109846115 0.36436694860458374 -0.0656936764717102
0.09393442422151566 0.22680191695690155 -0.12725955247879028
0.29220491647720337 0.4206123948097229 0.12926635146141052
-0.26950857043266296 -0.06065024062991142 -0.13540072739124298
-0.3168734014034271 -0.32482925057411194 0.16726849973201752
0.022265156731009483 0.22751355171203613 0.1425967663526535
-0.271270751953125 -0.07424905151128769 0.14665745198726654
-0.13394863903522491 -0.24161288142204285 0.15703701972961426
0.23933807015419006 0.15017098188400269 0.16562992334365845
-0.2703562378883362 -0.09852851182222366 -0.1250130534172058
0.29634445905685425 -0.006799441762268543 -0.1208532452583313
-0.3017173707485199 -0.4446282684803009 -0.07366616278886795
-0.2717868685722351 0.21785993874073029 0.1403663456439972
-0.24296987056732178 0.2280510663986206 0.052216120064258575
-0.26921409368515015 -0.12187216430902481 -0.13461092114448547
0.2876107394695282 -0.14649751782417297 0.15573181211948395
-0.12575632333755493 0.2253468632698059 0.15485557913780212
0.18944796919822693 0.46511295437812805 0.11277458071708679
0.2828748822212219 -0.4440455138683319 0.08388280123472214
0.015752186998724937 -0.24157258868217468 -0.1345229297876358
0.22314999997615814 0.3465920388698578 0.11210665106773376
-0.31377050280570984 -0.4083050787448883 -0.08290109038352966
0.16713696718215942 -0.2505436837673187 0.14837464690208435
0.2538253664970398 -0.2494499385356903 0.14642377197742462
0.03554777801036835 -0.24957698583602905 0.1490539312362671
0.27339765429496765 0.34416019916534424 -0.061045870184898376
-0.26906120777130127 -0.14247049391269684 0.15397727489471436
-0.27320659160614014 0.11884073913097382 -0.131967693567276
-0.17395925521850586 0.32921043038368225 -0.005608278792351484
0.05598016828298569 0.1635618954896927 0.1643763929605484
0.2972959876060486 0.09965451061725616 0.1458643674850464
0.2354799509048462 0.11669017374515533 0.17068414390087128
-0.3020409345626831 -0.3910355269908905 -0.08320703357458115
0.008475026115775108 0.22401976585388184 0.15612109005451202
-0.14868953824043274 -0.2675255537033081 0.013249948620796204
-0.30788660049438477 -0.44398534297943115 -0.07108843326568604
0.297832190990448 0.1870424896478653 0.1474437713623047
-0.27236929535865784 0.11787331849336624 -0.13161174952983856
0.23175930976867676 0.15349403023719788 0.1686646044254303
0.09354947507381439 -0.19887664914131165 0.1537802517414093
-0.23814553022384644 -0.24719838798046112 -0.1296621561050415
0.2574715316295624 0.48814231157302856 -0.05085713788866997
-0.2306460440158844 0.4916515648365021 0.10418743640184402
-0.27157580852508545 -0.30402740836143494 0.09721158444881439
-0.24321256577968597 -0.27217984199523926 0.04484270513057709
0.2974001169204712 -0.1825476884841919 -0.13166838884353638
0.12952746450901031 0.22489061951637268 0.1557430624961853
0.2880209982395172 -0.21927160024642944 0.15529648959636688
0.29109764099121094 0.22460564970970154 0.0018453728407621384
0.2894767224788666 -0.43355563282966614 0.00982313510030508
0.2099660187959671 0.22991690039634705 0.006265741772949696
0.28481823205947876 -0.031695567071437836 0.1553041636943817
-0.24686086177825928 -0.29647862911224365 -0.04953471198678017
0.23277783393859863 0.22742199897766113 0.15121228992938995
0.2922747731208801 0.21384964883327484 -0.1343003362417221
-0.1920713186264038 -0.24833278357982635 0.15427255630493164
-0.22260816395282745 -0.37479332089424133 0.14569184184074402
0.030097274109721184 0.15887436270713806 0.16749070584774017
-0.2699032425880432 0.14594563841819763 0.14434576034545898
0.26720136404037476 -0.2386966347694397 -0.1370254009962082
0.2588721513748169 0.12463179230690002 -0.13458551466464996
0.20850685238838196 -0.4498904049396515 0.19256103038787842
-0.26927250623703003 -0.2090499997138977 -0.1264355480670929
0.06894971430301666 0.0885985791683197 -0.1352415382862091
0.29414916038513184 0.22517560422420502 -0.12191429734230042
-0.1372346132993698 -0.24039976298809052 -0.13551612198352814
-0.2293161004781723 0.4853595793247223 -0.03647424653172493
0.2951816916465759 0.20721539855003357 0.14995381236076355
-0.018096840009093285 0.09775738418102264 0.169515460729599
0.294973760843277 -0.0683576762676239 0.1514960527420044
-0.32906442880630493 -0.42061781883239746 -0.059708140790462494
0.02625991404056549 -0.11899308860301971 0.16887211799621582
-0.22013354301452637 -0.00029074400663375854 0.16127130389213562
0.29800841212272644 -0.15848888456821442 0.14918559789657593
0.2984307110309601 0.170834481716156 0.14704255759716034
-0.2687152624130249 -0.12195783853530884 -0.1352667510509491
0.29023614525794983 0.1713062971830368 0.157039612531662
0.2584401071071625 0.5130411386489868 0.017884112894535065
0.29572397470474243 0.034042421728372574 0.14643841981887817
-0.2633058726787567 -0.25324171781539917 -0.10708644986152649
0.25469544529914856 -0.2973475456237793 0.08303161710500717
0.22433502972126007 0.5118619203567505 -0.0023924200795590878
-0.2704277038574219 -0.18661551177501678 -0.13028134405612946
0.2963949739933014 -0.24256421625614166 0.08637016266584396
0.2569575011730194 0.5018315315246582 -0.02763756737112999
0.2855231761932373 -0.43392983078956604 0.1299506574869156
-0.06478436291217804 0.21443067491054535 -0.13412810862064362
0.25876691937446594 -0.24724450707435608 -0.12894977629184723
0.29228952527046204 -0.03423871845006943 -0.13480722904205322
0.21798354387283325 0.17168991267681122 0.15349909663200378
0.21440421044826508 -0.20325061678886414 0.1549425572156906
-0.23137453198432922 0.22733348608016968 -0.12164007127285004
-0.04223776236176491 0.14006821811199188 -0.13712206482887268
0.18975795805454254 -0.25355884432792664 0.058580681681632996
-0.26762235164642334 -0.10433133691549301 0.12795931100845337
-0.09174874424934387 -0.05028089880943298 -0.13556799292564392
0.19480851292610168 0.34151703119277954 -0.04757904261350632
-0.22171154618263245 -0.4731346070766449 0.030715689063072205
0.08718718588352203 0.22737763822078705 -0.03003304824233055
0.17221151292324066 -0.19901864230632782 0.15478898584842682
0.29603150486946106 -0.012307592667639256 -0.13711853325366974
-0.2657826542854309 -0.044677041471004486 -0.135150745511055
-0.30010950565338135 -0.4488762617111206 -0.06911606341600418
0.19903729856014252 0.39395254850387573 0.11307162046432495
0.06381623446941376 -0.2514021396636963 0.14916157722473145
0.2961365878582001 -0.12228874862194061 0.15027618408203125
-0.2706204652786255 0.03965800255537033 -0.13148795068264008
0.28648000955581665 -0.10512422770261765 -0.13639681041240692
-0.2637757658958435 0.22775059938430786 -0.11253465712070465
0.295387327671051 0.22246907651424408 -0.011669699102640152
0.2840394675731659 0.047084368765354156 0.15684491395950317
0.20598755776882172 -0.16305197775363922 0.1689218133687973
0.20063544809818268 0.22552913427352905 -0.013522129505872726
0.29034939408302307 -0.02653394266963005 0.15530262887477875
0.020702818408608437 0.22834554314613342 -0.12563210725784302
-0.24248376488685608 -0.47955670952796936 -0.03083593025803566
-0.03747381269931793 -0.2505755126476288 0.14497962594032288
-0.20610257983207703 -0.04145673289895058 0.16832558810710907
-0.2628105878829956 0.35224342346191406 -0.002394521376118064
0.30099281668663025 0.0016049109399318695 0.14389526844024658
-0.09061893075704575 0.07723093777894974 0.16975046694278717
-0.2581263482570648 -0.3722679018974304 -0.09288434684276581
-0.23572497069835663 0.22522683441638947 -0.1361231803894043
0.12630417943000793 -0.046494338661432266 0.1671043187379837
0.28703901171684265 -0.020995423197746277 0.15497899055480957
0.2982274293899536 -0.13614359498023987 0.1483713984489441
0.15780170261859894 -0.4086091220378876 0.17257410287857056
0.29155433177948 0.09155817329883575 0.15671059489250183
0.17528340220451355 -0.21337677538394928 0.15557162463665009
0.2387256622314453 0.23268036544322968 0.1454041302204132
0.10249040275812149 0.2298092246055603 -0.1218472272157669
-0.2352190911769867 -0.38380351662635803 0.1887977123260498
0.2595728635787964 -0.2413218915462494 -0.13387669622898102
-0.210866779088974 -0.04637504369020462 0.1690792590379715
-0.21807917952537537 -0.31233808398246765 -0.072154700756073
0.2508392333984375 -0.16907721757888794 0.15676715970039368
0.1785876750946045 -0.25367864966392517 0.04155021160840988
-0.07649677991867065 0.13668608665466309 0.16964827477931976
-0.29223912954330444 -0.006514809560030699 -0.24555927515029907
0.14291730523109436 -0.4370124936103821 0.009472757577896118
-0.1826600879430771 -0.3880373239517212 0.07506385445594788
-0.27051952481269836 0.0491807796061039 -0.1280265599489212
-0.2553507685661316 -0.2504414916038513 0.056030139327049255
-0.2317287027835846 -0.33973342180252075 -0.0834825336933136
0.08787883818149567 0.1535281091928482 0.16791829466819763
0.19546543061733246 0.36515432596206665 0.10650548338890076
-0.26988542079925537 -0.08639904111623764 -0.13281530141830444
0.18194580078125 -0.33155253529548645 -0.05436108633875847
0.29712027311325073 0.10938884317874908 0.15362222492694855
0.27586373686790466 -0.4415345788002014 0.19276900589466095
0.20118938386440277 0.23090341687202454 -0.004197117406874895
0.1731078177690506 -0.4443080425262451 0.08706304430961609
0.21454103291034698 0.4582931399345398 -0.07331127673387527
0.15504178404808044 0.2276661992073059 -0.12241529673337936
0.17717373371124268 -0.44897037744522095 0.18462850153446198
0.22578711807727814 -0.25455281138420105 -0.047112591564655304
-0.17678049206733704 0.23419936001300812 0.026177622377872467
0.02166680619120598 -0.2501678168773651 0.1457335352897644
0.17011985182762146 0.22950023412704468 -0.0065292115323245525
0.2397720217704773 -0.1298895925283432 0.165080726146698
0.02327682077884674 -0.17886453866958618 -0.13582743704319
0.2643873691558838 0.30256903171539307 -0.016987407580018044
0.2899656295776367 -0.0054943980649113655 -0.1355513483285904
0.29787230491638184 0.15911467373371124 0.15536296367645264
0.29754143953323364 -0.021092688664793968 0.1395905315876007
-0.09977035224437714 0.22762399911880493 0.15340261161327362
-0.2686479389667511 -0.08277589082717896 0.14310447871685028
-0.33422815799713135 -0.37630581855773926 0.0951264351606369
-0.1500227302312851 -0.2572835385799408 -0.006304838694632053
-0.24395610392093658 0.4647112488746643 -0.049986500293016434
-0.26170292496681213 0.15801577270030975 -0.13163018226623535
0.2433178722858429 -0.17485922574996948 0.1651686728000641
0.2513914406299591 -0.260775089263916 -0.03967992961406708
-0.06619206815958023 0.22964170575141907 -0.12025593221187592
-0.10715353488922119 -0.23902007937431335 -0.13370563089847565
-0.20014210045337677 -0.1633279025554657 -0.1351493000984192
-0.25422391295433044 0.06364280730485916 -0.2983963191509247
0.29643112421035767 0.18502528965473175 0.14885655045509338
0.2911927402019501 0.13064171373844147 0.1566096395254135
0.11986912786960602 0.22302235662937164 -0.13049772381782532
-0.25392946600914 -0.2524644732475281 0.10869886726140976
-0.040208667516708374 0.22124814987182617 0.1563694030046463
-0.01424978207796812 0.13879574835300446 -0.2097102850675583
0.2980603277683258 0.12064657360315323 -0.12136892974376678
0.23679035902023315 -0.09913051128387451 0.16712374985218048
-0.26744717359542847 0.19755776226520538 -0.1335858255624771
0.287381649017334 0.3888119161128998 0.12980875372886658
-0.26993831992149353 0.13998492062091827 -0.13143602013587952
-0.19126278162002563 0.24814024567604065 0.039794787764549255
0.26262912154197693 0.49285298585891724 0.12929190695285797
0.2958028018474579 0.2244240641593933 -0.12225931137800217
-0.2672862112522125 0.2189851701259613 -0.09386572241783142
0.14768677949905396 -0.44303855299949646 0.09638799726963043
-0.25960439443588257 0.1459946632385254 -0.13967564702033997
-0.12531284987926483 -0.18920910358428955 0.16359460353851318
0.22152408957481384 -0.26981210708618164 0.08100005984306335
0.20478002727031708 -0.25025874376296997 0.12672609090805054
-0.21662737429141998 -0.46284517645835876 0.08455589413642883
-0.2860204577445984 -0.385773628950119 0.20928192138671875
0.2979685962200165 -0.21784646809101105 -0.12136436253786087
-0.151265487074852 0.16008791327476501 0.16678300499916077
0.28141045570373535 0.011372490786015987 0.15528321266174316
-0.26964232325553894 0.06808725744485855 -0.1334153264760971
-0.2543916702270508 -0.13253116607666016 -0.1339244693517685
0.2852538526058197 0.33664995431900024 0.0706292912364006
0.29596731066703796 0.08130388706922531 0.14934928715229034
0.19082313776016235 0.1435222178697586 -0.13420265913009644
-0.24291570484638214 -0.38931602239608765 0.1968013495206833
-0.14961974322795868 -0.2788121998310089 -0.0037255892530083656
-0.25775146484375 -0.11290561407804489 -0.13649719953536987
-0.14719311892986298 -0.2540972828865051 0.02974509261548519
0.2443399876356125 -0.31566548347473145 -0.07856844365596771
0.28955140709877014 -0.4339331388473511 0.03132891282439232
0.24649497866630554 0.01205616258084774 0.15919163823127747
0.26234474778175354 0.17822133004665375 0.15848633646965027
0.22434642910957336 -0.20307525992393494 0.15529555082321167
0.2969343364238739 -0.2369379699230194 0.15535417199134827
0.24929147958755493 -0.023599592968821526 0.15837183594703674
0.14103277027606964 -0.43647506833076477 0.041143666952848434
-0.04399462789297104 -0.24100899696350098 -0.13467448949813843
-0.2247275710105896 0.22566990554332733 0.1439530998468399
-0.2353949397802353 0.4941687285900116 0.01045534759759903
0.1679343581199646 0.1585017889738083 0.16629062592983246
0.2946597933769226 -0.24278590083122253 0.12462035566568375
-0.05619141831994057 0.21606163680553436 -0.13423681259155273
-0.11694049835205078 -0.2477128952741623 0.14416033029556274
0.24108333885669708 -0.3134559988975525 0.10408338159322739
-0.08440850675106049 -0.24706196784973145 0.14495998620986938
-0.16060520708560944 0.1672220677137375 0.16292043030261993
0.022336814552545547 0.09141793102025986 -0.1349937468767166
-0.053873851895332336 -0.2492411732673645 -0.10963615775108337
0.09881608933210373 0.2180197536945343 0.1560705304145813
-0.1997988522052765 0.32952064275741577 0.05567362159490585
-0.2740907669067383 -0.20929118990898132 -0.05512237548828125
0.11634160578250885 -0.2528156042098999 0.1131644994020462
-0.15294519066810608 -0.23955407738685608 -0.1361226737499237
0.29522067308425903 -0.1553819328546524 0.15029394626617432
-0.22443144023418427 -0.32227423787117004 -0.0757628008723259
-0.2686068117618561 0.2218041718006134 0.14025990664958954
0.2961256802082062 -0.03886404260993004 0.040591880679130554
0.28473132848739624 -0.44430091977119446 0.1534125953912735
-0.27082809805870056 0.11977163702249527 -0.12810157239437103
0.24762198328971863 -0.1586487889289856 0.16275160014629364
0.23666739463806152 -0.24189162254333496 -0.1345982402563095
-0.25565773248672485 0.19475387036800385 -0.13631528615951538
0.027944374829530716 -0.2393089234828949 -0.13427479565143585
0.12864769995212555 0.21415914595127106 -0.13413457572460175
0.2801227569580078 0.37770625948905945 0.12987947463989258
0.1660521924495697 -0.2474391907453537 -0.12582847476005554
-0.2698499262332916 0.17500868439674377 0.1521131694316864
0.24069303274154663 0.4595148265361786 -0.08311633765697479
0.09749719500541687 0.22787387669086456 0.1283418983221054
-0.21598103642463684 0.23416757583618164 0.05480512976646423
-0.27214017510414124 -0.2000850886106491 0.09882503747940063
-0.2487649768590927 -0.3091370761394501 -0.06753474473953247
0.1863875687122345 -0.18358901143074036 0.16881798207759857
-0.3229832649230957 -0.36050981283187866 0.1892712563276291
0.27929410338401794 0.34006839990615845 -0.05218219757080078
-0.25785794854164124 -0.3191741108894348 -0.06277099251747131
0.16881057620048523 0.04251405596733093 -0.13824978470802307
-0.26607516407966614 -0.4012242555618286 0.20156872272491455
0.24153131246566772 0.3855603337287903 -0.09359542280435562
-0.2734313905239105 0.05808112770318985 -0.12699376046657562
-0.2692170739173889 0.21803165972232819 -0.018244661390781403
0.273721307516098 -0.38879936933517456 0.1831199824810028
0.2941773235797882 0.2241978943347931 0.1519933044910431
0.12121626734733582 0.21721842885017395 -0.136882483959198
0.1625520884990692 -0.25394436717033386 0.028488852083683014
0.2852379083633423 0.22708658874034882 -0.024432431906461716
0.2830061614513397 -0.3503638207912445 0.07751557976007462
-0.26917487382888794 0.003676336258649826 0.15245497226715088
0.26378878951072693 0.4924960434436798 0.12442584335803986
0.03970006853342056 0.19926849007606506 -0.13457214832305908
0.28923681378364563 -0.10573137551546097 0.15555453300476074
-0.26980650424957275 0.14982613921165466 0.07993217557668686
-0.27311617136001587 0.08798745274543762 -0.13318251073360443
0.2365845888853073 0.231686070561409 0.1488228440284729
-0.2727329134941101 0.15783604979515076 -0.1301451027393341
0.26712819933891296 -0.3537795841693878 -0.0734715610742569
0.3045758306980133 0.3904883563518524 -0.009244538843631744
0.29095086455345154 0.4474504590034485 0.1263468712568283
-0.0994967371225357 0.22776338458061218 0.13771948218345642
0.21239404380321503 0.22684378921985626 -0.032593149691820145
0.29443359375 0.22647801041603088 -0.09767017513513565
-0.15380936861038208 0.1701478660106659 0.15866193175315857
-0.19525183737277985 0.3488830327987671 -0.06151222437620163
-0.2064560055732727 -0.19406087696552277 0.1574312448501587
0.29025545716285706 -0.1714925915002823 0.1559433937072754
-0.21889804303646088 -0.17110054194927216 0.15807361900806427
-0.2369747906923294 0.4651615023612976 -0.054929107427597046
-0.2111830860376358 -0.25854745507240295 -0.05129078030586243
0.20807118713855743 0.2862580120563507 0.007144976407289505
-0.1957237869501114 0.358140766620636 -0.06934307515621185
-0.2632518410682678 -0.21716761589050293 0.15156985819339752
0.2917811870574951 -0.42294472455978394 0.1757034957408905
-0.260312020778656 -0.026840362697839737 -0.13438794016838074
-0.20863625407218933 -0.26488450169563293 0.07598087936639786
0.2542853057384491 -0.175933837890625 0.15147855877876282
-0.020230144262313843 0.22788262367248535 0.14446967840194702
0.20966441929340363 -0.17034347355365753 0.16836945712566376
0.02682817168533802 -0.24187716841697693 0.1573179066181183
-0.2699204981327057 -0.10968352854251862 -0.0279697198420763
-0.26863718032836914 0.045672427862882614 -0.133001446723938
-0.26774871349334717 0.12026967853307724 0.14105026423931122
0.05286003649234772 0.2278289943933487 -0.12335021793842316
0.29651495814323425 -0.25104907155036926 0.1236201822757721
0.028658488765358925 -0.2480643093585968 -0.13020169734954834
0.2445586919784546 -0.018322724848985672 0.16559100151062012
-0.26744189858436584 0.004060583189129829 -0.13269543647766113
-0.2708321809768677 -0.11425352841615677 -0.1312894970178604
0.08771631121635437 0.21678602695465088 -0.13609357178211212
0.2885158956050873 -0.007835626602172852 -0.1349237561225891
0.2982884645462036 -0.10052809864282608 -0.1220262423157692
-0.27094635367393494 -0.08708751946687698 -0.1314367800951004
-0.2719324827194214 0.047639310359954834 -0.13183185458183289
0.18838420510292053 0.4102676808834076 0.1171836256980896
0.19932477176189423 0.3992891311645508 0.11258740723133087
0.29576852917671204 -0.19000345468521118 -0.13429516553878784
-0.02550710365176201 -0.20430266857147217 0.15423046052455902
-0.26669082045555115 0.006113589741289616 0.15327437222003937
-0.24529974162578583 -0.18998606503009796 0.1533239185810089
-0.22537249326705933 -0.4768907129764557 0.04597456008195877
-0.00891647208482027 0.12203478813171387 -0.1368170976638794
0.18754787743091583 0.4134637415409088 0.1172492578625679
-0.09420734643936157 -0.24516335129737854 -0.1325221061706543
-0.2694627344608307 -0.21834270656108856 0.14687201380729675
0.2914227843284607 -0.2206202894449234 -0.13465017080307007
0.18263137340545654 -0.4460543394088745 0.07977718114852905
-0.2432296872138977 0.3030981421470642 -0.0023116571828722954
-0.3361865282058716 -0.40422895550727844 -0.035856179893016815
-0.26975545287132263 -0.16692861914634705 -0.12903477251529694
-0.1823897659778595 -0.25743839144706726 -0.05002332478761673
0.1714049130678177 -0.2505601644515991 0.14746524393558502
-0.2668905258178711 0.036733612418174744 -0.12958504259586334
-0.1553100049495697 -0.2562286853790283 0.04897322505712509
0.10117624700069427 0.22741825878620148 -0.12080374360084534
0.2844037115573883 -0.444367378950119 0.11728143692016602
0.0940469354391098 0.22911421954631805 0.15181496739387512
0.2954554855823517 -0.13325250148773193 0.15421324968338013
-0.2585172653198242 -0.03485019505023956 -0.13600151240825653
0.1291169673204422 -0.24784183502197266 -0.12948980927467346
-0.2691509425640106 0.10942527651786804 -0.13316087424755096
-0.2594697177410126 -0.2487068921327591 0.0951477587223053
-0.27092617750167847 -0.23531612753868103 0.130440354347229
0.29263004660606384 -0.14877882599830627 0.15531954169273376
-0.26357340812683105 -0.3758787214756012 0.20465493202209473
-0.2198123037815094 -0.18128912150859833 0.16032347083091736
0.171606183052063 0.22657737135887146 -0.12724600732326508
-0.2420988827943802 -0.2657589614391327 0.008760553784668446
-0.2710864245891571 0.14726364612579346 0.14370059967041016
-0.2084314227104187 0.12257616221904755 0.16991840302944183
0.19392310082912445 0.492056280374527 -0.005984783172607422
0.24479082226753235 -0.12041182816028595 0.16626577079296112
0.09745225310325623 -0.09035340696573257 -0.13557305932044983
-0.24345387518405914 0.2614932060241699 0.010463518090546131
0.1641460359096527 -0.44486382603645325 0.045948851853609085
0.15705516934394836 -0.045168209820985794 -0.13661938905715942
-0.26035088300704956 -0.44524943828582764 -0.075832799077034
-0.08930352330207825 0.16892209649085999 0.15800894796848297
-0.27010440826416016 0.14616002142429352 -0.1331987977027893
0.0763411819934845 -0.2476327270269394 0.15541447699069977
-0.21017171442508698 0.23485252261161804 -0.03508976101875305
-0.07893676310777664 -0.20198401808738708 0.15429067611694336
0.29836294054985046 0.213820219039917 0.054570700973272324
-0.058612458407878876 0.22332020103931427 0.1544349640607834
0.02763848379254341 0.22223585844039917 -0.24301274120807648
-0.24535495042800903 -0.28284022212028503 0.06621187925338745
0.24911385774612427 -0.07777141034603119 0.1617657095193863
-0.2694215476512909 0.22111698985099792 0.001667133765295148
-0.2730507254600525 0.10378473252058029 -0.13103002309799194
-0.24589352309703827 -0.35550111532211304 -0.09153185784816742
0.25031667947769165 0.46301689743995667 -0.08123757690191269
-0.2664686441421509 -0.07090990245342255 -0.13298553228378296
0.29515647888183594 -0.17201271653175354 0.15546420216560364
-0.1532897800207138 0.22797845304012299 -0.00019986042752861977
0.0011069951578974724 -0.20569336414337158 0.1549929678440094
0.2919749617576599 0.02888822741806507 -0.13421444594860077
0.2253897786140442 0.2301391363143921 -0.12388275563716888
0.2975282669067383 -0.027384556829929352 0.1516365110874176
0.2899547815322876 0.16724252700805664 0.15700273215770721
-0.26157280802726746 0.22860276699066162 0.08659598231315613
0.043040454387664795 -0.20052795112133026 0.15358339250087738
0.2616446614265442 -0.3142000436782837 0.08787598460912704
0.15784591436386108 0.22926247119903564 -0.09922773391008377
-0.21411731839179993 -0.28247538208961487 -0.06082936376333237
0.024215195327997208 -0.05976163223385811 0.168768510222435
-0.2705082893371582 -0.1525610387325287 -0.1303744912147522
-0.2663721442222595 -0.01685371622443199 -0.13133350014686584
-0.25148290395736694 0.3503444790840149 0.05912475287914276
0.25218823552131653 -0.15732431411743164 0.1557530015707016
0.2125290334224701 0.3932809829711914 -0.08105344325304031
-0.29585349559783936 -0.3199475109577179 0.16578663885593414
-0.19328166544437408 -0.2923583388328552 -0.055547840893268585
-0.1679387092590332 0.22800606489181519 0.019272882491350174
-0.21925048530101776 -0.28226807713508606 -0.06270091235637665
-0.20681703090667725 -0.18911927938461304 0.1611327975988388
0.29550817608833313 -0.1930379718542099 0.15173082053661346
0.25992074608802795 0.13447967171669006 0.15555833280086517
-0.2719877064228058 0.10146570205688477 -0.13470658659934998
-0.03246674686670303 -0.2514699101448059 0.055810585618019104
-0.28600576519966125 -0.44188645482063293 -0.08568783104419708
0.2663910388946533 -0.431136816740036 -0.07778598368167877
0.26910489797592163 0.4836835563182831 0.13073945045471191
0.2949685752391815 -0.05467666685581207 0.1435430347919464
0.29480433464050293 -0.22167417407035828 0.14056603610515594
-0.1888437271118164 0.5023216605186462 0.046888068318367004
-0.2699977457523346 -0.10460813343524933 0.14247283339500427
-0.0880955159664154 0.0030218902975320816 0.16835173964500427
-0.22930318117141724 0.33218300342559814 -0.04046329855918884
0.1744496077299118 -0.20191965997219086 0.15313035249710083
0.28782740235328674 0.14662842452526093 0.1567382961511612
0.2951306402683258 0.13289442658424377 0.1507118195295334
-0.19844116270542145 0.17717787623405457 0.1521599292755127
-0.27101853489875793 0.13888227939605713 -0.01991885155439377
-0.0773974359035492 -0.0011562220752239227 -0.13425573706626892
-0.19647178053855896 -0.2953738570213318 0.07314027845859528
0.29005488753318787 0.2248711735010147 0.0710710734128952
-0.29284000396728516 0.06681598722934723 -0.271490216255188
-0.11979524046182632 0.22472348809242249 0.15413376688957214
-0.27153605222702026 0.010309766978025436 0.14157341420650482
-0.2630373537540436 -0.1186637207865715 -0.1350359320640564
-0.2447887659072876 -0.2539154291152954 -0.01308521255850792
0.2563920021057129 0.22597558796405792 -0.12484757602214813
-0.2631794214248657 0.20527824759483337 -0.13443443179130554
0.26014670729637146 0.3423410654067993 -0.07078617811203003
-0.2691180408000946 -0.05915731564164162 0.14281924068927765
0.2838328182697296 -0.24662676453590393 0.1465209573507309
0.2791183590888977 0.41414183378219604 -0.0763261541724205
-0.14233267307281494 0.15472663938999176 0.16942289471626282
-0.26817941665649414 -0.13693147897720337 -0.13191752135753632
-0.17022109031677246 -0.3679049015045166 -0.004124194383621216
-0.18328481912612915 -0.09126891195774078 0.16864921152591705
0.296154260635376 0.04635258764028549 0.15009954571723938
-0.2702215611934662 0.18328671157360077 0.05635084956884384
0.25755608081817627 -0.41022536158561707 -0.08339822292327881
-0.18080389499664307 0.22897139191627502 0.05122591555118561
-0.289231538772583 -0.39469993114471436 -0.0904107615351677
-0.2637786865234375 0.21803969144821167 -0.13391010463237762
0.2923075556755066 0.027261454612016678 -0.1341346949338913
0.22630919516086578 -0.1830308884382248 0.16861876845359802
0.2549780011177063 -0.26999086141586304 -0.04058406502008438
0.08897101879119873 -0.030159182846546173 0.16853947937488556
0.2966930866241455 -0.030880793929100037 -0.13530515134334564
0.05903361737728119 0.1656935065984726 0.16091372072696686
-0.27138304710388184 -0.06864048540592194 -0.12834571301937103
-0.294950395822525 -0.3394038677215576 0.19496314227581024
0.005518337246030569 0.1285112500190735 -0.13750791549682617
0.288047730922699 -0.150957852602005 -0.13602758944034576
0.27267366647720337 -0.3959038257598877 0.18727001547813416
-0.24113334715366364 -0.27126941084861755 0.05130170285701752
0.26246678829193115 -0.4452926814556122 -0.0730782002210617
0.23765313625335693 -0.3224324882030487 -0.07921767234802246
0.2988155484199524 -0.15264391899108887 0.14418819546699524
0.011786658316850662 -0.19315274059772491 0.15875297784805298
-0.15998965501785278 -0.21242675185203552 -0.13773863017559052
-0.17034807801246643 0.2298603355884552 0.020905284211039543
-0.006148818880319595 0.07690414786338806 -0.13566957414150238
0.09898321330547333 0.22806447744369507 0.14876504242420197
-0.3379737436771393 -0.358505517244339 0.14082762598991394
-0.13493508100509644 -0.2529833912849426 -0.028882935643196106
0.20317873358726501 -0.30850136280059814 -0.06451287120580673
-0.1488019973039627 -0.2004399299621582 0.15265823900699615
0.29261907935142517 0.024054810404777527 -0.13611221313476562
-0.17166191339492798 -0.25053200125694275 0.14746016263961792
-0.26629015803337097 0.19928544759750366 0.15496087074279785
0.29443109035491943 0.20868338644504547 -0.13406385481357574
-0.2574765384197235 -0.37525317072868347 0.2009449005126953
-0.2701008915901184 0.09410008788108826 -0.1348455846309662
-0.22823065519332886 -0.0901898592710495 0.1526755541563034
-0.04574771970510483 0.2112291306257248 -0.13371624052524567
-0.27173537015914917 0.08744359016418457 -0.133040651679039
-0.27026602625846863 0.013752605766057968 -0.13294318318367004
0.2980955243110657 0.12154123187065125 0.06089210882782936
-0.2421778440475464 0.38627830147743225 -0.06974728405475616
-0.27061671018600464 0.06235039606690407 -0.13293056190013885
0.07008928805589676 0.21588316559791565 0.15677043795585632
-0.16165488958358765 0.22524748742580414 -0.12444739043712616
0.04650794714689255 -0.19063100218772888 0.16420820355415344
0.04212181642651558 0.22515182197093964 0.1438835859298706
-0.1922135353088379 0.49053338170051575 -0.03183695301413536
0.16628064215183258 -0.4447825849056244 0.04404846578836441
-0.26967135071754456 -0.23752228915691376 -0.10173740237951279
-0.26974236965179443 -0.06677122414112091 -0.1332431137561798
-0.2730172872543335 -0.06742286682128906 -0.13058751821517944
-0.27216991782188416 0.19831043481826782 -0.13181260228157043
0.29830512404441833 -0.018075834959745407 -0.13505801558494568
-0.22613400220870972 -0.4418897032737732 0.16611416637897491
-0.18464869260787964 -0.2661331593990326 -0.05167417600750923
0.20006312429904938 0.22672027349472046 -0.027800871059298515
-0.2694101631641388 -0.05477170646190643 -0.13582810759544373
-0.026940569281578064 0.04066475108265877 -0.13338178396224976
-0.2710675895214081 0.07232939451932907 -0.1277375966310501
-0.2491479516029358 -0.00832611694931984 -0.24234639108181
-0.2680116891860962 0.2156175971031189 0.15110114216804504
0.29806774854660034 0.08039940148591995 -0.11968416720628738
0.18236912786960602 0.22648216784000397 -0.12685513496398926
0.19769605994224548 -0.1911161243915558 0.16533082723617554
-0.21157504618167877 0.14753146469593048 0.1690429002046585
-0.2044341266155243 -0.19147630035877228 0.16081547737121582
-0.2546064257621765 0.3362598419189453 -0.012991879135370255
0.29215946793556213 0.05679453909397125 0.15712203085422516
-0.2664342224597931 0.11653287708759308 -0.12315165996551514
-0.1860637366771698 -0.24349811673164368 -0.13611304759979248
-0.12258537113666534 0.228455051779747 -0.016438176855444908
-0.2712090313434601 -0.0999741405248642 -0.13030369579792023
0.015399196185171604 0.2506313920021057 -0.20195415616035461
-0.27110984921455383 0.029377445578575134 -0.13179683685302734
0.2130027711391449 -0.44585850834846497 0.19090352952480316
-0.2667352259159088 0.16707906126976013 -0.1283012181520462
-0.27549007534980774 -0.39411067962646484 -0.0942695364356041
-0.2494245022535324 0.4191029667854309 -0.06438661366701126
0.24921198189258575 -0.24270540475845337 -0.1352512389421463
0.004272054880857468 0.21250861883163452 -0.13535037636756897
0.17447486519813538 -0.25184622406959534 0.05393858253955841
0.04085136577486992 -0.24171122908592224 -0.13513091206550598
0.1073448583483696 0.22536848485469818 0.06839574128389359
0.29759639501571655 -0.2064700573682785 -0.13153645396232605
0.2952900230884552 -0.19187109172344208 0.14769239723682404
0.2919972538948059 0.22640207409858704 -0.08510155230760574
-0.270576149225235 -0.14159654080867767 -0.13328030705451965
0.2310904711484909 -0.2030569314956665 0.1551559865474701
-0.22748415172100067 -0.45051148533821106 0.1383325308561325
0.06847904622554779 -0.041342880576848984 -0.1362106055021286
-0.27169090509414673 -0.06165838614106178 -0.13197292387485504
0.2951763868331909 -0.13623972237110138 0.15449464321136475
-0.2713335454463959 0.2123214155435562 0.022446833550930023
0.29688727855682373 -0.16720430552959442 0.14247377216815948
-0.20886412262916565 -0.2764148712158203 0.08005498349666595
-0.22199693322181702 -0.23889081180095673 -0.1385594606399536
-0.2972118854522705 -0.3153667747974396 0.1374090015888214
-0.26029813289642334 -0.13946372270584106 -0.13489916920661926
0.29746729135513306 -0.033720675855875015 -0.0736633762717247
-0.14357219636440277 0.22485734522342682 -0.13109740614891052
0.2975439131259918 -0.19558240473270416 -0.12207825481891632
0.21103200316429138 0.2301904559135437 0.051066093146800995
-0.27140772342681885 0.0986890122294426 -0.12919695675373077
-0.2683301866054535 0.14427849650382996 -0.13006161153316498
-0.2516027092933655 -0.47650688886642456 -0.04139768332242966
0.2474847137928009 -0.2776680290699005 -0.054985884577035904
0.15240120887756348 0.15614962577819824 0.16749396920204163
-0.2693058252334595 -0.022443648427724838 0.15104110538959503
0.015877192839980125 -0.24853985011577606 0.15490922331809998
-0.27333641052246094 -0.15395084023475647 0.14389711618423462
0.24347950518131256 -0.11615892499685287 0.167302206158638
0.2875998616218567 -0.16606998443603516 0.15503019094467163
-0.22822755575180054 -0.10495015978813171 0.15149573981761932
0.29529160261154175 0.07923832535743713 0.14804300665855408
0.2288927137851715 0.22960230708122253 0.15756143629550934
0.02097795158624649 0.18848173320293427 -0.13672378659248352
-0.270341694355011 -0.1014094278216362 -0.1306760013103485
0.2937515377998352 -0.017668595537543297 0.15242697298526764
0.1745043396949768 -0.2549327313899994 0.046656422317028046
-0.21455375850200653 -0.1688508689403534 0.167493999004364
-0.1260274350643158 -0.24277690052986145 -0.13627102971076965
0.14307701587677002 -0.4328708052635193 0.15169411897659302
-0.24226127564907074 -0.35524439811706543 0.16082370281219482
-0.2691485583782196 -0.23053249716758728 -0.09764456748962402
-0.2687649726867676 -0.027972249314188957 -0.13680970668792725
-0.1695767641067505 0.33977583050727844 -0.003952539525926113
0.08807683736085892 -0.1923910677433014 0.1575399786233902
0.2972462475299835 0.21156632900238037 -0.08114714920520782
0.2961605489253998 -0.12260100245475769 0.1537918746471405
-0.27029451727867126 0.06222139671444893 0.14359958469867706
0.20572161674499512 -0.18579311668872833 0.16691666841506958
0.05722374469041824 0.1112261638045311 -0.13648664951324463
-0.006514100823551416 0.10195381939411163 -0.1381240040063858
0.0041792131960392 0.08870736509561539 -0.13627366721630096
-0.1926203966140747 -0.2739657759666443 0.07540706545114517
-0.13823895156383514 0.22050027549266815 -0.13400191068649292
-0.10326850414276123 0.15533706545829773 -0.13576406240463257
0.18729844689369202 0.3447822332382202 0.07077866792678833
0.14802390336990356 0.15780508518218994 0.1692514419555664
0.2950352728366852 -0.2455163151025772 -0.10330631583929062
-0.27020159363746643 -0.21919593214988708 0.02658020332455635
0.26398342847824097 -0.39987850189208984 -0.08234748244285583
-0.26476672291755676 -0.12681883573532104 0.15620265901088715
-0.27123966813087463 -0.17040689289569855 -0.12068846076726913
-0.004348676186054945 -0.19993522763252258 0.15366950631141663
-0.21945884823799133 0.24828074872493744 -0.027463391423225403
0.2601742148399353 0.208797425031662 -0.1311703771352768
0.2920362949371338 -0.14161662757396698 -0.13563989102840424
0.26559320092201233 -0.33214491605758667 0.1091000884771347
-0.19570693373680115 -0.29918810725212097 -0.06145497411489487
-0.2709996700286865 0.213037371635437 -0.1273854821920395
0.03953978046774864 -0.24848425388336182 0.036269403994083405
-0.27006474137306213 -0.19453781843185425 0.041930921375751495
-0.2716342806816101 0.05052246153354645 -0.13601650297641754
-0.20125934481620789 0.23790384829044342 -0.02842523343861103
0.046285729855298996 0.22736161947250366 -0.12695732712745667
0.14635662734508514 0.21458831429481506 -0.1338406652212143
0.16269245743751526 -0.3072572350502014 0.024003608152270317
-0.17142045497894287 0.22921809554100037 0.029396288096904755
0.1956542432308197 0.347771018743515 0.07668580859899521
0.1233837902545929 0.16562704741954803 0.16170988976955414
-0.1625659316778183 0.37186959385871887 0.07280511409044266
-0.12361635267734528 0.228997141122818 0.06754101067781448
0.22789369523525238 -0.10241328179836273 0.16879358887672424
0.2981027364730835 0.055935412645339966 -0.0996537059545517
0.29330095648765564 0.03957342356443405 -0.13613291084766388
0.24602055549621582 0.1241559386253357 0.16101107001304626
0.29561367630958557 -0.060170628130435944 0.1549992561340332
0.21462011337280273 -0.34705349802970886 0.1346958577632904
-0.03167833015322685 -0.2262573540210724 -0.13609778881072998
0.29400092363357544 -0.16977527737617493 -0.13502240180969238
-0.010232475586235523 0.26541972160339355 -0.271943062543869
0.23637866973876953 -0.3212200105190277 -0.07974778115749359
-0.2712567448616028 0.15659011900424957 0.15323305130004883
-0.19450411200523376 -0.30261969566345215 -0.0627901703119278
0.08168527483940125 -0.23729215562343597 -0.13453733921051025
0.0011418405920267105 0.20434285700321198 -0.13643959164619446
-0.1713290512561798 -0.20502178370952606 0.15512733161449432
0.02900387905538082 -0.18892619013786316 0.1630444973707199
0.2579425871372223 -0.2525102198123932 -0.04721425846219063
-0.26951897144317627 0.21728135645389557 0.02439023368060589
-0.2697536051273346 0.09792906045913696 -0.1333448886871338
0.29377880692481995 -0.0013241805136203766 0.1515151858329773
0.14320573210716248 -0.3763038218021393 0.05669818073511124
0.16685239970684052 -0.2463032305240631 0.14982259273529053
-0.12959375977516174 -0.1832612156867981 0.16835252940654755
-0.2537428140640259 -0.24972549080848694 0.08263500779867172
0.18698756396770477 -0.26706409454345703 -0.034067198634147644
-0.25803127884864807 -0.2508442997932434 -0.021333348006010056
0.14769455790519714 -0.43586358428001404 -0.00710693746805191
0.1417422592639923 0.025107186287641525 -0.13413751125335693
-0.0782395526766777 -0.187905415892601 0.16559572517871857
0.24581018090248108 -0.39310193061828613 -0.08892655372619629
-0.14677676558494568 -0.2542945146560669 0.035004451870918274
-0.0718110054731369 -0.028829967603087425 -0.13569651544094086
-0.0724894255399704 0.22777894139289856 0.1514771282672882
-0.2699853777885437 -0.18921560049057007 -0.13323397934436798
0.29701685905456543 -0.2396928071975708 0.0069120414555072784
-0.26917099952697754 -0.021215353161096573 -0.1260688453912735
-0.2054838389158249 -0.2966472804546356 -0.06380277127027512
0.27432817220687866 0.49733781814575195 0.07391742616891861
0.12595301866531372 -0.0062576234340667725 0.1686575710773468
0.176529660820961 -0.26909419894218445 -0.015679411590099335
-0.11763511598110199 0.22766543924808502 0.15006035566329956
0.09638112783432007 0.16483265161514282 0.1630873680114746
-0.031622514128685 0.22657231986522675 -0.1307852864265442
0.09086457639932632 -0.04093518108129501 0.16907429695129395
0.2466680407524109 -0.30562520027160645 0.09665407240390778
-0.009162386879324913 0.22756320238113403 -0.11984290927648544
0.11967292428016663 -0.250029981136322 -0.05624600499868393
0.2784222364425659 0.4934037923812866 0.021835416555404663
0.01185966469347477 0.20140181481838226 -0.15312814712524414
0.24471428990364075 -0.4441775381565094 -0.076949343085289
-0.14627206325531006 0.2207840383052826 0.1571260392665863
0.2904170751571655 -0.11913378536701202 0.15585054457187653
0.2635667324066162 0.509768009185791 0.05049728602170944
0.29590901732444763 0.13983246684074402 0.15334483981132507
-0.30231213569641113 -0.44969314336776733 -0.07609129697084427
-0.14341187477111816 -0.25420868396759033 -0.016145000234246254
0.15523090958595276 -0.3596841096878052 -0.015593968331813812
-0.33690574765205383 -0.3704376518726349 0.049551934003829956
0.2975183427333832 0.19943857192993164 0.11619971692562103
-0.2418060004711151 0.23051299154758453 -0.03362835943698883
-0.20857006311416626 -0.017358792945742607 0.1679520606994629
0.12310390919446945 -0.1793988198041916 0.1687486618757248
0.010516746900975704 0.2566004693508148 -0.2623459994792938
0.1796666979789734 -0.26665881276130676 0.04595404863357544
0.2979433834552765 0.04849335551261902 0.14846153557300568
-0.21475312113761902 -0.2853241562843323 -0.06396409124135971
-0.28708499670028687 -0.41623014211654663 -0.09132904559373856
0.21738146245479584 -0.44765985012054443 0.19561298191547394
0.20462900400161743 0.22607597708702087 0.14597973227500916
-0.27404600381851196 0.04678193852305412 0.058571599423885345
0.29694247245788574 0.14965294301509857 0.14951588213443756
0.2793343961238861 0.41937166452407837 0.128586083650589
-0.22917594015598297 0.49644598364830017 -0.0018699094653129578
0.06089033558964729 0.17981603741645813 -0.18647080659866333
0.2226036638021469 -0.4501112103462219 0.0874403864145279
0.29118087887763977 0.21903091669082642 -0.1361682265996933
-0.27977779507637024 -0.06527364253997803 -0.27288496494293213
-0.27292200922966003 0.13836762309074402 0.14970622956752777
-0.20649270713329315 0.10825422406196594 0.1706574708223343
0.20945312082767487 0.31346455216407776 0.032972197979688644
-0.2680756151676178 0.21391130983829498 -0.11383460462093353
0.09756825119256973 -0.19637954235076904 0.153810515999794
-0.24834197759628296 0.4789746105670929 0.10699648410081863
0.2666811943054199 0.33963915705680847 0.1021418422460556
-0.33581987023353577 -0.3632532060146332 0.07629844546318054
-0.2699190378189087 -0.1379932165145874 -0.0223840419203043
0.2056778520345688 -0.44564348459243774 -0.0545354038476944
0.24223090708255768 0.23277327418327332 -0.036899883300065994
-0.17312951385974884 -0.2676886320114136 -0.04110033065080643
0.29681485891342163 0.022654827684164047 0.1547144502401352
0.26933184266090393 -0.24017415940761566 -0.13433392345905304
0.22307837009429932 -0.24867567420005798 -0.12311246246099472
0.2984195351600647 0.0009503234177827835 -0.13410457968711853
-0.2182082235813141 -0.1731961965560913 0.1628229022026062
-0.2691982388496399 0.0620720311999321 0.14890560507774353
0.24766865372657776 -0.40866297483444214 -0.09123755246400833
0.19083216786384583 -0.18957389891147614 0.1650044471025467
-0.17851051688194275 0.47270554304122925 0.11128935217857361
0.23499493300914764 -0.0359705351293087 0.16855981945991516
0.2942461371421814 0.08347484469413757 0.15508082509040833
0.24022698402404785 -0.23850397765636444 0.1562703400850296
-0.24054545164108276 0.32106080651283264 0.024182358756661415
0.29299741983413696 0.22376427054405212 -0.06998908519744873
-0.09532788395881653 -0.1608341932296753 0.1674197018146515
0.2678651809692383 0.4331251084804535 -0.0848250687122345
-0.2696390748023987 -0.08344113826751709 -0.13242551684379578
-0.24822565913200378 -0.23527781665325165 -0.13546711206436157
-0.29162099957466125 -0.37908461689949036 -0.08362012356519699
