-0.26654234528541565 -0.2508055865764618 -0.09781723469495773
0.2649945616722107 -0.2981714904308319 0.05940977483987808
0.1804731786251068 -0.444610595703125 0.1799132525920868
-0.16130098700523376 -0.1808941811323166 0.16897231340408325
0.2936992645263672 0.15483224391937256 0.14070847630500793
-0.2670406699180603 -0.24830733239650726 0.017635347321629524
0.21881921589374542 -0.39988231658935547 -0.08446913957595825
0.2176140546798706 -0.24928167462348938 0.10493984818458557
0.17100322246551514 -0.253631055355072 0.13708817958831787
0.2847641706466675 -0.24515530467033386 -0.13663770258426666
0.017456725239753723 0.005173943936824799 0.17072932422161102
-0.2712464928627014 -0.4678458869457245 -0.057477161288261414
-0.21856674551963806 0.05106135457754135 0.17072679102420807
-0.21436941623687744 -0.027106601744890213 0.17207323014736176
0.14419248700141907 0.2271496206521988 0.05354611575603485
-0.17366784811019897 0.22245940566062927 -0.13197651505470276
-0.27022725343704224 0.03975188732147217 -0.03066294640302658
0.1804724484682083 0.22895175218582153 0.10483913868665695
0.12771935760974884 0.2249727100133896 0.09382978081703186
0.12071998417377472 -0.24792104959487915 -0.12617851793766022
-0.022878486663103104 -0.2340165078639984 -0.13711513578891754
0.09633535146713257 0.22130441665649414 -0.1322002112865448
0.27791017293930054 -0.24036237597465515 -0.1317352056503296
0.2599673569202423 -0.384322851896286 -0.08516154438257217
0.25190111994743347 0.06487222760915756 0.15983769297599792
0.27060315012931824 -0.44614318013191223 0.12056345492601395
-0.1711699366569519 0.15417294204235077 0.16975821554660797
-0.29314708709716797 -0.3224409818649292 0.16625429689884186
0.29515501856803894 -0.09865602850914001 -0.13352642953395844
0.25826194882392883 -0.30007025599479675 0.07868407666683197
-0.04357524216175079 0.22613298892974854 -0.11047203838825226
0.013417530804872513 0.20244891941547394 0.16073933243751526
0.14431628584861755 0.22861342132091522 0.13998356461524963
0.027313033118844032 0.22508808970451355 0.08286072313785553
-0.2686160206794739 0.1884235143661499 -0.13456639647483826
-0.2758881449699402 -0.36045223474502563 0.20612187683582306
0.22767376899719238 -0.21505257487297058 0.15613912045955658
0.29973188042640686 0.3828526437282562 0.06309487670660019
0.23856668174266815 -0.13047394156455994 0.16701377928256989
-0.2623439133167267 -0.32808732986450195 -0.06736396253108978
-0.24648189544677734 0.21953964233398438 -0.13344703614711761
-0.28360408544540405 -0.4444131851196289 -0.07950478792190552
0.17085953056812286 0.2268523871898651 0.052468668669462204
-0.2652689814567566 -0.030112281441688538 -0.13155944645404816
0.2888430058956146 -0.4064292311668396 0.07315493375062943
-0.27041348814964294 -0.2109864056110382 -0.12708090245723724
0.29875633120536804 -0.028638456016778946 0.14428067207336426
-0.24970366060733795 0.021107777953147888 -0.2888006567955017
0.17342890799045563 0.22724515199661255 -0.02411363646388054
-0.31425535678863525 -0.3284447193145752 0.16538771986961365
0.2928796708583832 0.01510893739759922 0.1365344226360321
-0.024004938080906868 -0.2518414855003357 -0.12689580023288727
0.29936885833740234 0.3854857087135315 0.07201328873634338
0.23721261322498322 -0.12526343762874603 0.16803565621376038
0.11047735065221786 0.15455809235572815 -0.13541460037231445
-0.2161397784948349 0.16690552234649658 0.15901044011116028
0.28858301043510437 -0.23611755669116974 -0.1362410932779312
0.2726127505302429 -0.23961138725280762 -0.13601112365722656
-0.24083521962165833 -0.2774074971675873 -0.002270309254527092
-0.26762720942497253 0.07529623061418533 -0.13330106437206268
-0.2717340588569641 -0.037902019917964935 -0.03512349724769592
0.21503141522407532 0.1658981442451477 0.1570701003074646
0.14502105116844177 -0.4190135598182678 0.07394050061702728
-0.18849648535251617 0.22920063138008118 0.08752883225679398
0.24727892875671387 0.43064847588539124 -0.08833857625722885
-0.031522415578365326 0.15088117122650146 -0.1326581984758377
0.29883307218551636 -0.14635008573532104 0.14973676204681396
-0.20549850165843964 -0.39703667163848877 0.16089338064193726
0.29289549589157104 0.11761555075645447 0.14521436393260956
-0.26932376623153687 0.20498690009117126 -0.13514405488967896
-0.13864722847938538 -0.18298935890197754 0.16860826313495636
-0.03162560984492302 0.2232380211353302 -0.1273101568222046
-0.2712814211845398 0.07578163594007492 -0.135886549949646
0.1972045600414276 0.22980350255966187 0.1036602035164833
0.2402750551700592 -0.1411481648683548 0.1681375801563263
0.29480963945388794 0.22598223388195038 -0.12182191014289856
-0.2664358615875244 -0.02812150865793228 0.15523584187030792
-0.23662163317203522 -0.24770236015319824 0.12822739779949188
-0.2607536017894745 -0.35804542899131775 -0.09491632878780365
0.2281169295310974 -0.2505536675453186 0.12063594907522202
0.08803138136863708 -0.24808861315250397 -0.11401104927062988
0.1740487962961197 -0.22743886709213257 -0.13523204624652863
0.2857532501220703 -0.40280526876449585 0.15343862771987915
0.25128334760665894 -0.24877718091011047 -0.13082605600357056
-0.20507659018039703 0.15597599744796753 0.1681826114654541
-0.09390787780284882 0.2073608934879303 -0.1347399652004242
0.00103610975202173 0.23064374923706055 -0.13192448019981384
-0.3274614214897156 -0.3346611559391022 0.17900831997394562
-0.3129575252532959 -0.3694758713245392 -0.028037479147315025
-0.3229461908340454 -0.35395121574401855 0.19266219437122345
-0.2735061049461365 0.21964359283447266 0.1144670844078064
0.1837683469057083 -0.21242603659629822 0.15408512949943542
-0.1580376923084259 -0.24767617881298065 0.15040795505046844
-0.21873518824577332 0.03166644275188446 0.1707923263311386
-0.07381193339824677 -0.02699609473347664 0.17235234379768372
-0.26785770058631897 -0.14858964085578918 -0.1330254077911377
0.1947079747915268 0.46166491508483887 -0.03731461614370346
-0.24701115489006042 -0.28201404213905334 0.004339002538472414
0.013643858954310417 -0.021719636395573616 -0.13183394074440002
-0.21017569303512573 -0.2492929995059967 0.12446795403957367
0.2534054219722748 -0.36226069927215576 0.16224713623523712
0.08029275387525558 0.1688402146100998 0.15232419967651367
0.29471510648727417 -0.1809191256761551 -0.01303952932357788
-0.23804348707199097 -0.25013482570648193 -0.12915852665901184
0.2989128828048706 0.06391067802906036 -0.13512468338012695
0.05282226949930191 -0.24914491176605225 0.1485072374343872
-0.2530408799648285 0.3956824541091919 -0.057816650718450546
-0.26454734802246094 0.38889017701148987 0.08974414318799973
-0.27017998695373535 0.06549271941184998 -0.13484446704387665
-0.2693588137626648 0.09644715487957001 -0.1367799937725067
-0.13914111256599426 0.22663800418376923 -0.12614357471466064
0.2965381443500519 0.2249831259250641 0.08497150242328644
-0.22927916049957275 0.22095417976379395 -0.13144733011722565
0.2975461483001709 0.10228672623634338 0.13966795802116394
0.02447613887488842 0.22380302846431732 -0.13075506687164307
-0.08916783332824707 -0.043516144156455994 -0.1350221037864685
0.13825087249279022 -0.24864201247692108 -0.1345217376947403
-0.07455361634492874 0.20645347237586975 0.159808948636055
-0.2552722692489624 0.21192435920238495 -0.1345873922109604
-0.26907333731651306 -0.16399745643138885 -0.1340101659297943
-0.26141831278800964 -0.3436187207698822 -0.09180955588817596
0.27959007024765015 -0.24394600093364716 -0.13520768284797668
-0.2691381573677063 -0.08239016681909561 -0.12330933660268784
0.18530647456645966 0.350156307220459 0.06909362971782684
0.29081490635871887 -0.18812532722949982 -0.1353459656238556
0.29495328664779663 0.11054551601409912 0.14737622439861298
0.28560763597488403 -0.4411305785179138 0.04014839977025986
0.03974725306034088 -0.2307395190000534 -0.1325918734073639
0.2043227106332779 0.3927925229072571 -0.06908862292766571
0.2938733696937561 -0.09501500427722931 0.13891035318374634
0.19851695001125336 -0.24954339861869812 -0.05295293778181076
-0.01916912943124771 0.15651391446590424 -0.13500525057315826
0.07941435277462006 -0.24397355318069458 -0.13466773927211761
0.060784026980400085 0.15839868783950806 -0.19009655714035034
-0.20271268486976624 0.17229805886745453 0.15423768758773804
-0.2699041962623596 0.20263400673866272 0.0387338288128376
-0.06218833476305008 -0.2346598356962204 -0.13741816580295563
-0.1101498007774353 0.16376271843910217 0.15758804976940155
-0.2696859836578369 0.029307890683412552 0.14154955744743347
0.21072211861610413 -0.37966272234916687 0.18371902406215668
-0.24870574474334717 0.2285023331642151 -0.11502045392990112
0.1762067675590515 -0.25016239285469055 -0.10123920440673828
-0.11633787304162979 0.2233000099658966 -0.126342311501503
-0.15479765832424164 0.39280015230178833 -0.003549208864569664
0.24818389117717743 0.4095604121685028 -0.08963742107152939
0.23103755712509155 0.22375765442848206 -0.1259833425283432
-0.3157337009906769 -0.3318203389644623 0.17424780130386353
0.2616543769836426 0.4204019010066986 0.10783559828996658
0.03764486312866211 0.22378166019916534 -0.13149957358837128
-0.08446286618709564 0.16218534111976624 0.1602744609117508
0.25318244099617004 -0.24391326308250427 -0.13560302555561066
-0.25214630365371704 0.48132771253585815 0.023762613534927368
-0.2690652012825012 -0.239842027425766 0.07787860929965973
-0.12418252229690552 0.17234110832214355 0.1531827449798584
0.2090962529182434 0.17102903127670288 0.1530904918909073
-0.17175208032131195 0.2025587260723114 -0.1299034059047699
0.09016991406679153 -0.25190767645835876 0.14103227853775024
-0.2185264229774475 0.22004561126232147 -0.13217969238758087
-0.2664065361022949 0.002699740696698427 -0.13381069898605347
-0.16212168335914612 0.46384182572364807 0.020418908447027206
0.03957820311188698 -0.24863801896572113 -0.12650544941425323
0.135894775390625 -0.24807953834533691 -0.1385689526796341
-0.2948359549045563 -0.008269612677395344 -0.26913365721702576
-0.037736307829618454 0.22514057159423828 -0.13028059899806976
-0.19436152279376984 0.4169189929962158 -0.08461260050535202
0.1854930967092514 -0.2194686233997345 -0.13513565063476562
0.14752019941806793 0.1730770319700241 0.15512670576572418
0.29594266414642334 -0.16352319717407227 -0.1346707046031952
0.2712293565273285 -0.3104480803012848 0.0409562774002552
-0.02271425351500511 0.16996347904205322 -0.13768495619297028
-0.035520706325769424 -0.24761508405208588 -0.13232651352882385
0.2903065085411072 0.47257107496261597 0.10594023764133453
-0.2438802421092987 -0.003691213671118021 0.15611428022384644
0.291446328163147 -0.13515490293502808 -0.1312561184167862
-0.054949574172496796 0.20725825428962708 -0.133637472987175
0.16050031781196594 -0.4465917944908142 0.05794233828783035
-0.333224892616272 -0.4083779454231262 -0.0401635468006134
-0.15321721136569977 0.2282918095588684 -0.1243496686220169
-0.26566964387893677 -0.026799535378813744 0.1543448269367218
0.04616398364305496 0.22197146713733673 -0.12837252020835876
0.09664063155651093 -0.2356879860162735 -0.1357232630252838
0.29602739214897156 0.21426086127758026 0.13621388375759125
-0.26766252517700195 0.40406179428100586 0.02752373181283474
-0.19708795845508575 0.15219159424304962 0.16733099520206451
-0.25251835584640503 -0.32890304923057556 -0.08844254910945892
0.23291394114494324 0.39736253023147583 -0.0914805456995964
-0.2615945339202881 -0.04310396686196327 -0.134176105260849
0.000189170241355896 -0.05212472006678581 -0.13234998285770416
-0.04137054830789566 0.17088860273361206 0.1553947627544403
0.2676687240600586 -0.2489829659461975 -0.13515111804008484
-0.2902866005897522 -0.37521785497665405 -0.07527163624763489
-0.06395131349563599 -0.2150765061378479 0.15499751269817352
0.21242308616638184 0.4570895731449127 -0.0689014121890068
0.008915975689888 -0.25341030955314636 -0.03181840851902962
-0.26936084032058716 -0.08177947998046875 -0.13265828788280487
0.2922872006893158 -0.22644396126270294 0.13015104830265045
-0.2674322724342346 0.18166585266590118 -0.1337633579969406
0.2956657409667969 0.22170299291610718 0.04519150033593178
0.28917181491851807 0.007629759609699249 -0.13480815291404724
-0.13435399532318115 0.2245965600013733 -0.13326869904994965
0.28644606471061707 -0.4332176744937897 0.15919229388237
0.26130130887031555 -0.28802400827407837 -0.011678281240165234
-0.19797930121421814 -0.2509016990661621 -0.0792885422706604
-0.2546899616718292 -0.28938037157058716 0.021885467693209648
0.0013179099187254906 0.0937022864818573 -0.13321150839328766
-0.2851113975048065 -0.046259574592113495 -0.25037890672683716
0.2701212167739868 -0.04373679310083389 -0.13348807394504547
0.14123336970806122 -0.42324963212013245 0.08388155698776245
-0.11672045290470123 -0.24984869360923767 0.1464163064956665
0.2861039340496063 -0.43325570225715637 0.16806325316429138
0.17730847001075745 0.2248983234167099 -0.12937301397323608
0.10779912769794464 -0.2487717717885971 -0.12602631747722626
0.017946315929293633 0.16584038734436035 0.1540166586637497
0.2913641929626465 0.4723849594593048 0.024988386780023575
-0.18819190561771393 -0.30119600892066956 -0.05375884100794792
-0.10320182144641876 -0.24694107472896576 -0.1342080533504486
-0.2687712013721466 0.10884832590818405 -0.13677628338336945
0.29806971549987793 -0.04179399460554123 0.14576727151870728
0.16671472787857056 0.22833937406539917 -0.1288539320230484
-0.271870881319046 0.10901810973882675 -0.1293177604675293
-0.08111200481653214 0.21304923295974731 -0.1330128163099289
0.01138071995228529 0.2259395867586136 0.06021533161401749
-0.2969335913658142 -0.4451524317264557 -0.07322044670581818
0.06486227363348007 -0.24781273305416107 -0.13303926587104797
0.09440337866544724 0.22698447108268738 -0.11616751551628113
0.29406124353408813 0.21191725134849548 0.1463291198015213
0.2879488170146942 0.02336730994284153 -0.13390597701072693
-0.24195067584514618 0.37828460335731506 -0.06771527975797653
-0.011335570365190506 -0.24688681960105896 -0.1366390585899353
0.29627689719200134 -0.247157484292984 -0.10640895366668701
-0.021882733330130577 0.22832675278186798 -0.06858553737401962
0.1500026136636734 -0.3485419750213623 -0.007012552581727505
-0.1501467376947403 -0.23344571888446808 -0.13318803906440735
-0.1162731721997261 -0.24987393617630005 -0.12779833376407623
0.2906194031238556 0.10867907851934433 0.1450880616903305
0.21362397074699402 -0.18303444981575012 0.16652561724185944
0.28152650594711304 -0.3716427683830261 0.1384103149175644
0.29691803455352783 0.3795328736305237 0.08874392509460449
0.30006474256515503 0.21951527893543243 -0.0003591291606426239
0.017244180664420128 0.2237476408481598 -0.1192915067076683
-0.222797691822052 -0.15888601541519165 0.16768698394298553
0.23998969793319702 -0.2482241988182068 -0.1310420036315918
0.21289773285388947 0.22727654874324799 -0.05071861669421196
0.2462155669927597 -0.370722234249115 -0.09128007292747498
-0.2372795045375824 -0.46392321586608887 0.0623023584485054
0.11108314990997314 0.22057224810123444 -0.13033007085323334
-0.16518308222293854 0.33698609471321106 0.014396353624761105
0.21771340072155 0.22884683310985565 -0.06631579995155334
0.2966770827770233 0.22267800569534302 -0.04537605121731758
0.29718562960624695 0.22375252842903137 -0.009538013488054276
0.009752025827765465 -0.24958504736423492 -0.12597347795963287
0.2962585389614105 -0.21899810433387756 0.12680144608020782
0.2959766387939453 0.011698439717292786 -0.1336848884820938
-0.27145346999168396 0.091273233294487 -0.13325901329517365
0.2873179316520691 -0.444428026676178 0.14554806053638458
-0.01853230595588684 0.1825365424156189 0.15765075385570526
-0.22335433959960938 0.15231427550315857 0.1621224731206894
0.004998154938220978 -0.24599845707416534 -0.13019028306007385
-0.0826706662774086 0.22821511328220367 -0.10730387270450592
0.2916357219219208 -0.034892987459897995 -0.13331052660942078
0.29172948002815247 0.22903688251972198 -0.08730238676071167
0.21567204594612122 0.22849588096141815 0.09785597771406174
-0.22014978528022766 -0.07931171357631683 0.17068436741828918
-0.23187746107578278 -0.453579306602478 -0.048405662178993225
0.2995891571044922 -0.10555251687765121 0.14053741097450256
-0.2686757445335388 -0.19559314846992493 -0.13266438245773315
0.29726776480674744 0.12581747770309448 0.14758139848709106
-0.2201942503452301 -0.29720190167427063 0.0968683734536171
0.11379965394735336 0.20422600209712982 -0.13429707288742065
0.005291398614645004 -0.21103624999523163 0.15255361795425415
-0.15354155004024506 0.2275949865579605 -0.12552326917648315
-0.21668404340744019 0.35076597332954407 0.09186863899230957
0.24563291668891907 -0.32864710688591003 0.1238866001367569
0.21888746321201324 -0.3178221881389618 -0.06911054253578186
-0.2572113275527954 0.2289343625307083 0.09758235514163971
0.2979050576686859 -0.07808251678943634 0.14577725529670715
0.1555856168270111 -0.1791406273841858 0.1686520278453827
0.10444313287734985 0.15328449010849 0.16863712668418884
-0.2348443567752838 -0.13905197381973267 0.1565888524055481
-0.2695883810520172 -0.08724062889814377 0.13780131936073303
-0.14193449914455414 0.1584480106830597 0.16245904564857483
-0.2139122486114502 -0.03434210270643234 0.1750618815422058
-0.16970647871494293 0.4298008382320404 -0.05605924129486084
-0.1196417510509491 -0.24283073842525482 -0.13646018505096436
0.09970539808273315 0.22402556240558624 -0.12940149009227753
-0.2501278817653656 -0.4117181599140167 0.20285063982009888
-0.14370445907115936 0.2243572473526001 -0.13345098495483398
0.0404001921415329 0.22879962623119354 -0.1316816657781601
0.2755621671676636 -0.0737939178943634 0.1568525731563568
0.2920699119567871 0.030985316261649132 0.13987204432487488
-0.1250550001859665 -0.19721147418022156 0.15445078909397125
-0.2916085422039032 -0.4500816762447357 -0.07916668057441711
0.2507178485393524 -0.3505752980709076 -0.0826629176735878
0.22875821590423584 0.22847963869571686 0.12674719095230103
-0.2639855742454529 -0.22191014885902405 -0.13268053531646729
0.1105935275554657 -0.004872903227806091 0.1713222712278366
-0.26857200264930725 0.20562584698200226 -0.13737647235393524
0.0906798243522644 -0.24989111721515656 0.13671207427978516
0.07862268388271332 0.007116504013538361 0.17045098543167114
0.18102508783340454 0.4149395823478699 0.04584153741598129
0.27419641613960266 -0.11690331250429153 0.15455710887908936
-0.20302635431289673 -0.30441415309906006 0.09160907566547394
-0.2490345537662506 -0.24913711845874786 0.14690029621124268
0.29727038741111755 -0.03168515861034393 -0.13332384824752808
-0.29372304677963257 0.028519628569483757 -0.2748834788799286
0.24732181429862976 0.17399314045906067 -0.13601087033748627
0.1520339697599411 -0.40239137411117554 0.159852534532547
0.2953287363052368 0.012563150376081467 0.1454593539237976
0.2834821045398712 0.44280239939689636 -0.04246414080262184
0.1524948626756668 -0.3801371455192566 0.12507888674736023
0.2626798748970032 -0.38387566804885864 -0.07945714145898819
0.18739387392997742 0.35259589552879333 -0.016310399398207664
-0.15083813667297363 0.22613567113876343 -0.13305442035198212
0.3000401556491852 0.19969747960567474 -0.12768003344535828
-0.20496195554733276 0.2256367802619934 -0.12526564300060272
0.2944493293762207 -0.11467882990837097 -0.12903152406215668
0.03752685338258743 -0.233198344707489 -0.13652582466602325
0.2966840863227844 0.13103123009204865 0.11981737613677979
-0.16999444365501404 0.22474467754364014 -0.12177303433418274
-0.2893228232860565 -0.33005985617637634 0.006344040855765343
0.2270190268754959 -0.24845750629901886 -0.13026487827301025
-0.15537631511688232 0.4175792336463928 0.07288167625665665
0.2379463016986847 0.15319059789180756 0.16959159076213837
-0.2692604660987854 -0.1891198605298996 -0.13342148065567017
0.20546212792396545 -0.44708871841430664 0.18173108994960785
-0.21639302372932434 -0.13218693435192108 0.1701793223619461
0.14414766430854797 -0.22350560128688812 0.15677522122859955
-0.2676655352115631 -0.10675663501024246 0.15754278004169464
0.26635774970054626 -0.35348033905029297 0.15099580585956573
0.29337549209594727 0.21099507808685303 0.128261536359787
-0.14620263874530792 -0.24629248678684235 -0.13583578169345856
0.10666187107563019 -0.06336291134357452 -0.13367655873298645
-0.2688603103160858 0.006617385894060135 -0.12150276452302933
-0.10652955621480942 0.013897089287638664 -0.1349685788154602
0.2916843593120575 -0.08713097870349884 0.14338091015815735
-0.2716676592826843 -0.05997849255800247 -0.10900384187698364
-0.24798007309436798 0.1530303657054901 0.1574493646621704
-0.2704273760318756 0.11354794353246689 -0.1315097212791443
-0.19145585596561432 0.48929548263549805 -0.03203655406832695
0.2042938768863678 -0.1950903981924057 0.1563909500837326
0.052820801734924316 0.22640512883663177 -0.1311856359243393
0.1776207983493805 0.2266431301832199 0.00998622551560402
0.004243597388267517 0.20521429181098938 0.1596485823392868
0.27622222900390625 -0.2382872998714447 -0.13536059856414795
0.2102481573820114 0.22877052426338196 0.004739874973893166
-0.25932303071022034 -0.07804041355848312 -0.1337677240371704
0.26123785972595215 -0.2500480115413666 -0.13503208756446838
-0.28489652276039124 -0.047662775963544846 -0.26956048607826233
0.29124125838279724 -0.14812053740024567 -0.13583946228027344
0.02731528878211975 0.22876952588558197 0.10053595900535583
0.2845436930656433 -0.4424707889556885 0.14735949039459229
0.17541182041168213 -0.15688809752464294 0.169118270277977
-0.21025292575359344 0.3391958773136139 0.08075935393571854
0.06577025353908539 0.22552628815174103 -0.1296614706516266
0.228040874004364 -0.24895909428596497 0.14290998876094818
0.23880735039710999 0.38719242811203003 -0.08772897720336914
-0.27048301696777344 -0.15910384058952332 -0.13049961626529694
-0.2658597528934479 -0.026452992111444473 0.1557897925376892
0.23897767066955566 -0.2331877201795578 -0.13792084157466888
0.2809341847896576 0.17006292939186096 -0.13564904034137726
0.2902681529521942 -0.43150943517684937 0.14914777874946594
-0.22426220774650574 -0.437738299369812 0.1719246506690979
-0.26682817935943604 -0.24899029731750488 -0.08551105111837387
0.1795002669095993 -0.44423696398735046 0.17844828963279724
0.16487862169742584 -0.2490827590227127 0.011236144229769707
-0.26730021834373474 0.3977554738521576 0.028121327981352806
0.26571857929229736 -0.34662768244743347 0.13048867881298065
-0.2712051272392273 0.10996946692466736 -0.13724058866500854
0.24955108761787415 0.10100997984409332 0.1626790165901184
-0.22909827530384064 0.22830402851104736 0.13177059590816498
-0.17211665213108063 0.43673601746559143 -0.05813632532954216
-0.034606046974658966 0.17381083965301514 0.15083210170269012
-0.2351207137107849 0.2201627790927887 -0.13335490226745605
0.12028543651103973 0.15837106108665466 0.15700653195381165
-0.2700943648815155 -0.19752119481563568 -0.1320112645626068
0.2955337464809418 0.07105058431625366 0.14413073658943176
-0.09628352522850037 -0.24988648295402527 0.09801836311817169
0.061413392424583435 0.22638972103595734 -0.13069164752960205
0.2155788540840149 -0.2472344934940338 -0.13344861567020416
0.2951017916202545 0.2239093780517578 0.07461908459663391
0.21626582741737366 -0.1942785084247589 0.15575367212295532
0.28925055265426636 -0.12909254431724548 -0.13511162996292114
0.2897682189941406 0.04129324480891228 -0.13435961306095123
-0.17247086763381958 -0.19446690380573273 0.15994930267333984
-0.2720480263233185 0.22076080739498138 0.12526056170463562
-0.1572519987821579 0.40001344680786133 0.08529594540596008
0.22365882992744446 -0.2485029250383377 0.12057700753211975
0.2984384298324585 0.18918010592460632 0.14502844214439392
-0.2696879804134369 0.02344764769077301 -0.13571485877037048
0.2942923307418823 -0.2466185837984085 -0.0024079084396362305
-0.17446281015872955 0.14969724416732788 0.1702328324317932
-0.3261846899986267 -0.3689248561859131 0.1368405669927597
-0.12464840710163116 0.23024244606494904 0.09210027009248734
-0.269318550825119 -0.24671953916549683 -0.10127734392881393
-0.2063697725534439 -0.45228448510169983 0.05823368951678276
0.17688827216625214 -0.4448493421077728 -0.037053465843200684
0.24349214136600494 0.41628625988960266 0.10379305481910706
-0.22435849905014038 0.2277492731809616 -0.1223231852054596
-0.15810257196426392 0.14922280609607697 0.17079512774944305
-0.17632979154586792 0.15413117408752441 0.1667424440383911
0.2040557563304901 0.49922212958335876 0.10165713727474213
0.09098659455776215 -0.2517888844013214 0.09507092833518982
0.28706347942352295 -0.4449452757835388 0.1468341052532196
0.2035524547100067 0.22501064836978912 -0.1281300187110901
-0.16000337898731232 0.3718942701816559 -0.016804885119199753
0.1562345176935196 -0.4231645464897156 0.16894325613975525
0.29695579409599304 0.21964170038700104 0.12841157615184784
0.2518708407878876 -0.2506420314311981 0.0724717378616333
-0.19180628657341003 0.2288816273212433 0.13016244769096375
-0.2345464676618576 -0.2282053828239441 0.15696746110916138
0.2247730940580368 -0.40553969144821167 -0.08764426410198212
0.03190668299794197 -0.021865643560886383 -0.13286367058753967
0.06496095657348633 -0.24702437222003937 -0.1355181336402893
0.16954955458641052 -0.24882283806800842 -0.11108364164829254
0.2880384027957916 -0.4219118356704712 0.13855159282684326
-0.08212781697511673 -0.24470901489257812 -0.1324760913848877
0.2811955213546753 -0.3521629869937897 0.05448734015226364
-0.27104055881500244 -0.08388876169919968 -0.1330881118774414
0.2944573760032654 0.19304965436458588 0.14172622561454773
-0.00904736015945673 0.15544958412647247 -0.2163071185350418
0.034139372408390045 0.15262919664382935 0.16765981912612915
0.2949565649032593 0.4320593476295471 -0.003160585882142186
-0.060598887503147125 0.22688117623329163 0.08599381148815155
-0.15849579870700836 0.4412040710449219 0.07160750031471252
-0.2960609197616577 -0.4462037980556488 -0.0727890133857727
-0.07154965400695801 0.2288503497838974 0.11717070639133453
-0.17047381401062012 0.1568012535572052 0.1642257273197174
-0.2627856135368347 -0.05172102898359299 -0.13323503732681274
-0.2704201638698578 -0.06829249113798141 0.14837412536144257
0.2476312518119812 0.4504965841770172 -0.08413609117269516
0.010469711385667324 -0.25129780173301697 -0.12629786133766174
0.22774069011211395 0.4435189962387085 0.10076182335615158
-0.27044960856437683 -0.24151267111301422 0.09822340309619904
0.10548225045204163 -0.2478829026222229 0.15202434360980988
0.271905779838562 -0.3784131109714508 0.1684960424900055
0.29658326506614685 -0.13004322350025177 0.1441856473684311
0.2966375946998596 -0.24398833513259888 -0.11792957037687302
-0.2743915915489197 -0.40161702036857605 0.18624290823936462
-0.2726776599884033 -0.12012623995542526 -0.13166239857673645
-0.272891640663147 0.10735946148633957 -0.13467660546302795
0.2940621078014374 0.22106969356536865 0.12815333902835846
-0.16841459274291992 -0.1864519864320755 0.16390486061573029
0.25616148114204407 -0.3025311529636383 0.08048304915428162
0.29566919803619385 0.4452567994594574 0.09169159829616547
-0.24248364567756653 0.4904736876487732 0.006609939970076084
0.29619351029396057 -0.15057837963104248 -0.12080170214176178
-0.04389617592096329 0.2270122468471527 -0.006060481071472168
-0.04305526614189148 0.2261783629655838 -0.12681254744529724
0.2221052050590515 -0.2325025498867035 -0.13770031929016113
-0.3189983069896698 -0.33678367733955383 0.1284959316253662
0.29523175954818726 -0.23513564467430115 -0.13533106446266174
-0.21826976537704468 -0.44286996126174927 0.1492483913898468
0.29627785086631775 -0.20681005716323853 -0.13044995069503784
0.2943669855594635 0.1672968566417694 0.14106427133083344
-0.058478571474552155 -0.24408887326717377 0.15618473291397095
-0.26636114716529846 0.39165744185447693 0.005118245258927345
0.2785479426383972 -0.34072092175483704 0.0891820639371872
0.012148031033575535 0.20943985879421234 -0.23535369336605072
-0.058020371943712234 0.20853663980960846 -0.13362103700637817
-0.2704157531261444 0.041748400777578354 -0.13372865319252014
0.23422016203403473 0.3251475393772125 -0.04660724848508835
-0.24474221467971802 -0.3319977819919586 0.1431673765182495
0.29554373025894165 0.05171157792210579 0.14246420562267303
-0.17198170721530914 0.22950479388237 0.06792119145393372
0.20595426857471466 -0.2775481045246124 -0.055238254368305206
0.165723979473114 -0.22233732044696808 0.1565532088279724
0.28998515009880066 0.10062777251005173 -0.1345771849155426
-0.2703188359737396 0.04667488858103752 -0.08625641465187073
0.14276692271232605 -0.24899977445602417 -0.04772064834833145
0.2872822880744934 -0.4023486375808716 0.16078923642635345
0.2735069990158081 0.1741040199995041 0.15514005720615387
0.2902167737483978 0.3452722132205963 -0.02876242995262146
0.2923027575016022 -0.24610938131809235 0.048514991998672485
0.23576319217681885 -0.13888777792453766 -0.13568072021007538
-0.31581106781959534 -0.38441914319992065 -0.04174847900867462
-0.13700272142887115 0.22903652489185333 -0.0024613291025161743
0.1460466831922531 -0.25071555376052856 0.14792951941490173
0.14235803484916687 0.2173960953950882 -0.133672297000885
-0.2672840654850006 0.22516189515590668 0.13165859878063202
0.10739776492118835 0.16940569877624512 -0.1349726915359497
-0.26911571621894836 0.22452032566070557 0.005899753421545029
-0.212283656001091 -0.04966790974140167 0.17284786701202393
0.2537299394607544 -0.24869957566261292 -0.1351320892572403
0.2959003448486328 -0.037106312811374664 0.13778728246688843
0.17370325326919556 0.223811537027359 -0.13022856414318085
0.2887066602706909 0.010288450866937637 -0.13182590901851654
-0.31505805253982544 -0.3544626235961914 0.028292573988437653
0.17564451694488525 0.15273404121398926 0.16691438853740692
0.2721359431743622 -0.1620580404996872 0.1546669602394104
0.2955372929573059 -0.11405458301305771 0.1425262689590454
0.2953221797943115 0.43779563903808594 0.10844970494508743
-0.06828252226114273 -0.243821382522583 0.1563776135444641
0.30140411853790283 0.3936648368835449 0.06498784571886063
0.292932391166687 -0.20347490906715393 -0.13517537713050842
0.15434469282627106 -0.3229186236858368 0.0429764986038208
-0.1855964958667755 0.16084657609462738 0.16112828254699707
0.1741923689842224 -0.41709157824516296 0.18631389737129211
-0.27274417877197266 0.20775550603866577 -0.13720110058784485
-0.0013838557060807943 0.251608669757843 -0.20138034224510193
-0.07009230554103851 0.22627407312393188 -0.12319473922252655
-0.21992985904216766 0.16491268575191498 0.15884748101234436
-0.269890159368515 -0.12466457486152649 -0.13197985291481018
0.07581672072410583 -0.2504386007785797 -0.12598031759262085
-0.10114532709121704 0.22583000361919403 -0.12950468063354492
0.026304621249437332 0.23032011091709137 -0.18270243704319
0.12988896667957306 0.2240421026945114 -0.1316978633403778
-0.1724967062473297 0.2242550104856491 -0.13000953197479248
-0.1439342498779297 0.2295694500207901 0.14061200618743896
-0.2745029926300049 -0.40396201610565186 0.17875652015209198
0.14712201058864594 0.2270597517490387 0.04010070487856865
0.11591394245624542 0.22560322284698486 -0.13200387358665466
-0.21865035593509674 0.143935889005661 0.16534391045570374
0.027164654806256294 0.24893753230571747 -0.19644854962825775
0.29341956973075867 0.2221992015838623 0.1420104056596756
0.1429673731327057 0.22464336454868317 -0.12981486320495605
-0.18845556676387787 0.17464017868041992 0.15231290459632874
0.14947879314422607 -0.2357255071401596 -0.13511598110198975
-0.2739134728908539 0.11344615370035172 -0.1323530077934265
-0.2184457778930664 -0.03438107669353485 0.17062076926231384
0.22461917996406555 0.22855861485004425 0.12992455065250397
-0.24339504539966583 0.23137162625789642 0.06900785863399506
0.06097234785556793 0.20575940608978271 -0.13618692755699158
-0.07554400712251663 -0.2487545609474182 -0.12883296608924866
0.14679591357707977 -0.4253097176551819 0.0189647413790226
-0.24434861540794373 0.30780965089797974 0.024309150874614716
0.17197805643081665 0.063381128013134 -0.13422837853431702
0.13206356763839722 -0.23459015786647797 -0.13704925775527954
-0.1569562405347824 0.43463900685310364 0.02834477461874485
-0.2671075463294983 0.21941307187080383 0.05557410418987274
-0.2702238857746124 0.08716750144958496 -0.13621795177459717
0.2589658200740814 -0.39052343368530273 -0.07952380180358887
-0.2436951845884323 0.49126967787742615 0.027997251600027084
-0.26648953557014465 -0.23487941920757294 -0.13217324018478394
-0.26904475688934326 -0.25018948316574097 -0.12559649348258972
-0.2703540027141571 0.037389639765024185 0.15613022446632385
0.29549479484558105 0.21566885709762573 -0.1240893006324768
-0.16149379312992096 0.44510748982429504 -0.021126683801412582
0.29464051127433777 0.09605087339878082 0.1416826844215393
-0.26718899607658386 -0.3212573528289795 -0.041599687188863754
0.29665428400039673 -0.19461403787136078 -0.10831601172685623
0.2983155846595764 -0.21485701203346252 -0.13772018253803253
0.2545758783817291 -0.06382694095373154 -0.134812593460083
-0.2428320050239563 0.22585783898830414 -0.1235484629869461
-0.020649615675210953 0.16795839369297028 -0.13632892072200775
-0.16758638620376587 0.3932792544364929 -0.04479319974780083
0.029379382729530334 0.11147423088550568 -0.1356467753648758
0.296341210603714 -0.07140280306339264 0.14695671200752258
-0.266798734664917 -0.10056298971176147 -0.12747231125831604
0.20487941801548004 0.22479118406772614 -0.13117435574531555
-0.004953091032803059 0.21734210848808289 -0.16935506463050842
0.24379289150238037 -0.23007017374038696 0.1551264524459839
-0.11898113787174225 0.21559542417526245 -0.13251695036888123
-0.2387435883283615 -0.4366472661495209 0.14104297757148743
0.178975448012352 0.2281336486339569 0.11994471400976181
0.12310384958982468 -0.23716551065444946 -0.13406896591186523
-0.26948079466819763 0.22084113955497742 -0.07958094775676727
-0.05879850685596466 0.22776183485984802 -0.1301538050174713
0.13876262307167053 -0.2508007884025574 0.0899924635887146
-0.2674603760242462 -0.04353116452693939 -0.13344845175743103
0.10961395502090454 -0.2470172643661499 -0.13426795601844788
0.0213530994951725 0.2279091626405716 -0.12105374038219452
-0.16637316346168518 -0.2538137435913086 -0.06951002776622772
-0.32461461424827576 -0.4221095144748688 -0.0627429410815239
0.2503048777580261 -0.24994584918022156 -0.13693077862262726
0.29679253697395325 -0.09918834269046783 -0.13375002145767212
0.2945249676704407 -0.1160372942686081 -0.13100123405456543
0.26708585023880005 0.21335294842720032 -0.13542433083057404
-0.20121726393699646 0.06775171309709549 -0.1345619261264801
0.26721885800361633 -0.4493827223777771 0.1906096190214157
-0.21496635675430298 -0.007018383592367172 0.17229469120502472
0.29515138268470764 -0.2291989028453827 0.03615005314350128
-0.2691478431224823 -0.19482848048210144 -0.1267385482788086
0.21279728412628174 -0.17133158445358276 -0.1332961916923523
0.29522043466567993 -0.21062405407428741 -0.1365995556116104
0.03203999251127243 -0.2438160479068756 -0.1330530196428299
0.2967427670955658 0.22436916828155518 0.07396018505096436
-0.2710716426372528 -0.02202584221959114 0.14871397614479065
0.28553295135498047 -0.3766271471977234 0.11527885496616364
0.24906547367572784 -0.4403538703918457 -0.076448455452919
-0.16406838595867157 -0.19299814105033875 0.1590566337108612
-0.2717230021953583 -0.21156540513038635 -0.13432221114635468
-0.2698374092578888 -0.08780083060264587 -0.13241171836853027
0.1149405688047409 -0.23934981226921082 -0.1370280385017395
-0.09458296000957489 0.15918387472629547 0.16245368123054504
0.2961994409561157 -0.09457382559776306 -0.13350573182106018
0.2942614257335663 0.04944664612412453 0.1167563945055008
0.28946736454963684 0.479576975107193 0.062944695353508
-0.26772433519363403 -0.05456322431564331 -0.13223561644554138
0.23233474791049957 -0.19413527846336365 -0.1392122358083725
0.012132970616221428 -0.24595250189304352 0.15485693514347076
0.11234480142593384 -0.20391185581684113 0.1548137664794922
0.29627734422683716 0.18291324377059937 -0.04851655662059784
0.058439597487449646 -0.0021822378039360046 -0.13457153737545013
0.1524880826473236 -0.2057642787694931 0.15404652059078217
0.1996944397687912 -0.26907119154930115 0.06742523610591888
-0.2692974805831909 0.15940642356872559 -0.13512232899665833
0.18282748758792877 0.35427126288414 0.01869230903685093
-0.280041366815567 -0.31444892287254333 0.13417601585388184
-0.1912374049425125 0.4317724406719208 -0.077586829662323
0.2614823877811432 0.4699229300022125 -0.07446491718292236
-0.22074748575687408 -0.24179930984973907 0.15384577214717865
0.08420281112194061 0.22167904675006866 -0.12737028300762177
-0.2675420939922333 -0.039073869585990906 -0.13378779590129852
0.2426234781742096 -0.036598898470401764 0.16668884456157684
-0.0240939874202013 -0.24595147371292114 0.15556779503822327
-0.2696963846683502 -0.11316543817520142 -0.13193802535533905
-0.1053733229637146 -0.12758973240852356 0.17514029145240784
0.185957133769989 0.33829283714294434 0.04793337732553482
0.007300347089767456 0.19618403911590576 -0.13397978246212006
-0.23416972160339355 0.22154417634010315 -0.13247309625148773
0.21085937321186066 -0.3195144832134247 0.11069689691066742
-0.24459294974803925 -0.27753204107284546 0.02310268022119999
0.27740877866744995 -0.25037118792533875 0.08822154998779297
0.2935430705547333 -0.09533105790615082 0.14534150063991547
-0.18701034784317017 0.22498813271522522 -0.1284063458442688
-0.3008047044277191 -0.4409731328487396 -0.07492998242378235
0.05914346128702164 -0.24683304131031036 -0.12913212180137634
-0.26933181285858154 -0.15346947312355042 -0.12829142808914185
-0.010768558830022812 0.22830034792423248 -0.11537937819957733
-0.028849950060248375 0.15192842483520508 0.1691397726535797
-0.28571444749832153 -0.3337036073207855 0.18300645053386688
-0.13525500893592834 0.16146117448806763 0.16521190106868744
-0.11552979052066803 0.2259206622838974 -0.12885981798171997
0.2621830701828003 0.40808793902397156 -0.08639850467443466
0.24043768644332886 -0.2524729073047638 -0.13157546520233154
0.12209127843379974 -0.24329407513141632 0.15568524599075317
0.04316673055291176 0.15572044253349304 0.16856931149959564
-0.2737560570240021 0.09017609059810638 -0.13369150459766388
-0.18699605762958527 0.49952584505081177 0.022040873765945435
0.26373347640037537 -0.2919065058231354 0.04248807951807976
-0.23973867297172546 -0.3591645359992981 0.176407128572464
-0.3292590081691742 -0.36002224683761597 0.16048377752304077
0.23280751705169678 -0.2453433871269226 0.10066386312246323
0.2947193682193756 -0.07096303999423981 0.14331327378749847
0.29567864537239075 -0.22089610993862152 -0.13322299718856812
0.26497212052345276 -0.06704258918762207 0.15383467078208923
0.29176509380340576 -0.44048118591308594 0.11053133755922318
-0.26752549409866333 -0.11364366114139557 -0.12874440848827362
0.29595640301704407 0.1335468739271164 0.14210768043994904
0.10605254024267197 0.2064961940050125 0.15733683109283447
0.11307484656572342 0.22962071001529694 0.046029217541217804
-0.24714580178260803 -0.24581359326839447 0.1380353718996048
0.04024142026901245 -0.24616576731204987 -0.1356433480978012
0.2813303768634796 -0.44580045342445374 0.0006526692304760218
0.24580128490924835 -0.2509108781814575 0.11275901645421982
0.25870928168296814 -0.4440251588821411 0.1968308836221695
0.2527311444282532 -0.11398398876190186 0.1594516932964325
-0.3050011992454529 -0.3998798429965973 -0.07755570858716965
0.21367377042770386 0.375280499458313 -0.0757436603307724
0.0002004285342991352 0.13734181225299835 -0.13495920598506927
-0.1417708843946457 -0.24330414831638336 -0.11500933766365051
-0.26265621185302734 -0.14426031708717346 0.1567809134721756
0.06132420524954796 -0.24864166975021362 0.10913366079330444
-0.2692667543888092 0.21293312311172485 0.1436677724123001
-0.262533038854599 0.4580853581428528 0.06604183465242386
-0.24739225208759308 -0.25199517607688904 0.08443467319011688
0.2810429632663727 -0.4060722291469574 0.16349579393863678
0.2793251872062683 -0.22083927690982819 -0.13607174158096313
0.20808568596839905 0.5059341192245483 0.01737668737769127
-0.2575701177120209 0.4637412130832672 0.07946883141994476
0.28785625100135803 0.471922367811203 0.08964791893959045
-0.015463413670659065 0.16666388511657715 -0.13659730553627014
-0.26729050278663635 0.08978904038667679 -0.13229429721832275
-0.04518284276127815 -0.2478402704000473 0.1559840440750122
0.2583448886871338 -0.24200846254825592 -0.13679386675357819
-0.012147784233093262 -0.2511017322540283 0.06640257686376572
0.15170814096927643 -0.3987117111682892 -0.008688485249876976
-0.12525127828121185 -0.24826472997665405 -0.13015946745872498
-0.12254127860069275 -0.24378347396850586 0.15604634582996368
-0.22347842156887054 0.1653522104024887 0.15433883666992188
0.29439377784729004 -0.018593130633234978 0.1393199861049652
0.2671733498573303 -0.2469979226589203 0.13520270586013794
0.2938358783721924 0.1822424829006195 0.14739246666431427
0.25942710041999817 -0.26957300305366516 0.023007694631814957
-0.17410629987716675 0.32969507575035095 -0.017766840755939484
-0.20367541909217834 -0.0587555468082428 0.1711379438638687
-0.26948267221450806 -0.11009805649518967 0.09046924114227295
0.24032433331012726 0.22831040620803833 0.09901092201471329
0.04694485291838646 0.13616645336151123 -0.20476901531219482
-0.26694750785827637 0.38315367698669434 0.06794805079698563
-0.27819597721099854 -0.33060023188591003 0.1603807657957077
0.28914543986320496 -0.40563416481018066 0.07459446042776108
0.298683226108551 -0.12958315014839172 -0.10598504543304443
-0.2700783312320709 0.04090113192796707 -0.13437561690807343
0.2967885732650757 0.12419362366199493 0.13836824893951416
-0.16709035634994507 -0.2460615336894989 -0.13542701303958893
0.29262775182724 -0.025070860981941223 0.14467278122901917
0.24850250780582428 -0.3019721508026123 0.09392641484737396
-0.269350528717041 0.1610410213470459 -0.1345943957567215
-0.1948673278093338 0.40585440397262573 -0.08147794008255005
-0.1531415581703186 -0.24988561868667603 0.10566919296979904
-0.2683976888656616 0.02991498075425625 -0.13374535739421844
0.29594728350639343 -0.16466115415096283 0.01898915320634842
-0.26953616738319397 0.024273991584777832 -0.13485071063041687
0.1989060789346695 0.36502477526664734 -0.053281914442777634
-0.2240435779094696 0.4985485076904297 0.008372538723051548
-0.05686051398515701 0.2247779667377472 -0.12870968878269196
-0.2009817361831665 -0.28162235021591187 0.08478105068206787
0.297108918428421 -0.22488030791282654 -0.1345175951719284
0.020863350480794907 0.22268101572990417 -0.13181374967098236
-0.038330234587192535 0.22696614265441895 -0.13085417449474335
0.2940366268157959 -0.1133894994854927 -0.13364630937576294
-0.15789975225925446 0.19283781945705414 0.15958990156650543
0.2517964541912079 -0.245510533452034 -0.13506050407886505
0.21055424213409424 -0.44226333498954773 0.057066820561885834
0.08536741882562637 -0.24872565269470215 -0.12760533392429352
0.057266414165496826 0.13664378225803375 0.1667168140411377
0.03843282163143158 -0.2308775782585144 -0.1360919177532196
-0.18233181536197662 -0.39625149965286255 0.07582303136587143
0.2753109037876129 0.3846249580383301 -0.07473154366016388
-0.21710142493247986 -0.06836478412151337 0.16961580514907837
0.26239851117134094 -0.23515261709690094 0.1547306925058365
-0.26115238666534424 -0.17222514748573303 -0.13464859127998352
-0.044909894466400146 0.22544728219509125 -0.12151838839054108
-0.2392074465751648 0.4954511225223541 0.039078451693058014
-0.24223655462265015 -0.27622243762016296 0.043851904571056366
-0.24964667856693268 -0.3774517774581909 -0.09082217514514923
0.2871977984905243 0.42091435194015503 -0.04991457238793373
-0.2681519687175751 -0.2141025811433792 -0.13456586003303528
0.2981341779232025 0.3777639865875244 0.036464374512434006
0.10098332166671753 0.22548605501651764 -0.12169414758682251
0.29655078053474426 -0.058354880660772324 0.01382870227098465
0.2941519021987915 0.10179556906223297 0.14290237426757812
0.12127341330051422 -0.24937409162521362 -0.13721023499965668
0.29521721601486206 -0.005475617945194244 0.14676952362060547
0.20605097711086273 0.2287944257259369 0.05723375827074051
0.30099886655807495 0.12005653977394104 0.1239708811044693
0.2750278413295746 0.49152442812919617 0.09698101878166199
-0.2402116358280182 0.3154630661010742 0.03284977748990059
0.29659411311149597 -0.0344131700694561 -0.1323903501033783
0.294202983379364 -0.22758033871650696 -0.13596849143505096
0.03841757774353027 0.11185458302497864 -0.1312420815229416
0.16522519290447235 -0.24795715510845184 -0.1342432200908661
-0.10884897410869598 0.2283848524093628 0.014188461005687714
0.21773125231266022 -0.44580113887786865 0.19296139478683472
-0.043436113744974136 -0.24592159688472748 -0.13582703471183777
0.007040895521640778 0.17213933169841766 0.15984775125980377
-0.2002086043357849 -0.37681013345718384 0.14218488335609436
0.23448725044727325 0.42651987075805664 0.10281647741794586
0.1965181529521942 0.004480771720409393 0.16678504645824432
-0.19096826016902924 0.4543256461620331 -0.07294170558452606
-0.2700299322605133 -0.055507369339466095 0.1523285210132599
-0.08026445657014847 0.22805999219417572 -0.12957216799259186
-0.02019779570400715 -0.24825192987918854 -0.13064391911029816
-0.19802603125572205 -0.04154554754495621 0.16824066638946533
-0.18248236179351807 -0.04952208325266838 0.1699475646018982
0.20692682266235352 0.3244924545288086 -0.030886873602867126
-0.27818283438682556 -0.31745702028274536 0.13231626152992249
-0.01680183783173561 0.22490611672401428 -0.13084343075752258
-0.018175600096583366 0.2006097137928009 -0.13186615705490112
0.26588940620422363 -0.3070174753665924 -0.03813862055540085
0.10424152761697769 0.22714027762413025 -0.03446587175130844
0.2430298626422882 -0.04998260363936424 0.16498126089572906
-0.269858717918396 0.06120575964450836 -0.13282223045825958
0.27667945623397827 -0.4024852514266968 0.19041989743709564
-0.1923360526561737 -0.42289623618125916 0.10014624893665314
-0.26486706733703613 0.17587098479270935 -0.05709998309612274
-0.16524188220500946 -0.3443261384963989 0.01960769109427929
0.23573333024978638 -0.18653267621994019 -0.13422688841819763
0.17875882983207703 -0.3622695505619049 0.15749338269233704
-0.2508845031261444 0.222345769405365 -0.13213448226451874
0.10249219089746475 0.21250855922698975 -0.1339433491230011
-0.2585637867450714 0.2199946939945221 -0.13448388874530792
-0.26928427815437317 0.03682192042469978 -0.13230855762958527
-0.11389215290546417 0.22754047811031342 0.08387733995914459
0.01577034220099449 -0.24677664041519165 -0.13435164093971252
0.1865018904209137 0.17116591334342957 0.1548072248697281
-0.26719680428504944 0.10109217464923859 -0.1367470622062683
-0.26732170581817627 0.1266891062259674 -0.13530543446540833
0.294641375541687 0.42505699396133423 -0.024933738633990288
0.29896146059036255 0.17001600563526154 0.14389678835868835
-0.23558631539344788 0.2294606864452362 0.1016319990158081
-0.20011775195598602 0.16299647092819214 0.1580670326948166
0.2595480978488922 0.3269348740577698 -0.05207836627960205
-0.2405482977628708 -0.43128785490989685 0.1726347655057907
0.006553867366164923 0.2244098037481308 -0.12808355689048767
-0.23884940147399902 0.2317056506872177 0.133893221616745
0.2915600538253784 0.06891179084777832 -0.13435938954353333
-0.22832415997982025 0.4969410300254822 0.09489484876394272
-0.25554636120796204 0.2305907905101776 0.10448828339576721
-0.2339269071817398 0.2286510169506073 -0.12839815020561218
0.09089648723602295 -0.09242500364780426 -0.13640427589416504
-0.24254530668258667 -0.43012216687202454 0.16403499245643616
0.24054822325706482 -0.4414955675601959 -0.08267886191606522
-0.17032498121261597 0.2251356989145279 -0.12919175624847412
0.10348211228847504 0.22551988065242767 -0.1212555319070816
-0.27240386605262756 -0.049613501876592636 -0.12993651628494263
0.20263871550559998 -0.38531744480133057 0.18061202764511108
-0.23820756375789642 -0.28347668051719666 -0.03577606752514839
0.2916109561920166 0.1896822452545166 -0.13328514993190765
0.1437186747789383 -0.39132148027420044 0.04869801923632622
