-0.21326152980327606 0.10548196732997894 -0.13411124050617218
0.20502591133117676 0.08140784502029419 -0.13388828933238983
0.14501802623271942 0.03646288812160492 -0.133766308426857
0.07775351405143738 -0.2571706473827362 -0.020676620304584503
0.14273473620414734 -0.3819001019001007 0.014839675277471542
-0.2704518139362335 0.1391674131155014 0.10662761330604553
0.25121161341667175 0.1624002605676651 -0.13362374901771545
0.2986590266227722 0.38994044065475464 -0.02160673774778843
-0.2669486105442047 -0.13433696329593658 0.08841720223426819
-0.03245413303375244 0.042815886437892914 -0.1344744861125946
0.2994612157344818 -0.20989874005317688 -0.03330368921160698
-0.16982166469097137 0.03199714422225952 -0.1382310688495636
-0.007279338780790567 0.15220759809017181 -0.13507433235645294
-0.19354784488677979 -0.3145110309123993 -0.05587131530046463
-0.2701013684272766 0.0004171147011220455 0.09999846667051315
-0.27009883522987366 -0.13576513528823853 -0.0390629805624485
0.26681217551231384 -0.014089319854974747 -0.134013369679451
-0.22460432350635529 -0.15195156633853912 -0.1315259486436844
-0.07838986068964005 -0.2133416384458542 -0.13177338242530823
0.13028618693351746 0.018693916499614716 0.17648828029632568
-0.1524726301431656 0.21927368640899658 0.0979718565940857
0.1085224524140358 0.11735464632511139 0.1712399572134018
-0.2150658220052719 -0.2555326819419861 -0.07497402280569077
-0.07060910761356354 -0.012061173096299171 -0.13466595113277435
-0.2270188331604004 0.22118136286735535 0.12843739986419678
0.08557257801294327 0.10753502696752548 -0.128975972533226
-0.03792570158839226 0.04786859080195427 -0.1350514441728592
-0.03734524920582771 -0.12327416241168976 -0.13639770448207855
0.2974317669868469 -0.21757565438747406 0.11491137742996216
0.10071829706430435 -0.25393912196159363 0.1417369693517685
-0.06602185219526291 0.11281158775091171 0.1737237274646759
0.27760782837867737 0.48972347378730774 0.08221223950386047
0.24228788912296295 -0.4466971457004547 0.01217595674097538
-0.27125123143196106 0.08120040595531464 0.08214973658323288
-0.09919929504394531 0.13762837648391724 0.17337319254875183
-0.16416724026203156 0.22147753834724426 0.0846269279718399
0.25296005606651306 0.060401953756809235 -0.1352192610502243
0.26392999291419983 -0.4505724608898163 0.03327473998069763
-0.170012965798378 0.3766891360282898 -0.05183204263448715
0.1741536557674408 0.42506155371665955 0.04118902608752251
-0.1243094876408577 0.22242455184459686 0.026098893955349922
-0.24406208097934723 -0.2552724778652191 -0.05196533352136612
0.1911269873380661 -0.11289319396018982 -0.13342417776584625
0.29820969700813293 -0.025245023891329765 -0.06804396957159042
0.3001408278942108 0.12171024084091187 -0.10467109829187393
0.29247406125068665 0.3748161196708679 -0.055932316929101944
-0.2706046998500824 -0.0049277134239673615 0.07083377242088318
0.15979361534118652 0.10074068605899811 -0.1303972750902176
0.2990547716617584 0.2002289593219757 0.10000330954790115
-0.26874691247940063 -0.19782790541648865 -0.09758532792329788
-0.18061916530132294 -0.255581259727478 0.10060326755046844
-0.2790302038192749 -0.3363014757633209 -0.04771488532423973
-0.0442076101899147 0.21999317407608032 0.013985371217131615
-0.1194310262799263 0.22193096578121185 0.05121346563100815
0.2404666692018509 -0.22051173448562622 0.16058745980262756
0.07145006954669952 0.06832603365182877 0.17453400790691376
-0.243758887052536 -0.05112096667289734 -0.2735174298286438
0.22451409697532654 0.32173842191696167 0.08246482908725739
-0.1475934237241745 -0.12359459698200226 0.1763729304075241
0.2948305606842041 0.41361889243125916 -0.037203263491392136
-0.046200770884752274 -0.21375122666358948 0.15723024308681488
0.303764671087265 0.4123694598674774 0.04654863104224205
0.1415942758321762 -0.06693685054779053 0.17355291545391083
0.06736619025468826 -0.1623356193304062 0.1763658970594406
0.14210741221904755 -0.38658198714256287 0.0733494982123375
-0.12232233583927155 -0.22897766530513763 -0.13525287806987762
0.09164554625749588 -0.1234164610505104 -0.13314135372638702
-0.007284182123839855 0.029021022841334343 -0.13463333249092102
-0.19809581339359283 0.21967890858650208 -0.10047780722379684
0.17837341129779816 0.45089995861053467 0.06516504287719727
-0.19777055084705353 -0.07070361077785492 0.1735280156135559
-0.26725414395332336 0.12109838426113129 0.07922731339931488
-0.2969110310077667 -0.017617369070649147 -0.2716265022754669
0.29819929599761963 0.025775715708732605 -0.045822206884622574
0.29434698820114136 -0.38403576612472534 0.039713889360427856
0.03881716728210449 0.07038436084985733 -0.13497605919837952
0.21941669285297394 0.3893035352230072 -0.08609266579151154
-0.1032620370388031 0.2178013175725937 0.07660599052906036
-0.13780125975608826 -0.2564043402671814 0.04677286371588707
-0.26557764410972595 0.3799608647823334 -0.022410698235034943
-0.1538323611021042 0.4111805558204651 0.059041112661361694
0.2413700670003891 -0.3745252788066864 0.17682194709777832
0.2009964883327484 -0.23000383377075195 -0.12897099554538727
0.0961569994688034 -0.08285506814718246 0.1744641363620758
-0.11334126442670822 0.22023847699165344 -0.07373518496751785
-0.16266220808029175 0.3489067256450653 -0.02149936556816101
-0.18181684613227844 0.01532140001654625 -0.1336580216884613
0.2990070581436157 -0.12097454816102982 -0.09403833001852036
-0.19173872470855713 -0.10574383288621902 -0.13038936257362366
-0.30618733167648315 -0.41587135195732117 -0.08253831416368484
-0.050443392246961594 0.08152947574853897 -0.13796783983707428
0.16981084644794464 -0.44876426458358765 0.13383817672729492
-0.12942813336849213 0.22193163633346558 0.13680540025234222
0.17190001904964447 0.13718055188655853 -0.13390004634857178
-0.2699638903141022 -0.029255704954266548 0.13990426063537598
0.2619711458683014 0.22155435383319855 0.13960643112659454
0.3001846969127655 0.40187302231788635 -0.0038133016787469387
-0.18644580245018005 -0.21891282498836517 -0.12958049774169922
0.17685265839099884 0.3739978075027466 -0.011498375795781612
0.20421569049358368 -0.25283917784690857 -0.11212127655744553
0.16189897060394287 0.030756575986742973 0.1730998456478119
-0.2330377697944641 -0.3612816333770752 -0.08693036437034607
-0.22436389327049255 -0.4699490964412689 -0.017956553027033806
-0.0062016393058001995 0.02823406271636486 -0.13531814515590668
0.22533228993415833 -0.4493429362773895 0.1301230639219284
0.20139122009277344 0.07685182988643646 -0.13386555016040802
0.2977941334247589 -0.14087598025798798 0.05780348181724548
0.02001076564192772 -0.25303012132644653 -0.045185916125774384
0.18689902126789093 0.06072727590799332 -0.13554660975933075
0.06408160924911499 -0.13821128010749817 -0.1357700228691101
0.13850195705890656 -0.00817033089697361 0.17370614409446716
-0.22613213956356049 0.4239981770515442 0.092912457883358
0.2239234745502472 -0.253797709941864 -0.0855541080236435
0.27986225485801697 -0.3213040232658386 0.030265746638178825
-0.013183792121708393 0.22118745744228363 -0.022112589329481125
-0.0635433942079544 0.057965151965618134 0.1760176122188568
0.3013971149921417 -0.0233918447047472 -0.008854271844029427
-0.15631112456321716 0.4497257471084595 0.010506603866815567
0.06281759589910507 0.1501799076795578 -0.17139731347560883
-0.17079946398735046 0.04859987646341324 0.17373035848140717
0.025651371106505394 -0.09405944496393204 0.1763320118188858
-0.27382609248161316 0.17142364382743835 -0.11853750795125961
0.2782999575138092 0.11389120668172836 0.15640735626220703
0.29780101776123047 0.45409491658210754 0.03014667145907879
0.19986583292484283 -0.33603435754776 -0.06791622936725616
-0.15886202454566956 -0.3599228858947754 0.007875374518334866
-0.23510801792144775 0.21815800666809082 -0.0567917563021183
0.1608237773180008 -0.10420359671115875 0.1776086986064911
0.30101779103279114 -0.14964696764945984 -0.004039084538817406
-0.09243624657392502 -0.2533164918422699 0.10300897061824799
0.3007815480232239 0.17712731659412384 -0.07960258424282074
-0.236760213971138 0.18263362348079681 -0.13470067083835602
0.26184138655662537 0.22192397713661194 0.09956859052181244
-0.25164100527763367 -0.45471373200416565 0.07522404193878174
0.29790234565734863 -0.04799364507198334 0.11728490144014359
-0.22500526905059814 -0.4402772784233093 -0.050937943160533905
-0.11554006487131119 0.22036626935005188 0.1273011863231659
0.27873995900154114 0.4785480797290802 -0.008471104316413403
-0.20480982959270477 -0.2542080581188202 0.1036822646856308
0.023816464468836784 -0.001155148260295391 0.17624574899673462
-0.00893415603786707 -0.25438857078552246 0.037809766829013824
-0.0310601107776165 -0.23317021131515503 -0.13084615767002106
-0.26553699374198914 -0.10072056949138641 0.10252539813518524
-0.06144437566399574 0.22242559492588043 -0.08972596377134323
-0.16601385176181793 0.3787324130535126 -0.04023073986172676
-0.27138811349868774 0.0650641918182373 0.0191256832331419
-0.03424440324306488 -0.09021981805562973 0.17715369164943695
-0.2589746415615082 0.45248937606811523 -0.023315368220210075
0.21608389914035797 0.22153697907924652 0.07469531893730164
-0.006173037923872471 -0.13850736618041992 -0.13309425115585327
0.29514044523239136 -0.21281671524047852 -0.09212713688611984
0.12769745290279388 -0.06995350122451782 -0.1334059238433838
-0.1796974390745163 0.19551081955432892 0.1619814783334732
-0.27322107553482056 -0.1086500734090805 0.07959291338920593
-0.2709255814552307 -0.30671608448028564 0.09349110722541809
0.026151234284043312 0.15320917963981628 -0.1325545459985733
-0.15847396850585938 0.05703895539045334 0.17479152977466583
0.16094300150871277 0.22036753594875336 -0.04697096347808838
-0.16078129410743713 0.4602767527103424 0.02487049251794815
0.2984156608581543 -0.11314451694488525 -0.08946999907493591
-0.29699116945266724 -0.400177925825119 0.13507798314094543
-0.24039071798324585 -0.45528098940849304 0.10506460070610046
0.059200771152973175 0.22157022356987 -0.017796605825424194
-0.268298864364624 0.07947229593992233 0.01569858007133007
-0.16459514200687408 -0.29842516779899597 0.05595356971025467
0.24244359135627747 -0.11372218281030655 -0.1332707703113556
-0.05899668484926224 -0.08251511305570602 0.17761974036693573
0.25447317957878113 -0.44958823919296265 0.17656292021274567
0.04243062436580658 0.13034877181053162 -0.2068430781364441
0.25575703382492065 -0.44936299324035645 0.11113620549440384
-0.3086417317390442 -0.41801053285598755 0.04511922597885132
0.00041529774898663163 0.22134163975715637 -0.08998002111911774
-0.27035897970199585 -0.13117715716362 -0.10175298899412155
-0.2776881158351898 0.08991749584674835 -0.10659553855657578
0.2662588059902191 0.2195224165916443 -0.09459631890058517
0.2991228401660919 0.022456267848610878 -0.009362508542835712
0.2844809591770172 -0.36509811878204346 -0.01729840226471424
0.1692161113023758 -0.36571070551872253 0.12984108924865723
-0.26506057381629944 -0.1472880095243454 0.0329069085419178
0.09563106298446655 -0.04554801806807518 -0.13165432214736938
-0.256392240524292 0.46933215856552124 0.07029261440038681
-0.2707147002220154 0.1924152821302414 0.007751137483865023
0.043571632355451584 0.1313788890838623 -0.2029314488172531
-0.14954863488674164 -0.2901993989944458 0.021391957998275757
-0.07850950956344604 -0.253385066986084 -0.09672267735004425
-0.23152905702590942 -0.16382795572280884 -0.1325332224369049
0.2940451204776764 0.3295624554157257 0.04407380521297455
-0.27052703499794006 -0.470551997423172 -0.0322873629629612
-0.30156809091567993 -0.39639589190483093 0.13288354873657227
-0.02237100526690483 -0.21535681188106537 -0.13271571695804596
0.2115178257226944 -0.40880805253982544 0.2027025818824768
0.15299150347709656 -0.0815189778804779 -0.13372278213500977
-0.15841460227966309 0.39278289675712585 -0.021863235160708427
-0.0586826391518116 -0.10181019455194473 0.17391815781593323
-0.136471226811409 -0.02370692417025566 0.1768716424703598
-0.15665116906166077 0.34764164686203003 -0.0068234968930482864
-0.04640218988060951 -0.25406119227409363 -0.08990032225847244
-0.26200059056282043 0.3352518677711487 0.011916841380298138
0.1857418566942215 -0.13310325145721436 0.17410564422607422
-0.016926558688282967 -0.2536613643169403 -0.10345546901226044
-0.17402562499046326 -0.2567456066608429 -0.07501495629549026
-0.2713559865951538 -0.12950004637241364 0.0552247017621994
-0.055028751492500305 0.21994011104106903 0.10822780430316925
-0.2869529128074646 -0.33030474185943604 0.01726946234703064
0.18111227452754974 -0.18034999072551727 -0.13256531953811646
0.29972904920578003 0.2048594057559967 0.12287618219852448
0.1187179833650589 -0.08091198652982712 0.1737111210823059
0.297298789024353 -0.09967934340238571 0.05726705491542816
-0.21237146854400635 0.021255146712064743 -0.13380424678325653
-0.3005063533782959 -0.42741909623146057 0.03163584694266319
-0.1366092711687088 0.22047612071037292 0.021955814212560654
0.24969986081123352 -0.4510801434516907 0.12629471719264984
-0.04823683202266693 -0.06439464539289474 0.17476649582386017
0.30104532837867737 -0.04839318245649338 0.08287450671195984
-0.2717801034450531 0.032444924116134644 0.1342320740222931
0.12044411152601242 -0.07674309611320496 -0.13561205565929413
-0.19168058037757874 0.4919000267982483 0.05926030874252319
0.06746922433376312 0.18133309483528137 -0.13462790846824646
-0.10869376361370087 -0.15495921671390533 -0.1336934119462967
0.15819904208183289 -0.35313042998313904 0.09680750221014023
-0.2680923640727997 -0.2265259325504303 0.1338091343641281
0.23077450692653656 -0.44899678230285645 0.0021303335670381784
0.22674104571342468 0.33223778009414673 0.1026042252779007
0.19051676988601685 -0.3946418762207031 -0.06853239983320236
0.13101299107074738 -0.2274889200925827 0.16327880322933197
0.17721205949783325 0.4186694025993347 0.09036748856306076
-0.19753284752368927 -0.44204026460647583 0.06851205974817276
0.05218713358044624 0.022219814360141754 -0.13691316545009613
0.1826837807893753 -0.2852802872657776 0.0627724826335907
-0.2709224820137024 -0.3225814998149872 -0.03851444274187088
-0.10732255131006241 0.005938516464084387 0.17640255391597748
0.07644516974687576 0.22334721684455872 0.10045728087425232
-0.1175156831741333 -0.046058110892772675 0.17476747930049896
-0.09608829021453857 0.17133860290050507 -0.13767297565937042
0.12510932981967926 -0.25355276465415955 -0.07946311682462692
0.2959707975387573 0.36873728036880493 0.004538063891232014
0.17471981048583984 0.16358929872512817 -0.13111306726932526
0.14688743650913239 -0.40349510312080383 -0.00042272498831152916
0.06728286296129227 -0.1913735717535019 -0.13677732646465302
0.29680439829826355 0.37334248423576355 -0.003568264190107584
0.288205623626709 -0.38197124004364014 0.09633045643568039
-0.01432520430535078 0.2209204137325287 0.06299746036529541
-0.12419651448726654 0.14973250031471252 -0.1338527947664261
0.19908441603183746 -0.11725080013275146 -0.1336473524570465
0.268816202878952 0.48909685015678406 -0.01705239713191986
-0.1893906444311142 0.18685826659202576 -0.13476943969726562
-0.26974329352378845 -0.2332720309495926 0.1190955862402916
0.2837303876876831 -0.34056368470191956 0.02625511772930622
0.2188730537891388 -0.38742101192474365 0.1890704333782196
0.21643802523612976 -0.39340004324913025 -0.08341294527053833
0.08800607919692993 0.06933653354644775 0.16867108643054962
0.22142010927200317 0.3211483061313629 -0.04715795814990997
-0.09514983743429184 -0.06908344477415085 0.17513257265090942
0.1846628338098526 -0.449299156665802 0.013677090406417847
0.2954665720462799 -0.19089409708976746 0.054459527134895325
0.1419115960597992 0.12857362627983093 -0.13326865434646606
-0.2621588706970215 0.33921587467193604 0.027493279427289963
0.18216060101985931 -0.45304688811302185 0.147290900349617
0.300258070230484 0.0841413363814354 -0.09201677143573761
0.1899062544107437 -0.16494205594062805 -0.13278545439243317
-0.2701857388019562 -0.08495037257671356 0.13874328136444092
-0.2713427245616913 0.15205709636211395 0.05764687806367874
0.23095928132534027 -0.3322354853153229 0.12397037446498871
-0.12039469927549362 -0.07068435102701187 -0.13385654985904694
0.19783364236354828 0.4116494357585907 -0.06980050355195999
-0.11805040389299393 -0.15281374752521515 0.1773727834224701
-0.16519178450107574 0.05117654800415039 -0.1331009715795517
-0.15634089708328247 -0.2540538012981415 0.11220920085906982
0.2984143793582916 -0.10103070735931396 -0.06449422985315323
-0.1816539615392685 0.41329583525657654 -0.06544671952724457
-0.1498018205165863 0.22242803871631622 0.10736006498336792
0.29876530170440674 0.10333721339702606 0.050745878368616104
-0.061012085527181625 -0.2507155239582062 0.04876874387264252
0.23657706379890442 -0.2089650183916092 0.16016758978366852
-0.22154274582862854 0.14015665650367737 -0.1325276643037796
-0.2704505920410156 0.19159714877605438 0.12375042587518692
-0.2685657739639282 -0.14927354454994202 -0.033803705126047134
0.16749514639377594 -0.25507479906082153 0.05730773136019707
0.10581887513399124 0.2227078527212143 0.07486642152070999
-0.1505516767501831 0.21905164420604706 -0.045850638300180435
0.2787732779979706 -0.14719213545322418 0.16647377610206604
-0.18435418605804443 0.48421338200569153 0.04621756449341774
0.17047655582427979 -0.3380463719367981 -0.04629258066415787
0.19537225365638733 -0.30333390831947327 -0.05804245173931122
0.19946017861366272 0.016002316027879715 -0.13368463516235352
0.021985730156302452 0.22326934337615967 -0.05624128133058548
0.08347441256046295 0.08584347367286682 -0.13381999731063843
0.17753532528877258 0.3614937365055084 -0.01360340230166912
0.27694475650787354 0.35678932070732117 -0.07080976665019989
0.05840987339615822 0.14822731912136078 -0.19287721812725067
-0.23712219297885895 0.22136364877223969 0.09623118489980698
-0.2512848377227783 -0.12130250781774521 -0.13446809351444244
0.018002955242991447 0.1312212347984314 -0.13553890585899353
0.13913898169994354 0.13570037484169006 -0.13350659608840942
-0.1524360328912735 -0.27606162428855896 -0.0069001601077616215
0.2992737293243408 0.09948685020208359 -0.09310778975486755
0.05645153671503067 0.22052840888500214 -0.042069241404533386
0.18412230908870697 -0.10199866443872452 -0.13418525457382202
-0.17082935571670532 -0.37842196226119995 0.009340251795947552
0.07510050386190414 0.001977856270968914 -0.1350814700126648
0.22541926801204681 -0.44674715399742126 -0.04712914675474167
-0.09166228771209717 -0.14736945927143097 0.1746726632118225
-0.194962278008461 -0.3594781756401062 -0.060998715460300446
-0.061280712485313416 -0.04335559904575348 0.17359931766986847
-0.16497968137264252 -0.31473833322525024 -0.02168043702840805
-0.2706630527973175 -0.01610536314547062 -0.043425898998975754
0.09889508783817291 -0.15725529193878174 -0.1328931599855423
-0.26842552423477173 0.053797390311956406 -0.043474286794662476
0.20841574668884277 0.04555607959628105 0.17441850900650024
0.011220459826290607 -0.2539158761501312 -0.079558826982975
0.11206289380788803 -0.10804585367441177 -0.1307176649570465
0.06010572239756584 0.22136807441711426 -0.011531512252986431
-0.00620091101154685 -0.12562775611877441 0.1776246726512909
-0.20207571983337402 -0.2537378668785095 -0.0726323053240776
-0.26703616976737976 0.35960492491722107 0.0652732104063034
0.21701385080814362 0.1361582726240158 -0.13394975662231445
-0.21292971074581146 0.3304297626018524 0.08070717751979828
0.018088629469275475 0.24444448947906494 -0.20156309008598328
-0.17313699424266815 0.04294276610016823 -0.13376569747924805
0.07631024718284607 0.22424297034740448 -0.01406626682728529
-0.23591555655002594 -0.22041459381580353 -0.13425220549106598
0.15354925394058228 0.2209014594554901 -0.0110404621809721
0.19225247204303741 0.4141714870929718 -0.06229964643716812
0.29733389616012573 0.09957540035247803 0.12516434490680695
0.10923517495393753 -0.2538814842700958 0.07594337314367294
0.19875174760818481 -0.08142491430044174 -0.1345408856868744
-0.20138077437877655 -0.2812584340572357 -0.05524826422333717
-0.08940459042787552 -0.254335880279541 -0.07783825695514679
0.016078507527709007 -0.2538963258266449 -0.08466210216283798
-0.1893007457256317 -0.3372848629951477 0.07998602837324142
-0.21018154919147491 0.2218049019575119 0.07350299507379532
0.016159504652023315 0.2211846113204956 -0.013913039118051529
-0.26823022961616516 -0.17875158786773682 -0.02711794711649418
0.1846456229686737 0.05025453865528107 -0.13360807299613953
-0.032486651092767715 -0.25555336475372314 0.02092624269425869
0.23364292085170746 -0.4444362223148346 0.03092849627137184
0.1303248554468155 0.2187594175338745 0.019611245021224022
0.2954694628715515 -0.165104478597641 0.12117332220077515
-0.17765450477600098 0.4558519423007965 -0.046434186398983
-0.07268185913562775 0.053377002477645874 0.17489513754844666
-0.18626919388771057 0.22163692116737366 0.11144758760929108
-0.26854702830314636 -0.19365942478179932 -0.1058730036020279
-0.2705601751804352 0.18987785279750824 0.09474729001522064
0.21238252520561218 0.20234425365924835 -0.13196900486946106
-0.023301199078559875 0.05536547675728798 -0.13149167597293854
0.2789390981197357 -0.2508684992790222 0.029120193794369698
0.2986501455307007 -0.15026380121707916 0.020999429747462273
0.23754476010799408 0.22043180465698242 0.12565554678440094
0.06742336601018906 0.2185760885477066 -0.08919312059879303
0.15182259678840637 0.22285573184490204 -0.070695661008358
0.24873264133930206 -0.2520558536052704 0.09442906826734543
0.10105627775192261 -0.2537219524383545 -0.05507790669798851
0.16921783983707428 -0.2946086823940277 -0.018756384029984474
-0.22019267082214355 -0.37787842750549316 -0.0779750868678093
-0.15137329697608948 0.22176769375801086 0.12812234461307526
0.2782585024833679 -0.34294983744621277 -0.0348091721534729
0.15699267387390137 0.22011198103427887 -0.10138829052448273
-0.04646844416856766 -0.25811493396759033 0.08733043819665909
0.295928031206131 0.08317267149686813 -0.027429182082414627
-0.06375932693481445 -0.25712430477142334 -0.06593633443117142
0.29727843403816223 0.42245805263519287 -0.019849224016070366
0.2990536391735077 0.13453872501850128 0.05175509676337242
0.2990799844264984 -0.02829747647047043 0.029425589367747307
-0.2730434834957123 0.04157279059290886 -0.10571393370628357
0.10641434788703918 -0.22508937120437622 -0.1308426707983017
-0.09878923743963242 0.19213387370109558 -0.13262341916561127
-0.05948171019554138 0.0707363411784172 -0.13552463054656982
0.2883017063140869 -0.3873438835144043 0.11701750010251999
0.04622771218419075 0.002131539396941662 -0.13134808838367462
-0.12345842272043228 0.04443982243537903 0.17466583847999573
0.19355623424053192 -0.16232240200042725 0.1728670448064804
0.030456623062491417 0.0928129106760025 0.1723707914352417
0.21541036665439606 0.1598624885082245 -0.13420604169368744
-0.03588312119245529 -0.09978611022233963 -0.13344526290893555
0.07033619284629822 -0.030313769355416298 -0.1315658986568451
0.0813979059457779 -0.030711034312844276 -0.13618838787078857
-0.16446194052696228 0.028143802657723427 -0.132698193192482
-0.31203848123550415 -0.40392857789993286 0.0823284462094307
0.1775054633617401 -0.3217761516571045 0.08473096787929535
0.0455944798886776 -0.25407645106315613 0.048354651778936386
-0.26804807782173157 -0.20311644673347473 0.12384800612926483
-0.2711496353149414 0.07199878990650177 0.03165702149271965
-0.19644483923912048 -0.025274550542235374 -0.13452206552028656
-0.021671239286661148 -0.25417083501815796 0.12876279652118683
0.138397216796875 -0.40914851427078247 0.09578711539506912
0.11753793060779572 -0.1949889361858368 -0.13302060961723328
-0.22637265920639038 0.2216612845659256 0.14320668578147888
0.2970109283924103 0.016403701156377792 0.06197736784815788
-0.17918731272220612 -0.03396626561880112 0.1755819171667099
0.29877960681915283 0.1980082094669342 0.11839081346988678
-0.27012497186660767 -0.20918694138526917 -0.03430760279297829
-0.2643885314464569 0.3403225243091583 0.0016232805792242289
-0.14703404903411865 0.2217702567577362 0.10021326690912247
-0.20198728144168854 0.17777876555919647 -0.13437087833881378
-0.2649378478527069 0.3827759027481079 -0.015443417243659496
-0.26435744762420654 -0.445035457611084 -0.07860281318426132
-0.23937982320785522 0.1704089343547821 -0.13478609919548035
-0.02725686877965927 0.006804622709751129 0.17369574308395386
0.1755967140197754 0.4230363965034485 0.05565639212727547
-0.11426736414432526 0.113100565969944 0.17462313175201416
0.05967363342642784 -0.25394129753112793 -0.07255146652460098
-0.00018781301332637668 0.13901670277118683 -0.13203848898410797
-0.03393124043941498 0.1908683031797409 0.15964944660663605
-0.13814255595207214 0.21994704008102417 -0.08243130892515182
0.22111034393310547 -0.09592588990926743 0.17154569923877716
-0.27875399589538574 -0.43138664960861206 0.07825967669487
0.20437419414520264 -0.41377630829811096 -0.07810787856578827
-0.2703518569469452 -0.013155186548829079 0.030363598838448524
-0.270675390958786 0.13565537333488464 0.07686614990234375
-0.2684486508369446 -0.2231610268354416 0.047924626618623734
0.10427812486886978 0.12457190454006195 -0.135542094707489
0.17201855778694153 -0.30371516942977905 -0.034523818641901016
-0.2710390090942383 0.0851888507604599 -0.11229374259710312
-0.07763144373893738 -0.19620558619499207 -0.13238750398159027
0.01831360161304474 0.19839487969875336 0.15620183944702148
0.22935834527015686 -0.44784659147262573 0.05154795199632645
-0.18459153175354004 0.07556556910276413 0.17392243444919586
0.2629367709159851 -0.4483861029148102 0.03933155909180641
0.22721906006336212 -0.38726744055747986 -0.08847367018461227
0.04541105404496193 0.21888259053230286 -0.049433935433626175
-0.057997968047857285 -0.1502099186182022 -0.1323588490486145
0.09433712065219879 0.14138150215148926 0.17141756415367126
0.1921568363904953 -0.44885286688804626 -0.02908323146402836
0.03730739653110504 -0.019599594175815582 -0.1333271861076355
-0.09621048718690872 -0.2529553174972534 -0.030092423781752586
-0.1827123761177063 0.21980182826519012 -0.06269568204879761
-0.13158845901489258 -0.2551625967025757 -0.02955647185444832
-0.2411949336528778 0.43144291639328003 -0.06716187298297882
-0.2724524140357971 0.04000002145767212 -0.11657120287418365
-0.23466180264949799 0.048003751784563065 -0.1342649608850479
0.11690173298120499 0.05136433616280556 -0.13446615636348724
-0.19850704073905945 -0.00987999141216278 -0.13465581834316254
0.2131790667772293 0.22146518528461456 0.062337592244148254
0.30265504121780396 0.38054358959198 0.05808526277542114
0.25617101788520813 -0.3673001229763031 0.1650884747505188
0.16599918901920319 -0.37746042013168335 0.14656375348567963
-0.018901558592915535 -0.13284534215927124 0.17450645565986633
-0.22566978633403778 -0.019282778725028038 -0.13090956211090088
-0.04212768375873566 -0.057864848524332047 0.1737232506275177
-0.14769719541072845 -0.20520754158496857 -0.13313505053520203
0.2554708421230316 0.32993054389953613 0.10476858168840408
-0.1763208657503128 -0.10372079908847809 0.17412203550338745
0.2557108402252197 0.2203066051006317 0.11932414025068283
0.0668007880449295 -0.03890664875507355 -0.13378584384918213
-0.08977562934160233 0.05334727466106415 0.17186200618743896
0.2967543601989746 -0.0048836758360266685 -0.09771285206079483
0.2968677580356598 -0.05235547572374344 -0.03351367264986038
-0.0582011379301548 0.22204075753688812 0.05377204716205597
-0.16756831109523773 -0.38193804025650024 0.01451164297759533
0.07493828237056732 0.0704619362950325 0.17354300618171692
0.2888793349266052 0.46656373143196106 0.10143481194972992
-0.168236643075943 -0.2529381811618805 -0.08202328532934189
-0.20828764140605927 0.33926844596862793 0.09998223185539246
0.25920483469963074 0.40510693192481995 0.10385618358850479
-0.2715018391609192 -0.01590566709637642 -0.10095153003931046
-0.16037911176681519 -0.17306488752365112 -0.13523373007774353
0.2996161878108978 0.16599595546722412 0.0956086814403534
0.1843721866607666 0.22531954944133759 0.01673334278166294
0.1060367152094841 0.21985173225402832 0.05919722095131874
-0.2693737745285034 0.41921937465667725 0.01793956197798252
0.017049092799425125 -0.030023183673620224 0.17360427975654602
0.27038338780403137 -0.2520138621330261 0.038587719202041626
0.1808788776397705 -0.36120232939720154 -0.05824391916394234
-0.2664761543273926 -0.11330374330282211 0.02812066860496998
0.11001108586788177 -0.1489330381155014 -0.1318691521883011
-0.07041027396917343 0.0894186794757843 -0.1346212476491928
-0.15972426533699036 0.17907622456550598 -0.13719888031482697
0.2918655574321747 -0.409760057926178 0.07681778818368912
0.0018780461978167295 -0.023104101419448853 0.17268334329128265
-0.29823511838912964 -0.4057917892932892 0.0982021689414978
-0.08902280032634735 0.11307346820831299 0.17234893143177032
-0.2705468237400055 -0.03986533731222153 0.023342357948422432
0.12950505316257477 0.22027035057544708 -0.10021330416202545
-0.2750887870788574 -0.21429279446601868 0.010285845026373863
0.22415532171726227 0.22548606991767883 0.11095006763935089
-0.30033352971076965 -0.3222937285900116 0.10088197886943817
0.2999097406864166 -0.04907914251089096 0.11904530972242355
0.29855576157569885 -0.030012857168912888 0.0961276963353157
0.24059204757213593 0.2198243886232376 0.1112997829914093
0.298513799905777 0.043686941266059875 0.028077948838472366
0.0008972139330580831 0.2393321990966797 -0.1957506686449051
-0.03349875658750534 0.22140419483184814 0.06724551320075989
0.11736731231212616 0.22124800086021423 0.030140705406665802
-0.10036692023277283 0.20246577262878418 -0.13523289561271667
-0.02997541055083275 -0.2543027698993683 0.10962449759244919
0.22565288841724396 -0.2533428966999054 0.13039103150367737
-0.24760332703590393 -0.25382429361343384 0.12891827523708344
-0.18546195328235626 0.000303574837744236 -0.13329766690731049
-0.31794413924217224 -0.4204730689525604 0.005659197922796011
0.05124171823263168 -0.25432783365249634 0.03271595388650894
0.2894033193588257 0.3725220859050751 -0.05051323398947716
0.29744091629981995 -0.09741741418838501 0.1219906210899353
-0.32376784086227417 -0.3352878987789154 0.16376565396785736
-0.18435008823871613 0.41015031933784485 -0.0702119916677475
-0.32453975081443787 -0.34789174795150757 0.10055504739284515
-0.27291324734687805 -0.004504398442804813 0.13855601847171783
-0.24698489904403687 0.1274515688419342 0.16039086878299713
0.20701216161251068 -0.08354069292545319 0.1704448163509369
0.04699484631419182 0.22139745950698853 0.03391136974096298
-0.04516482353210449 -0.25405552983283997 -0.08324326574802399
-0.2080736756324768 -0.36172014474868774 0.1158934086561203
-0.12240517884492874 0.023226317018270493 0.17461006343364716
-0.2721122205257416 -4.2067840695381165e-06 -0.07320547848939896
-0.08450164645910263 -0.1255180835723877 0.17398670315742493
0.11334974318742752 -0.1171572282910347 0.17382027208805084
0.17278055846691132 -0.293152779340744 0.055612124502658844
0.16925744712352753 0.058024898171424866 -0.13371293246746063
0.20692040026187897 -0.447166383266449 0.1611538976430893
0.2979709804058075 0.07474418729543686 0.026255488395690918
0.1758277863264084 -0.1304812729358673 -0.13378621637821198
-0.27496808767318726 -0.00886924285441637 0.13980652391910553
0.0487622432410717 -0.251564085483551 -0.016773616895079613
0.09411372989416122 0.04382210597395897 0.1729353368282318
-0.08089669793844223 0.09612540155649185 -0.13736073672771454
0.0025660740211606026 -0.2538461983203888 0.09282528609037399
-0.27128374576568604 -0.06392821669578552 -0.07863369584083557
-0.23996654152870178 -0.279281347990036 -0.02853701263666153
-0.27390629053115845 0.20194581151008606 0.0653342679142952
-0.1202215701341629 -0.07203079760074615 -0.13477638363838196
-0.07295012474060059 -0.25477007031440735 -0.05645636469125748
-0.19936785101890564 -0.41804584860801697 0.13016468286514282
-0.09682580828666687 0.08645419776439667 -0.13405588269233704
-0.2482232004404068 -0.4255000352859497 -0.08300377428531647
-0.009805037640035152 -0.25404199957847595 -0.045015621930360794
0.20673416554927826 -0.2184121310710907 -0.1340971291065216
-0.1639307141304016 -0.3558710515499115 0.023768343031406403
0.2982299029827118 0.17590847611427307 -0.059418804943561554
0.009833225980401039 0.1440042108297348 -0.1334751397371292
-0.13661359250545502 0.19288592040538788 -0.1309266835451126
0.2958514094352722 -0.14813339710235596 -0.07640185952186584
-0.13863754272460938 0.004982011392712593 -0.13411353528499603
0.3018120229244232 -0.21627715229988098 -0.09417849034070969
-0.16412422060966492 0.46472683548927307 0.0011901834513992071
-0.24691861867904663 0.04163763299584389 0.16053934395313263
0.1614828109741211 0.22132697701454163 0.011869292706251144
-0.2708479166030884 0.192205548286438 -0.11551139503717422
0.11976822465658188 -0.15055330097675323 -0.1328321248292923
-0.26860541105270386 -0.06893935799598694 -0.07646258920431137
-0.2550397217273712 -0.4300428330898285 0.1515616923570633
-0.1560189574956894 0.4435797333717346 0.040544070303440094
-0.09028228372335434 0.22152864933013916 -0.07920261472463608
0.02393253706395626 0.09225054830312729 -0.16473859548568726
0.12938207387924194 -0.2550262212753296 -0.007056783884763718
-0.0649132952094078 0.22143308818340302 0.036656156182289124
0.10952924937009811 -0.22138865292072296 -0.1312227100133896
0.19348835945129395 0.21975603699684143 0.08409576117992401
-0.25407838821411133 0.39568713307380676 -0.06045776605606079
-0.18389418721199036 -0.25217100977897644 0.14245548844337463
0.01206213142722845 -0.25218433141708374 0.09355327486991882
0.1641618013381958 0.1633378118276596 -0.13518179953098297
0.26318487524986267 -0.3014099895954132 -0.05025063082575798
0.013715825974941254 -0.11638031154870987 0.17513452470302582
-0.08708026260137558 -0.25286757946014404 -0.04755483567714691
-0.2720882296562195 0.1807474046945572 0.1028699055314064
-0.03166312351822853 -0.2537534534931183 -0.08881491422653198
0.207938551902771 0.010500703938305378 -0.1338052749633789
-0.1857515573501587 -0.4150789976119995 0.07478934526443481
0.009678006172180176 0.1590893268585205 -0.133777916431427
-0.14618849754333496 -0.11644090712070465 0.17887775599956512
-0.22481025755405426 0.22143982350826263 0.10111287981271744
0.29897215962409973 0.08156069368124008 -0.03704892471432686
0.20961537957191467 -0.11770214885473251 -0.13331350684165955
0.2519787847995758 -0.44936445355415344 0.0535137876868248
-0.20469550788402557 -0.3893485963344574 0.1350826621055603
0.10217290371656418 -0.25221651792526245 0.11048103123903275
-0.04515846446156502 -0.0624072328209877 -0.1331799030303955
-0.01352714840322733 0.22271950542926788 0.086238332092762
0.0608358234167099 0.13754211366176605 -0.1837192326784134
0.05939870327711105 -0.15063193440437317 -0.13583336770534515
-0.11391759663820267 0.22127023339271545 -0.0199689082801342
-0.27039504051208496 -0.1788012832403183 -0.05963069945573807
-0.15257534384727478 0.4096863269805908 0.012298678047955036
-0.27171266078948975 0.09745310992002487 -0.027744807302951813
0.19253385066986084 -0.44899213314056396 -0.037471674382686615
0.30223923921585083 0.4121229648590088 0.013932371512055397
0.2552565336227417 -0.16999968886375427 -0.1353309452533722
0.29634174704551697 -0.17465940117835999 -0.07419443875551224
-0.1752644181251526 -0.4057619571685791 0.030727224424481392
-0.2510001063346863 0.3259660601615906 -0.015647217631340027
-0.270772784948349 -0.08611942827701569 -0.07517121732234955
-0.267823725938797 0.05939581245183945 0.1351528763771057
0.014284398406744003 -0.25309860706329346 0.015787353739142418
0.2990987300872803 -0.18521657586097717 0.007287154905498028
0.07684355229139328 -0.2509022355079651 -0.008387289009988308
-0.21752959489822388 -0.46986815333366394 -0.0011846001725643873
0.16364696621894836 -0.07698438316583633 -0.13128000497817993
-0.11843658238649368 -0.05778982490301132 0.17010335624217987
-0.2636888921260834 -0.4337213933467865 -0.08251234889030457
0.28200429677963257 -0.2523970305919647 -0.07699128240346909
0.006328463088721037 -0.22644394636154175 -0.12995152175426483
-0.01544999610632658 -0.2526770532131195 -0.02677038684487343
-0.008467068895697594 -0.021969622001051903 0.17745482921600342
-0.11754465848207474 0.022977592423558235 0.1746138632297516
0.2044292837381363 -0.35507795214653015 0.14084796607494354
-0.29423636198043823 -0.3460851013660431 -0.024365760385990143
0.17630024254322052 0.43954041600227356 0.07439065724611282
-0.27098992466926575 0.008739144541323185 -0.025714043527841568
-0.07514234632253647 -0.2512575387954712 0.053139958530664444
-0.08932066708803177 0.22048774361610413 -0.053518664091825485
0.2973218560218811 -0.2242172211408615 -0.06220189854502678
-0.2448498010635376 -0.2540152370929718 -0.07010377943515778
0.262704074382782 0.22160643339157104 0.09896241128444672
0.30286186933517456 -0.19281530380249023 0.05996110290288925
0.17887616157531738 0.22139139473438263 -0.09615951776504517
-0.26973429322242737 -0.18818959593772888 0.056625135242938995
0.039617035537958145 -0.009766241535544395 0.17366540431976318
0.013960884883999825 -0.006372880656272173 -0.1337890326976776
-0.1412409543991089 0.21835805475711823 -0.08469930291175842
0.2764352858066559 -0.3342564105987549 0.08301875740289688
0.3039252460002899 0.041371576488018036 0.0231094341725111
0.14182208478450775 -0.19506528973579407 -0.1280106008052826
0.2814209759235382 0.48674124479293823 0.01562749780714512
0.28706827759742737 -0.36818766593933105 0.04489075019955635
0.2960205078125 0.412748247385025 -0.029696183279156685
0.2720196545124054 -0.44927382469177246 0.14362330734729767
-0.1291901022195816 -0.117494136095047 -0.13333527743816376
-0.2434302121400833 0.22330684959888458 0.06318774819374084
-0.10317817330360413 0.04892183095216751 0.17399735748767853
0.13707678020000458 -0.22711454331874847 0.164375901222229
0.18526020646095276 0.4582616686820984 0.09856517612934113
-0.2734334170818329 0.002950546331703663 -0.09005008637905121
-0.10331021249294281 0.221814826130867 -0.016095666214823723
-0.10300670564174652 0.218444362282753 -0.09909571707248688
-0.2709059715270996 0.009936821646988392 0.05968495085835457
-0.025995982810854912 -0.2023727297782898 -0.13020142912864685
0.30235087871551514 0.17341315746307373 0.05154019594192505
-0.15344463288784027 0.4282611310482025 0.017999807372689247
-0.23887301981449127 0.48554739356040955 0.03230801969766617
0.11083882302045822 0.1814836710691452 0.1599482297897339
-0.2682535946369171 -0.12478344142436981 0.002727265702560544
-0.24849838018417358 -0.09739059209823608 -0.13263291120529175
0.17451317608356476 -0.1802641898393631 -0.13391096889972687
0.3014167547225952 -0.20501378178596497 0.012341052293777466
0.24419716000556946 -0.2251228392124176 -0.1329280287027359
0.10033934563398361 -0.22913114726543427 -0.13288310170173645
0.2722644805908203 -0.31498226523399353 0.07715648412704468
-0.16992203891277313 0.21986006200313568 -0.056145668029785156
0.2992175221443176 0.07716730982065201 -0.03896689414978027
-0.22910045087337494 0.16915777325630188 -0.1334962546825409
-0.1977393925189972 0.21995815634727478 -0.07685805857181549
0.1529221534729004 -0.25501975417137146 -0.04286111146211624
-0.0807720199227333 0.017636103555560112 -0.1370375007390976
-0.0073859295807778835 -0.2562088966369629 0.09881461411714554
-0.06345818191766739 0.22296439111232758 0.14160475134849548
0.028100736439228058 -0.22210048139095306 0.1615372598171234
-0.08409257978200912 0.11560600250959396 -0.13444480299949646
-0.27263227105140686 0.15628120303153992 0.09737557172775269
-0.2046438306570053 -0.406338632106781 0.15598894655704498
-0.03229183703660965 0.2213362455368042 -0.08243368566036224
-0.16031336784362793 -0.3517690598964691 0.008992612361907959
0.1763795167207718 0.3641843795776367 -0.013534201309084892
-0.07198870927095413 0.12630301713943481 0.17111465334892273
0.26981860399246216 0.14996562898159027 -0.13460075855255127
-0.24748782813549042 0.4784812927246094 0.022099683061242104
-0.04373634234070778 0.2197868376970291 -0.0037922216579318047
0.14740392565727234 -0.3641926646232605 0.07182677835226059
-0.270778089761734 0.02588149532675743 -0.10854638367891312
-0.23563562333583832 -0.3453146517276764 0.14383460581302643
-0.04031507670879364 -0.2161417305469513 -0.12912070751190186
0.10173559188842773 0.22363530099391937 -0.008498575538396835
-0.31912365555763245 -0.39069098234176636 -0.047421131283044815
0.11798422038555145 0.22020593285560608 -0.055233731865882874
-0.16768291592597961 0.47354358434677124 0.043620869517326355
-0.11861276626586914 -0.08765389025211334 0.17266471683979034
-0.23466239869594574 -0.0656040757894516 -0.13425353169441223
0.20876504480838776 -0.2523816227912903 -0.07431461662054062
0.01445769239217043 0.06137096509337425 0.16859760880470276
-0.024964917451143265 0.14059719443321228 -0.1319359987974167
-0.12359285354614258 -0.1464504599571228 0.17974945902824402
-0.32442227005958557 -0.3501873314380646 0.05982602760195732
-0.1576392501592636 0.22119301557540894 -0.05409321188926697
0.15183807909488678 0.16285814344882965 -0.13360930979251862
-0.20235726237297058 0.49629247188568115 0.05342341959476471
-0.23382775485515594 0.48054787516593933 -0.017258504405617714
-0.298673540353775 -0.35211294889450073 -0.021044913679361343
-0.1700001060962677 0.027624037116765976 -0.13513030111789703
-0.07146668434143066 -0.2545587718486786 0.08979925513267517
0.018489254638552666 -0.19454875588417053 -0.1312502920627594
0.033745381981134415 0.10005446523427963 0.17329728603363037
-0.27228087186813354 0.19740109145641327 0.06976526230573654
-0.26790788769721985 -0.1688273698091507 0.008880180306732655
-0.13331614434719086 -0.11227984726428986 0.17551016807556152
0.29923000931739807 -0.1721031814813614 0.03221755474805832
-0.037011753767728806 0.12949125468730927 -0.16987144947052002
-0.26957711577415466 0.024593116715550423 -0.08661168068647385
0.2793232798576355 0.4880111813545227 0.09669877588748932
0.28878605365753174 0.4157618284225464 -0.05422360450029373
0.20459361374378204 0.3854472041130066 -0.07417129725217819
0.0009035432594828308 0.22115744650363922 -0.013083057478070259
0.294820636510849 -0.42289695143699646 0.07160644233226776
-0.2363051176071167 -0.21717216074466705 0.16175460815429688
-0.2750316858291626 0.04917645826935768 -0.0266508087515831
-0.10162101686000824 -0.15979480743408203 -0.13288240134716034
0.27786144614219666 0.31528764963150024 -0.009557731449604034
0.2544657289981842 -0.1333516240119934 -0.13264380395412445
0.2998153567314148 0.3593509793281555 0.05183875560760498
0.1354282796382904 -0.11152846366167068 0.17349374294281006
-0.31672585010528564 -0.33729830384254456 0.11013799905776978
-0.1569138467311859 0.031745005398988724 0.17431139945983887
-0.2360534965991974 0.13413801789283752 -0.1295676976442337
0.022899845615029335 -0.06665819138288498 -0.13174116611480713
-0.04220731928944588 -0.07207401096820831 0.17502470314502716
-0.060700658708810806 0.22069554030895233 0.01120084710419178
-0.1812441647052765 -0.39441463351249695 0.07437490671873093
-0.18211595714092255 -0.34597906470298767 0.07523956149816513
0.2981276214122772 -0.18283921480178833 0.02459484338760376
-0.05570606514811516 0.20265941321849823 0.1619177758693695
-0.17123070359230042 -0.3463830351829529 -0.03532739728689194
0.08898864686489105 -0.023880422115325928 -0.13473887741565704
-0.20183944702148438 0.22522640228271484 0.09559642523527145
-0.11370030045509338 0.0637717992067337 -0.13468405604362488
0.02576698362827301 0.17602811753749847 -0.22793465852737427
0.07263527065515518 -0.1565585732460022 0.17442947626113892
-0.27105802297592163 -0.07570649683475494 -0.09432961046695709
-0.2703745365142822 0.047304704785346985 0.1075294017791748
0.18867969512939453 -0.2260553538799286 -0.1321839541196823
-0.27272436022758484 -0.17839182913303375 -0.08547350764274597
-0.07958696782588959 0.21925005316734314 0.0030939243733882904
-0.2342749536037445 0.4272298812866211 0.09734314680099487
-0.08821810781955719 -0.25449979305267334 0.09005765616893768
0.1831790953874588 0.46759819984436035 0.05484833940863609
-0.24941666424274445 -0.06405197083950043 -0.1367700695991516
0.19606289267539978 -0.22352057695388794 0.16403423249721527
-0.270743727684021 -0.07377390563488007 0.007831528782844543
0.017422562465071678 -0.005303246434777975 -0.13451118767261505
-0.2156338393688202 -0.31440088152885437 0.09214158356189728
-0.08751391619443893 -0.22914479672908783 0.1615714728832245
0.2982065677642822 0.054536353796720505 -0.02358640544116497
-0.17890064418315887 0.2219877392053604 -0.08152841776609421
-0.09439218789339066 0.04566969349980354 -0.13024389743804932
-0.1765497624874115 0.17276433110237122 -0.13467107713222504
0.15019157528877258 -0.012334305793046951 -0.13219518959522247
-0.273607462644577 -0.05589083582162857 0.04163754731416702
0.18888378143310547 -0.309171199798584 -0.05469764396548271
0.20148606598377228 -0.448909729719162 0.14789074659347534
-0.11372256278991699 -0.0659182220697403 -0.1338358223438263
0.18653303384780884 0.11104816198348999 -0.13375873863697052
0.27422764897346497 -0.39666804671287537 -0.06454697996377945
-0.14175434410572052 0.1384088695049286 0.17164559662342072
-0.2697817385196686 -0.19027216732501984 0.10494197905063629
0.2910316288471222 -0.4106963574886322 0.1274014413356781
-0.13552254438400269 0.22161634266376495 0.12484994530677795
0.1996062844991684 -0.44903939962387085 0.011045387014746666
-0.09749780595302582 -0.03246203809976578 0.17128072679042816
-0.28371840715408325 -0.42241308093070984 0.09615138173103333
0.2992284893989563 -0.21287071704864502 0.04646684601902962
0.3009413182735443 0.07992241531610489 -0.03086472861468792
0.2400708645582199 0.4329855144023895 0.10055737942457199
0.27926671504974365 -0.348050981760025 0.09473847597837448
0.21996350586414337 0.50318843126297 0.022341502830386162
0.06799393892288208 -0.04818132519721985 -0.13506942987442017
0.057697560638189316 -0.2539221942424774 0.005054399371147156
-0.32131248712539673 -0.427844375371933 -0.03549255058169365
0.2903117537498474 -0.37687236070632935 0.06103428453207016
0.04555722698569298 0.21885739266872406 0.12047744542360306
0.2790136933326721 0.46889054775238037 -0.03717949986457825
-0.12490451335906982 0.22207677364349365 0.1099957525730133
0.29040220379829407 -0.38393375277519226 0.12165280431509018
-0.08230114728212357 0.07171259820461273 0.17240698635578156
-0.20938608050346375 -0.43027690052986145 -0.04962730035185814
0.2983016073703766 -0.06442572176456451 -0.001538189360871911
-0.03105609305202961 0.2204591929912567 0.06220807507634163
0.01347952801734209 -0.23236562311649323 0.1617472916841507
-0.26822635531425476 0.3499721884727478 0.031927961856126785
0.10797800868749619 -0.254557341337204 -0.01380164548754692
-0.2434362769126892 0.22140847146511078 0.08533315360546112
-0.25676023960113525 -0.47164028882980347 -0.00017647771164774895
0.09705420583486557 -0.25345465540885925 -0.07955329865217209
-0.2675263285636902 -0.41654977202415466 0.1503503918647766
-0.150721937417984 0.21874186396598816 -0.0775943472981453
0.2912152409553528 -0.3940470814704895 0.1196243166923523
-0.27241358160972595 0.1431470662355423 0.07118453830480576
0.29540058970451355 0.034842103719711304 -0.09437959641218185
-0.19573865830898285 0.06815000623464584 0.17830492556095123
0.3026956021785736 -0.12705697119235992 -0.03365899994969368
-0.27168387174606323 0.20091935992240906 -0.10136742144823074
-0.2674004137516022 -0.1780027151107788 -0.07917770743370056
0.27517494559288025 -0.4102763235569 -0.042070236057043076
-0.2063538134098053 -0.43772149085998535 0.13773861527442932
0.2781118154525757 -0.32758066058158875 -0.006316434592008591
-0.2732008695602417 0.09030921012163162 -0.05200629308819771
-0.013943257741630077 0.11122854799032211 -0.13259798288345337
-0.18033958971500397 -0.09462635219097137 0.1744844913482666
0.2958039343357086 -0.15673545002937317 -0.05562783032655716
0.2228250950574875 0.22169212996959686 0.141044482588768
-0.08470320701599121 -0.2555018961429596 0.06676532328128815
-0.06101611256599426 -0.2544589936733246 0.08527655899524689
