-0.06512231379747391 0.10605477541685104 0.17248989641666412
-0.21765545010566711 -0.10690926760435104 -0.1346077173948288
-0.10241715610027313 -0.2495092898607254 -0.0398806668817997
-0.1632421910762787 0.3583917021751404 -0.01976703479886055
0.01843772828578949 0.2163347601890564 -0.23971186578273773
0.2948743999004364 0.3644932806491852 0.05844660848379135
0.2985955774784088 -0.026297692209482193 0.03767641261219978
0.2858971655368805 0.3920174837112427 -0.06536323577165604
0.2474636286497116 -0.22620414197444916 0.15700779855251312
0.16014015674591064 -0.3672085404396057 -0.03782263398170471
-0.08960813283920288 -0.012721637263894081 -0.13735467195510864
-0.10437878221273422 0.05433856323361397 -0.13357502222061157
0.24079753458499908 -0.35242125391960144 0.14514286816120148
-0.13320493698120117 -0.2511468231678009 0.12904351949691772
-0.27315062284469604 0.16810248792171478 0.06202378496527672
-0.21222949028015137 -0.25069567561149597 -0.07330526411533356
0.2974553108215332 -0.17062775790691376 -0.004980854224413633
-0.3038622736930847 -0.3394419848918915 0.03958762809634209
-0.21636632084846497 -0.3631245791912079 -0.07742132246494293
-0.012429295107722282 0.051958419382572174 -0.13508567214012146
0.19353735446929932 -0.3937821090221405 -0.07759886980056763
-0.2352548986673355 -0.014345210045576096 -0.1350657343864441
0.15883095562458038 -0.33590617775917053 -0.02988234907388687
0.2972933351993561 0.13056562840938568 -0.09684988111257553
0.014044445008039474 -0.2526456415653229 0.005787774920463562
-0.22313851118087769 -0.3179996907711029 0.09161391854286194
-0.04644256457686424 0.22893176972866058 0.031444136053323746
0.016395090147852898 0.23432095348834991 -0.18702781200408936
0.22494888305664062 -0.4442843198776245 0.17387819290161133
0.1776544153690338 0.45766735076904297 0.01449388824403286
0.15309926867485046 0.22827811539173126 0.12208984047174454
-0.2916659414768219 -0.417740136384964 0.08196373283863068
0.29560863971710205 0.16246332228183746 -0.07183513045310974
-0.10457755625247955 0.06818731129169464 0.167680561542511
-0.22119536995887756 -0.3717683255672455 0.1516736000776291
0.10432876646518707 -0.2091045081615448 0.1586584895849228
0.29752153158187866 0.1761888861656189 -0.02457277476787567
0.16870872676372528 -0.07302848249673843 -0.13446840643882751
-0.1662740856409073 -0.2809479534626007 -0.023247456178069115
-0.12329132109880447 -0.18225224316120148 -0.13515736162662506
-0.20498397946357727 0.010486958548426628 -0.1332571655511856
-0.11143866181373596 -0.25028279423713684 0.07697586715221405
0.29710653424263 -0.10696012526750565 0.034374821931123734
-0.14398130774497986 0.22886794805526733 0.07250925898551941
0.03672259673476219 -0.11660057306289673 0.17163145542144775
-0.06211559846997261 0.06473980098962784 0.1687406301498413
0.20633088052272797 0.22984011471271515 -0.11688153445720673
-0.002799518406391144 0.22812983393669128 0.10551780462265015
0.1042323186993599 0.2306033819913864 0.039946798235177994
-0.2990475594997406 -0.32139790058135986 0.06558314710855484
-0.1579526662826538 -0.0888339951634407 0.17164887487888336
-0.005800352431833744 0.13072165846824646 -0.13781613111495972
-0.19288557767868042 -0.09648190438747406 -0.1350112110376358
-0.26808565855026245 0.4245997667312622 0.011700133793056011
0.24814331531524658 -0.37035709619522095 -0.08742228150367737
0.010408318601548672 0.23598191142082214 -0.18461792171001434
0.2381666600704193 0.022803081199526787 -0.13542158901691437
0.20723506808280945 -0.41840627789497375 -0.08361545950174332
-0.27777960896492004 -0.3442011773586273 -0.0770827904343605
-0.025482727214694023 0.08429111540317535 0.1693207174539566
-0.27274975180625916 0.11436022818088531 0.03762795403599739
-0.1750565618276596 0.33031851053237915 0.013964048586785793
-0.27226918935775757 -0.1466016173362732 -0.11323033273220062
0.14473368227481842 -0.35861045122146606 0.05617250129580498
-0.24333436787128448 0.3206126391887665 -0.0011902026599273086
0.10036589205265045 0.2248314917087555 0.11483632773160934
-0.15397195518016815 0.3955880403518677 0.013283456675708294
0.17452017962932587 0.3894159197807312 -0.006961784325540066
-0.02395966835319996 0.080914705991745 0.1693243831396103
-0.10237956047058105 -0.24929390847682953 0.05072566494345665
0.23742887377738953 -0.19002124667167664 -0.13522443175315857
0.12626120448112488 0.00897977501153946 0.1697036176919937
0.27206286787986755 -0.2938397228717804 0.004368940368294716
-0.15067371726036072 0.07535482197999954 -0.13198992609977722
-0.10731621086597443 0.22863899171352386 0.05652456730604172
0.06648837774991989 -0.09518557786941528 0.16955235600471497
-0.2351108342409134 -0.25101274251937866 0.10465534031391144
0.28569167852401733 -0.3650874197483063 0.06396850198507309
-0.2785879969596863 -0.30665677785873413 0.09593817591667175
0.17551417648792267 0.19343237578868866 0.15303774178028107
0.2944616377353668 -0.2086634337902069 0.08970033377408981
-0.20100027322769165 -0.24992477893829346 -0.1048416793346405
-0.19819316267967224 -0.25052759051322937 0.09080338478088379
-0.04768095538020134 -0.21990948915481567 -0.13480420410633087
-0.2713660001754761 -0.0624515600502491 0.027246542274951935
-0.27244484424591064 -0.22647090256214142 -0.11318320035934448
-0.18948903679847717 0.4856920838356018 -0.026509026065468788
-0.05913834646344185 -0.12408196181058884 0.1658957451581955
0.2961603105068207 0.04044617339968681 0.07728185504674911
0.17538805305957794 -0.09871441125869751 0.17048189043998718
-0.152724027633667 0.3821997046470642 0.03499496355652809
0.1351805031299591 0.13592758774757385 -0.13477416336536407
0.13120876252651215 0.22833073139190674 0.08431005477905273
-0.27129361033439636 0.10932033509016037 -0.07859674096107483
-0.07715845108032227 -0.24847765266895294 0.07488769292831421
-0.1621481329202652 0.4664979577064514 0.039768047630786896
0.007296452298760414 -0.24961738288402557 -0.05761684477329254
-0.1593165248632431 -0.0520906038582325 0.16736450791358948
0.2967624366283417 0.05885062739253044 0.08974449336528778
-0.20002813637256622 -0.4153912365436554 0.12528298795223236
-0.12377581000328064 -0.2526312470436096 -0.05297444760799408
-0.177042618393898 -0.37646374106407166 -0.020165685564279556
0.20714451372623444 -0.3274821639060974 0.11397735029459
-0.20687276124954224 0.11458498984575272 0.16974180936813354
-0.12478141486644745 -0.12524135410785675 0.1693284809589386
0.3011389970779419 0.4382912218570709 0.098553366959095
0.2913051247596741 0.3933413326740265 -0.06216956675052643
-0.024725567549467087 -0.2493353933095932 0.06794176250696182
-0.04913381487131119 -0.1152612492442131 0.1684436947107315
0.1994474083185196 -0.12312062084674835 -0.13257256150245667
0.18005526065826416 -0.3339337706565857 0.10017029196023941
0.2760896682739258 0.4280455708503723 0.11900380998849869
-0.26515480875968933 -0.2953685522079468 0.041978370398283005
-0.24735717475414276 -0.058849092572927475 -0.24015767872333527
0.29800158739089966 0.01495575811713934 0.015105009078979492
0.04461679235100746 -0.14979083836078644 -0.1343420445919037
0.0087516400963068 0.08641792088747025 0.16764451563358307
0.2973058223724365 0.08218234777450562 -0.00031903490889817476
-0.2742632329463959 -0.03986012563109398 0.02547512948513031
0.02978028543293476 0.22050747275352478 -0.1796274036169052
0.1999884396791458 0.22407598793506622 -0.05440777912735939
0.2963152229785919 -0.2232683300971985 -0.000298599450616166
0.1967855840921402 -0.09822682291269302 -0.13569308817386627
0.11004168540239334 -0.24914968013763428 -0.055497486144304276
-0.049760427325963974 -0.22281008958816528 0.15498431026935577
0.3002052307128906 -0.09683240950107574 0.010834411717951298
-0.1574808657169342 0.4455067217350006 0.0583425797522068
-0.08471605181694031 0.0980534553527832 0.1691511571407318
-0.07069085538387299 -0.07455483078956604 0.1711178869009018
0.17562028765678406 0.22821679711341858 -0.015433183871209621
-0.1569867879152298 0.44119617342948914 0.019670898094773293
-0.2722034752368927 0.15853352844715118 -0.029535291716456413
0.29653143882751465 -0.042553145438432693 -0.022343790158629417
0.10489153116941452 -0.09894232451915741 0.16959457099437714
-0.27208322286605835 0.1312665343284607 -0.11542703211307526
-0.21585488319396973 0.038263529539108276 -0.13421127200126648
-0.24676969647407532 0.08247540891170502 0.15560971200466156
-0.27205947041511536 0.15230321884155273 -0.04016972705721855
-0.1543487310409546 0.04315337538719177 -0.13326279819011688
-0.1560661792755127 0.4110097587108612 0.005977435503154993
0.17842967808246613 0.4338875412940979 -0.028260985389351845
-0.052081719040870667 0.17379222810268402 -0.13545632362365723
-0.2597215175628662 0.4530086815357208 -0.016859836876392365
-0.2422780990600586 -0.06139902397990227 -0.13608767092227936
0.027114104479551315 0.018465738743543625 -0.13540276885032654
0.04195672646164894 -0.08796770870685577 -0.13489565253257751
0.03589567169547081 0.1205470860004425 0.16801980137825012
0.1778615266084671 -0.2496344894170761 0.13715502619743347
-0.27224692702293396 0.009489443153142929 0.10824631154537201
-0.25903788208961487 0.42570701241493225 -0.04088737070560455
-0.0922229140996933 -0.039205849170684814 -0.13714946806430817
0.16047732532024384 -0.44632744789123535 0.05853768810629845
-0.11719611287117004 0.012214365415275097 0.17134889960289001
0.1752610057592392 0.40378788113594055 0.04213600605726242
-0.19064371287822723 -0.37162068486213684 -0.04899769276380539
-0.27042916417121887 -0.05669922009110451 -0.09699533879756927
-0.27218011021614075 -0.2273542732000351 -0.06705867499113083
-0.2931778132915497 -0.41676244139671326 0.0808355063199997
-0.2917878329753876 -0.020682256668806076 -0.282700777053833
-0.26818084716796875 -0.16260968148708344 -0.015691794455051422
-0.23963166773319244 -0.25301504135131836 -0.08292414247989655
-0.22766688466072083 -0.09236990660429001 -0.1353890299797058
0.10716341435909271 -0.13323630392551422 0.16974472999572754
0.15017278492450714 0.08144889771938324 0.16970966756343842
0.24706119298934937 0.3322249948978424 0.08455238491296768
0.18972207605838776 0.22898177802562714 0.014198828488588333
-0.02684124745428562 0.019396992400288582 0.16829892992973328
-0.2712076008319855 -0.0336797721683979 -0.020911967381834984
-0.1588945835828781 -0.2984992265701294 -0.006232811603695154
-0.029437966644763947 0.06575295329093933 -0.13171176612377167
-0.15443094074726105 0.3986576199531555 0.060207247734069824
-0.26925092935562134 0.10557515919208527 0.010335908271372318
-0.18810270726680756 -0.25010553002357483 -0.08338109403848648
0.29054006934165955 -0.3973861038684845 0.07078822702169418
0.2435482293367386 -0.44709259271621704 0.029557254165410995
0.164188951253891 -0.23309896886348724 -0.135502427816391
-0.27266326546669006 -0.04276594519615173 0.13124118745326996
0.2190449982881546 -0.3445533812046051 0.1368585228919983
-0.05955495685338974 0.22870618104934692 -0.07818592339754105
0.13633567094802856 -0.41303586959838867 0.07285361737012863
0.16899384558200836 -0.30257636308670044 0.06049945950508118
-0.19056275486946106 -0.23159052431583405 0.1571400761604309
-0.11461304128170013 -0.10271763801574707 -0.13390852510929108
-0.27141278982162476 -0.14982375502586365 -0.042509421706199646
-0.27166563272476196 0.20796333253383636 -0.03554695099592209
-0.04648786410689354 -0.22707687318325043 0.15819202363491058
-0.27118584513664246 -0.06114053353667259 -0.008551978506147861
0.2951146960258484 0.022689219564199448 -0.10089199990034103
-0.04587116837501526 -0.06393510103225708 -0.13481105864048004
-0.09097135812044144 -0.25106874108314514 0.10545668005943298
-0.27710944414138794 -0.4259706735610962 0.10825114697217941
-0.24723772704601288 -0.030035335570573807 -0.13396470248699188
-0.2743792235851288 0.004427372477948666 -0.02919583022594452
-0.2558884620666504 0.39872512221336365 -0.05429568886756897
0.1960444450378418 0.5068253874778748 0.054314468055963516
0.006151624955236912 0.04188823327422142 -0.13505208492279053
-0.26141780614852905 -0.3304460942745209 0.13943444192409515
0.08223164826631546 0.11278481036424637 -0.1343727558851242
-0.15191929042339325 0.08728798478841782 -0.13318054378032684
0.2092699557542801 -0.115874744951725 0.16896884143352509
-0.11736998707056046 -0.03430352360010147 -0.13719405233860016
-0.050344571471214294 0.2074204534292221 -0.13478301465511322
0.11890920996665955 0.18909691274166107 0.15566033124923706
-0.23680223524570465 -0.11887656152248383 -0.13669928908348083
0.2972078323364258 -0.007878130301833153 -0.0373963825404644
-0.27040889859199524 0.054502129554748535 -0.02330106683075428
0.17344880104064941 -0.3678032457828522 -0.05664133280515671
0.29732170701026917 -0.13538680970668793 -0.022411806508898735
0.22151459753513336 -0.3439446985721588 -0.08473701775074005
0.2716585695743561 0.205369770526886 -0.1366616189479828
0.2956089377403259 -0.11025232821702957 0.11623189598321915
0.2960328757762909 -0.12947335839271545 0.08796191960573196
-0.18912234902381897 -0.28339964151382446 -0.05208408460021019
0.17649394273757935 0.453679621219635 0.04881766065955162
-0.2723754346370697 0.06707220524549484 -0.05297139286994934
-0.10266460478305817 -0.08033186942338943 -0.1357419341802597
0.2983783781528473 -0.10365288704633713 0.10742868483066559
0.1638048142194748 -0.4457414150238037 0.055754613131284714
0.29884761571884155 -0.10723178088665009 0.09251071512699127
0.1626962125301361 0.13982316851615906 0.16981613636016846
-0.09677513688802719 0.05270826071500778 -0.13454440236091614
0.06889250874519348 0.09638950228691101 -0.1359255015850067
-0.16456538438796997 0.35768043994903564 -0.030110644176602364
0.2972906529903412 0.026906214654445648 0.015589230693876743
-0.014191070571541786 -0.17047527432441711 0.1695263683795929
-0.2688593566417694 -0.056315403431653976 -0.06856665015220642
0.29801198840141296 0.026155870407819748 -0.047394800931215286
0.2038552463054657 -0.05940281227231026 -0.13499315083026886
0.29606083035469055 -0.07616695016622543 -0.08744432032108307
0.1535140722990036 -0.2507808804512024 0.012503892183303833
-0.27274036407470703 0.17908920347690582 -0.017256461083889008
-0.22901293635368347 -0.36366987228393555 -0.08690699934959412
-0.13591940701007843 0.22949305176734924 -0.06689562648534775
-0.2047824263572693 0.20819884538650513 -0.13721780478954315
0.1903126984834671 -0.44510895013809204 -0.04728449508547783
-0.1614966243505478 -0.31509169936180115 -0.004180891904979944
0.2936559319496155 0.4619405269622803 -0.003928316757082939
-0.2818593978881836 -0.3338809311389923 0.17814421653747559
-0.26089686155319214 -0.43457478284835815 0.11239856481552124
0.10952378809452057 -0.0874667838215828 -0.13509836792945862
0.03979957848787308 0.2281639277935028 0.019466884434223175
0.2988978922367096 0.38961076736450195 -0.02961629629135132
0.24949480593204498 0.3402827978134155 0.1046595349907875
-0.030922584235668182 -0.019813405349850655 -0.13279752433300018
0.24800536036491394 -0.1757766753435135 -0.13282477855682373
-0.12753590941429138 -0.09978921711444855 -0.13453783094882965
-0.26030218601226807 -0.47416868805885315 -0.011306481435894966
0.29771414399147034 -0.007674078457057476 -0.12120022624731064
-0.24391190707683563 0.2709452211856842 0.015175395645201206
0.21405087411403656 -0.3948313295841217 0.1943129003047943
-0.1942024677991867 -0.027138590812683105 0.1700276881456375
-0.27444133162498474 -0.18341541290283203 0.06003918871283531
0.2951488494873047 -0.06895209103822708 0.01710636168718338
-0.10821835696697235 0.23097281157970428 -0.09765072911977768
0.2112407088279724 -0.12590309977531433 -0.13500967621803284
-0.17356370389461517 0.4733642339706421 -0.02599055878818035
-0.17606009542942047 0.432382196187973 -0.05700521171092987
0.11519650369882584 -0.2520820200443268 0.14026007056236267
0.08953588455915451 -0.15706951916217804 -0.13421842455863953
-0.2746947109699249 0.18565408885478973 0.043289732187986374
0.29753026366233826 -0.030153073370456696 -0.08602527529001236
-0.16165490448474884 -0.021322667598724365 0.1706010401248932
-0.04982375353574753 0.23608334362506866 -0.023263810202479362
0.250530868768692 -0.2501344084739685 -0.11198776215314865
-0.187142014503479 -0.2521609663963318 0.08637939393520355
-0.2711974084377289 -0.06914825737476349 -0.0035593430511653423
-0.26497548818588257 -0.39101099967956543 -0.09701400250196457
0.24173107743263245 -0.174198716878891 -0.1358352154493332
-0.2731652855873108 -0.08473247289657593 0.06255903095006943
-0.005739450454711914 0.13947510719299316 -0.2137807458639145
-0.27479666471481323 0.19296863675117493 -0.06734996289014816
0.2690013349056244 -0.2135109007358551 -0.13563770055770874
0.1818998157978058 -0.05601612478494644 0.17079083621501923
-0.07501313835382462 0.11431816965341568 0.17181284725666046
-0.17315998673439026 -0.33667823672294617 0.054983239620923996
0.1745627522468567 -0.010585437528789043 0.17142648994922638
-0.043762173503637314 -0.14692559838294983 0.17139433324337006
-0.23915982246398926 0.1628141701221466 -0.13683347404003143
-0.1564536839723587 0.4091311991214752 0.0030504323076456785
0.2902839779853821 -0.3931051790714264 0.10310328006744385
-0.1275419443845749 0.1618366241455078 -0.13596631586551666
0.2967773377895355 0.3982991874217987 -0.032217755913734436
-0.30103570222854614 -0.34845858812332153 -0.024542186409235
-0.27522146701812744 -0.10156337916851044 0.06960305571556091
0.06894826143980026 -0.1535799205303192 0.16969247162342072
0.2143712192773819 -0.08421841263771057 -0.13498717546463013
-0.15868762135505676 0.40333011746406555 0.08021800220012665
0.12954486906528473 -0.170304536819458 -0.13245953619480133
-0.005384800489991903 0.05072414502501488 0.16852180659770966
0.2972766160964966 -0.1575310081243515 -0.005755451507866383
0.2980119585990906 0.047391004860401154 -0.09467782825231552
-0.1673300415277481 0.22736816108226776 -0.07722967863082886
0.2826652526855469 -0.33275893330574036 0.05232829228043556
-0.2491164356470108 0.0930124893784523 0.15684130787849426
0.1926414519548416 0.22881165146827698 -0.007176454644650221
0.2960342764854431 0.13086864352226257 0.013535440899431705
0.29934900999069214 -0.1442222148180008 0.0708945095539093
-0.05081553012132645 -0.25459161400794983 -0.11197516322135925
-0.2745625972747803 0.11979931592941284 0.0884314477443695
-0.014447842724621296 0.11824538558721542 0.17061981558799744
-0.023171287029981613 -0.14458853006362915 0.16408692300319672
-0.2715682089328766 -0.15072770416736603 -0.0710725411772728
0.1680590659379959 0.06779531389474869 0.16979768872261047
-0.19280485808849335 -0.2710668742656708 -0.05492783337831497
-0.09107612818479538 0.19572174549102783 -0.13770656287670135
0.022377200424671173 0.19108079373836517 -0.22605149447917938
0.20762322843074799 0.33031076192855835 -0.04053916782140732
-0.14732804894447327 -0.1546851247549057 -0.13432200253009796
-0.2921602427959442 -0.4318847358226776 0.04673923924565315
-0.19313949346542358 0.016283681616187096 0.16867536306381226
-0.2744276821613312 -0.16755905747413635 0.1018696129322052
-0.18992164731025696 -0.24909047782421112 0.13809634745121002
-0.24229633808135986 -0.009153428487479687 -0.13589313626289368
0.3004446029663086 -0.2296743094921112 -0.07899057865142822
-0.3136475384235382 -0.3548789918422699 -0.007876272313296795
0.022839849814772606 0.22812825441360474 0.007078939583152533
0.13587598502635956 -0.39473462104797363 0.10152368992567062
-0.10309118032455444 -0.254830539226532 0.05254388600587845
0.05058756098151207 -0.15314559638500214 0.16710713505744934
-0.10398709774017334 0.22862190008163452 0.06003239378333092
-0.20806436240673065 0.21247810125350952 -0.13754259049892426
-0.2723007798194885 -0.18364010751247406 -0.02932170033454895
-0.16193735599517822 0.3732697665691376 0.07135673612356186
0.25375181436538696 -0.44678795337677 -0.05109335109591484
0.29959604144096375 -0.1912102848291397 -0.08591485768556595
0.29395177960395813 -0.03800386190414429 -0.03973893076181412
-0.2687990963459015 -0.02233978733420372 -0.0711708664894104
-0.2935744822025299 -0.40037763118743896 0.13745884597301483
-0.2091306447982788 0.059438228607177734 0.16946633160114288
0.265735924243927 0.4064148962497711 -0.08796729892492294
0.29780781269073486 -0.051173992455005646 0.14115186035633087
-0.28974035382270813 -0.03485029935836792 -0.26045751571655273
-0.18550632894039154 0.22934401035308838 -0.0625506117939949
0.10472909361124039 0.22679060697555542 0.057082872837781906
0.23212146759033203 0.37537112832069397 -0.08904121816158295
0.13594013452529907 -0.08010010421276093 0.16524572670459747
-0.11104791611433029 -0.2475663274526596 -0.07081594318151474
0.299068421125412 0.39916980266571045 -0.015541433356702328
0.22701573371887207 -0.03144057095050812 0.16932472586631775
0.10919979214668274 -0.24957698583602905 0.0018481130246073008
-0.2728249728679657 -0.08176877349615097 0.1086907610297203
0.2731405198574066 0.5041400194168091 0.04315720498561859
0.29706907272338867 0.12038666754961014 -0.019940797239542007
-0.15506914258003235 0.22792023420333862 0.027456702664494514
-0.007466450799256563 -0.02964124083518982 -0.13503754138946533
-0.2551468312740326 -0.11620242148637772 -0.13844844698905945
0.30038514733314514 0.41522684693336487 0.07045943289995193
-0.10642793029546738 -0.2500298023223877 0.06275700777769089
0.1366049200296402 -0.40554529428482056 0.05553319677710533
0.14693398773670197 -0.3283105194568634 0.03669814392924309
0.1774074137210846 -0.0844537541270256 -0.13689345121383667
-0.2638130187988281 0.4509277641773224 0.027307715266942978
-0.06445038318634033 -0.21817241609096527 -0.13502302765846252
-0.09023459255695343 0.03788880631327629 -0.1349833756685257
-0.14350832998752594 -0.25036317110061646 0.13956555724143982
0.20996424555778503 -0.4464733600616455 0.0783366933465004
0.1403241604566574 0.22578302025794983 -0.05877530574798584
-0.15623226761817932 0.1939917504787445 0.15656156837940216
0.29654842615127563 -0.022217553108930588 0.09340057522058487
0.17696478962898254 0.13873454928398132 -0.13724859058856964
-0.272164523601532 0.1960054486989975 -0.0974426418542862
-0.27266696095466614 0.18776056170463562 0.13385501503944397
-0.19658339023590088 0.22908741235733032 0.087481789290905
0.030879199504852295 0.06738987565040588 0.17016734182834625
-0.2962190806865692 0.025924241170287132 -0.2824496626853943
0.1103660836815834 0.11483869701623917 0.1681346744298935
-0.2729654014110565 -0.1397726684808731 0.041064292192459106
0.2975280284881592 -0.006956585682928562 0.12438896298408508
-0.2733473777770996 -0.0171581469476223 -0.09108724445104599
0.1750500649213791 -0.024171119555830956 0.16989006102085114
-0.17892001569271088 -0.3731553256511688 0.05781994387507439
0.17235074937343597 0.42355626821517944 0.02558617666363716
0.17176848649978638 -0.2894047200679779 0.05238842964172363
-0.22917583584785461 -0.3750394582748413 0.17422673106193542
0.17541837692260742 -0.2485736608505249 0.07238601893186569
-0.13192051649093628 -0.05199691280722618 -0.1309342384338379
0.10151974111795425 -0.08834298700094223 -0.13659438490867615
-0.27180904150009155 0.21118086576461792 0.016853047534823418
0.2277572751045227 -0.036036744713783264 0.17012225091457367
0.23976188898086548 -0.4461551606655121 -0.030423741787672043
0.30143800377845764 0.4289169907569885 0.01931338757276535
-0.2725854218006134 -0.013952557928860188 0.09565111249685287
-0.12971478700637817 0.19416369497776031 0.1588854342699051
0.15238311886787415 -0.381332665681839 -0.024833882227540016
0.23011514544487 -0.2496575564146042 0.11714987456798553
0.1769409328699112 0.4520857334136963 0.04974411055445671
-0.22496934235095978 -0.3610346019268036 -0.08052052557468414
0.2773776054382324 0.31299644708633423 0.010678065940737724
-0.16741454601287842 -0.35842785239219666 0.0012734553311020136
0.09826263785362244 0.1607125699520111 -0.1355578452348709
0.29666125774383545 0.08617663383483887 0.06904557347297668
-0.18691705167293549 -0.39576855301856995 0.07604551315307617
-0.09600049257278442 0.23242078721523285 0.12185192108154297
-0.3031384348869324 -0.3413683772087097 -0.007997540757060051
-0.24476854503154755 0.1883154809474945 0.15716961026191711
-0.29433032870292664 -0.40179750323295593 0.130250483751297
-0.15169762074947357 0.04891880229115486 -0.13422542810440063
0.15520446002483368 -0.31115493178367615 0.02377144806087017
0.2891203463077545 0.3901408612728119 -0.05556432902812958
-0.2716841697692871 0.1919749230146408 -0.07966724038124084
-0.08097344636917114 -0.21109305322170258 -0.13500098884105682
-0.3282625079154968 -0.3769436478614807 0.09702441841363907
0.10330148786306381 -0.04731019213795662 0.16961824893951416
0.07640116661787033 0.14598403871059418 0.16943830251693726
0.29655516147613525 -0.14476613700389862 0.06476615369319916
0.1855914145708084 -0.30004414916038513 0.0810309648513794
-0.15815316140651703 -0.28770360350608826 0.016448616981506348
0.09175651520490646 -0.03759417310357094 -0.13169802725315094
-0.2870817184448242 -0.05963965132832527 -0.2513393759727478
-0.07038816809654236 -0.2148728370666504 0.15746642649173737
0.07220105826854706 -0.24925817549228668 0.07757503539323807
0.2054227739572525 0.4613003432750702 -0.06254628300666809
-0.24636708199977875 0.015154417604207993 -0.2624025046825409
0.14199748635292053 -0.24948593974113464 0.05537663400173187
0.24108730256557465 0.4053378999233246 0.10424927622079849
0.26819369196891785 -0.20918680727481842 -0.1356072872877121
0.18096546828746796 0.44151657819747925 -0.0206705741584301
0.05289836600422859 0.02676735445857048 -0.13495899736881256
-0.29426565766334534 0.06474941223859787 -0.27539435029029846
-0.32094159722328186 -0.3289315402507782 0.13733693957328796
-0.2458163946866989 -0.4601653218269348 0.06831128895282745
-0.2710111439228058 -0.10383303463459015 -0.04929551109671593
0.2939106523990631 0.08040711283683777 -0.032698750495910645
0.26198098063468933 -0.27115756273269653 0.03504028916358948
-0.05961174517869949 -0.17118825018405914 -0.13548387587070465
-0.27367374300956726 0.03400266170501709 0.029779188334941864
-0.26812469959259033 -0.15206687152385712 -0.03880917280912399
0.10209323465824127 -0.24962830543518066 -0.00996240321546793
-0.1007888913154602 0.006529966369271278 0.1725277155637741
0.05287351459264755 0.04706880450248718 -0.13422586023807526
0.2463120073080063 -0.44601714611053467 0.057827211916446686
0.04533279687166214 -0.0348319448530674 -0.1349654346704483
0.252414733171463 -0.38390713930130005 0.18620163202285767
0.19031934440135956 0.23088878393173218 0.030810818076133728
-0.3273334503173828 -0.3620995879173279 0.1663915067911148
-0.27249106764793396 -0.025990495458245277 0.12365828454494476
0.2972613275051117 -0.07020774483680725 0.058223217725753784
0.27682438492774963 -0.3307104706764221 0.005832599010318518
-0.27323052287101746 -0.23388993740081787 -0.06739070266485214
0.2742368280887604 0.2293413281440735 0.07307220995426178
-0.27205607295036316 0.016977425664663315 0.09362848848104477
0.2475384622812271 -0.12751001119613647 -0.13546708226203918
-0.06592749059200287 -0.004359778482466936 -0.13492463529109955
0.19873063266277313 0.11437756568193436 -0.13323697447776794
0.2702067196369171 0.22973915934562683 0.06708469986915588
0.21840545535087585 0.11652448028326035 0.16970743238925934
0.06093287840485573 -0.25149640440940857 0.05227675661444664
0.22240996360778809 0.22929687798023224 0.12893234193325043
-0.01955246552824974 0.1329658031463623 0.17058835923671722
-0.17079082131385803 -0.2856137156486511 -0.033013876527547836
-0.27506813406944275 -0.32183024287223816 -0.045711178332567215
0.24371716380119324 0.22937117516994476 -0.1246003806591034
0.1129908487200737 -0.24976252019405365 -0.019328543916344643
0.09828060865402222 -0.08940553665161133 -0.13516689836978912
0.08481044322252274 0.18800625205039978 0.15652808547019958
0.29293686151504517 0.08120004832744598 0.016138726845383644
0.29740622639656067 -0.05426865443587303 0.08786444365978241
0.14743247628211975 -0.22095753252506256 0.1584486961364746
-0.0443146787583828 0.22597049176692963 -0.04255214333534241
0.2202242612838745 -0.05987931415438652 0.17222633957862854
-0.10937950015068054 0.22924664616584778 -0.10280413925647736
-0.27015483379364014 -0.07860847562551498 0.0036650407128036022
0.2754744291305542 -0.440854012966156 0.06597632169723511
0.20422223210334778 -0.44648277759552 0.03778253123164177
0.18258456885814667 -0.10155115276575089 -0.13355857133865356
0.11939208209514618 -0.25220710039138794 -0.0779212936758995
-0.12792471051216125 -0.13551105558872223 0.1697915941476822
0.29758816957473755 0.008780212141573429 -0.061391331255435944
0.18020913004875183 0.39355209469795227 -0.019122496247291565
0.2114914357662201 0.06265906244516373 -0.13569147884845734
-0.24763134121894836 -0.005480451043695211 -0.2591215670108795
0.01587373949587345 0.22644853591918945 -0.01697102189064026
-0.14428621530532837 -0.03373108431696892 -0.13411611318588257
0.1864888072013855 -0.3679600954055786 0.1540881097316742
0.3000997006893158 -0.15379215776920319 -0.03930103778839111
-0.2719994783401489 -0.22916294634342194 -0.0075141917914152145
-0.13101118803024292 0.06541792303323746 0.16968664526939392
0.05601544305682182 -0.2490023672580719 0.09532394260168076
0.29539358615875244 -0.06548992544412613 -0.0666600912809372
0.2635897696018219 -0.2816852331161499 -0.025583868846297264
0.1200367659330368 0.08586952090263367 -0.1357928365468979
0.1912403255701065 0.22832952439785004 -0.006628492381423712
0.16951513290405273 0.1890653371810913 0.15520580112934113
-0.09587656706571579 0.04584675654768944 0.17147192358970642
0.28086262941360474 -0.058096643537282944 -0.13571405410766602
0.22560587525367737 0.048126108944416046 0.17010624706745148
0.17928212881088257 0.4458937346935272 0.03479785472154617
0.15873244404792786 0.1499953269958496 -0.13717393577098846
-0.16500906646251678 0.039409395307302475 -0.13492095470428467
0.2761891186237335 0.1237400472164154 0.1535591334104538
0.1887967586517334 -0.44272226095199585 0.0845392569899559
-0.27342426776885986 -0.1783384382724762 -0.0029510208405554295
-0.27145928144454956 0.1863262951374054 0.02558319643139839
-0.21997593343257904 -0.3374544084072113 0.11127068847417831
-0.00396891962736845 -0.2506597936153412 0.06501268595457077
-0.18450775742530823 0.04459090903401375 -0.13552024960517883
-0.17357929050922394 -0.2523392140865326 0.13116227090358734
0.29789942502975464 -0.09671089798212051 -0.0927341878414154
-0.26111409068107605 0.47139155864715576 0.06776615977287292
-0.26885220408439636 -0.31923413276672363 -0.05437760427594185
0.13884195685386658 0.12701620161533356 -0.13866941630840302
-0.21017660200595856 0.19654586911201477 0.1579260379076004
0.2941707670688629 -0.12159940600395203 -0.0006047197384759784
0.22711041569709778 -0.30799922347068787 0.10086303949356079
-0.15813377499580383 0.4023931324481964 0.006250444799661636
0.2975102365016937 -0.17314182221889496 -0.04196038469672203
-0.1725168079137802 0.22906553745269775 -0.019991664215922356
0.13128994405269623 -0.25021952390670776 -0.07062281668186188
0.29628458619117737 -0.04321807622909546 0.1018000990152359
0.1766962707042694 0.4193921387195587 0.04083437845110893
0.08110257238149643 -0.1368202120065689 -0.13477545976638794
-0.15593868494033813 0.41131314635276794 0.063494473695755
0.17487089335918427 0.4084995985031128 0.03096737526357174
0.1433238387107849 -0.3540206253528595 0.017112135887145996
-0.2655882239341736 0.4159999191761017 -0.014341343194246292
0.2845975160598755 -0.38053008913993835 -0.009332654997706413
-0.27072873711586 -0.2304384559392929 -0.019933464005589485
0.298164963722229 0.07226252555847168 -0.057485852390527725
0.18178889155387878 -0.4459322988986969 -0.02662642113864422
0.07124699652194977 -0.07128994166851044 -0.13784241676330566
0.3018532991409302 0.4179844260215759 0.041042130440473557
-0.025724750012159348 0.08249043673276901 0.1693221777677536
-0.24823099374771118 -0.2768048048019409 -0.02158273383975029
-0.1799669861793518 0.4779430627822876 -0.03133346885442734
-0.3210966885089874 -0.4007669985294342 0.04625073820352554
-0.013310672715306282 -0.24900619685649872 0.08151290565729141
0.20890742540359497 -0.24983873963356018 0.09124781936407089
-0.0024294608738273382 0.23055203258991241 -0.24837066233158112
-0.02303505688905716 0.04076020047068596 -0.13485078513622284
0.09320609271526337 -0.2216998040676117 -0.1365986317396164
-0.2716149389743805 -0.14947675168514252 0.025030529126524925
-0.2170475721359253 -0.4666578769683838 0.032560769468545914
-0.3241773247718811 -0.37560638785362244 0.12942762672901154
0.2975512444972992 0.4355558454990387 0.09799171984195709
0.2809491753578186 0.497357577085495 0.04208654165267944
-0.16984280943870544 -0.05823284760117531 -0.13480593264102936
-0.21581362187862396 -0.17518217861652374 -0.13638609647750854
-0.30571600794792175 -0.37424376606941223 0.19116272032260895
0.054990075528621674 0.08762126415967941 0.1699879765510559
-0.10818859189748764 -0.25076067447662354 0.04011346399784088
-0.20003148913383484 0.100441113114357 0.16885481774806976
0.1076781153678894 -0.2505406141281128 -0.017841292545199394
0.0331743098795414 -0.25031182169914246 -0.0876830592751503
0.011977843940258026 -0.06085869297385216 0.17083880305290222
0.20109987258911133 0.1220557913184166 -0.13559651374816895
0.18521390855312347 0.22905439138412476 0.10023800283670425
-0.16992485523223877 0.2275233119726181 -0.08679795265197754
-0.17076465487480164 -0.012710902839899063 0.16999730467796326
0.039456725120544434 -0.012051531113684177 0.17097051441669464
-0.020895877853035927 -0.24996541440486908 0.11016479134559631
-0.29435423016548157 -0.44609537720680237 -0.02093532308936119
0.14000128209590912 -0.4125092923641205 0.07889647781848907
-0.09902341663837433 -0.1616171896457672 0.16936717927455902
0.1992897093296051 0.22742903232574463 0.033210113644599915
0.1959175020456314 0.3212759792804718 0.011426419951021671
-0.13678514957427979 0.22915314137935638 -0.1098867654800415
0.049934640526771545 -0.14504553377628326 -0.13506655395030975
0.16311100125312805 0.028574250638484955 0.17003388702869415
0.003960396163165569 0.19256968796253204 0.15865805745124817
-0.3156890273094177 -0.4251319468021393 -0.01381907518953085
-0.3101305067539215 -0.3474370539188385 -0.0031576252076774836
0.23029133677482605 0.12081388384103775 -0.13799604773521423
-0.026916250586509705 -0.02349710464477539 0.17041566967964172
-0.014518105424940586 -0.1032579317688942 -0.13480953872203827
-0.08872534334659576 0.22921660542488098 -0.1128707006573677
-0.2711361050605774 0.17074279487133026 0.06328220665454865
-0.05576436594128609 -0.07485432922840118 -0.13479971885681152
-0.1869245022535324 0.49340176582336426 -0.003702343674376607
-0.2724262475967407 -0.14476345479488373 0.12857896089553833
-0.22878879308700562 -0.4421353340148926 -0.051198557019233704
-0.015697838738560677 0.1868901401758194 0.1552780419588089
-0.2720695734024048 0.20891156792640686 0.05820520594716072
-0.29430049657821655 0.027598030865192413 -0.261457234621048
-0.07145599275827408 -0.2119966298341751 -0.1350092738866806
0.2073495239019394 0.2265680581331253 -0.0623193122446537
-0.27131354808807373 0.08974048495292664 -0.05877630040049553
-0.2603493928909302 0.45876771211624146 -0.0025316530372947454
0.1967080533504486 0.23229636251926422 0.11538765579462051
0.2978944778442383 0.45261719822883606 0.033078063279390335
-0.023151427507400513 0.1698828637599945 -0.1346416026353836
-0.06501308083534241 0.09629391878843307 -0.13217692077159882
-0.27273231744766235 -0.16122712194919586 -0.016433095559477806
-0.018278364092111588 -0.2302590012550354 0.1558576077222824
0.29720935225486755 -0.14989031851291656 0.0010237253736704588
0.18537110090255737 0.1320618838071823 -0.13600945472717285
-0.25372394919395447 -0.020739972591400146 -0.13665200769901276
-0.18046730756759644 -0.3847912847995758 -0.02461949549615383
0.1960376799106598 0.2266906350851059 -0.08205609023571014
0.14595219492912292 -0.3579270839691162 0.08936770260334015
0.18689250946044922 0.35830479860305786 -0.04603378474712372
-0.2543375492095947 -0.16706666350364685 -0.13656888902187347
0.2950212359428406 -0.1216035708785057 0.08702486008405685
0.19266027212142944 0.4891594350337982 0.09633895754814148
0.1764613538980484 -0.18413926661014557 -0.13519351184368134
0.039859987795352936 -0.17035381495952606 0.1716005951166153
-0.2711561918258667 -0.09135237336158752 -0.041647691279649734
-0.28043240308761597 -0.3105465769767761 -0.01294233463704586
0.26631736755371094 -0.24863825738430023 0.08194708824157715
0.10155840218067169 0.2285902053117752 0.08649157732725143
0.29808709025382996 0.1173020601272583 -0.09501176327466965
-0.1669749766588211 0.22663366794586182 -0.11251754313707352
-0.2315010130405426 -0.0994015783071518 -0.1353699266910553
0.29745903611183167 -0.0693187415599823 0.09432186931371689
-0.2866176962852478 -0.4469640851020813 -0.007479425519704819
0.2864438593387604 0.44985514879226685 -0.04455921798944473
0.22967299818992615 -0.12895677983760834 -0.13500840961933136
0.29488494992256165 0.0967949777841568 0.07792095094919205
-0.25393930077552795 0.03800022229552269 0.15699434280395508
0.29764193296432495 0.21143832802772522 -0.10913801193237305
0.1855420172214508 -0.4464085102081299 0.026367494836449623
0.21384437382221222 -0.3067433536052704 0.10184346139431
-0.26545417308807373 0.36176276206970215 0.02247069589793682
-0.23106180131435394 -0.2514609396457672 -0.07646296173334122
0.015077571384608746 0.2616817057132721 -0.20989055931568146
-0.18956169486045837 -0.3391954004764557 0.07913067191839218
0.18109723925590515 -0.02006814442574978 -0.1395873725414276
-0.14936032891273499 0.20509661734104156 -0.1372528374195099
-0.27380359172821045 -0.04093151167035103 -0.02577299252152443
-0.09118358790874481 -0.035900477319955826 0.16734367609024048
0.12395288795232773 -0.1590815931558609 0.16957445442676544
-0.25871148705482483 -0.44876179099082947 0.061976123601198196
-0.10094984620809555 0.22860358655452728 0.08130208402872086
0.11705891042947769 -0.24994610249996185 -0.05035225674510002
-0.29806944727897644 -0.43053358793258667 0.018246548250317574
-0.1888580471277237 -0.024548755958676338 -0.13545741140842438
-0.08154308050870895 0.0024471590295434 -0.13296468555927277
-0.17900563776493073 -0.28706613183021545 0.06378524005413055
-0.26686999201774597 0.37635600566864014 0.027896789833903313
0.2974216043949127 -0.0845864862203598 -0.0720701739192009
0.17596514523029327 -0.1319722682237625 0.16845734417438507
-0.0664348304271698 0.2285357117652893 -0.08636932075023651
-0.02360016107559204 -0.09617944806814194 0.16942493617534637
0.29653400182724 -0.03778567537665367 -0.05588792264461517
-0.2091454267501831 -0.34057509899139404 0.098091721534729
-0.2751443088054657 0.15663443505764008 0.11959193646907806
0.09029339253902435 -0.24906782805919647 -0.03478412330150604
-0.2743191719055176 -0.40099820494651794 0.18043233454227448
0.21081078052520752 -0.05195329710841179 -0.13641943037509918
0.27890774607658386 -0.09178193658590317 -0.1356656700372696
0.2429807335138321 -0.44747650623321533 -0.05285154655575752
0.12824109196662903 -0.13887383043766022 0.16882914304733276
-0.0842415988445282 -0.24891039729118347 0.014106960035860538
-0.055564649403095245 0.12588824331760406 0.16823646426200867
0.01950209029018879 0.017801931127905846 -0.13365088403224945
-0.24537044763565063 -0.10912971943616867 0.15842071175575256
0.29377055168151855 -0.17570000886917114 0.06663085520267487
-0.02534673921763897 -0.2516765594482422 -0.004498910158872604
-0.1837381273508072 0.4910047948360443 0.07922682911157608
0.032716281712055206 -0.2513430714607239 0.12522046267986298
-0.12782570719718933 -0.24897828698158264 -0.03049452230334282
0.12168633937835693 0.2261359691619873 0.01360662654042244
0.13030770421028137 0.11993145942687988 -0.13518026471138
-0.024851014837622643 0.16740740835666656 -0.13696715235710144
-0.1445762664079666 -0.25160470604896545 0.11921535432338715
0.20731794834136963 0.20001283288002014 0.15544493496418
0.005067981779575348 -0.1229621097445488 0.17027148604393005
0.032183144241571426 0.2330358475446701 0.027437269687652588
-0.03458716347813606 0.12455949187278748 0.16730676591396332
0.1518097072839737 -0.34635505080223083 0.07332584261894226
-0.20222137868404388 -0.12694793939590454 -0.1352057158946991
-0.13472376763820648 -0.05015072226524353 0.17222358286380768
0.014479389414191246 0.2201938033103943 -0.17304860055446625
-0.27375495433807373 -0.044044483453035355 0.13446620106697083
-0.20107245445251465 -0.20849452912807465 -0.1353141814470291
0.00296504027210176 0.03451424837112427 -0.13713936507701874
-0.161329984664917 0.4455943703651428 -0.007076012436300516
0.010533768683671951 0.19049502909183502 -0.22967560589313507
-0.0196315199136734 0.15807436406612396 -0.13201887905597687
-0.19123698770999908 -0.31105729937553406 -0.053389549255371094
0.2280154526233673 -0.3367505669593811 0.12737023830413818
0.1192023977637291 0.10714305937290192 0.16954472661018372
0.20764011144638062 0.2284906804561615 -0.046653758734464645
0.22159020602703094 0.05103246867656708 -0.1352420598268509
-0.27011173963546753 -0.004766421392560005 0.004801915027201176
-0.29225367307662964 -0.4216099977493286 0.05809486284852028
0.09014669060707092 0.056038230657577515 0.16957919299602509
-0.13237127661705017 0.22886037826538086 0.10216367989778519
0.2959029972553253 -0.035652581602334976 0.09318727254867554
0.1737736165523529 -0.05165683478116989 0.16986888647079468
-0.010224697180092335 -0.25256800651550293 0.1249772235751152
0.30427083373069763 0.39534905552864075 0.016039246693253517
-0.27185964584350586 0.06617378443479538 0.0014714844292029738
0.18410760164260864 -0.051897384226322174 0.16820238530635834
0.23204320669174194 -0.2489296793937683 -0.09047187864780426
-0.15745210647583008 0.45502808690071106 0.03059312328696251
-0.08856336027383804 -0.04065420478582382 -0.1352950632572174
0.20709866285324097 0.23035508394241333 0.0804205909371376
0.27359849214553833 -0.30398625135421753 0.013701235875487328
-0.08400610089302063 0.2283467799425125 -0.027329135686159134
0.2633512318134308 -0.27378910779953003 0.024347873404622078
0.27256545424461365 0.23021531105041504 0.1012759581208229
0.29526713490486145 0.0017753664869815111 -0.005403973627835512
0.024786559864878654 0.2283068299293518 0.04931628331542015
0.207976832985878 -0.24976743757724762 0.11451168358325958
0.20472010970115662 -0.06991113722324371 0.1679910123348236
-0.06785380840301514 0.22895345091819763 0.06888540089130402
-0.2688990831375122 -0.0673743337392807 0.011045020073652267
0.2360164076089859 0.23110617697238922 -0.12194832414388657
-0.10956349968910217 0.10886366665363312 0.16869838535785675
-0.23425208032131195 0.19580568373203278 -0.13640691339969635
0.2978971004486084 -0.09434110671281815 -0.042398665100336075
0.1735588014125824 -0.4457167088985443 -0.01919771358370781
0.11877947300672531 0.22795787453651428 -0.022391393780708313
0.27646470069885254 -0.20002511143684387 -0.13805216550827026
-0.2732791602611542 0.019261512905359268 0.10999500006437302
-0.10897213965654373 0.1873839646577835 -0.13609297573566437
0.03172137588262558 -0.2519112527370453 0.0072485534474253654
-0.27505218982696533 -0.22129637002944946 0.1008770540356636
0.2823978066444397 -0.24919816851615906 -0.025633487850427628
0.29724231362342834 -0.03241626173257828 0.048286788165569305
0.027266807854175568 -0.14852316677570343 -0.1362886279821396
-0.26995471119880676 -0.1537710279226303 -0.010789847932755947
-0.2733701169490814 -0.17298531532287598 0.08948870003223419
-0.19868487119674683 -0.0896793007850647 -0.13505876064300537
-0.01605837605893612 -0.1399010568857193 0.17196230590343475
-0.18539315462112427 -0.09953859448432922 0.16896463930606842
0.23675866425037384 0.4192987084388733 0.10296259820461273
0.1649029552936554 0.01310880109667778 -0.1342957317829132
-0.11763275414705276 0.22899219393730164 0.05684465542435646
0.01363731361925602 0.22798970341682434 0.07791578769683838
0.29885023832321167 -0.0920998677611351 -0.04852156341075897
-0.16781210899353027 -0.05066629871726036 -0.13525018095970154
-0.22771123051643372 -0.17062750458717346 -0.13535763323307037
0.028059720993041992 -0.15350456535816193 -0.13630837202072144
0.2223328799009323 0.41368547081947327 -0.08968605101108551
-0.2725173234939575 0.011911887675523758 0.13248926401138306
0.20927873253822327 -0.4474475383758545 0.09891779720783234
0.11433543264865875 0.050630588084459305 0.1737295240163803
0.18601097166538239 -0.1453361213207245 -0.13398048281669617
-0.1742485612630844 -0.3138541579246521 -0.03824752941727638
-0.272429883480072 -0.14888304471969604 0.10333047807216644
0.2435547262430191 0.033614277839660645 -0.13556820154190063
0.057961203157901764 0.15061959624290466 -0.18738815188407898
-0.19823063910007477 -0.432723730802536 0.09375
-0.07396656274795532 -0.24936199188232422 0.028393318876624107
-0.2700774371623993 0.035346366465091705 0.02147781103849411
0.07999889552593231 0.22838887572288513 0.07458064705133438
0.12086588889360428 -0.22377368807792664 -0.1363259255886078
-0.26856184005737305 -0.20743156969547272 -0.09636133909225464
-0.04020034149289131 0.2262570708990097 -0.10574092715978622
0.1796559989452362 0.4217604994773865 -0.02414390631020069
0.18638910353183746 0.4520147144794464 -0.025786997750401497
0.024154193699359894 0.08074315637350082 -0.1351071447134018
0.29722023010253906 0.11490605026483536 -0.05319992080330849
0.06301531940698624 -0.2511897683143616 -0.07723474502563477
-0.2464575320482254 -0.1184518113732338 -0.13493607938289642
0.18888792395591736 0.42628803849220276 -0.049736034125089645
-0.25307679176330566 -0.25015878677368164 -0.10399768501520157
-0.16643016040325165 0.22884978353977203 0.06374500691890717
-0.05415525659918785 0.06664425134658813 0.16933104395866394
-0.2530477046966553 0.08117901533842087 0.15896254777908325
-0.27199530601501465 -0.17405110597610474 0.054140858352184296
-0.27290773391723633 0.13233274221420288 0.11462617665529251
0.28217172622680664 0.22945111989974976 -0.09475361555814743
0.004128675442188978 -0.251002699136734 0.12269283086061478
-0.32228875160217285 -0.34014829993247986 0.09005406498908997
0.2076539248228073 0.2308174967765808 0.13664132356643677
-0.15964427590370178 0.44143131375312805 0.003701144829392433
0.1600976437330246 -0.41353005170822144 -0.044418465346097946
-0.1397167593240738 -0.253150999546051 0.03248412534594536
-0.24583272635936737 -0.36955273151397705 0.18387898802757263
-0.17610512673854828 0.03655475378036499 0.16720445454120636
0.10289791226387024 -0.24920158088207245 0.07715387642383575
0.2975656986236572 -0.21412454545497894 0.1278141736984253
-0.21727007627487183 -0.05728909745812416 -0.13538214564323425
0.2989047169685364 -0.07126327604055405 -0.10916157066822052
-0.04825960472226143 -0.2519865036010742 -0.05426415801048279
-0.13471795618534088 -0.2507149279117584 0.06073059141635895
0.11900393664836884 0.22813619673252106 -0.0814116820693016
-0.2750226557254791 -0.05418674275279045 0.10018964111804962
-0.21651598811149597 -0.4206438362598419 -0.05723004788160324
-0.05036814138293266 0.08569193631410599 0.1707507222890854
-0.317282497882843 -0.34165751934051514 0.054312486201524734
-0.1387813687324524 0.06844477355480194 -0.1350301206111908
-0.27600327134132385 0.2097582221031189 0.025037098675966263
0.2110169231891632 -0.4103304147720337 -0.08601900190114975
0.19746656715869904 -0.27564695477485657 -0.049911532551050186
0.18073111772537231 0.024331536144018173 0.16992349922657013
0.21839465200901031 -0.1538693755865097 0.17187799513339996
-0.21286548674106598 -0.2476760894060135 0.13304100930690765
0.0003474513068795204 0.18497848510742188 0.15551961958408356
0.2276202142238617 -0.44465091824531555 0.026921235024929047
-0.27103373408317566 0.1053653433918953 0.038979776203632355
0.18762144446372986 0.021849216893315315 -0.13515964150428772
-0.26889801025390625 -0.09648709744215012 0.07118687778711319
-0.16390256583690643 -0.006536203436553478 0.16868582367897034
