0.2571512460708618 -0.3197401165962219 -0.05535489320755005
0.19769993424415588 0.22684811055660248 0.129847913980484
-0.2555873394012451 0.45918235182762146 -0.018112368881702423
0.21282267570495605 0.22953186929225922 -0.08522792905569077
0.15178906917572021 0.08240021020174026 0.17091898620128632
-0.27043431997299194 -0.3851068317890167 -0.0959751307964325
-0.15706504881381989 0.22125837206840515 -0.12258489429950714
0.29546329379081726 0.21605327725410461 0.06809081137180328
0.29504045844078064 0.2163318395614624 0.05087338760495186
0.21819409728050232 -0.4463123381137848 0.13565216958522797
-0.27007097005844116 -0.20134861767292023 0.13542428612709045
-0.28290295600891113 -0.45691826939582825 -0.02318023331463337
0.170955091714859 0.42527705430984497 0.032807864248752594
-0.12075668573379517 0.21647502481937408 -0.13703735172748566
0.2237628698348999 0.35971012711524963 -0.0834844708442688
-0.2013946771621704 -0.24569950997829437 0.15252386033535004
-0.07999985665082932 0.2116803526878357 -0.1345789134502411
0.1762804538011551 0.444558322429657 0.06912457942962646
0.2976464033126831 -0.2387687861919403 -0.016587015241384506
0.29356908798217773 0.2250560224056244 -0.11053740233182907
-0.26699936389923096 0.40573573112487793 0.06583225727081299
0.24876372516155243 0.1499011367559433 0.1575739085674286
0.24056865274906158 -0.232914000749588 -0.13362106680870056
0.277346134185791 -0.21943092346191406 -0.13603341579437256
0.2335262894630432 0.15315774083137512 0.16864214837551117
-0.16534602642059326 -0.3261585235595703 0.010051091201603413
-0.15475760400295258 0.22815312445163727 0.1321112960577011
0.21333631873130798 -0.23374855518341064 -0.13411417603492737
0.2948307394981384 0.15520894527435303 0.15733963251113892
0.2689014673233032 0.2294689565896988 0.08167140930891037
0.11200989782810211 -0.18114396929740906 0.1638796329498291
0.29371559619903564 -0.22005949914455414 -0.13444866240024567
-0.16272857785224915 -0.25311800837516785 -0.061129406094551086
0.10072067379951477 -0.2513343393802643 -0.02925288677215576
-0.1865474432706833 0.22668156027793884 -0.11818218231201172
0.2937752604484558 0.09487511217594147 0.15226826071739197
0.22749166190624237 0.4349438548088074 0.10065179318189621
0.19056424498558044 0.3439679741859436 -0.04009082168340683
-0.2619371712207794 0.4414271414279938 0.08085690438747406
-0.17497749626636505 0.48572444915771484 0.06375545263290405
-0.012441718019545078 0.22877700626850128 -0.024598710238933563
0.17872357368469238 -0.24851089715957642 -0.12739454209804535
-0.13332773745059967 -0.1908189058303833 0.15661272406578064
0.1545012891292572 -0.24811771512031555 -0.13205769658088684
-0.24575293064117432 -0.37623849511146545 0.1887006163597107
-0.25553324818611145 0.464628130197525 -0.016764972358942032
-0.2378711849451065 0.23646783828735352 -0.1337401270866394
0.04419082775712013 -0.051239605993032455 -0.1355820894241333
0.29536059498786926 0.21612057089805603 0.15126463770866394
0.295793741941452 0.058763667941093445 0.15215055644512177
0.2989671528339386 0.38682764768600464 0.0656750351190567
0.29690685868263245 -0.16262540221214294 0.1521824449300766
0.1268378645181656 0.2299765795469284 -0.1232125461101532
-0.2538916766643524 -0.21783749759197235 -0.13552916049957275
0.2219097763299942 0.5123804211616516 0.07746750116348267
0.2958446145057678 0.1804163008928299 0.14981777966022491
-0.055397842079401016 -0.19355827569961548 0.15102364122867584
-0.27008047699928284 -0.2421761155128479 0.06439065933227539
0.1812373697757721 0.2261473834514618 0.13155418634414673
0.22332583367824554 0.41190892457962036 -0.09112951159477234
0.23310205340385437 0.15975847840309143 0.16499412059783936
-0.11097109317779541 0.2256470024585724 -0.12494954466819763
-0.13480329513549805 0.19956134259700775 -0.1367684155702591
0.28908005356788635 0.3261283338069916 -0.004950192756950855
0.026806801557540894 0.228522390127182 -0.11333254724740982
0.19993676245212555 0.5020297765731812 0.044122472405433655
0.24403353035449982 -0.3495727777481079 0.1509857326745987
-0.2724922299385071 0.12973876297473907 -0.12131807208061218
0.02784626930952072 -0.1696510761976242 -0.1324712187051773
-0.27258267998695374 -0.13055947422981262 -0.12242868542671204
-0.1960056871175766 -0.35885390639305115 -0.06653542816638947
0.15261685848236084 -0.10054256021976471 0.16819369792938232
0.22505193948745728 -0.23076747357845306 -0.13496795296669006
-0.26335397362709045 0.09673477709293365 -0.13399678468704224
-0.2603347897529602 -0.0868573859333992 -0.13314302265644073
0.26388975977897644 -0.35233405232429504 -0.06625279039144516
-0.17241351306438446 0.23151347041130066 0.05312385410070419
-0.24731189012527466 -0.248759925365448 -0.06779581308364868
0.23738887906074524 -0.2359973043203354 -0.13371635973453522
-0.14573463797569275 -0.25011083483695984 0.023585420101881027
-0.041842132806777954 0.2288394719362259 0.024606160819530487
-0.27326110005378723 0.05355585366487503 0.006350845098495483
0.1803845316171646 -0.277671217918396 0.049723703414201736
0.22089383006095886 -0.23399673402309418 -0.13389939069747925
0.16153694689273834 -0.417879581451416 0.181243896484375
-0.26938074827194214 -0.17947223782539368 -0.12292058765888214
0.2703976035118103 0.43731817603111267 0.1164766475558281
0.07625752687454224 -0.1874210685491562 0.15458810329437256
-0.2475588023662567 -0.48520344495773315 -0.019358403980731964
0.2960475981235504 0.2210596799850464 -0.11224842071533203
-0.21988120675086975 0.23063039779663086 0.08056414127349854
-0.2656429708003998 -0.24035362899303436 -0.08361035585403442
0.295234352350235 0.14473551511764526 0.15254192054271698
0.09926940500736237 -0.24605126678943634 0.15101251006126404
0.2079349309206009 -0.21326690912246704 0.15759991109371185
0.25903424620628357 0.4110814034938812 -0.08622236549854279
0.29041510820388794 -0.42354705929756165 0.049938928335905075
-0.03962273523211479 -0.25098299980163574 -0.12145038694143295
-0.3228081166744232 -0.38667619228363037 -0.05001647770404816
-0.16604292392730713 0.2270742803812027 0.07285123318433762
0.2922593653202057 0.17342644929885864 -0.1369245946407318
0.2806583642959595 -0.1823347806930542 -0.13717299699783325
0.26808521151542664 0.4799194931983948 -0.05478253215551376
-0.155441552400589 -0.2271069586277008 -0.13281680643558502
-0.2710919678211212 0.20130056142807007 -0.11927300691604614
0.22765229642391205 0.203860342502594 0.15610457956790924
0.2886231541633606 -0.4449740946292877 0.0918811708688736
0.29219964146614075 0.10946506261825562 0.15396736562252045
-0.1414683759212494 0.10670144855976105 -0.13248255848884583
0.2967337965965271 -0.1302039474248886 -0.10118773579597473
-0.2660488486289978 0.2169973999261856 0.1252995878458023
0.12502381205558777 0.1662062406539917 0.16053052246570587
0.08439075946807861 0.22813680768013 -0.12315616011619568
-0.05886472016572952 0.22864781320095062 0.01726241409778595
-0.1659841686487198 -0.2901415228843689 -0.03766414895653725
0.0046373833902180195 0.14355455338954926 -0.1374824196100235
0.2932385802268982 0.4637637734413147 0.054132942110300064
-0.26966893672943115 0.22030478715896606 -0.09655122458934784
-0.25797387957572937 -0.2477562129497528 0.10276913642883301
-0.29273852705955505 -0.38973867893218994 0.16997236013412476
0.13924150168895721 -0.39872175455093384 0.08922652900218964
0.1985626220703125 0.32048436999320984 0.02975839376449585
0.2943843603134155 0.22562238574028015 -0.10362410545349121
0.29278135299682617 0.14819934964179993 -0.11376195400953293
0.2777486741542816 0.2303028255701065 -0.0628046914935112
-0.20861777663230896 0.15287819504737854 0.16331148147583008
0.2963172495365143 0.0438082292675972 0.026273906230926514
0.06899219006299973 -0.2366270273923874 -0.13180096447467804
0.28424322605133057 0.03639785945415497 -0.1349603533744812
0.21450400352478027 0.2287764847278595 -0.11423365026712418
0.296785831451416 0.20323055982589722 0.14433275163173676
0.003418542444705963 -0.24702714383602142 0.1553477942943573
0.15456198155879974 -0.31514686346054077 0.027326073497533798
-0.2684280574321747 -0.20996376872062683 -0.12850965559482574
-0.0934968888759613 -0.24784713983535767 -0.125951886177063
0.14727474749088287 -0.38548994064331055 -0.00936550460755825
0.29663771390914917 -0.025378862395882607 0.15292413532733917
-0.1982734352350235 -0.17198191583156586 0.1682680994272232
0.19730690121650696 -0.2472532093524933 0.14928628504276276
-0.24752925336360931 -0.3518514037132263 -0.09064676612615585
-0.23345933854579926 0.22875115275382996 -0.04479644075036049
0.241572767496109 0.22802577912807465 -0.11771915853023529
-0.26477688550949097 0.17436641454696655 -0.13489888608455658
-0.2227785289287567 0.17571550607681274 0.16012488305568695
0.29969871044158936 -0.17849043011665344 -0.10020121932029724
0.27693840861320496 -0.23093092441558838 -0.13439610600471497
-0.12240680307149887 0.21826249361038208 -0.1369231939315796
0.27344954013824463 -0.3335202634334564 0.09240013360977173
0.29791775345802307 0.15785998106002808 -0.07711707055568695
0.2957669198513031 0.3935524821281433 0.08489450067281723
0.21956892311573029 -0.29053327441215515 0.08760841935873032
-0.2448844313621521 -0.36429399251937866 0.18649226427078247
0.28803813457489014 0.07469812035560608 -0.13459458947181702
-0.10851768404245377 -0.24934352934360504 0.06739319860935211
0.026821879670023918 -0.1908159852027893 0.1543855220079422
0.2946806848049164 -0.0331740640103817 0.1548452079296112
0.2931683659553528 0.3995555639266968 -0.03162052482366562
0.23143398761749268 -0.2483002245426178 -0.12441396713256836
0.29994338750839233 0.03025544062256813 0.1569128930568695
0.29326286911964417 0.22450940310955048 -0.09439755976200104
0.2441282570362091 -0.0678815171122551 0.16361209750175476
0.15680386126041412 -0.0993199348449707 0.16765759885311127
0.23159250617027283 -0.23390546441078186 -0.13206084072589874
-0.28982484340667725 -0.3459587097167969 -0.053246594965457916
-0.28383728861808777 -0.34690824151039124 0.19489088654518127
0.23900412023067474 -0.30125319957733154 -0.07554952800273895
-0.16075347363948822 0.4367172122001648 0.013353089801967144
0.18992608785629272 0.4813142418861389 0.10219184309244156
0.18991509079933167 0.48732587695121765 0.08342841267585754
0.12338113784790039 -0.1946990042924881 0.15410242974758148
-0.055645477026700974 -0.18576796352863312 0.16335047781467438
0.23849137127399445 -0.0565611831843853 0.16635583341121674
0.2130085527896881 -0.3605134189128876 -0.07750847190618515
-0.25850439071655273 -0.07044023275375366 -0.13849136233329773
-0.18329662084579468 -0.28760990500450134 -0.051496751606464386
-0.272124320268631 -0.13914130628108978 -0.12455137073993683
0.05427444353699684 -0.18035008013248444 0.16968995332717896
-0.022636234760284424 0.23166245222091675 -0.04304218292236328
-0.21348774433135986 -0.03625660017132759 0.17016665637493134
0.2852989435195923 0.004442296922206879 -0.1345563530921936
-0.2617243528366089 -0.2178676426410675 -0.1341470181941986
0.2738419473171234 0.49739593267440796 0.09458636492490768
-0.2785884141921997 -0.409022718667984 -0.0959426611661911
-0.2744905352592468 0.21848754584789276 -0.09617026150226593
0.29667434096336365 0.43947961926460266 0.11085901409387589
0.1523459106683731 -0.2478676736354828 0.03980061039328575
0.2815793454647064 -0.12663212418556213 -0.13568180799484253
-0.26207154989242554 -0.30603688955307007 -0.04352414235472679
0.28912341594696045 0.4733269512653351 0.05540428310632706
-0.24456726014614105 -0.22519071400165558 0.15587565302848816
-0.057508792728185654 0.22369419038295746 -0.1299331784248352
-0.2984263300895691 -0.33156102895736694 0.18237677216529846
-0.24689997732639313 0.20367290079593658 0.15629281103610992
0.07627961039543152 -0.24625584483146667 -0.13695181906223297
0.28612780570983887 -0.44247913360595703 0.10863068699836731
0.281209796667099 -0.20886686444282532 -0.13896216452121735
-0.2732824981212616 0.016349347308278084 -0.12190436571836472
0.29529479146003723 0.2173646092414856 0.011643391102552414
-0.2733641564846039 0.13196691870689392 -0.12071260064840317
0.24547933042049408 -0.4401642084121704 0.19831715524196625
0.2916654944419861 0.08091505616903305 0.1533259004354477
-0.24003912508487701 -0.4079204797744751 -0.08504780381917953
-0.29826149344444275 -0.3273879289627075 0.05067220702767372
-0.08357241749763489 -0.23186136782169342 -0.13542456924915314
0.26632994413375854 0.40615200996398926 -0.08228205889463425
0.01945560984313488 -0.24875971674919128 -0.1266249269247055
-0.22376804053783417 -0.2733447551727295 -0.058798983693122864
-0.04638654738664627 -0.1752239465713501 0.16781923174858093
-0.12256280332803726 0.22845129668712616 0.04801159352064133
0.2776236832141876 -0.20146708190441132 -0.1358969360589981
-0.24431654810905457 -0.22624774277210236 -0.1361360102891922
-0.27102991938591003 0.10550322383642197 -0.12456643581390381
-0.27221715450286865 -0.18540212512016296 -0.12639711797237396
0.2971009612083435 -0.07455211877822876 0.15109556913375854
-0.18303294479846954 0.091195248067379 -0.1344616860151291
0.26322871446609497 -0.36816248297691345 0.1619037240743637
0.29455792903900146 0.4348456561565399 -0.005185053218156099
-0.1965058147907257 0.18473370373249054 0.15556922554969788
-0.24523653090000153 0.25034967064857483 0.006011726334691048
-0.27315694093704224 -0.058561988174915314 -0.05731179565191269
-0.05855713039636612 0.2245430201292038 -0.12049644440412521
-0.2154262512922287 0.039848413318395615 0.16878139972686768
0.286838561296463 -0.09517762064933777 -0.13306565582752228
-0.013377940282225609 0.1196654736995697 -0.136479452252388
0.23741236329078674 0.36862713098526 -0.093390554189682
0.08888991177082062 -0.23483669757843018 -0.13591188192367554
-0.26542961597442627 -0.3706623315811157 -0.09871889650821686
0.29680439829826355 0.06158547103404999 0.12717801332473755
0.2935313880443573 0.36046499013900757 0.07223302870988846
-0.19373664259910583 0.39671921730041504 -0.07664131373167038
0.1864740550518036 -0.08213196694850922 0.17025771737098694
-0.2715272307395935 0.10848418623209 -0.12215429544448853
-0.15411314368247986 -0.28653255105018616 0.0014746366068720818
0.2373596727848053 -0.3416717052459717 0.14091001451015472
-0.0014960950938984752 0.2219546139240265 -0.24282090365886688
0.22338201105594635 0.22884570062160492 0.09397774934768677
0.2952767312526703 -0.23458246886730194 -0.13408218324184418
-0.16452555358409882 0.22672341763973236 -0.12018094956874847
0.18641774356365204 -0.4462946355342865 0.11494794487953186
0.2882406711578369 -0.41484642028808594 0.15538781881332397
-0.20531851053237915 -0.3159945011138916 0.09317697584629059
0.2818143963813782 -0.44291019439697266 0.14894765615463257
-0.26631107926368713 0.36522406339645386 0.005954474676400423
0.29626500606536865 -0.018612414598464966 0.07039618492126465
-0.26973721385002136 0.09570539742708206 -0.1347995400428772
-0.21741916239261627 -0.45817831158638 -0.023124080151319504
-0.27007466554641724 0.11156338453292847 -0.12374341487884521
-0.2742357850074768 0.1968858242034912 -0.06538894027471542
-0.3125535249710083 -0.45117422938346863 -0.0669160708785057
-0.162039116024971 0.1732645034790039 0.1584363579750061
0.263749897480011 -0.3421246409416199 -0.06755101680755615
0.02084607630968094 -0.17097635567188263 0.1688212752342224
-0.2707689106464386 -0.17300419509410858 0.15210169553756714
-0.06421107053756714 0.22650235891342163 -0.12853455543518066
0.28860142827033997 0.43691375851631165 -0.03888286277651787
-0.14824287593364716 0.23318830132484436 0.1047152429819107
0.29828310012817383 -0.04388032108545303 0.1530575156211853
0.24088647961616516 -0.23591458797454834 -0.13415953516960144
0.2792665362358093 0.319713830947876 0.033928316086530685
-0.21142049133777618 0.042177554219961166 0.16981148719787598
0.2418982982635498 -0.23393405973911285 -0.13276062905788422
0.19785089790821075 0.4590514898300171 -0.06283705681562424
0.2769128978252411 -0.22555582225322723 -0.14080782234668732
0.29450011253356934 -0.22252513468265533 0.1110634133219719
-0.27452370524406433 0.003193399403244257 -0.12314623594284058
-0.15688738226890564 0.2291337102651596 0.07435151189565659
0.2900363504886627 -0.3819776177406311 0.10050083696842194
0.25644099712371826 -0.14818547666072845 0.1557132750749588
-0.2599603533744812 0.40900498628616333 -0.03527291864156723
0.26073116064071655 0.2299237698316574 0.09708619117736816
0.23109570145606995 -0.31484919786453247 -0.0785626769065857
0.2907275855541229 0.04113101214170456 -0.13688784837722778
0.2313942164182663 -0.44271308183670044 -0.05674217268824577
0.25360020995140076 -0.3571576178073883 0.1550234705209732
0.005763694643974304 0.055979400873184204 0.17033101618289948
-0.2724432051181793 0.21469798684120178 -0.12294350564479828
0.283746600151062 0.4513208270072937 -0.04703289270401001
0.2927757799625397 0.21516400575637817 0.09671805799007416
0.2503034472465515 0.14250604808330536 0.15869013965129852
0.20695257186889648 0.32469916343688965 -0.04854121804237366
0.29493433237075806 0.18545395135879517 -0.10142840445041656
0.2799542248249054 0.43511146306991577 -0.04966709017753601
0.29648882150650024 0.21319207549095154 -0.11440680921077728
-0.29248932003974915 -0.339955598115921 0.18646791577339172
-0.12883976101875305 0.048833250999450684 0.17024433612823486
0.04602016508579254 0.016047082841396332 -0.13604645431041718
-0.21013206243515015 0.005464095622301102 0.16948741674423218
-0.06853635609149933 -0.16897359490394592 0.16311077773571014
-0.21808795630931854 0.16336210072040558 0.16566655039787292
0.23133738338947296 0.11121818423271179 -0.13442964851856232
0.2970028817653656 0.21425418555736542 0.14766837656497955
-0.18390323221683502 0.22736559808254242 0.0833921954035759
-0.23800131678581238 -0.3907490074634552 0.19160164892673492
-0.26945510506629944 -0.23676487803459167 -0.12519827485084534
-0.1714179813861847 -0.24499712884426117 0.15287438035011292
0.25215306878089905 -0.033799055963754654 0.1586361825466156
-0.26060959696769714 -0.31807687878608704 -0.06203766167163849
0.19834834337234497 -0.4033370614051819 -0.07835566997528076
-0.2712506949901581 -0.23130221664905548 0.1388210654258728
-0.0263303741812706 -0.17534884810447693 0.17031070590019226
0.28868964314460754 -0.4412579834461212 0.0637686476111412
0.28886768221855164 0.34036123752593994 -0.01631106063723564
-0.2158915102481842 0.10275524109601974 0.16755133867263794
0.2991701364517212 -0.020633727312088013 0.12060104310512543
-0.32662737369537354 -0.3434752821922302 0.09398925304412842
0.09395624697208405 -0.2541141211986542 -0.03665953874588013
-0.21321173012256622 -0.3183913230895996 0.1002209335565567
0.2704715430736542 0.15771645307540894 0.15653997659683228
0.1017603650689125 -0.013063237071037292 0.16921557486057281
-0.3281541168689728 -0.3806414008140564 -0.02965483069419861
-0.21888917684555054 -0.021445471793413162 0.1689513921737671
-0.013525334186851978 -0.24725759029388428 0.14744338393211365
0.09027064591646194 0.09932758659124374 0.16920796036720276
0.045335449278354645 0.23005281388759613 -0.06932912766933441
-0.19271542131900787 0.4005921185016632 -0.07450979202985764
0.29611220955848694 0.1175127923488617 0.15184304118156433
0.08056022226810455 0.1692185252904892 0.15953031182289124
-0.27278444170951843 0.11894045770168304 -0.12385763227939606
0.294389933347702 0.4029473066329956 -0.014756938442587852
-0.08064918965101242 -0.17913053929805756 -0.13644352555274963
0.2118893265724182 0.4073605239391327 -0.0794963464140892
-0.016578631475567818 -0.2502971887588501 0.04715149477124214
0.18561655282974243 0.18034537136554718 0.15514224767684937
0.287708044052124 0.4751684367656708 0.051494330167770386
-0.16015377640724182 0.4531385004520416 -0.004280450753867626
-0.2701994776725769 -0.1804577112197876 -0.1263357251882553
0.2951839566230774 0.12586164474487305 0.15520058572292328
0.20044775307178497 0.45045778155326843 -0.06631488353013992
-0.009250983595848083 0.1643405556678772 -0.13921360671520233
-0.21886509656906128 -0.34099695086479187 -0.08462648093700409
0.2166241705417633 -0.2913168966770172 -0.06698568165302277
-0.021506138145923615 -0.18674613535404205 -0.133142352104187
-0.1300751268863678 -0.24195310473442078 0.14414289593696594
-0.16238369047641754 0.35534483194351196 0.05268581956624985
-0.1738925725221634 -0.374972403049469 -0.019430726766586304
0.1688212752342224 -0.2502906918525696 0.03230419382452965
0.2861320972442627 0.23236602544784546 -0.11606457829475403
0.29667460918426514 -0.22409996390342712 0.06782737374305725
-0.04804101958870888 0.13578099012374878 0.17102771997451782
0.2806573212146759 -0.3742998242378235 0.13700923323631287
0.23175066709518433 -0.44587865471839905 0.17512084543704987
-0.2710673213005066 0.20377543568611145 -0.12178638577461243
0.02764795906841755 -0.23451504111289978 -0.13802099227905273
0.2726253569126129 -0.43966829776763916 0.12659817934036255
-0.10296337306499481 -0.12955985963344574 -0.13370724022388458
-0.04575669765472412 -0.05775701627135277 -0.13416089117527008
-0.3349210023880005 -0.3502711057662964 0.15625062584877014
-0.2664709985256195 -0.24081876873970032 -0.062408991158008575
0.2853967249393463 -0.24715928733348846 -0.1154051348567009
0.06343451887369156 0.13992223143577576 -0.16465476155281067
-0.050832733511924744 -0.23195725679397583 -0.13620473444461823
0.19592711329460144 0.3218901455402374 0.008999651297926903
0.16439104080200195 0.22728179395198822 -0.12191876024007797
-0.19616831839084625 -0.3202018439769745 -0.06300210952758789
-0.2739514410495758 0.16301658749580383 0.03965527191758156
-0.06824509054422379 -0.23033754527568817 -0.13515135645866394
0.008814012631773949 0.2623841166496277 -0.21116110682487488
0.2548021674156189 -0.24751950800418854 0.08245539665222168
0.17906245589256287 0.4678630828857422 0.030240988358855247
0.29584699869155884 0.2162971794605255 0.09534206986427307
0.23422658443450928 0.17982007563114166 0.15260304510593414
-0.2553480565547943 -0.08485777676105499 -0.13646075129508972
0.2422143816947937 -0.29222118854522705 -0.06998754292726517
0.08121225982904434 0.2294108122587204 0.055172309279441833
-0.26440486311912537 0.3724002242088318 -0.009865024127066135
-0.25094395875930786 -0.3490181863307953 -0.09119785577058792
0.26405876874923706 -0.38235798478126526 -0.07207553088665009
0.27733293175697327 0.3854023218154907 -0.07291193306446075
0.15849709510803223 0.09828382730484009 -0.13429157435894012
0.29138198494911194 -0.11642415821552277 -0.1354842185974121
0.26975905895233154 -0.3615678548812866 -0.06360902637243271
-0.007152818143367767 -0.17495067417621613 0.16806159913539886
-0.09713884443044662 0.21936088800430298 -0.13528621196746826
0.2476842999458313 -0.17660710215568542 0.15256626904010773
0.2895870506763458 0.42508015036582947 -0.031998999416828156
-0.2537972927093506 -0.24291956424713135 -0.09720402210950851
-0.05276067182421684 0.22829623520374298 -0.12173020094633102
0.20243795216083527 -0.29502058029174805 0.09325312077999115
0.1661226749420166 -0.44422397017478943 0.03893793374300003
-0.2722075283527374 -0.008743640035390854 -0.12493719160556793
-0.22069722414016724 -0.09115465730428696 0.16735206544399261
0.27962398529052734 -0.17688938975334167 -0.13605672121047974
-0.1255163997411728 -0.16847819089889526 0.1690150797367096
-0.22437074780464172 -0.3292926549911499 -0.08462192118167877
0.2323927879333496 -0.2509690821170807 0.09809485077857971
-0.1977679282426834 0.3438725471496582 0.08596283197402954
0.2879803776741028 -0.40993931889533997 0.04039116948843002
0.29027265310287476 0.1483151912689209 -0.13670869171619415
-0.14508642256259918 -0.2535792291164398 -0.03348992019891739
-0.2927744686603546 -0.3805910348892212 -0.08697326481342316
-0.05392039194703102 0.1808844804763794 0.15854120254516602
0.19391711056232452 0.4344728887081146 -0.058855388313531876
0.19718696177005768 -0.23584574460983276 -0.1371164470911026
0.142340749502182 -0.24896502494812012 0.14084264636039734
-0.2308240383863449 0.18286140263080597 0.15464487671852112
-0.18277011811733246 0.2073286771774292 0.15770229697227478
0.29670944809913635 -0.2284776270389557 -0.13610951602458954
-0.18126316368579865 0.41438478231430054 -0.06350146234035492
-0.27112269401550293 -0.18200546503067017 0.13764838874340057
0.1788681298494339 0.4517238736152649 0.09608371555805206
0.29595035314559937 -0.04053822532296181 0.15322503447532654
-0.2643299102783203 0.14922839403152466 -0.13515689969062805
0.30365151166915894 0.4102236330509186 0.038873668760061264
0.29537925124168396 -0.18799792230129242 0.1533137857913971
-0.26912522315979004 -0.24278616905212402 -0.06121717765927315
0.25220364332199097 0.04765435308218002 0.15576444566249847
0.17690962553024292 -0.10285141319036484 0.16902165114879608
-0.24553371965885162 0.32104307413101196 0.025739619508385658
-0.32918405532836914 -0.37719401717185974 -0.019371958449482918
0.29462921619415283 0.007145795971155167 0.15423861145973206
0.2618706524372101 -0.23872393369674683 -0.13470296561717987
0.20586566627025604 -0.44701287150382996 0.05128980427980423
0.27825966477394104 -0.1678892821073532 -0.13502293825149536
0.1906183809041977 0.22834612429141998 0.13233307003974915
-0.27140453457832336 0.2291564643383026 -0.006431262940168381
-0.2725730538368225 -0.1610097438097 0.017435219138860703
0.15258845686912537 -0.011142064817249775 0.1727510690689087
0.09107275307178497 0.16287806630134583 0.1603352576494217
-0.2723890244960785 -0.12026698887348175 -0.12313885241746902
-0.27105242013931274 -0.357181191444397 0.19768846035003662
-0.22976841032505035 -0.46332573890686035 -0.037173595279455185
-0.1849059909582138 0.20175182819366455 0.157097727060318
0.2608133852481842 0.42032384872436523 0.10846302658319473
0.29634708166122437 -0.20932793617248535 0.1369779109954834
-0.25233250856399536 -0.050581447780132294 -0.1368173509836197
-0.13404765725135803 0.07775922864675522 -0.13584090769290924
-0.20791079103946686 -0.44092848896980286 0.12385474145412445
0.2726918160915375 0.3787074089050293 -0.07502616196870804
0.27145323157310486 0.48486268520355225 -0.030933286994695663
-0.2733469605445862 0.1768663227558136 0.15090472996234894
0.1522127091884613 -0.2380412220954895 -0.13246041536331177
0.29603511095046997 0.08939345180988312 0.14917431771755219
0.2531665861606598 0.22935646772384644 0.09635454416275024
-0.3360838294029236 -0.360421746969223 0.12782461941242218
0.1835050880908966 0.47528988122940063 0.036870431154966354
-0.23384149372577667 -0.4430685341358185 0.1472994089126587
-0.20220579206943512 0.3407183885574341 0.08539468050003052
0.29590269923210144 -0.21632970869541168 -0.009059429168701172
0.30020806193351746 -0.19075413048267365 0.14600613713264465
0.28292250633239746 0.05834877863526344 -0.13529464602470398
0.09217004477977753 -0.22374817728996277 -0.13394451141357422
0.0594337023794651 0.15625199675559998 -0.19362734258174896
-0.09287779778242111 0.07462169229984283 -0.1355522722005844
0.29450830817222595 -0.22420695424079895 0.14706337451934814
0.15401457250118256 -0.23875197768211365 -0.13409771025180817
0.29522842168807983 -0.09503371268510818 0.14041642844676971
-0.33938083052635193 -0.39285051822662354 -0.0019806399941444397
-0.21720606088638306 -0.048507820814847946 0.16744989156723022
0.19166824221611023 0.4701746702194214 -0.037295252084732056
0.21813400089740753 0.22768501937389374 -0.11845268309116364
-0.24561858177185059 -0.39097005128860474 -0.09832419455051422
0.2785494029521942 -0.1592366099357605 -0.13170292973518372
-0.21755321323871613 0.5022830367088318 0.07978066056966782
0.22570621967315674 -0.27405625581741333 -0.06239026412367821
0.13795065879821777 -0.24030010402202606 -0.1337214708328247
0.29328837990760803 0.21867437660694122 -0.10874024033546448
-0.26406922936439514 0.38262343406677246 -0.010072391480207443
-0.2308690845966339 -0.3323841691017151 -0.08456690609455109
0.19193165004253387 -0.2509292662143707 0.10897400975227356
-0.079480841755867 0.17582333087921143 0.15413297712802887
-0.25882214307785034 -0.1071104109287262 -0.1352987140417099
0.29434651136398315 0.3684914708137512 0.052000660449266434
-0.1537412852048874 -0.24985960125923157 0.06379949301481247
0.11704978346824646 -0.2516303062438965 -0.092730313539505
0.18699519336223602 -0.2414502203464508 -0.1322917491197586
0.25856518745422363 -0.3698155879974365 0.16533343493938446
-0.30458882451057434 -0.3633592426776886 -0.044097788631916046
0.04545789584517479 -0.2483024001121521 -0.12701648473739624
-0.24445238709449768 0.2320205718278885 -0.1341918408870697
0.2644556760787964 0.12131623923778534 -0.1370234340429306
-0.003209977177903056 -0.1670219898223877 0.16901418566703796
0.1360826939344406 0.2244299352169037 -0.1267007291316986
0.29552289843559265 0.21924108266830444 0.006881993263959885
0.27466171979904175 0.22813256084918976 -0.1162499338388443
0.27746400237083435 -0.4437723755836487 0.14974039793014526
0.008653832599520683 -0.2501918375492096 -0.12636663019657135
0.23200464248657227 0.3763602077960968 -0.09178265929222107
-0.2147887945175171 -0.08198529481887817 0.16803006827831268
0.10403687506914139 -0.23652267456054688 -0.13388767838478088
-0.270670622587204 -0.19615808129310608 0.04475770890712738
-0.09210613369941711 -0.21147678792476654 0.15562039613723755
0.14887139201164246 -0.33771950006484985 0.026902150362730026
-0.26315540075302124 -0.16146719455718994 -0.13472171127796173
0.25260239839553833 0.0882997065782547 0.152940034866333
-0.12577641010284424 0.04560587927699089 -0.1354985386133194
0.1425754725933075 0.17505408823490143 0.1577293872833252
0.2778779864311218 0.23037327826023102 -0.11062034964561462
0.022258752956986427 0.2259650081396103 -0.12904980778694153
0.2957030236721039 -0.04967666044831276 0.15580223500728607
-0.2068214863538742 -0.0041831377893686295 0.17185981571674347
0.27559250593185425 0.2274552434682846 -0.11921866983175278
-0.24883908033370972 -0.24841716885566711 -0.050603266805410385
-0.27323126792907715 0.06698693335056305 0.11118793487548828
-0.029383687302470207 0.2285417914390564 -0.12468159943819046
-0.18314668536186218 0.34539464116096497 0.08209382742643356
0.1431896686553955 -0.15119539201259613 -0.13381622731685638
0.21815039217472076 -0.31021371483802795 -0.07336419075727463
-0.27196866273880005 0.02326233871281147 -0.12141069024801254
0.29648929834365845 -0.0698554515838623 -0.10743287950754166
0.2910934090614319 0.2076900750398636 -0.13534677028656006
0.28460586071014404 -0.07366349548101425 -0.13718636333942413
-0.26111531257629395 0.37644416093826294 0.09275904297828674
-0.27222007513046265 0.1550225019454956 -0.13580983877182007
0.2622019946575165 -0.234219491481781 -0.1339081972837448
-0.2752738296985626 -0.030429163947701454 -0.12201095372438431
-0.18158534169197083 -0.2463570535182953 0.15005041658878326
0.29413923621177673 0.21697600185871124 0.04815705120563507
-0.262753963470459 0.45562586188316345 0.03482859209179878
0.17242248356342316 0.1596340388059616 0.16772772371768951
-0.240128293633461 -0.2483130693435669 -0.1284509152173996
0.18100076913833618 -0.24302078783512115 -0.1343071609735489
0.2943994104862213 0.10932794958353043 0.15379643440246582
-0.1502666473388672 -0.19442352652549744 0.1522960513830185
-0.008073609322309494 -0.23151539266109467 -0.13222306966781616
-0.1917005479335785 0.42241448163986206 -0.07303604483604431
0.1848248839378357 -0.2421625703573227 -0.13907423615455627
0.29656583070755005 0.0056144073605537415 0.151091068983078
-0.24488064646720886 -0.24810072779655457 -0.07841576635837555
-0.12599796056747437 -0.24621261656284332 0.15127931535243988
-0.21646301448345184 0.4466626048088074 0.09056905657052994
-0.2409466654062271 0.2292087823152542 0.10066590458154678
0.2538582682609558 -0.09026841819286346 0.15774305164813995
0.20031189918518066 -0.07303734868764877 -0.13309800624847412
-0.26611167192459106 -0.36339622735977173 0.1919180452823639
-0.13656605780124664 -0.2469317615032196 -0.13098125159740448
0.28451448678970337 -0.44494014978408813 0.12904156744480133
0.05404339358210564 0.2248716652393341 -0.12088470906019211
-0.17603105306625366 0.49194028973579407 0.04063977301120758
-0.19878822565078735 0.17266395688056946 0.15560369193553925
0.27478107810020447 0.14435391128063202 0.15485090017318726
0.17978152632713318 -0.07235781848430634 0.17485685646533966
-0.08013210445642471 -0.244145929813385 0.1504662036895752
0.28243041038513184 -0.1439744383096695 -0.13395893573760986
0.1302649974822998 -0.24930165708065033 0.14547070860862732
0.17693471908569336 -0.44725343585014343 0.12001015990972519
0.29163670539855957 0.043020207434892654 0.1526765376329422
0.22202689945697784 0.46613675355911255 -0.07582181692123413
0.2947976887226105 0.2213592827320099 -0.026735534891486168
-0.3229101896286011 -0.36060553789138794 0.012702813372015953
0.2978937327861786 -0.23505477607250214 0.1424286961555481
0.2945653200149536 -0.13538657128810883 -0.08900485932826996
0.29420584440231323 0.1565677970647812 0.15023258328437805
0.18359686434268951 0.35288572311401367 0.07039466500282288
0.17488457262516022 0.4452839195728302 0.0428505465388298
0.2735593020915985 0.4621756076812744 -0.0638422891497612
-0.29075977206230164 -0.009986916556954384 -0.27137401700019836
0.2883942723274231 -0.4313318431377411 0.16208502650260925
0.07173120230436325 -0.17929190397262573 0.1648092418909073
0.296723335981369 0.2147008776664734 0.15086516737937927
-0.2826825976371765 -0.3067469596862793 0.10460007935762405
0.17859415709972382 0.4072929322719574 -0.0180351585149765
-0.05029812455177307 0.16900727152824402 0.15798723697662354
-0.2700803875923157 -0.05982441082596779 0.15250517427921295
-0.14292201399803162 -0.2516818642616272 0.04142547398805618
0.27458927035331726 -0.24914836883544922 0.010388421826064587
-0.010793933644890785 -0.25284984707832336 0.1337791383266449
-0.2716866731643677 -0.1195991262793541 -0.1204548329114914
-0.17701099812984467 0.22671443223953247 -0.12056738138198853
0.3028518855571747 -0.21877822279930115 -0.08812060207128525
0.2974560558795929 -0.2322346270084381 0.0665975958108902
0.27006715536117554 -0.24752968549728394 -0.12083252519369125
-0.2325441837310791 -0.46816304326057434 -0.02574174292385578
0.10874520987272263 -0.23515981435775757 -0.13378694653511047
0.2816501557826996 0.2275453507900238 -0.12295909225940704
-0.1252649426460266 -0.2230321317911148 0.1566735953092575
0.21739330887794495 -0.30298906564712524 -0.07100607454776764
-0.26450619101524353 0.15330149233341217 -0.13683061301708221
-0.308377742767334 -0.43829581141471863 -0.0823957622051239
-0.17781291902065277 -0.3436504900455475 -0.04944849759340286
-0.27261489629745483 -0.07315225899219513 -0.12209382653236389
-0.07010047137737274 -0.16630218923091888 0.1688818633556366
0.08146918565034866 0.22478070855140686 -0.12731365859508514
-0.014390875585377216 -0.02581651322543621 0.1711960732936859
0.2957965135574341 0.21739530563354492 0.09013200551271439
0.2956617474555969 0.15874862670898438 -0.10182418674230576
-0.03179259970784187 0.17637237906455994 0.1526401787996292
-0.010403585620224476 -0.2127428948879242 0.15426452457904816
-0.1844608038663864 -0.250770628452301 0.14096656441688538
0.29406458139419556 0.09394893050193787 0.09061560034751892
0.039811745285987854 0.10104125738143921 -0.1641363799571991
-0.2772919237613678 0.09345752000808716 -0.04367860406637192
-0.3279145359992981 -0.3366376459598541 0.14669492840766907
-0.2716078460216522 0.21463553607463837 -0.12279000133275986
0.2988640367984772 0.2166195809841156 0.14547526836395264
-0.11065389961004257 -0.2516948878765106 0.0036161262542009354
0.17899714410305023 0.4474062919616699 0.09060066193342209
-0.268795371055603 -0.11036047339439392 -0.12270179390907288
0.16641250252723694 -0.23953838646411896 -0.13314032554626465
-0.2715235948562622 -0.38492122292518616 -0.09204113483428955
0.06686842441558838 0.16278773546218872 0.16061978042125702
-0.28658926486968994 -0.3448539972305298 0.19461646676063538
0.17885731160640717 0.46077409386634827 0.009705467149615288
-0.11476722359657288 0.218347430229187 -0.13750644028186798
0.13926568627357483 -0.2489001750946045 -0.1271819919347763
-0.20444926619529724 -0.4148751199245453 0.14816591143608093
0.2973414957523346 0.04594112187623978 -0.11266738921403885
-0.016861028969287872 -0.07590562105178833 0.16841255128383636
-0.24888965487480164 0.43540844321250916 -0.04821975156664848
0.3016141653060913 0.4155513346195221 0.03476386517286301
-0.20933371782302856 -0.1558299958705902 0.16634735465049744
0.29802194237709045 0.21417547762393951 -0.05347130447626114
0.20588749647140503 -0.4442339837551117 0.19508032500743866
0.22030970454216003 0.3685438334941864 -0.08337178826332092
-0.2848837375640869 -0.4293878376483917 -0.09467780590057373
0.26623690128326416 -0.3270794153213501 0.1023247241973877
0.23662254214286804 0.2269577980041504 -0.11493285745382309
0.27057164907455444 0.22958846390247345 -0.1185477077960968
-0.02366919443011284 0.15317456424236298 -0.13686533272266388
0.29041165113449097 0.19481146335601807 -0.13546070456504822
0.27786192297935486 -0.36799442768096924 -0.02701598033308983
0.18669259548187256 -0.1880614310503006 0.15806913375854492
0.015819810330867767 -0.2501715421676636 0.11770348250865936
-0.3358306586742401 -0.35265296697616577 0.15182077884674072
0.0740441307425499 0.11183221638202667 -0.13630224764347076
-0.3380104601383209 -0.38119855523109436 0.04632153362035751
0.29646316170692444 0.22854648530483246 0.06638367474079132
0.26515722274780273 0.4654477834701538 -0.06443306058645248
-0.27035632729530334 -0.2061121016740799 -0.1270742416381836
0.2964524030685425 -0.11463966220617294 0.15234331786632538
0.2936307191848755 -0.2218145877122879 -0.13449344038963318
-0.27373480796813965 0.14518994092941284 -0.12432850897312164
0.14155568182468414 -0.2544187307357788 -0.0064155226573348045
0.2971988022327423 -0.08672033250331879 -0.13415645062923431
0.29510167241096497 -0.11710941791534424 -0.13675199449062347
0.28185033798217773 -0.05367829278111458 -0.13421021401882172
0.18312853574752808 -0.3464272916316986 -0.06500735878944397
-0.16549739241600037 0.2179725170135498 -0.13512694835662842
0.29462435841560364 0.21857091784477234 -0.1082824319601059
0.034712519496679306 -0.24759911000728607 -0.12321493029594421
0.1589198261499405 -0.2504173815250397 0.01565685123205185
-0.08228012919425964 0.20743975043296814 -0.13108551502227783
0.2963341176509857 0.15839532017707825 -0.08922477811574936
-0.2704751491546631 0.11876915395259857 -0.12093177437782288
-0.2714066505432129 0.15253248810768127 -0.1200869083404541
0.2737239599227905 -0.44687265157699585 0.08240266144275665
-0.2740000784397125 0.12890692055225372 -0.1204514428973198
0.2605384886264801 -0.2368488758802414 -0.13604716956615448
-0.13084739446640015 0.22914044559001923 0.0058905333280563354
0.17116601765155792 0.443592369556427 0.03035546839237213
0.27376431226730347 0.4994988441467285 0.0692673847079277
0.2824194133281708 -0.08837631344795227 -0.13423486053943634
0.23608723282814026 0.14902859926223755 0.1672266274690628
-0.034965477883815765 0.22864358127117157 -0.09968617558479309
-0.19499364495277405 0.1806035041809082 0.15264250338077545
0.2141963094472885 0.23072095215320587 -0.11481455713510513
-0.03489256650209427 0.2308027148246765 -0.10758329927921295
0.28241345286369324 0.23262222111225128 -0.11351030319929123
0.27668336033821106 -0.3700414299964905 0.1572905331850052
0.17698480188846588 0.4213826656341553 -0.004863260313868523
-0.2324696183204651 -0.1059747114777565 0.15411320328712463
-0.2070734053850174 -0.444042831659317 0.081057108938694
0.23487499356269836 -0.3287748694419861 -0.08379694819450378
-0.20215082168579102 -0.416249543428421 0.1366768628358841
-0.09933501482009888 0.22677160799503326 -0.12620683014392853
0.2153393030166626 0.23248982429504395 -0.011169255711138248
-0.23412004113197327 -0.318306028842926 0.11281976103782654
0.20898792147636414 0.22680464386940002 -0.1179252564907074
0.1905413717031479 0.4566180109977722 -0.05101621523499489
-0.26334789395332336 -0.2257763147354126 -0.1329026222229004
0.17540892958641052 -0.4465029239654541 0.17760860919952393
-0.23169447481632233 -0.2997370660305023 0.09912016242742538
0.2251492589712143 0.22553743422031403 -0.12136215716600418
0.23853716254234314 -0.24820514023303986 0.13230396807193756
-0.13960453867912292 0.21576295793056488 -0.1358346939086914
-0.28818243741989136 -0.016518864780664444 -0.28908175230026245
0.07762882858514786 0.16884812712669373 -0.13878102600574493
-0.2360575795173645 -0.24976636469364166 -0.07750772684812546
0.2959520220756531 -0.20333294570446014 0.13648474216461182
0.29475724697113037 -0.17450815439224243 -0.13350273668766022
-0.27234476804733276 0.009531687945127487 -0.12345714122056961
0.21416771411895752 0.17863264679908752 0.15483906865119934
-0.26108959317207336 -0.22958922386169434 -0.13691774010658264
0.2870415449142456 -0.4472007155418396 0.10970937460660934
0.2789713740348816 0.17017041146755219 -0.13474376499652863
-0.21629387140274048 0.06892140209674835 0.16745708882808685
-0.09821077436208725 0.22751405835151672 0.13127073645591736
0.22954127192497253 0.44618016481399536 0.10692209005355835
-0.2731190025806427 0.22359581291675568 -0.1258249133825302
-0.11343048512935638 -0.17091494798660278 0.1704782098531723
-0.09088072180747986 0.2269805520772934 -0.12389233708381653
0.269914448261261 0.18472671508789062 0.1545792818069458
0.04028080403804779 0.20578303933143616 -0.1623905599117279
-0.2622969448566437 -0.01913401484489441 -0.13378912210464478
0.0895673856139183 0.23194438219070435 0.12250778079032898
0.28517597913742065 -0.06180809065699577 -0.13604333996772766
0.2945442497730255 0.4000067412853241 0.10931266844272614
0.19475755095481873 -0.18913951516151428 0.15821464359760284
0.2934567928314209 0.22481831908226013 -0.10217425227165222
0.061268530786037445 -0.2375977784395218 -0.1343603879213333
-0.24094849824905396 -0.2312798798084259 -0.13681074976921082
-0.27434685826301575 0.2073804885149002 -0.12223769724369049
0.0070313140749931335 0.18726029992103577 -0.13652868568897247
0.15782132744789124 0.16984955966472626 0.16235195100307465
0.23766003549098969 -0.23380546271800995 -0.13055767118930817
-0.18117205798625946 -0.3514719307422638 0.06934954226016998
-0.07523296773433685 -0.2448486089706421 0.15060870349407196
0.004552543628960848 0.1503414660692215 -0.1362532377243042
0.2769179940223694 -0.3487694263458252 0.11491435766220093
0.11663630604743958 0.07776882499456406 0.17149966955184937
-0.01761193759739399 -0.24972453713417053 0.012518244795501232
0.29379478096961975 -0.08006025105714798 0.15532024204730988
0.2543266713619232 -0.20416489243507385 -0.13326974213123322
0.23871544003486633 0.2289372980594635 -0.11655905097723007
0.26443272829055786 -0.23553267121315002 -0.13444121181964874
0.2802842855453491 -0.44026973843574524 0.1438746452331543
0.29511600732803345 0.0560486875474453 0.1537056416273117
-0.001886133337393403 -0.24994558095932007 -0.12505993247032166
-0.2392607480287552 -0.23398682475090027 -0.13343726098537445
0.2657979130744934 -0.2113112360239029 0.15702004730701447
0.0971275269985199 -0.2351517230272293 -0.13469663262367249
0.15169954299926758 -0.3678792417049408 0.10905089229345322
0.061304327100515366 -0.17493712902069092 0.1672981083393097
0.29230642318725586 -0.25057029724121094 -0.0850134789943695
0.015591844916343689 -0.2518197298049927 -0.1289391815662384
-0.27160942554473877 -0.07328212261199951 -0.11997305601835251
-0.2424020916223526 -0.34170806407928467 -0.09055843204259872
-0.023989679291844368 0.1759691834449768 -0.13782881200313568
0.1739826500415802 0.4399818480014801 0.03840160369873047
-0.2843848764896393 -0.06425940245389938 -0.2635742425918579
0.2911795377731323 0.22416648268699646 0.14368771016597748
-0.27580317854881287 -0.47312793135643005 -0.06318013370037079
0.2998385727405548 0.136468768119812 -0.10767439752817154
0.29544714093208313 0.1679040491580963 0.14241503179073334
0.28425681591033936 -0.09305832535028458 -0.13461676239967346
0.2891378104686737 0.4358939230442047 -0.012246236205101013
0.20637819170951843 0.06221147999167442 0.16875866055488586
-0.24917364120483398 0.23646913468837738 -0.13495004177093506
-0.16161540150642395 -0.21740855276584625 0.1564258337020874
0.17198936641216278 0.42651861906051636 0.04042598977684975
-0.1540745496749878 0.38387593626976013 0.04474906995892525
0.24616636335849762 0.22734706103801727 -0.1226826161146164
0.1945526897907257 0.23077793419361115 0.08886271715164185
0.264392614364624 -0.37450510263442993 0.17058564722537994
-0.2749553322792053 -0.1911545693874359 -0.07302703708410263
0.18021078407764435 0.37394416332244873 0.08451171964406967
-0.15556494891643524 0.22885634005069733 0.10578107088804245
0.18417495489120483 0.36577555537223816 -0.03931810334324837
-0.2657445967197418 -0.3974367380142212 -0.0984630137681961
0.2492089718580246 0.22955676913261414 0.09529588371515274
-0.2405763417482376 -0.42357945442199707 0.1875980645418167
-0.27319374680519104 0.16585268080234528 -0.019778378307819366
0.29968613386154175 -0.19925932586193085 -0.09479285776615143
0.2972370684146881 0.11334021389484406 0.14421150088310242
0.22092019021511078 -0.40694189071655273 -0.08692740648984909
0.1954570710659027 -0.2903229296207428 -0.05448012053966522
0.2500089704990387 -0.05274724215269089 0.15364274382591248
-0.1246279701590538 -0.24597835540771484 -0.1324746161699295
0.13869111239910126 0.15704527497291565 0.1667070835828781
0.2936016023159027 0.10870432108640671 0.019941553473472595
0.26900187134742737 -0.3662199079990387 0.16095566749572754
-0.2059473842382431 -0.3462707996368408 -0.07571057975292206
0.058601438999176025 0.1762276291847229 0.15224355459213257
-0.26355814933776855 -0.2410469800233841 -0.06254194676876068
0.00044398417230695486 0.2320079654455185 -0.010870791971683502
0.2944873869419098 0.21590107679367065 0.15048517286777496
0.11127414554357529 -0.24956642091274261 0.1448383927345276
0.2021062672138214 0.1612592339515686 0.1614353358745575
0.24702152609825134 -0.2355036586523056 -0.13586539030075073
-0.17828281223773956 0.22861437499523163 0.0790327787399292
-0.02981967106461525 -0.23372437059879303 -0.13418354094028473
-0.20297184586524963 -0.2207978069782257 0.15655095875263214
-0.24269573390483856 0.3118501305580139 -0.006885587237775326
-0.2524994909763336 -0.19165131449699402 -0.13285696506500244
0.296248197555542 -0.05299573391675949 0.1529536247253418
-0.10900098830461502 0.22851970791816711 -0.12560519576072693
0.03343900665640831 0.23198841512203217 0.047746650874614716
0.25671300292015076 -0.24881799519062042 -0.11993907392024994
-0.2731669843196869 0.07614133507013321 -0.12475250661373138
-0.16433021426200867 0.4650733470916748 0.040193554013967514
0.25179433822631836 -0.1459316909313202 0.1583714336156845
-0.2157263457775116 -0.055757008492946625 -0.1382969319820404
0.241083025932312 -0.3209368586540222 -0.08029184490442276
0.29259246587753296 0.1863899827003479 0.0301261767745018
-0.1338403970003128 -0.24875928461551666 0.06549946963787079
-0.2495241016149521 -0.17851629853248596 -0.13454119861125946
-0.2863010764122009 -0.42861002683639526 -0.08807007223367691
-0.24637813866138458 -0.48240023851394653 -0.021873578429222107
0.23605605959892273 -0.22747668623924255 -0.13356786966323853
-0.2682269215583801 0.16595040261745453 -0.12325204163789749
-0.27125924825668335 0.18694481253623962 -0.1322287768125534
0.27140504121780396 -0.17525391280651093 0.1546180099248886
0.21832363307476044 0.2002575546503067 0.1554255485534668
-0.09925886988639832 -0.17202898859977722 0.16997000575065613
-0.2972491979598999 -0.330043226480484 0.17678789794445038
-0.26787763833999634 0.07086793333292007 -0.1360199749469757
0.29588085412979126 0.20680387318134308 0.15150748193264008
0.28581932187080383 -0.41280215978622437 0.18377810716629028
-0.26464930176734924 0.14307478070259094 -0.13301080465316772
0.29544684290885925 0.3659801483154297 0.009897726587951183
-0.2217298299074173 0.5035420060157776 0.010479224845767021
0.27280810475349426 0.3261251449584961 0.062026094645261765
