-0.21861055493354797 -0.17580175399780273 0.1585308462381363
0.2948059141635895 0.4447864890098572 0.12761081755161285
-0.27125898003578186 -0.3629211187362671 -0.09029091894626617
-0.23090842366218567 0.2847829759120941 -0.33627867698669434
-0.16866527497768402 0.4798406958580017 0.0026483722031116486
0.050447866320610046 0.13700339198112488 -0.20188008248806
0.2646423876285553 0.03327247127890587 0.1569594442844391
-0.266926109790802 0.22999554872512817 0.05661709979176521
0.1905117630958557 -0.23764774203300476 -0.13569197058677673
0.28269723057746887 0.2238702028989792 0.03164488822221756
-0.27473321557044983 -0.005061861127614975 -0.30966800451278687
-0.20571166276931763 -0.0937948003411293 0.16921137273311615
0.048875898122787476 0.21214167773723602 -0.18181811273097992
-0.02966107241809368 0.17253607511520386 -0.1359102725982666
0.1887637823820114 -0.2546634376049042 -0.03901654854416847
-0.09492868185043335 0.21252556145191193 -0.13608896732330322
-0.21469683945178986 0.3280371129512787 -0.333372563123703
-0.25906774401664734 0.2272583544254303 0.1480482965707779
-0.2424858957529068 0.25563716888427734 0.002485994715243578
0.02925878018140793 0.18177220225334167 0.1561318337917328
0.19195586442947388 0.4937887489795685 0.015435845591127872
0.2246111035346985 0.33598440885543823 0.08981694281101227
-0.3418290615081787 -0.3701585829257965 0.07895305752754211
-0.2814674973487854 -0.4503847360610962 -0.07970736920833588
-0.20048494637012482 0.3000624477863312 -0.019221868366003036
0.26331156492233276 0.21747121214866638 0.16277796030044556
0.17445121705532074 -0.25492987036705017 0.02225598134100437
-0.2691461741924286 0.21219167113304138 0.0876103937625885
-0.032044678926467896 0.18319396674633026 0.1534852385520935
0.2931523323059082 0.22792451083660126 -0.04436761513352394
0.2725227475166321 0.459928959608078 0.1213233694434166
0.26061776280403137 -0.24983756244182587 0.1528867483139038
-0.22746852040290833 -0.09792453050613403 0.14579272270202637
-0.2564455270767212 0.060539569705724716 0.15667858719825745
-0.022639475762844086 0.10551590472459793 -0.1426410973072052
-0.27067017555236816 -0.1391480267047882 -0.12853673100471497
0.1369439661502838 0.1597169041633606 0.17132166028022766
0.07076550275087357 0.22283148765563965 0.14605653285980225
-0.24167810380458832 0.3507402539253235 0.08790311962366104
0.05319550633430481 0.20422698557376862 -0.1768510788679123
0.2876584231853485 0.3605775833129883 0.10800693184137344
-0.20704787969589233 0.30443447828292847 0.04232272133231163
0.20950980484485626 0.33304768800735474 -0.047513000667095184
-0.035789404064416885 -0.25026655197143555 0.1461784839630127
-0.3384755253791809 -0.3969806432723999 -0.011026903055608273
-0.23185350000858307 -0.4411115050315857 0.16502393782138824
-0.17759379744529724 0.37322938442230225 0.10047124326229095
0.19298292696475983 0.4804602563381195 0.10793779790401459
0.28596389293670654 -0.25147753953933716 -0.011990893632173538
-0.2662220001220703 0.25225698947906494 -0.3570071756839752
0.21096311509609222 0.3813912570476532 0.11370976269245148
0.2980315089225769 -0.24530425667762756 0.11491045355796814
0.2869033217430115 0.042276233434677124 -0.13468724489212036
-0.26650604605674744 0.18547125160694122 0.15998126566410065
-0.045113444328308105 0.32217153906822205 -0.2893671989440918
0.2683638334274292 0.4491679072380066 0.1124763935804367
0.05822527036070824 0.2253940850496292 -0.13565193116664886
0.2535746395587921 0.16821792721748352 0.14947256445884705
0.2758830487728119 0.3815971910953522 0.13050195574760437
-0.25832599401474 -0.09671197831630707 -0.23857565224170685
0.036248110234737396 0.2581871747970581 -0.21946389973163605
-0.04163593798875809 0.1797935515642166 0.1569703370332718
0.08670251816511154 -0.18168042600154877 0.16772349178791046
0.11549828201532364 -0.1963697075843811 0.15081258118152618
0.2874460220336914 -0.1963367462158203 -0.13596472144126892
-0.3346233367919922 -0.35088062286376953 0.16854408383369446
-0.336964875459671 -0.354155033826828 0.12983861565589905
0.2456597238779068 0.23928984999656677 0.05037218704819679
-0.23125572502613068 0.3869277238845825 -0.08114758133888245
-0.19866321980953217 0.3376842439174652 0.06762006133794785
0.2957150936126709 -0.13579469919204712 -0.1366216242313385
-0.2869895398616791 -0.055599186569452286 -0.25049304962158203
0.03525727242231369 0.26440927386283875 -0.25043678283691406
0.04540180414915085 0.10458488017320633 -0.1327163279056549
-0.24008692800998688 -0.34373489022254944 -0.09203656762838364
0.11523695290088654 -0.1811673492193222 0.16629990935325623
0.23055051267147064 0.053772926330566406 0.1682501882314682
-0.00812623742967844 0.08930396288633347 -0.13759391009807587
0.2409968227148056 -0.4035056233406067 -0.0919119268655777
-0.329049289226532 -0.4167833626270294 -0.032985709607601166
0.09452830255031586 0.22596456110477448 -0.1237528845667839
0.18638935685157776 -0.19812525808811188 0.15290690958499908
-0.2788352370262146 0.23657968640327454 -0.33739033341407776
0.3008742928504944 0.2230321168899536 0.09524121135473251
0.258299857378006 0.22799713909626007 0.1455918848514557
0.24988391995429993 0.49340301752090454 -0.05794381722807884
-0.2626781165599823 0.15605345368385315 -0.3069436848163605
-0.06966210156679153 -0.18967407941818237 0.1534513682126999
0.24246275424957275 0.5177545547485352 0.07182692736387253
0.04245078191161156 0.10641993582248688 -0.17715634405612946
-0.22806671261787415 -0.005445659160614014 0.15271823108196259
0.2971654534339905 0.34390753507614136 0.05500229820609093
-0.2589431703090668 0.22844958305358887 0.012429298833012581
-0.2616596221923828 0.21466359496116638 -0.35037457942962646
0.2382078766822815 0.2404802143573761 0.05023682117462158
0.20889049768447876 0.3174659311771393 -0.0249152984470129
-0.28001731634140015 -0.3869517743587494 0.20499733090400696
0.20001830160617828 -0.4457683265209198 0.1971839815378189
0.04680456966161728 0.12231714278459549 -0.19864422082901
-0.22723565995693207 -0.16358257830142975 0.15027038753032684
-0.18977952003479004 0.29893380403518677 -0.010759782046079636
-0.15184170007705688 0.17592443525791168 0.1501622051000595
-0.22954286634922028 -0.45426031947135925 0.1251509189605713
0.24373015761375427 0.3539523184299469 0.12570618093013763
0.10723089426755905 0.21650855243206024 0.15646915137767792
0.2927602231502533 -0.2550663650035858 -0.03960676118731499
0.22166375815868378 0.3961312472820282 0.10128955543041229
-0.2211562842130661 0.23195430636405945 0.05478224530816078
0.1890273094177246 0.2280973494052887 -0.013533233664929867
-0.10894530266523361 -0.24969536066055298 0.14474792778491974
0.24829722940921783 0.04898124560713768 0.16202431917190552
0.2926275432109833 -0.25001081824302673 0.09710841625928879
0.13385429978370667 0.23046083748340607 -0.1322043389081955
-0.07333245128393173 0.15031613409519196 0.16779948770999908
-0.1796494722366333 0.3104335367679596 -0.34688758850097656
0.1934460550546646 0.16396258771419525 0.15732266008853912
-0.16100357472896576 0.40247783064842224 0.09808093309402466
-0.258633553981781 -0.24533775448799133 -0.03963961452245712
-0.27476194500923157 0.24570733308792114 -0.3269639015197754
-0.25759387016296387 0.25446000695228577 -0.36517134308815
0.14600564539432526 -0.44214928150177 0.0723547637462616
0.1406959444284439 0.18120774626731873 0.1586720198392868
-0.2918165326118469 -0.44606903195381165 -0.08273842930793762
-0.25971895456314087 -0.2508995831012726 0.08873510360717773
0.25291767716407776 0.4382632374763489 -0.08918067812919617
-0.281657874584198 -0.04546597599983215 -0.2871095538139343
-0.01536285225301981 0.19442899525165558 -0.15155351161956787
0.190704345703125 0.426959753036499 0.11529708653688431
-0.03370949998497963 0.21932806074619293 -0.1369665116071701
0.2539507746696472 0.12340888381004333 0.15243417024612427
-0.1986037790775299 0.3347395658493042 -0.3499266505241394
-0.19332559406757355 0.3853849172592163 0.09544900059700012
-0.2209559679031372 -0.1680610477924347 0.1624753326177597
-0.3191043436527252 -0.33173617720603943 0.18903100490570068
0.22821196913719177 0.5112465023994446 -0.006752713117748499
-0.19285379350185394 0.27451345324516296 0.033192142844200134
0.26403701305389404 0.2808731496334076 0.020681602880358696
0.2982299029827118 -0.15440982580184937 -0.12561364471912384
0.23776917159557343 0.5189223289489746 0.09204225242137909
-0.23231568932533264 0.31092581152915955 -0.3291020691394806
0.2897222340106964 -0.25144490599632263 -0.06362616270780563
-0.17432188987731934 0.344302773475647 0.06535755842924118
-0.012072287499904633 0.2781211733818054 -0.2249307483434677
0.12476103752851486 -0.17589357495307922 0.16941969096660614
-0.2598758041858673 0.10740149766206741 -0.3153688311576843
-0.33826109766960144 -0.36396968364715576 0.12000878155231476
-0.23585419356822968 -0.45259371399879456 0.1178395003080368
0.21516123414039612 -0.4435148239135742 0.19443941116333008
0.17807312309741974 -0.252368688583374 -0.12860523164272308
0.2128216177225113 0.22092168033123016 0.1565805822610855
-0.06944245100021362 -0.1721629947423935 0.17232269048690796
0.07053425163030624 0.22757646441459656 -0.13243257999420166
-0.2714797556400299 -0.17563915252685547 0.15011313557624817
0.15594704449176788 0.15389499068260193 0.1680762767791748
0.0022607396822422743 0.1875627487897873 -0.14085084199905396
-0.25173377990722656 0.48795998096466064 0.037976182997226715
0.2707637846469879 0.5030226111412048 0.10464175790548325
-0.23680013418197632 0.05764221027493477 0.15755918622016907
0.29893845319747925 0.14797243475914001 -0.12863005697727203
0.2979009747505188 0.22204312682151794 0.08056112378835678
-0.18452401459217072 -0.27002647519111633 0.06856579333543777
0.19967034459114075 -0.20401905477046967 0.15583059191703796
0.26691076159477234 -0.25170308351516724 0.002833777805790305
-0.23158463835716248 -0.006433894857764244 0.15559124946594238
-0.23680050671100616 0.21640130877494812 -0.1341567039489746
-0.039632994681596756 0.30035537481307983 -0.257124125957489
0.16239199042320251 -0.18756233155727386 0.16078031063079834
-0.2422472983598709 -0.1868501603603363 0.1512349396944046
-0.282829612493515 -0.0058545260690152645 -0.23008595407009125
0.02015293762087822 0.11657735705375671 -0.2119993418455124
-0.0559847466647625 0.17899192869663239 0.15514926612377167
-0.02701742760837078 -0.25042328238487244 -0.12528587877750397
0.28441759943962097 -0.4440995454788208 0.02461702935397625
0.2973933219909668 -0.06296737492084503 0.1480323225259781
0.216329425573349 0.16290535032749176 0.1640336513519287
0.0006879419670440257 0.22589486837387085 -0.13446517288684845
-0.19919419288635254 -0.23964570462703705 0.15768352150917053
0.26708656549453735 -0.42691314220428467 -0.07352744787931442
-0.2662057876586914 -0.06318623572587967 -0.29189974069595337
-0.22101131081581116 -0.3355877697467804 0.1119769960641861
-0.21911855041980743 -0.15926413238048553 0.16545915603637695
0.000208409532206133 0.22770442068576813 0.14986442029476166
0.07878511399030685 -0.25018224120140076 0.14487673342227936
-0.13686580955982208 0.21397297084331512 0.15444573760032654
0.2658929228782654 -0.4437083601951599 -0.0515986867249012
0.1747242957353592 -0.2520667612552643 0.021893827244639397
-0.24503342807292938 0.4278765320777893 0.0996345803141594
-0.21375378966331482 0.1670716106891632 0.15724670886993408
0.26662179827690125 0.49160346388816833 0.13204120099544525
0.2473238855600357 0.029324613511562347 0.15816684067249298
-0.17254683375358582 0.2287198156118393 0.14016655087471008
0.22321529686450958 -0.20613451302051544 0.15565219521522522
-0.26251038908958435 0.22416597604751587 -0.13602614402770996
0.12251637876033783 -0.24948573112487793 -0.1320882886648178
-0.24305947124958038 -0.0011435025371611118 -0.24508795142173767
0.25286081433296204 -0.08571943640708923 0.15012480318546295
0.26107528805732727 -0.25234454870224 -0.008254144340753555
0.2578819692134857 0.34334734082221985 -0.07366450130939484
0.055414408445358276 0.2067987620830536 -0.18379029631614685
0.052355945110321045 0.18270236253738403 -0.1515597701072693
0.2634301483631134 -0.11473067849874496 0.1534775048494339
0.30060821771621704 -0.02480350062251091 0.1524505466222763
-0.07593106478452682 0.3187434673309326 -0.28561875224113464
0.2491299957036972 0.3788093626499176 0.1140480563044548
0.28514179587364197 0.011730901896953583 0.15736950933933258
-0.013968338258564472 0.30655431747436523 -0.2615491449832916
-0.2585867643356323 -0.2504619061946869 0.02129211090505123
0.2978484332561493 -0.19073592126369476 0.15398995578289032
-0.2395571917295456 0.29760777950286865 0.006230299361050129
-0.2663134038448334 -0.2533845007419586 -0.08262006938457489
0.2978500425815582 0.11784288287162781 0.14897000789642334
0.29891201853752136 0.21506161987781525 -0.028488293290138245
-0.3047312796115875 -0.368097186088562 0.20549431443214417
0.2121240347623825 0.5135031342506409 0.01907038502395153
0.29814910888671875 -0.23630736768245697 -0.13072559237480164
0.21539030969142914 -0.2528285086154938 -0.06537845730781555
0.09469041228294373 -0.2419355809688568 0.15499554574489594
-0.2866624891757965 0.1437167078256607 -0.32654839754104614
-0.261140376329422 0.2783522605895996 -0.33081263303756714
0.21720333397388458 -0.24377858638763428 -0.13571372628211975
0.11093776673078537 0.229576975107193 0.14054220914840698
0.23889820277690887 -0.2573927640914917 -0.04649769887328148
0.2374815195798874 -0.008639705367386341 0.16918879747390747
-0.21921709179878235 0.45633527636528015 0.09067128598690033
-0.25266721844673157 0.14673852920532227 -0.1357489377260208
-0.03553488850593567 0.17013299465179443 -0.1338430494070053
0.18207189440727234 0.33743414282798767 -0.020468076691031456
0.18590296804904938 -0.26383650302886963 0.05173883214592934
-0.22092047333717346 0.2974329888820648 0.04085278883576393
-0.25650522112846375 0.20909249782562256 -0.3426448106765747
-0.33254027366638184 -0.36308538913726807 0.14375366270542145
-0.23565539717674255 0.25528788566589355 0.037625014781951904
0.16258369386196136 -0.4456443786621094 0.16042186319828033
0.015429635532200336 0.2705056965351105 -0.2212722897529602
0.006350141018629074 -0.18760904669761658 0.15337054431438446
0.058917026966810226 -0.20769932866096497 0.15408207476139069
0.21391765773296356 0.458030641078949 -0.07573923468589783
-0.15143954753875732 0.22892315685749054 0.1416253298521042
-0.25272732973098755 0.003524275729432702 -0.3057057857513428
-0.21690203249454498 0.28755322098731995 -0.02031399868428707
0.09010227024555206 -0.19140514731407166 0.15207982063293457
0.15443658828735352 -0.1856153905391693 0.1636124849319458
0.19326052069664001 0.16207659244537354 0.16611705720424652
0.07442658394575119 -0.2545795738697052 0.15482856333255768
-0.0823894813656807 0.16321557760238647 0.16277725994586945
-0.15033802390098572 -0.26338955760002136 -0.002313733333721757
-0.27197226881980896 0.22122910618782043 -0.09208013862371445
0.0668361634016037 0.2276717573404312 0.1505536288022995
-0.11522819846868515 -0.25155800580978394 0.15399092435836792
-0.072073794901371 0.16763336956501007 0.15531431138515472
-0.04198214411735535 0.1458706110715866 -0.1422814428806305
0.25840455293655396 0.03166563808917999 0.1458621472120285
-0.26686912775039673 -0.3321593403816223 -0.07379698008298874
-0.19940705597400665 0.3314373195171356 -0.040979091078042984
-0.18094472587108612 0.24419397115707397 0.030098896473646164
-0.2522265911102295 -0.24670428037643433 0.15585310757160187
-0.26814720034599304 0.12456879764795303 0.1592225879430771
-0.20246461033821106 -0.41511210799217224 0.12944793701171875
0.1956363469362259 0.4519665837287903 0.11300201714038849
0.24396128952503204 0.23174482583999634 -0.033972956240177155
0.21713480353355408 0.2627384066581726 0.032013118267059326
-0.24489851295948029 0.3511487543582916 -0.0558931790292263
-0.25877630710601807 0.16617204248905182 -0.31762588024139404
-0.24199922382831573 0.40438395738601685 -0.07278494536876678
-0.023860622197389603 0.3086101710796356 -0.29241079092025757
-0.1667235642671585 0.3563893139362335 0.0847790464758873
0.03324524685740471 0.2511376440525055 -0.20723195374011993
0.29767122864723206 0.21836142241954803 -0.12297134101390839
-0.17993900179862976 0.3939724266529083 0.10006633400917053
-0.26722273230552673 0.0799635648727417 -0.31890869140625
-0.2871154248714447 -0.4555690586566925 -0.07683990895748138
-0.2086266130208969 -0.2564226984977722 -0.052866142243146896
-0.21179898083209991 0.3759536147117615 0.10726480185985565
-0.03317088633775711 0.1920977532863617 -0.20530883967876434
-0.2348528951406479 0.27488598227500916 -0.34045296907424927
0.15293915569782257 0.22872616350650787 0.1412172019481659
-0.12774112820625305 0.33126598596572876 -0.3351134657859802
0.2294229120016098 0.47910475730895996 -0.06984531134366989
-0.0687963142991066 0.2255931794643402 -0.1274910420179367
-0.26829081773757935 0.20917263627052307 -0.13592365384101868
-0.21620258688926697 0.0558285117149353 0.16960491240024567
-0.22622868418693542 -0.25342875719070435 0.0849779024720192
0.1410907655954361 -0.4408957362174988 0.032933030277490616
-0.23137842118740082 0.4914077818393707 0.10917053371667862
-0.22621852159500122 -0.06379445642232895 0.15201635658740997
0.030347082763910294 -0.17735399305820465 0.1711360216140747
0.20400495827198029 0.31157875061035156 0.036240313202142715
0.23358678817749023 -0.2952062487602234 -0.0709078460931778
0.29774779081344604 -0.17079892754554749 -0.13544964790344238
-0.2639229893684387 0.16285346448421478 -0.3056276738643646
0.16312357783317566 -0.3907482326030731 0.16915184259414673
0.2976948916912079 0.049848392605781555 -0.13532544672489166
-0.2714683711528778 0.21088191866874695 -0.35039404034614563
0.29746726155281067 -0.02292478270828724 -0.13512322306632996
-0.08173581212759018 0.15426421165466309 0.16931362450122833
-0.2299373596906662 -0.4714930057525635 0.054068274796009064
0.20463182032108307 0.2309265285730362 0.02795787900686264
0.23383186757564545 0.4913555383682251 0.1196153312921524
-0.2179238349199295 0.25538378953933716 -0.027800533920526505
-0.27135422825813293 -0.1754203587770462 0.15603423118591309
-0.20171965658664703 0.3028604984283447 -0.34622904658317566
-0.2707453966140747 -0.07438735663890839 0.15330709517002106
0.20898674428462982 0.22840161621570587 0.012722072191536427
0.20682963728904724 0.41102689504623413 0.10142003744840622
0.21458005905151367 0.45173877477645874 -0.0777568444609642
-0.18606050312519073 0.22917750477790833 0.05180041491985321
-0.26617681980133057 0.42935067415237427 0.11470434814691544
-0.03777792304754257 0.14743360877037048 -0.13457190990447998
-0.18569724261760712 0.37142840027809143 -0.06858635693788528
-0.33711910247802734 -0.39880526065826416 -0.030123185366392136
-0.23446117341518402 0.056226179003715515 0.15415430068969727
-0.014280805364251137 0.22507670521736145 0.15221057832241058
0.005460404325276613 0.29487720131874084 -0.25933006405830383
0.2628273069858551 0.3636646568775177 0.12986111640930176
-0.2555454969406128 -0.06711975485086441 -0.2230631560087204
0.024794401600956917 0.27432650327682495 -0.25103873014450073
-0.2351720929145813 0.31285688281059265 0.0379253514111042
-0.2706206440925598 -0.16167716681957245 0.1536121517419815
-0.268180787563324 -0.0649658665060997 -0.28080034255981445
-0.2207939177751541 0.1806970238685608 0.15671446919441223
-0.1260496824979782 0.17136716842651367 0.15084567666053772
0.11445802450180054 0.21654357016086578 0.15648776292800903
-0.24817322194576263 0.32547804713249207 0.003927247133105993
0.21908646821975708 0.43864569067955017 0.09952840209007263
-0.23915652930736542 0.4515016973018646 -0.0663645938038826
-0.08820027112960815 -0.1817939579486847 0.1666528731584549
0.2830217480659485 0.43799132108688354 -0.07585165649652481
0.2906067371368408 -0.10382156819105148 0.15443089604377747
-0.011096940375864506 -0.23736198246479034 -0.13495603203773499
-0.278399258852005 -0.4663306772708893 -0.0622522346675396
0.29811176657676697 -0.10044499486684799 -0.1327085942029953
-0.33235952258110046 -0.36003389954566956 0.14581456780433655
0.15499338507652283 -0.25240445137023926 -0.12910497188568115
-0.33420172333717346 -0.37183406949043274 0.06140006706118584
-0.22616861760616302 0.3580609858036041 0.10960182547569275
-0.23136627674102783 0.4858652651309967 -0.03535420075058937
-0.21961332857608795 -0.23755036294460297 -0.13861338794231415
0.2616405189037323 -0.2687901556491852 0.00869887787848711
0.21001547574996948 0.43534865975379944 0.09939684718847275
0.2701781690120697 0.3947671949863434 0.11724413931369781
0.2725755274295807 -0.4439464807510376 -0.042795803397893906
0.298003613948822 0.10433020442724228 -0.12416108697652817
-0.25265657901763916 0.05840696021914482 -0.26988616585731506
-0.24567340314388275 -0.3136276602745056 -0.07434701174497604
0.21894516050815582 0.36795225739479065 -0.08257000148296356
0.19134031236171722 0.41760602593421936 0.11670760810375214
0.26183316111564636 0.22942914068698883 0.05639173462986946
-0.17997366189956665 0.2545221149921417 0.00309420982375741
-0.2704772651195526 -0.023251544684171677 -0.12604467570781708
0.17572276294231415 -0.18603214621543884 0.16301456093788147
-0.2193211019039154 0.2365942895412445 -0.03477495536208153
-0.23236395418643951 -0.16397793591022491 0.15087668597698212
-0.2705696225166321 -0.047762416303157806 0.14594371616840363
-0.2703208923339844 -0.06381890177726746 0.14293496310710907
-0.030300479382276535 0.11260771751403809 -0.13427072763442993
-0.15505005419254303 -0.25514286756515503 0.0636695846915245
-0.191246896982193 0.29813793301582336 0.03451266512274742
0.007249188609421253 0.2852848768234253 -0.2794684171676636
0.2877262234687805 -0.3971293568611145 0.16496771574020386
-0.2540285885334015 0.22817660868167877 0.014848652295768261
0.034163735806941986 0.22344502806663513 -0.1331462264060974
0.2663073241710663 -0.3924034833908081 -0.07377439737319946
-0.14224554598331451 0.2195812314748764 0.15764924883842468
-0.08978406339883804 0.30921244621276855 -0.31752365827560425
-0.21840955317020416 0.34727615118026733 -0.0650721862912178
0.0304651390761137 -0.1730579137802124 0.16774709522724152
-0.1880512237548828 0.26868313550949097 0.018269971013069153
-0.22558245062828064 -0.46028047800064087 0.08560002595186234
-0.2449420839548111 -0.025084113702178 -0.2389112114906311
-0.23609992861747742 -0.015871211886405945 0.15693825483322144
-0.029072927311062813 0.22629229724407196 -0.19879865646362305
-0.26905617117881775 -0.07580643147230148 -0.13589347898960114
-0.02173328399658203 0.20862457156181335 -0.17324183881282806
-0.25515034794807434 0.28541529178619385 -0.32792240381240845
-0.26754480600357056 0.19513575732707977 -0.3066886365413666
0.00027031806530430913 0.17221954464912415 0.147579163312912
-0.011639513075351715 0.16664806008338928 -0.22120477259159088
0.25372612476348877 -0.07580065727233887 0.15025269985198975
0.15597839653491974 -0.37875041365623474 0.13528509438037872
0.03227517008781433 -0.18327918648719788 0.1666829138994217
0.06510455906391144 0.14944346249103546 -0.1513586789369583
0.2805820107460022 -0.4451237916946411 0.09925203025341034
0.18529748916625977 -0.44507747888565063 -0.05849173292517662
-0.09899779409170151 0.22664369642734528 -0.13344471156597137
0.22660519182682037 -0.2756754755973816 -0.05966922268271446
0.2968531847000122 0.08237960934638977 -0.12590405344963074
-0.2520185708999634 -0.36524370312690735 -0.09576558321714401
-0.259459912776947 0.008603114634752274 -0.2367302030324936
-0.06908538192510605 0.21240393817424774 -0.13568678498268127
-0.26750338077545166 -0.21223954856395721 0.15715549886226654
-0.016136033460497856 0.10746821016073227 -0.19089335203170776
-0.01598983071744442 0.16208167374134064 0.1712772101163864
-0.24718642234802246 -0.3041325509548187 0.09871194511651993
-0.1882653534412384 0.37872520089149475 0.10630496591329575
0.21786755323410034 0.21962083876132965 -0.13577158749103546
0.24679240584373474 0.24699515104293823 0.04896803945302963
-0.23828569054603577 -0.43148210644721985 0.1803082972764969
-0.15065258741378784 -0.17450624704360962 0.17449310421943665
-0.2551449239253998 -0.08597298711538315 -0.22792258858680725
0.16160088777542114 -0.44774970412254333 0.17429202795028687
0.2503289580345154 -0.16869443655014038 0.15640565752983093
0.13722442090511322 -0.171016126871109 0.16950814425945282
-0.03847689554095268 0.1872379183769226 -0.17949847877025604
0.24239757657051086 0.5162498354911804 0.06642740964889526
0.14580221474170685 0.2324993908405304 -0.13076548278331757
0.24531009793281555 0.5147885084152222 0.009082550182938576
-0.1231415644288063 0.2240619659423828 0.15431155264377594
-0.23561587929725647 0.3134867548942566 -0.35036584734916687
0.22021333873271942 0.3965339958667755 0.103507399559021
0.29744744300842285 0.22603385150432587 0.10082217305898666
0.24491262435913086 -0.25565406680107117 -0.043381623923778534
0.02454003505408764 0.18163102865219116 -0.13830704987049103
0.18529993295669556 0.1786310374736786 0.15527905523777008
-0.18366491794586182 0.4827207326889038 0.10451240837574005
-0.27240392565727234 0.22720937430858612 0.024348022416234016
-0.23062555491924286 0.22618049383163452 0.14333148300647736
-0.2392181158065796 0.149990051984787 0.15626031160354614
0.2941865921020508 -0.23955130577087402 0.10334252566099167
-0.17687493562698364 0.3385917842388153 -0.03208163008093834
0.11091748625040054 -0.25078335404396057 -0.1317155361175537
-0.18340903520584106 -0.06346385926008224 -0.132843017578125
0.18513348698616028 0.4729282855987549 0.08861664682626724
0.0306638665497303 0.133208230137825 -0.21262021362781525
0.243743434548378 -0.3458302915096283 0.1381951868534088
0.1833365559577942 -0.4453897774219513 0.1265338659286499
-0.003205296117812395 0.06931916624307632 0.16888028383255005
0.23136985301971436 0.4328744411468506 -0.08715569972991943
-0.06259173899888992 0.22814272344112396 -0.08569087088108063
0.002122854581102729 0.1006459966301918 -0.16439026594161987
0.17175668478012085 0.37876221537590027 -0.0020052327308803797
-0.2706145644187927 -0.16768421232700348 0.05892810598015785
0.21347947418689728 0.09403304755687714 0.1661725491285324
-0.07860279083251953 0.19312253594398499 -0.13489575684070587
-0.15650621056556702 0.13129527866840363 -0.13603173196315765
0.2979084253311157 0.018740322440862656 0.04261539876461029
-0.09963318705558777 0.08206739276647568 0.17054115235805511
-0.15253569185733795 0.4159967601299286 0.0015817922540009022
0.29900258779525757 0.12817372381687164 0.0925971120595932
-0.1718137115240097 0.021514641121029854 -0.13582998514175415
-0.2689233720302582 0.12122129648923874 -0.08071886003017426
-0.1558115929365158 -0.252475768327713 -0.060327112674713135
0.28156691789627075 0.22829781472682953 0.07823009788990021
-0.2779912054538727 -0.44690802693367004 0.02023279294371605
-0.18522891402244568 -0.39093106985092163 0.08033192157745361
0.2238636463880539 0.08056553453207016 0.16896389424800873
0.17642265558242798 0.4044511020183563 0.07655798643827438
0.19950881600379944 -0.2767197787761688 -0.049911580979824066
0.2978758215904236 0.14807581901550293 0.06231300160288811
-0.10243130475282669 -0.055669043213129044 0.169065922498703
0.214042529463768 -0.09216605126857758 -0.13566145300865173
0.06839171797037125 -0.01377340592443943 0.16916042566299438
-0.1507605016231537 -0.05121619626879692 -0.13705773651599884
0.035728998482227325 -0.1938311904668808 -0.13709698617458344
0.2984950840473175 -0.06903715431690216 0.12774668633937836
0.0705212727189064 -0.22180207073688507 0.15656456351280212
0.16053088009357452 -0.36119967699050903 -0.03979160264134407
-0.27137449383735657 0.02040666528046131 -0.053063616156578064
0.1703118532896042 -0.08508170396089554 -0.1355821043252945
-0.035813719034194946 0.2007390856742859 -0.13698089122772217
0.29804879426956177 -0.19923922419548035 0.02281207963824272
-0.2570754289627075 -0.4262693524360657 -0.09118890762329102
-0.2693740129470825 0.07138536870479584 0.11927995830774307
-0.1566011905670166 0.23133490979671478 0.07288705557584763
0.12074428051710129 0.09949702024459839 0.16974763572216034
0.29803580045700073 0.116014763712883 0.016051433980464935
0.25101208686828613 0.04063697159290314 -0.13718344271183014
0.22811630368232727 -0.012272202409803867 -0.1356905996799469
0.019990885630249977 -0.15002942085266113 0.16939696669578552
0.1037108451128006 -0.14272324740886688 -0.13439270853996277
-0.22249607741832733 0.2282499074935913 0.10096291452646255
0.08771868050098419 -0.2508896589279175 0.1260233223438263
0.29806604981422424 0.030871223658323288 -0.11520873755216599
-0.1471879780292511 -0.020611988380551338 0.16893590986728668
0.18795840442180634 0.09346247464418411 0.16784554719924927
-0.2001332938671112 -0.27786463499069214 -0.05630261078476906
-0.046128373593091965 -0.01304157730191946 0.16911683976650238
-0.26953041553497314 0.009051883593201637 0.048799414187669754
-0.06925491988658905 -0.045750509947538376 -0.13551944494247437
0.28010305762290955 -0.33743995428085327 -0.012621009722352028
0.1716938614845276 -0.44748103618621826 0.022158589214086533
0.03386759012937546 -0.25034379959106445 0.10422365367412567
-0.2661527991294861 0.1844721883535385 -0.09385129064321518
-0.24373459815979004 0.22871851921081543 0.09018911421298981
-0.2830173075199127 -0.3148097097873688 0.027383126318454742
0.21982932090759277 -0.449362188577652 0.07885497808456421
0.2256499081850052 0.3919961154460907 -0.09157506376504898
0.1880764663219452 -0.36657607555389404 -0.07463212311267853
-0.270587682723999 -0.07172812521457672 0.004386890679597855
-0.18212902545928955 -0.3283429443836212 -0.050344981253147125
-0.24904754757881165 0.05125013366341591 0.15649163722991943
0.1412939727306366 -0.4025130867958069 0.13924255967140198
0.22825177013874054 -0.37683653831481934 0.1752408742904663
-0.26784616708755493 0.42217159271240234 0.01072599831968546
-0.2463824301958084 0.2491219937801361 0.01661674678325653
0.0467858612537384 -0.24784275889396667 0.09636726975440979
0.2982185184955597 -0.14065083861351013 -0.11344528198242188
0.2888924479484558 0.4820849597454071 0.07395700365304947
-0.09347574412822723 -0.0767904594540596 -0.1333516240119934
-0.06988608092069626 0.22563618421554565 0.12868265807628632
0.16630250215530396 0.11145380139350891 0.16601143777370453
-0.21013735234737396 -0.44572848081588745 -0.0281662754714489
0.07759744673967361 0.22814461588859558 0.08868161588907242
0.2934233546257019 0.0207033883780241 0.0527624636888504
-0.3175395727157593 -0.3899782598018646 0.09715775400400162
-0.16022169589996338 0.4395929276943207 -0.01581091806292534
0.05568569526076317 0.14257705211639404 0.16571223735809326
0.1565655618906021 -0.06554381549358368 0.16844932734966278
-0.2858505845069885 -0.395382821559906 0.17341946065425873
0.1720600128173828 -0.4464743137359619 0.12250824272632599
-0.26923859119415283 0.20502030849456787 0.09079404175281525
0.188773050904274 -0.25031113624572754 0.0954509750008583
-0.07622221112251282 -0.09811387956142426 -0.13710731267929077
-0.15180237591266632 -0.2877017855644226 0.017123134806752205
-0.020659945905208588 0.14214834570884705 -0.1357707381248474
-0.08924130350351334 0.2281385064125061 0.08437933027744293
0.29700401425361633 -0.03995536267757416 0.1199246197938919
0.0854659155011177 0.011059002950787544 -0.13245762884616852
-0.06307989358901978 0.2061990648508072 0.1551734209060669
0.24169139564037323 0.44809815287590027 0.10256274789571762
-0.147558331489563 0.0457424633204937 -0.13502176105976105
0.1831088662147522 0.46921560168266296 0.006507969461381435
0.1928769052028656 -0.20538750290870667 -0.13507741689682007
-0.27304205298423767 -0.21739144623279572 -0.08235952258110046
-0.16856853663921356 0.10580828040838242 -0.13601800799369812
-0.2678106129169464 -0.3376069962978363 0.17308007180690765
0.016335897147655487 -0.045433685183525085 0.1672976166009903
0.29785603284835815 0.20437580347061157 -0.11391947418451309
-0.2361624389886856 0.5010895133018494 0.036281801760196686
-0.24271950125694275 -0.463966429233551 0.06508983671665192
-0.18823204934597015 -0.30528971552848816 -0.0583791621029377
-0.2184872031211853 0.02959776669740677 -0.13609670102596283
-0.1694222390651703 0.22807379066944122 -0.05744091421365738
-0.22472986578941345 -0.4170514941215515 -0.07629943639039993
0.019581690430641174 0.14360801875591278 -0.21752570569515228
0.2996702790260315 0.06372703611850739 0.06951208412647247
-0.04569020867347717 -0.2551155090332031 0.0226332675665617
0.25860145688056946 -0.2891450822353363 0.06865650415420532
0.21677683293819427 0.5038386583328247 -0.01852528564631939
-0.27137860655784607 -0.06376929581165314 -0.044400762766599655
-0.10570967197418213 -0.2511165142059326 -0.05477685481309891
-0.26287075877189636 -0.4205573499202728 -0.08613771200180054
-0.23922914266586304 0.44022858142852783 -0.06776494532823563
0.11434275656938553 0.10050774365663528 0.1666194349527359
0.2979141175746918 -0.023021092638373375 -0.008817564696073532
-0.21844987571239471 -0.05578841641545296 -0.1367582082748413
-0.08728083223104477 -0.07796423137187958 0.17188380658626556
-0.2341599315404892 -0.20548805594444275 0.15641508996486664
-0.166623055934906 -0.30242252349853516 -0.028771553188562393
0.2705698609352112 -0.06897099316120148 0.15719732642173767
0.28255215287208557 -0.40949317812919617 -0.03369129076600075
-0.23963528871536255 0.002827252261340618 -0.13613303005695343
0.2718462646007538 -0.3215291500091553 -0.040080178529024124
-0.1851787567138672 -0.33714184165000916 -0.05111846327781677
-0.14461709558963776 0.023618590086698532 -0.1356765478849411
-0.1000189483165741 0.22812600433826447 -0.03490455448627472
-0.20529994368553162 0.03885015472769737 -0.13244247436523438
0.10810128599405289 -0.2257305532693863 0.15664608776569366
-0.2712339758872986 -0.043546922504901886 -0.015488224104046822
-0.27019497752189636 0.1417636275291443 0.0022200187668204308
0.1666526347398758 -0.418858140707016 -0.05290345102548599
-0.22190669178962708 0.1910475343465805 -0.13631221652030945
-0.2920142114162445 -0.0017687607323750854 -0.2526315152645111
0.12498966604471207 0.2280784398317337 0.004170547239482403
0.1482047736644745 -0.16523416340351105 0.16959288716316223
0.1368671953678131 -0.42144155502319336 0.06869591772556305
0.12904033064842224 0.13569636642932892 -0.13557612895965576
-0.2660876512527466 0.4304347038269043 0.04824436083436012
-0.26321911811828613 0.4406728446483612 -0.0014703365741297603
-0.062491875141859055 -0.1203206405043602 -0.13430556654930115
0.27045875787734985 -0.445893257856369 0.17662343382835388
0.29143646359443665 -0.4188493490219116 0.08909491449594498
-0.16935183107852936 0.47592562437057495 -0.0037851170636713505
0.27302244305610657 0.05772717297077179 0.1557186394929886
0.28680747747421265 -0.36800017952919006 0.01189859677106142
-0.28885093331336975 -0.332171231508255 0.18435263633728027
0.26646292209625244 0.10881981253623962 0.15616294741630554
0.07403817772865295 0.2286057323217392 0.0581507682800293
0.1013200581073761 0.10893285274505615 -0.1373395025730133
-0.0939646065235138 0.22876322269439697 0.0014816292095929384
-0.05173710361123085 -0.0012827201280742884 0.1642560213804245
-0.07463496923446655 -0.18338721990585327 -0.1341324746608734
0.18658089637756348 -0.25142842531204224 0.09866979718208313
0.020800262689590454 0.008033053949475288 -0.13544844090938568
0.299045592546463 0.04580424353480339 0.04298359528183937
-0.010387738235294819 0.23163382709026337 0.0086252111941576
-0.23656272888183594 -0.2510921359062195 0.11334097385406494
0.18062740564346313 -0.09471212327480316 -0.13379038870334625
-0.19472350180149078 -0.4291274845600128 0.07056300342082977
-0.27492353320121765 -0.30708903074264526 0.015553737059235573
-0.271712064743042 -0.14900563657283783 0.12011565268039703
0.051354825496673584 -0.04349241778254509 -0.1354723423719406
0.1538773626089096 -0.17801380157470703 -0.13404852151870728
-0.08514796942472458 -0.08469679951667786 0.16802525520324707
-0.1967233568429947 -0.1539660394191742 0.16920733451843262
0.1792500764131546 -0.4467077851295471 0.008072913624346256
0.2961711287498474 0.15899884700775146 0.0303609948605299
0.2982398271560669 0.017763802781701088 0.10541479289531708
-0.17596913874149323 0.47109344601631165 -0.03440297394990921
0.29805463552474976 -0.22327585518360138 0.059006884694099426
-0.15885549783706665 0.4192628264427185 -0.024647634476423264
-0.017985768616199493 0.23105698823928833 0.08418034762144089
0.1664039045572281 0.1166994497179985 -0.13427013158798218
0.17388078570365906 -0.1507667601108551 -0.13772690296173096
-0.261724054813385 -0.4537260830402374 0.04068852961063385
-0.13491001725196838 0.22813555598258972 0.013734455220401287
0.04410772770643234 -0.08645031601190567 0.1691763699054718
-0.0707193911075592 -0.25272616744041443 0.03836721181869507
0.19433583319187164 -0.44654619693756104 0.17835240066051483
0.15119190514087677 -0.021001989021897316 -0.13652151823043823
-0.26028263568878174 0.3698813021183014 -0.0167455542832613
-0.27067703008651733 -0.06406766921281815 0.02741144225001335
-0.006336974445730448 0.01154601015150547 0.1678118258714676
-0.16286766529083252 0.4689754843711853 0.0629398375749588
-0.05364124849438667 -0.25307953357696533 -0.02454354800283909
0.2900887131690979 -0.3903941512107849 0.12321068346500397
0.05554867535829544 -0.13897670805454254 -0.13390502333641052
-0.2319575399160385 -0.17724300920963287 -0.13607296347618103
0.29797765612602234 -0.054467927664518356 0.10973066091537476
-0.2254987210035324 -0.33621862530708313 0.11739771068096161
0.29508647322654724 0.010031094774603844 0.09587135910987854
0.12914441525936127 0.22988781332969666 0.08006785809993744
0.18363714218139648 0.07030528038740158 0.16939552128314972
0.3008137047290802 -0.22408972680568695 -0.015054503455758095
-0.2920215427875519 -0.4476114809513092 -0.02833859808743
-0.029120545834302902 -0.07263410836458206 0.16911831498146057
-0.15689222514629364 0.46087032556533813 0.02220429666340351
0.19149240851402283 -0.2851749062538147 0.07079582661390305
0.29789629578590393 0.17738722264766693 0.008357344195246696
0.22810667753219604 -0.02309092879295349 0.1660480499267578
0.08322402834892273 -0.07886017858982086 -0.1356210708618164
-0.2486366629600525 -0.2511441707611084 0.09672081470489502
-0.27056223154067993 0.010243034921586514 0.07946935296058655
-0.11646081507205963 -0.1696135699748993 0.1684415191411972
-0.11860740184783936 -0.14473234117031097 -0.13983874022960663
0.13719111680984497 -0.4055224061012268 0.06560668349266052
-0.20100095868110657 0.338573157787323 0.07091731578111649
-0.12263444066047668 0.03451533615589142 0.1702491194009781
-0.27401232719421387 -0.1028902530670166 0.06913722306489944
-0.23829084634780884 -0.1350061297416687 -0.13607114553451538
-0.2556769549846649 -0.34629830718040466 0.1622796207666397
0.2252073884010315 0.10755757987499237 0.1705811768770218
-0.10813796520233154 -0.04010481759905815 0.16905516386032104
0.29692816734313965 0.009421775117516518 -0.07703545689582825
-0.17037589848041534 0.1144646406173706 -0.13689275085926056
-0.27012959122657776 0.19790133833885193 -0.05929647013545036
0.2975161671638489 -0.13963112235069275 -0.026481281965970993
-0.2706209421157837 0.06644613295793533 -0.05639917403459549
-0.09108226746320724 0.15755918622016907 -0.137098491191864
0.2972944974899292 0.06614531576633453 -0.018523603677749634
0.03658818453550339 -0.08284173160791397 -0.13659073412418365
-0.17840848863124847 0.22603151202201843 -0.0993710309267044
-0.2737683951854706 -0.19179710745811462 0.08321668207645416
-0.004657860845327377 -0.15847226977348328 -0.13927578926086426
0.025264497846364975 0.03870214894413948 -0.1361730843782425
0.20497258007526398 0.22613710165023804 0.0617116279900074
-0.2634427547454834 -0.3468434512615204 0.18387052416801453
0.094932422041893 0.22646714746952057 0.07723316550254822
0.21034178137779236 0.09395059198141098 -0.1375439614057541
-0.25713062286376953 -0.45217782258987427 0.06120077520608902
0.2758859694004059 -0.056897908449172974 -0.13759519159793854
-0.2703409194946289 0.14928539097309113 -0.10141579061746597
0.13567860424518585 -0.24993756413459778 0.019269686192274094
-0.00717981206253171 -0.25111401081085205 0.11562508344650269
0.03942284360527992 0.14839862287044525 -0.21308395266532898
0.22642923891544342 0.40824466943740845 -0.08997619897127151
0.28604942560195923 -0.3542082607746124 0.005538211204111576
0.25159183144569397 -0.34532713890075684 -0.08163588494062424
0.005512237548828125 0.13232633471488953 -0.13691000640392303
-0.11510064452886581 0.04947017878293991 -0.13564108312129974
-0.06679846346378326 0.22840838134288788 0.11120748519897461
0.29743728041648865 -0.016201285645365715 -0.06704764813184738
0.15504805743694305 -0.2523983120918274 0.13795626163482666
-0.2192205786705017 -0.12089259922504425 -0.13931533694267273
0.08309904485940933 -0.05089646950364113 -0.13366059958934784
0.23221059143543243 0.022252261638641357 -0.1347353160381317
-0.051131151616573334 0.16980208456516266 -0.1357092410326004
-0.1879180520772934 -0.41103971004486084 0.07926355302333832
0.2126506268978119 0.021704113110899925 -0.13551610708236694
-0.21010558307170868 -0.3479386568069458 -0.07570139318704605
-0.16481022536754608 -0.35385751724243164 0.031391702592372894
-0.24012063443660736 0.2636374831199646 0.020330114290118217
-0.06004025414586067 -0.21107643842697144 0.1562156230211258
-0.12127114832401276 -0.2541682720184326 -0.0425642654299736
0.3006749749183655 0.1263255923986435 -0.1083320826292038
-0.2705952227115631 -0.01962726004421711 0.058877553790807724
0.03772878646850586 0.0294710174202919 0.16939769685268402
-0.056340012699365616 -0.24958299100399017 0.0980193093419075
0.19186393916606903 0.08378441631793976 0.17015258967876434
-0.005398938432335854 -0.021230915561318398 -0.13465000689029694
0.22341684997081757 -0.035956066101789474 0.17181779444217682
0.21122539043426514 0.2250269651412964 0.0005883066914975643
-0.27085018157958984 -0.15358033776283264 -0.004750029183924198
0.030506737530231476 0.08513378351926804 0.17189422249794006
-0.224230095744133 -0.13133132457733154 -0.13602155447006226
0.2235974222421646 -0.3353559672832489 0.12425503134727478
-0.2701513469219208 0.18795859813690186 -0.05786330997943878
-0.2701667845249176 0.17416609823703766 0.0879867747426033
-0.22806282341480255 -0.4128008484840393 -0.07823042571544647
-0.15754802525043488 0.1373603641986847 -0.13757622241973877
0.2979670464992523 -0.05133553594350815 0.11623149365186691
0.29802054166793823 0.03103986382484436 0.03546255826950073
-0.16743770241737366 0.018266728147864342 0.17142926156520844
0.29908204078674316 -0.06537342071533203 0.07727649807929993
-0.0427912101149559 -0.10904382169246674 -0.13513591885566711
0.17807525396347046 0.08142808079719543 -0.1335325688123703
0.05702025815844536 0.03250887617468834 -0.13546830415725708
-0.2712506949901581 0.17552654445171356 -0.023591317236423492
-0.2704509198665619 0.09168970584869385 0.08070176094770432
-0.2952665388584137 0.013139208778738976 -0.26431623101234436
0.13948991894721985 -0.3920685350894928 0.09068623185157776
0.29388734698295593 -0.10894550383090973 0.028442131355404854
-0.2460327446460724 0.25109389424324036 0.00643386272713542
-0.08749154955148697 0.2281392216682434 -0.012859296053647995
-0.2704179883003235 0.19544200599193573 0.04815581440925598
-0.26185131072998047 -0.43626004457473755 -0.08489799499511719
-0.06912234425544739 -0.12242133915424347 0.1691732108592987
-0.07179587334394455 0.0917605459690094 0.1695845127105713
0.008073437958955765 0.12796856462955475 -0.21326778829097748
0.27779513597488403 -0.07873076945543289 -0.13460953533649445
0.11532827466726303 -0.06901035457849503 0.16926880180835724
0.18591326475143433 0.47257304191589355 0.09327106922864914
-0.1562550961971283 0.45749199390411377 0.00863555260002613
-0.17280596494674683 -0.36546844244003296 -0.02058570273220539
0.25280940532684326 0.17502008378505707 -0.1357792317867279
0.16655023396015167 -0.446319580078125 0.12345904111862183
0.22931478917598724 -0.24696120619773865 0.11695856600999832
-0.1729617565870285 -0.010196764022111893 0.17026348412036896
-0.16600799560546875 0.44151559472084045 -0.023211972787976265
0.1928272247314453 0.3365531861782074 -0.031887855380773544
-0.20119760930538177 0.18602393567562103 -0.1364995688199997
0.13072440028190613 -0.25393885374069214 0.07825928181409836
0.18406590819358826 -0.44719719886779785 0.040822677314281464
-0.23669084906578064 -0.013559174723923206 -0.13566243648529053
0.023157063871622086 -0.12668953835964203 -0.1305217146873474
-0.24574163556098938 0.38296908140182495 -0.06804293394088745
-0.2595668435096741 0.35573244094848633 0.06990305334329605
0.05792037397623062 0.17194171249866486 -0.19710375368595123
0.2987224757671356 0.02848493866622448 0.0033407125156372786
-0.11331941932439804 -0.07382863014936447 -0.13617075979709625
0.2832806408405304 -0.34641513228416443 0.0437176376581192
-0.15848283469676971 0.39860081672668457 -0.017163049429655075
-0.12439141422510147 0.14269894361495972 0.1713348627090454
-0.09562502801418304 -0.25319045782089233 0.07268872857093811
0.3028049170970917 -0.08123794943094254 -0.03585725277662277
0.2979911267757416 0.008832914754748344 0.13832202553749084
0.14298425614833832 -0.40042826533317566 -0.01364861335605383
-0.007366017904132605 0.08564966917037964 0.16917365789413452
-0.23842322826385498 0.49567341804504395 0.022474247962236404
-0.2581608295440674 -0.46014922857284546 0.04278256744146347
-0.21950387954711914 0.18909384310245514 0.1569937765598297
-0.0976901724934578 0.13590361177921295 -0.13654859364032745
-0.15526655316352844 -0.31088921427726746 0.004957386292517185
-0.19155022501945496 -0.2829081416130066 0.06952771544456482
-0.28547021746635437 -0.39509016275405884 0.1856411248445511
0.1593385487794876 -0.298063188791275 -0.0037749866023659706
0.1586640626192093 0.23064635694026947 0.1265125274658203
-0.2839788496494293 -0.3109658658504486 0.05715213343501091
-0.2860770523548126 -0.3897637724876404 0.1907014399766922
0.2947404980659485 0.08393643796443939 0.03892500698566437
0.21621887385845184 -0.10442570596933365 0.1737740933895111
0.299390971660614 0.3898599445819855 -0.015936704352498055
-0.1980101615190506 0.09512470662593842 0.1690613478422165
0.29799920320510864 -0.18107010424137115 0.12181422859430313
-0.2659692168235779 0.38314956426620483 0.06882210075855255
0.17775045335292816 0.4434027075767517 0.08407540619373322
-0.18282048404216766 0.1170383021235466 0.16862167418003082
0.021579906344413757 0.22771631181240082 0.0674847960472107
0.27523255348205566 0.16010329127311707 0.15653544664382935
0.29823389649391174 -0.17726579308509827 -0.1066560298204422
0.06634686887264252 -0.14521820843219757 0.16921301186084747
0.18408235907554626 0.2291310578584671 -0.05294618010520935
-0.1764880269765854 -0.11915988475084305 0.16928301751613617
0.29956865310668945 0.41053295135498047 0.09347954392433167
0.04150959104299545 0.22512559592723846 0.12979601323604584
0.18803878128528595 -0.0418286994099617 0.16940146684646606
0.2920946776866913 0.47637447714805603 0.04764309152960777
0.2297644168138504 -0.4067505896091461 -0.09067019820213318
-0.256475567817688 0.4462120532989502 -0.03291703388094902
0.16611172258853912 -0.4077090919017792 -0.0516664981842041
0.018312552943825722 -0.03066723607480526 0.17024415731430054
-0.2719578444957733 0.0007491374271921813 0.07791449874639511
0.08714042603969574 -0.037615224719047546 0.17305521667003632
-0.1414976716041565 0.12589246034622192 -0.13595305383205414
0.2572293281555176 0.22831474244594574 -0.1099870502948761
-0.030069805681705475 -0.0960305780172348 -0.13293448090553284
-0.2856852412223816 -0.0625469759106636 -0.25786092877388
-0.27067339420318604 0.015894630923867226 0.13267284631729126
0.28710201382637024 -0.4204161763191223 0.08955484628677368
-0.18775394558906555 0.11317826062440872 0.1692473590373993
-0.15438927710056305 0.3716089129447937 0.006850840523838997
