0.2861155867576599 0.22877074778079987 -0.014406958594918251
-0.15635663270950317 0.3930049240589142 0.0988338366150856
-0.23136204481124878 0.5016424059867859 0.015388963744044304
0.05607302859425545 -0.24802109599113464 -0.1309589147567749
-0.036719366908073425 0.1834896206855774 0.15386438369750977
-0.26870545744895935 0.2273603081703186 0.10492260754108429
0.26411300897598267 0.32066410779953003 -0.03712315484881401
-0.03012341447174549 0.30725935101509094 -0.2633626461029053
0.2160424292087555 0.323150634765625 0.05761590600013733
-0.04710144177079201 0.1408609002828598 -0.13678303360939026
-0.21881835162639618 0.5115248560905457 0.03776238486170769
-0.3125622570514679 -0.32954397797584534 0.18375873565673828
-0.23118700087070465 -0.2831932008266449 0.08645135164260864
0.06580039858818054 0.16480226814746857 -0.13559572398662567
0.23346282541751862 0.22329941391944885 0.15682077407836914
-0.24156054854393005 0.4232957363128662 0.10463819652795792
0.15478326380252838 -0.2413860410451889 0.15659509599208832
0.22310541570186615 0.30160441994667053 0.04310072585940361
0.2600792348384857 -0.24173705279827118 0.155129536986351
-0.267071396112442 -0.2944236695766449 0.09864243865013123
-0.2725939154624939 -0.3768780827522278 0.2033921182155609
0.00426071509718895 -0.2492942065000534 -0.12591959536075592
-0.28412824869155884 0.07518710196018219 -0.3129179775714874
0.25390625 0.055804964154958725 0.15134455263614655
0.24136628210544586 0.2881770431995392 -0.02178702875971794
-0.18648594617843628 0.292529821395874 0.026161398738622665
0.19751428067684174 0.40977802872657776 0.11160658299922943
-0.22800157964229584 0.3801979720592499 -0.07997296005487442
-0.30079588294029236 -0.4341316521167755 -0.08838160336017609
0.059489741921424866 0.19415120780467987 -0.13616149127483368
-0.186201274394989 0.29332515597343445 0.023575961589813232
0.08399321138858795 -0.24665777385234833 -0.13269588351249695
0.28228887915611267 0.23000392317771912 -0.12844307720661163
0.2501116394996643 0.476746141910553 -0.0713004320859909
-0.25936374068260193 0.22666506469249725 -0.11824536323547363
0.2984972894191742 -0.057345256209373474 -0.1240585520863533
0.28800472617149353 0.21793968975543976 0.15611369907855988
-0.2703833281993866 -0.2423572987318039 0.11350804567337036
-0.0226083155721426 0.18453939259052277 0.1525794118642807
-0.20478300750255585 0.31552430987358093 -0.3599717617034912
-0.21747127175331116 -0.23673218488693237 0.1575746387243271
0.2500710189342499 0.39081498980522156 0.10647747665643692
-0.208396777510643 -0.1899740844964981 0.15541012585163116
0.29885461926460266 -0.08577454090118408 -0.13174720108509064
-0.2324240356683731 -0.02223559282720089 0.1519199013710022
-0.22627843916416168 -0.46066561341285706 0.12055803090333939
0.29254621267318726 0.21179457008838654 0.15694108605384827
0.2624575197696686 0.3830232322216034 0.11665530502796173
0.27066436409950256 0.3061392307281494 -0.012082989327609539
-0.24960941076278687 0.0015730942832306027 -0.30030110478401184
0.2940591275691986 -0.4334384799003601 0.06893166899681091
-0.25262171030044556 0.04456310346722603 -0.25972360372543335
-0.2856978178024292 0.11434134095907211 -0.2968204617500305
0.20881517231464386 0.36084046959877014 0.11144696176052094
0.2806716859340668 -0.2493651658296585 0.13413846492767334
-0.00795489177107811 0.2874692380428314 -0.2872735857963562
0.04807674512267113 0.11097130924463272 -0.170060932636261
0.29587623476982117 -0.23666861653327942 0.13410793244838715
0.2588656544685364 -0.3729729950428009 -0.0832299292087555
0.1535852998495102 0.22452576458454132 -0.13184507191181183
-0.2498842030763626 -0.2494107484817505 0.042305074632167816
0.24603918194770813 -0.4190276563167572 -0.08937618136405945
0.14495234191417694 -0.44339486956596375 -0.007006192579865456
0.059947870671749115 0.22396136820316315 0.1572965383529663
-0.28081008791923523 -0.3017050623893738 0.11945518851280212
0.017650330439209938 0.28089800477027893 -0.24074742197990417
0.05300290510058403 0.21925845742225647 -0.21744771301746368
-0.21515490114688873 0.4980499744415283 -0.029311640188097954
0.17413540184497833 -0.24981378018856049 -0.001797487959265709
0.2697333097457886 0.3448425829410553 0.10738995671272278
-0.3101961314678192 -0.4213932156562805 -0.08871451020240784
-0.18427520990371704 0.2201525717973709 -0.13487957417964935
0.2155233919620514 0.26816272735595703 -0.0065606506541371346
-0.24346646666526794 -0.3921433091163635 0.20107808709144592
0.20855434238910675 0.4899768829345703 0.11700581759214401
-0.2814897894859314 0.012124596163630486 -0.3121247887611389
0.2799636423587799 0.17937564849853516 0.15423564612865448
-0.21137242019176483 0.4564965069293976 -0.07472973316907883
-0.15785270929336548 0.22713640332221985 0.1557282656431198
0.24759526550769806 -0.3327873945236206 -0.0803840234875679
0.21762487292289734 0.22816847264766693 0.024289222434163094
0.29094287753105164 -0.14940734207630157 -0.1317380964756012
-0.164212167263031 0.1769210696220398 0.15080663561820984
-0.2365676462650299 -0.2504028081893921 0.06647463887929916
-0.25277674198150635 -0.41675660014152527 0.19826284050941467
0.26873070001602173 0.31423988938331604 0.03317059576511383
-0.03264551982283592 0.20028746128082275 -0.20554451644420624
-0.31452295184135437 -0.4266095459461212 -0.08115411549806595
0.11931759119033813 -0.24777871370315552 -0.13388369977474213
-0.25557106733322144 0.24572788178920746 -0.35832056403160095
-0.1670484095811844 0.4666613042354584 0.1021028682589531
-0.1758219301700592 -0.2637794613838196 0.05947384238243103
-0.031394388526678085 0.22544798254966736 -0.12707777321338654
-0.25591886043548584 -0.24749541282653809 0.15510141849517822
0.10799933969974518 0.2195500284433365 -0.13504907488822937
0.28971150517463684 -0.2508077919483185 -0.04868343845009804
0.23085077106952667 -0.4429803192615509 -0.08915001153945923
-0.2731683850288391 -0.22252516448497772 -0.12150657922029495
0.2043849676847458 0.4906405806541443 0.11256660521030426
0.29779496788978577 -0.2464948445558548 0.03726554661989212
-0.3334602117538452 -0.3453797399997711 0.18462824821472168
0.26427340507507324 0.0581563375890255 0.15495328605175018
-0.34039950370788574 -0.3908446729183197 0.01040692813694477
-0.18768778443336487 -0.17919842898845673 0.16923056542873383
0.24920997023582458 -0.10279861837625504 0.1601230502128601
-0.32912757992744446 -0.40255534648895264 -0.051037900149822235
0.27559733390808105 0.23273035883903503 0.025107551366090775
0.08567747473716736 0.22753819823265076 0.15477533638477325
-0.11009377241134644 0.31801846623420715 -0.31772223114967346
0.2457023411989212 -0.17181536555290222 0.16869035363197327
-0.24704600870609283 0.038948770612478256 -0.27334368228912354
0.2522847056388855 0.16950544714927673 0.1540134847164154
0.29854094982147217 -0.25022032856941223 -0.07243826240301132
0.2700614333152771 0.22796998918056488 -0.12813128530979156
-0.13931992650032043 0.32300829887390137 -0.34513920545578003
0.2865765690803528 -0.44121891260147095 0.10083144903182983
0.14351508021354675 -0.44416579604148865 0.01812136545777321
0.22474651038646698 0.2276792675256729 0.14522384107112885
0.2517971396446228 -0.17308953404426575 0.16784772276878357
-0.22731290757656097 0.3084668517112732 -0.36402440071105957
0.17939142882823944 -0.24917590618133545 -0.12536102533340454
-0.30207395553588867 -0.35275331139564514 0.202295184135437
0.24832382798194885 0.0975794643163681 0.15847834944725037
-0.18458521366119385 -0.24617473781108856 -0.13201159238815308
-0.23513376712799072 0.05812918767333031 0.1559930294752121
-0.33507388830184937 -0.3962981700897217 -0.022658951580524445
-0.09405291080474854 -0.18536530435085297 0.16664429008960724
-0.19404764473438263 0.2915765345096588 0.036620814353227615
0.22433970868587494 0.27164405584335327 -0.014866333454847336
-0.2597198188304901 -0.3355966806411743 -0.08549689501523972
0.20822469890117645 0.31170418858528137 -0.00640903552994132
0.2844811975955963 0.10255365073680878 0.1569501906633377
0.2550824284553528 -0.010500426404178143 0.1495722383260727
0.25749993324279785 0.515659511089325 0.05399187654256821
-0.2647494971752167 -0.23480834066867828 -0.1299619972705841
0.05616628751158714 0.1934584230184555 -0.16950900852680206
0.07475375384092331 0.12911000847816467 -0.13386811316013336
0.29726797342300415 0.21779881417751312 -0.1318150758743286
0.20905616879463196 0.22764982283115387 0.14492332935333252
0.26011165976524353 0.5159837007522583 0.055865444242954254
-0.20424237847328186 -0.24388588964939117 0.15626907348632812
-0.2525683045387268 -0.3355444073677063 -0.08204507827758789
0.20724143087863922 0.4837823510169983 -0.05025899410247803
0.301932692527771 -0.24836726486682892 -0.11646896600723267
0.2616736888885498 0.38374730944633484 -0.0877397432923317
0.2985173761844635 -0.035250913351774216 -0.12911109626293182
-0.26553669571876526 -0.046955954283475876 -0.21970318257808685
0.21341918408870697 0.23295576870441437 0.03708961606025696
-0.2254723459482193 -0.2674669921398163 -0.03837521746754646
0.12378296256065369 0.22829461097717285 -0.12749651074409485
0.21633796393871307 0.5132784843444824 0.04014100506901741
-0.2516397535800934 0.05967574566602707 -0.30217260122299194
0.23187045753002167 -0.2533831000328064 -0.04859791323542595
0.23506711423397064 0.37541189789772034 0.11155876517295837
0.2969217896461487 -0.03818098455667496 -0.12877169251441956
0.19650328159332275 0.16984301805496216 0.15344823896884918
0.25878939032554626 0.28320053219795227 -0.01450063195079565
-0.24175530672073364 -0.25026485323905945 -0.024166639894247055
0.2448105812072754 -0.019871119409799576 0.167244553565979
0.29172223806381226 -0.20356541872024536 0.1569683700799942
-0.03519029542803764 0.3148629069328308 -0.29341378808021545
-0.2453734129667282 -0.008300986140966415 -0.28555983304977417
0.19909566640853882 0.37821677327156067 0.11290916800498962
-0.3165801763534546 -0.3311518430709839 0.17563480138778687
0.06787874549627304 0.1740022748708725 0.15187089145183563
0.2599901556968689 0.25360527634620667 0.03590758889913559
-0.251455694437027 -0.07007481157779694 -0.27794408798217773
-0.2506243884563446 -0.2470243275165558 0.15510767698287964
0.29058220982551575 0.4203002452850342 0.13126175105571747
-0.028985915705561638 0.19632700085639954 -0.16324232518672943
-0.23214274644851685 0.4578859508037567 -0.064053975045681
-0.024938037618994713 0.26436302065849304 -0.22434312105178833
0.24470412731170654 -0.06289514899253845 0.16738489270210266
-0.025673022493720055 0.31400805711746216 -0.27277135848999023
0.2983735203742981 0.22754384577274323 -0.0015277843922376633
0.2988019287586212 0.21943403780460358 -0.04445667564868927
0.2888461947441101 0.22709544003009796 -0.1337047666311264
0.29617270827293396 0.17291462421417236 -0.13214057683944702
0.2441411316394806 0.06217318773269653 0.16549386084079742
-0.28365615010261536 -0.03260659798979759 -0.2361735999584198
-0.24491940438747406 -0.43749701976776123 0.17893600463867188
0.2296639382839203 0.31335046887397766 -0.034494150429964066
-0.22604401409626007 0.05696071311831474 0.15329134464263916
-0.24866436421871185 0.3429095149040222 -0.037606656551361084
-0.2770393490791321 0.062137726694345474 -0.3199533224105835
0.21740101277828217 -0.2008836716413498 0.15446846187114716
-0.29902878403663635 -0.45316025614738464 -0.07898956537246704
0.06364451348781586 0.22863411903381348 0.14680266380310059
-0.2265152782201767 0.2660735547542572 0.04070698469877243
0.3012712597846985 0.025786153972148895 -0.1294233202934265
0.28738000988960266 -0.43841633200645447 0.12250640988349915
0.24275724589824677 0.033690664917230606 0.16696910560131073
-0.27109766006469727 0.2502301335334778 -0.3221990764141083
0.06297389417886734 0.21599341928958893 -0.13913515210151672
0.30001088976860046 0.13374879956245422 -0.13403522968292236
0.010388271883130074 0.26340654492378235 -0.26580172777175903
-0.19007046520709991 0.394629567861557 0.0876549482345581
-0.20607656240463257 0.1608894020318985 0.1642296016216278
0.23407529294490814 -0.19232241809368134 0.16122429072856903
0.29619672894477844 0.19402742385864258 0.14954279363155365
-0.22588063776493073 -0.16424182057380676 0.158674955368042
0.23387806117534637 0.2762647569179535 -0.01812266930937767
-0.20670762658119202 0.5035284757614136 0.011063932441174984
-0.214010551571846 0.22822114825248718 0.15083493292331696
0.1919386237859726 0.15711693465709686 0.16797348856925964
0.0889161229133606 0.17027805745601654 0.1548348069190979
-0.14045992493629456 -0.19322676956653595 0.14925213158130646
-0.2728824019432068 0.09335677325725555 0.15381187200546265
0.19002632796764374 0.3401426672935486 0.051092181354761124
0.2844862639904022 -0.24746578931808472 -0.12840808928012848
0.29814019799232483 -0.23095384240150452 -0.1198519766330719
0.2156417965888977 0.41591140627861023 0.10049524903297424
-0.24854834377765656 0.35197901725769043 -0.048819802701473236
-0.28298723697662354 -0.36036574840545654 0.20152103900909424
-0.2814369201660156 0.01481744647026062 -0.3130394220352173
-0.3038797080516815 -0.3684474229812622 0.20468613505363464
0.2908363938331604 0.23067201673984528 0.05937496945261955
-0.2913295328617096 -0.45097458362579346 -0.08217629790306091
-0.2702924907207489 0.14849838614463806 -0.3347453474998474
0.0545671172440052 0.199005126953125 -0.2026493102312088
-0.27634453773498535 -0.3686099350452423 0.2028244584798813
-0.25090381503105164 0.35550376772880554 0.09010385721921921
0.28006961941719055 -0.3750108480453491 0.16279950737953186
0.026829039677977562 0.09439527988433838 -0.13474847376346588
-0.2225465476512909 0.1752934455871582 0.14884261786937714
0.18804717063903809 0.3348006308078766 0.0463142991065979
-0.2763559818267822 0.2108038365840912 -0.3518695533275604
-0.2598878741264343 -0.0986393541097641 -0.2502307891845703
0.26553821563720703 0.28397101163864136 -0.0011730666738003492
-0.2751792371273041 -0.24116037786006927 0.156783789396286
-0.22238920629024506 0.11786261945962906 0.1651649922132492
-0.2470014989376068 0.30883559584617615 -0.33829063177108765
0.226764976978302 0.3010447025299072 0.04468041658401489
0.005867782048881054 0.11532339453697205 -0.2071886956691742
0.272616982460022 -0.34608885645866394 0.13111650943756104
0.017504731193184853 0.106235571205616 -0.19476839900016785
0.21146583557128906 0.3273390829563141 -0.04838251322507858
-0.2337084412574768 -0.029141221195459366 0.15594327449798584
0.22370706498622894 0.1751851886510849 0.15188637375831604
0.03309286758303642 -0.249140202999115 -0.13306012749671936
-0.0027645600493997335 0.09493397921323776 -0.1454005092382431
0.1639561653137207 -0.4318629503250122 -0.04174031317234039
0.29967498779296875 0.10658474266529083 -0.12722432613372803
-0.2874301075935364 -0.030234917998313904 -0.24378637969493866
0.21537484228610992 0.3950851559638977 0.10192713886499405
0.294719398021698 0.2259816825389862 -0.04707067087292671
0.25652340054512024 0.2714119255542755 -0.017876144498586655
-0.1842057853937149 -0.24183793365955353 -0.13350655138492584
-0.22534693777561188 0.05163607746362686 0.1648329198360443
0.0379236675798893 0.22418884932994843 0.1596531867980957
-0.2402316927909851 0.3466261029243469 0.08557984232902527
0.036053240299224854 0.24275732040405273 -0.1961112767457962
0.27252691984176636 0.3404797911643982 0.09416838735342026
0.21938717365264893 0.234940305352211 -0.014962038025259972
0.29963910579681396 0.19804850220680237 0.15176333487033844
0.21550409495830536 0.22820346057415009 0.012596916407346725
-0.30262666940689087 -0.44442933797836304 -0.08465498685836792
0.2950320839881897 -0.0008925704169087112 -0.13436304032802582
0.05824624001979828 0.11395681649446487 -0.1473233699798584
-0.23392446339130402 0.2073049247264862 0.15469199419021606
0.2156330794095993 0.219889298081398 0.1562531590461731
0.2319643199443817 -0.4173614978790283 0.2041480541229248
-0.18559852242469788 -0.2617237865924835 0.0653589591383934
0.047316499054431915 0.23053377866744995 -0.12822847068309784
-0.2842382490634918 0.0846775621175766 -0.3145205080509186
0.1560487151145935 -0.436676949262619 -0.029017779976129532
0.2196313887834549 0.47885435819625854 0.1087404116988182
-0.0987420454621315 -0.24784113466739655 -0.12981395423412323
0.29563602805137634 -0.24448281526565552 0.06792768090963364
0.2544287145137787 0.46947425603866577 0.10868407040834427
-0.030117381364107132 0.22500751912593842 -0.20339219272136688
-0.13463371992111206 -0.19819921255111694 0.15204662084579468
0.29831284284591675 0.21975365281105042 -0.12460265308618546
-0.22340689599514008 0.31891122460365295 -0.35199591517448425
-0.2294894903898239 -0.19508735835552216 0.14989665150642395
0.25140202045440674 0.2732311487197876 -0.017610672861337662
0.23376013338565826 0.28938668966293335 -0.02010398544371128
-0.030949197709560394 0.18134929239749908 -0.14618521928787231
0.2700579762458801 -0.3507266342639923 0.13614261150360107
-0.24352729320526123 -0.004222213756293058 -0.25050073862075806
0.26327577233314514 -0.3057847023010254 0.09172404557466507
0.2972216010093689 0.14189980924129486 -0.1211538165807724
-0.11570599675178528 0.3263895511627197 -0.3097507655620575
0.22449113428592682 0.3386460244655609 -0.06794223934412003
0.2861787974834442 0.22802619636058807 -0.1365867257118225
-0.3151088058948517 -0.41443338990211487 -0.08245676010847092
0.29726457595825195 -0.2076539844274521 -0.13645273447036743
-0.26932471990585327 -0.036031611263751984 -0.12035281211137772
-0.2755088210105896 -0.22293151915073395 -0.12237761914730072
0.2582411468029022 -0.2512858510017395 -0.05824165791273117
-0.2147846519947052 -0.1903199702501297 0.1570516675710678
0.07546710968017578 -0.24369865655899048 0.15606878697872162
-0.28528693318367004 -0.029030827805399895 -0.2900727093219757
-0.22787773609161377 0.462449312210083 -0.06777120381593704
-0.14537741243839264 0.2227976769208908 0.1568085104227066
-0.22408723831176758 0.32388150691986084 -0.334040105342865
0.27149707078933716 0.3426153361797333 0.09419533610343933
0.04803462326526642 0.1993902623653412 -0.22176188230514526
0.286210298538208 0.3389193117618561 0.06329325586557388
-0.2670988440513611 0.040333058685064316 -0.13030369579792023
0.022221187129616737 0.182593435049057 0.15622581541538239
-0.3299712538719177 -0.34242886304855347 0.17596980929374695
0.2953795790672302 -0.17889945209026337 0.1577146351337433
-0.1285156011581421 0.3401830494403839 -0.31705769896507263
-0.26927754282951355 0.2181200236082077 0.11299973726272583
-0.22182004153728485 -0.2312990128993988 0.1574534922838211
0.29915788769721985 0.17553816735744476 0.15479546785354614
0.23997874557971954 0.3482724130153656 0.11733409017324448
0.14209137856960297 -0.24350909888744354 0.15811675786972046
0.2321140021085739 0.16101379692554474 0.16707664728164673
0.00039166209171526134 0.18721947073936462 -0.1379517763853073
0.25528082251548767 -0.08739019185304642 0.15161584317684174
-0.33518651127815247 -0.3513046205043793 0.17918753623962402
0.24761267006397247 0.032247480005025864 0.1617305725812912
-0.18595856428146362 -0.23384326696395874 0.15583977103233337
0.2720259428024292 0.22863806784152985 -0.12879140675067902
0.2721673548221588 -0.415751576423645 0.1989900916814804
-0.26681071519851685 -0.2420303225517273 -0.13326823711395264
0.1241535171866417 0.22786439955234528 0.15305238962173462
0.2944910228252411 0.0020592184737324715 -0.13436120748519897
-0.1871947944164276 0.29766687750816345 0.026666585355997086
0.29212164878845215 -0.25145024061203003 -0.015610864385962486
-0.2187907099723816 0.30265405774116516 -0.33929502964019775
0.2664502263069153 0.4996883273124695 0.10727356374263763
-0.2698668837547302 -0.30352896451950073 0.10574047267436981
0.2584952414035797 -0.39302563667297363 -0.08389643579721451
-0.19522245228290558 0.5007063150405884 0.09478781372308731
-0.2819943428039551 -0.3094007074832916 0.1318010538816452
-0.2632315158843994 -0.3095024824142456 0.12118276953697205
0.29746174812316895 0.15411214530467987 -0.13386985659599304
-0.22298401594161987 0.02893158048391342 0.16625261306762695
-0.22989298403263092 0.48277679085731506 0.11598191410303116
-0.24291837215423584 -0.41368207335472107 0.20254555344581604
-0.22400768101215363 0.0936184674501419 0.16530674695968628
0.22210922837257385 0.16255134344100952 0.16445966064929962
-0.14463700354099274 0.21920724213123322 -0.1328633427619934
-0.26934850215911865 0.1702948659658432 -0.3404243290424347
0.106456458568573 -0.2474319338798523 -0.12180596590042114
-0.239522784948349 0.2921998202800751 -0.33299675583839417
0.043440502136945724 0.18367941677570343 -0.21922996640205383
0.2656533718109131 0.2747552990913391 0.012942789122462273
-0.2591230571269989 0.08692233264446259 -0.3089836835861206
0.04389651492238045 0.10398773849010468 -0.1330244541168213
0.2620905041694641 0.2313477247953415 0.056731875985860825
-0.05441862717270851 0.21656718850135803 0.1571955531835556
0.047575462609529495 0.10561592876911163 -0.16909372806549072
0.25155240297317505 0.313463419675827 -0.037076715379953384
-0.038466766476631165 -0.1870110183954239 0.15839087963104248
-0.3375905156135559 -0.36069610714912415 0.09582721441984177
-0.25439608097076416 0.15532180666923523 0.15673084557056427
-0.23964394629001617 -0.19033128023147583 0.1483689397573471
-0.22689378261566162 0.22525836527347565 0.15582391619682312
0.2169184386730194 -0.44260698556900024 0.2027268260717392
-0.17785149812698364 0.23036925494670868 -0.00848548486828804
-0.2701664865016937 -0.470805287361145 -0.053757403045892715
-0.2264079749584198 -0.2543136775493622 0.057356998324394226
-0.2748572528362274 0.14536422491073608 0.15553228557109833
0.0546487458050251 0.19423416256904602 -0.21276938915252686
0.24626612663269043 -0.11171413958072662 0.16775624454021454
-0.025476139038801193 0.18200907111167908 -0.135924831032753
-0.22313210368156433 0.1134505420923233 0.1622239649295807
-0.26493969559669495 -0.24980345368385315 -0.06744704395532608
-0.18830706179141998 0.3540398180484772 -0.0657723918557167
0.2757349908351898 0.37183260917663574 0.12238927185535431
0.21766969561576843 -0.24805457890033722 -0.047351427376270294
0.13501128554344177 -0.24726784229278564 0.1557387411594391
-0.2716336250305176 0.22210517525672913 -0.054449182003736496
-0.24506589770317078 0.2469778209924698 0.026323335245251656
-0.2808380424976349 0.06614742428064346 -0.32249364256858826
0.027298061177134514 -0.22804687917232513 0.15479311347007751
-0.2711740732192993 -0.16941754519939423 -0.12983176112174988
-0.2541380822658539 0.017623471096158028 -0.31081071496009827
-0.021259287372231483 0.3125445246696472 -0.27960559725761414
-0.28898656368255615 0.0653269961476326 -0.2594568729400635
-0.10569612681865692 0.17083413898944855 0.15376535058021545
-0.047932811081409454 -0.18662920594215393 0.16183055937290192
-0.17895853519439697 0.22958526015281677 0.14110665023326874
0.17154300212860107 0.16001355648040771 0.16366498172283173
-0.02881571277976036 0.18221870064735413 -0.13950484991073608
-0.2182857245206833 0.33586591482162476 0.06870578229427338
0.29980626702308655 0.09225653111934662 0.15495425462722778
-0.30117267370224 -0.4086790680885315 -0.08641131222248077
0.21374396979808807 0.5109697580337524 0.031135525554418564
0.19398526847362518 0.4814334511756897 0.1161472275853157
-0.03018184006214142 0.18484021723270416 -0.1557387262582779
0.19991733133792877 -0.43323442339897156 0.19887952506542206
0.24646063148975372 -0.37953633069992065 -0.08567392826080322
0.2854393720626831 0.3436683118343353 -0.044817712157964706
0.27433428168296814 -0.37130874395370483 0.1617332547903061
0.298049658536911 -0.2290191948413849 -0.12418040633201599
-0.26588213443756104 -0.1728953719139099 0.15460804104804993
0.2904936969280243 0.34843918681144714 0.07222559303045273
-0.15740981698036194 0.22984983026981354 0.1430785357952118
0.2438979148864746 0.28260454535484314 -0.02076517418026924
-0.30732399225234985 -0.36145317554473877 0.20710057020187378
0.23474083840847015 0.5098563432693481 0.11132286489009857
-0.24981315433979034 0.23232896625995636 -0.004642980173230171
0.2559027075767517 -0.041888874024152756 0.1495008021593094
0.0327296108007431 0.1069786548614502 -0.13574975728988647
0.2630244493484497 -0.2442985624074936 -0.12379056215286255
-0.257997065782547 0.4041387438774109 0.11461707204580307
-0.2530919313430786 0.24742171168327332 -0.3279123604297638
-0.0704459398984909 0.32682496309280396 -0.3048982322216034
0.20830272138118744 0.33104461431503296 -0.059061575680971146
-0.2714936435222626 0.22069710493087769 -0.009729019366204739
-0.27292904257774353 -0.09960582852363586 -0.1277102679014206
0.1687629371881485 -0.43948566913604736 0.18725016713142395
-0.24610315263271332 0.40115392208099365 0.11526394635438919
0.22164686024188995 0.37717965245246887 0.10938362777233124
0.27374133467674255 0.20659472048282623 0.15411044657230377
-0.03124815970659256 0.22767038643360138 -0.1284056007862091
0.29468026757240295 -0.14916475117206573 -0.13599246740341187
0.17227375507354736 -0.4439185857772827 -0.015516470186412334
-0.27150875329971313 -0.13218998908996582 -0.13400407135486603
0.27608445286750793 -0.08243304491043091 0.15335048735141754
-0.11918041110038757 0.23090291023254395 -0.12583611905574799
-0.26938557624816895 -0.05354080721735954 0.15152661502361298
0.2962176501750946 0.11058786511421204 0.15563100576400757
-0.20053057372570038 -0.18086488544940948 0.16410982608795166
-0.2703724503517151 -0.23448172211647034 -0.05532243847846985
0.24387872219085693 -0.3570016026496887 -0.08568351715803146
0.2973248362541199 -0.0027697887271642685 0.15037193894386292
0.2979876697063446 0.2077687531709671 -0.000800400972366333
-0.30334052443504333 -0.37755221128463745 0.19344863295555115
0.027817321941256523 -0.2458224892616272 -0.1374187022447586
0.013913633301854134 0.22896890342235565 -0.13204079866409302
0.25568896532058716 -0.24974404275417328 -0.13524243235588074
0.24899375438690186 0.12293969839811325 0.16343270242214203
-0.11441773921251297 0.14989039301872253 0.16724039614200592
0.03857066109776497 0.22800323367118835 -0.12865449488162994
-0.29877302050590515 -0.3376540541648865 0.19396649301052094
0.09715911746025085 -0.24681806564331055 -0.13535337150096893
-0.27125775814056396 0.06631473451852798 0.14648863673210144
0.2808927893638611 -0.44501978158950806 0.16619186103343964
0.25689321756362915 -0.4015653729438782 0.19711947441101074
-0.2958815395832062 -0.42463916540145874 -0.09249375760555267
-0.22104492783546448 -0.014622492715716362 0.1704140603542328
0.23645560443401337 0.14252471923828125 0.16788993775844574
0.17751412093639374 0.4101387858390808 -0.008542461320757866
0.17069590091705322 -0.24645425379276276 0.1448635309934616
0.29901787638664246 -0.1512901484966278 0.11671790480613708
-0.26969829201698303 0.18303567171096802 -0.12577687203884125
-0.21619068086147308 -0.07681508362293243 0.16849128901958466
0.09955884516239166 0.2262852042913437 -0.13141460716724396
0.2927654981613159 -0.13813920319080353 0.15272074937820435
-0.15397708117961884 0.3969016969203949 0.06180540472269058
0.16801413893699646 -0.2535002529621124 -0.12120536714792252
-0.22269487380981445 0.4232949912548065 0.09183738380670547
-0.27048513293266296 0.18927279114723206 -0.13207140564918518
-0.27067628502845764 -0.17115291953086853 -0.13662368059158325
-0.2685321867465973 0.06630535423755646 -0.13317656517028809
-0.19665758311748505 0.22797299921512604 -0.11960489302873611
0.2442145049571991 -0.08456289768218994 0.1679123342037201
0.09529569000005722 -0.24504780769348145 -0.13886968791484833
0.25873714685440063 -0.316241592168808 -0.06363902986049652
-0.2586049437522888 -0.2490919679403305 0.1497088074684143
0.2977888584136963 -0.07821191847324371 0.15174400806427002
0.23565492033958435 -0.16057685017585754 0.16676287353038788
-0.266738623380661 -7.690745405852795e-05 -0.12853030860424042
0.25595763325691223 -0.1893174946308136 0.1496642827987671
0.21471793949604034 0.22724688053131104 0.11236199736595154
0.18914324045181274 -0.25061875581741333 -0.05753191187977791
0.2958385944366455 -0.23406942188739777 0.09996113181114197
-0.1932830810546875 0.22754156589508057 0.138865664601326
-0.2195132076740265 -0.24409911036491394 0.1522647589445114
0.2733983099460602 -0.24858157336711884 -0.018310602754354477
0.2928573489189148 0.029529135674238205 0.14952602982521057
-0.24334999918937683 -0.07392386347055435 0.1538088321685791
0.2712991237640381 -0.24521228671073914 -0.135300412774086
-0.2671574354171753 -0.03192616254091263 -0.10905298590660095
0.16026361286640167 0.22712461650371552 -0.11970914900302887
-0.15508589148521423 0.41372811794281006 -0.011801695451140404
-0.08779853582382202 0.2081458866596222 0.1575479358434677
0.23067837953567505 -0.29458552598953247 -0.06727641820907593
-0.24277958273887634 -0.35369816422462463 0.16164636611938477
0.19633686542510986 -0.2453320473432541 -0.13494864106178284
0.16289272904396057 -0.25317156314849854 0.011781436391174793
-0.26600658893585205 0.38811105489730835 0.05867806822061539
-0.28548943996429443 -0.31924328207969666 0.006163979880511761
0.29780006408691406 -0.07398226857185364 0.15115699172019958
0.18206003308296204 -0.24631331861019135 -0.13599179685115814
-0.2701354920864105 -0.08125504106283188 0.06717260926961899
0.29806092381477356 0.12997370958328247 0.1555013507604599
-0.2030509114265442 -0.30521199107170105 0.08491773158311844
0.1995985507965088 0.4995417296886444 0.06742162257432938
0.2225828319787979 -0.44481775164604187 -0.07354333996772766
-0.10621898621320724 0.23154203593730927 -0.06502430140972137
0.291897177696228 0.019568320363759995 -0.13505302369594574
0.2654937505722046 -0.06366617977619171 0.15421746671199799
-0.2393512725830078 -0.328427255153656 -0.08901438862085342
0.29858145117759705 0.21406805515289307 -0.1378244012594223
-0.23803137242794037 -0.43750348687171936 -0.06953145563602448
0.29083698987960815 -0.238678440451622 -0.13227763772010803
-0.17084498703479767 0.1617327481508255 0.16233041882514954
0.17174342274665833 -0.24978964030742645 0.06137007474899292
0.29778987169265747 -0.15362155437469482 0.14850884675979614
-0.2581362724304199 -0.23947075009346008 -0.13363134860992432
0.28147876262664795 0.4858643412590027 0.09788937121629715
0.2931571900844574 -0.22193613648414612 -0.13551642000675201
0.1345309168100357 0.2265707403421402 -0.11967740207910538
-0.291056752204895 0.046056538820266724 -0.291746586561203
-0.20276889204978943 -0.29529252648353577 0.08786456286907196
0.2987479269504547 -0.12958303093910217 0.037434134632349014
0.02378762513399124 0.1545538604259491 0.1656842678785324
-0.019957469776272774 0.22954429686069489 -0.07354438304901123
-0.292911171913147 -0.315532386302948 0.12424886971712112
0.23469501733779907 0.10344395786523819 0.16782182455062866
-0.24123597145080566 -0.37357696890830994 0.18111397325992584
-0.23631608486175537 -0.24741055071353912 0.11955858767032623
-0.1622406542301178 -0.24889124929904938 -0.04467499256134033
0.2995198369026184 0.13906237483024597 -0.11731673032045364
0.29769715666770935 0.21844899654388428 0.12718281149864197
0.21423040330410004 0.22909700870513916 0.09232712537050247
-0.1681278645992279 -0.19130222499370575 0.15886293351650238
0.19125986099243164 0.17057278752326965 0.15241876244544983
-0.2644672095775604 0.40681251883506775 0.09387746453285217
0.18557201325893402 0.35291245579719543 0.07355919480323792
-0.27810701727867126 -0.36068055033683777 -0.0769626796245575
0.2952536940574646 0.2190036177635193 -0.13510183990001678
-0.26271119713783264 0.396075040102005 -0.02184251882135868
-0.25565850734710693 -0.37412410974502563 0.20183590054512024
-0.2910045385360718 0.0022067418321967125 -0.25335121154785156
-0.3306184411048889 -0.35454419255256653 0.17391152679920197
-0.16218459606170654 0.2292783558368683 0.08331254869699478
0.14357997477054596 -0.3988460302352905 0.062325090169906616
-0.2691451609134674 0.15476837754249573 0.050694629549980164
-0.26694896817207336 0.07889974117279053 -0.13079972565174103
0.09842942655086517 -0.1742153763771057 0.16679251194000244
0.17899218201637268 0.449371337890625 0.06679335236549377
-0.2687068283557892 0.010443713515996933 -0.12963484227657318
-0.047632552683353424 0.22818665206432343 0.11551747471094131
-0.0791543498635292 -0.2491912692785263 -0.11957353353500366
-0.12562452256679535 0.21640636026859283 -0.13564921915531158
-0.06625570356845856 -0.2499738484621048 0.05143952742218971
0.24079740047454834 -0.04706994444131851 0.16967201232910156
-0.2632109820842743 -0.1406664401292801 -0.13445119559764862
-0.2542036771774292 0.22460924088954926 -0.13071289658546448
-0.27032652497291565 -0.18301649391651154 0.1481044888496399
0.13549195230007172 -0.2456611692905426 -0.13304740190505981
0.2939843535423279 -0.034405920654535294 -0.13328899443149567
-0.21552644670009613 -0.26867419481277466 -0.05900249630212784
-0.26414766907691956 0.403660386800766 0.08646363765001297
-0.2709800601005554 0.025806216523051262 -0.13150936365127563
0.18193857371807098 0.46839308738708496 0.06940562278032303
-0.2688055634498596 -0.22132454812526703 -0.13128545880317688
-0.16161000728607178 0.16563691198825836 0.16309526562690735
-0.21407973766326904 -0.2799586355686188 0.08395127207040787
-0.33540165424346924 -0.39650967717170715 -0.008359475061297417
0.24537566304206848 -0.32139015197753906 -0.07634712010622025
0.29727059602737427 0.10400961339473724 0.15237270295619965
0.30383700132369995 0.39314767718315125 0.05784303694963455
0.26414820551872253 0.2289350926876068 0.07869675010442734
0.28748998045921326 -0.24960824847221375 -0.12317641824483871
0.2973012924194336 0.21619440615177155 0.1300327479839325
0.28129932284355164 -0.4433816969394684 0.17631494998931885
-0.23345747590065002 -0.3735082745552063 0.17896589636802673
0.023899521678686142 0.11445875465869904 -0.13905096054077148
-0.27194756269454956 0.07055185735225677 -0.12607453763484955
-0.2668106257915497 -0.07528553903102875 -0.13195686042308807
0.29926106333732605 -0.0803670883178711 0.15431569516658783
0.11035522818565369 -0.24915948510169983 -0.07012729346752167
0.294626921415329 -0.20025894045829773 0.13387508690357208
-0.2696506679058075 0.19551219046115875 -0.12811341881752014
0.257149875164032 -0.011899661272764206 0.15398374199867249
-0.09997642040252686 -0.2472163587808609 0.13020682334899902
-0.26129859685897827 0.34791436791419983 0.014846195466816425
0.17227832973003387 -0.27549538016319275 0.03300255537033081
0.2824453115463257 -0.3690309524536133 -0.031881436705589294
0.23382586240768433 -0.3321708142757416 -0.08175055682659149
0.16371648013591766 0.2216821163892746 -0.13278046250343323
0.02174483612179756 0.1675974428653717 -0.21850338578224182
-0.25023192167282104 -0.2504003942012787 -0.09281854331493378
0.2963979244232178 -0.21434208750724792 -0.1355341523885727
-0.12455972284078598 0.22858645021915436 -0.12599965929985046
-0.09897810965776443 -0.2491103559732437 0.07796093821525574
0.14252164959907532 -0.24858298897743225 0.11888419091701508
0.02097226120531559 0.18786197900772095 0.15614274144172668
-0.26876166462898254 -0.11807988584041595 -0.08221738040447235
0.3020053207874298 -0.06872962415218353 -0.13567891716957092
0.12805017828941345 -0.24478499591350555 -0.1323535293340683
-0.03819042444229126 0.14711906015872955 -0.18578219413757324
-0.0018048121128231287 0.19463549554347992 -0.22808894515037537
-0.06711963564157486 0.22822816669940948 -0.12196606397628784
-0.1541578471660614 0.4365808367729187 0.05224078521132469
0.17796123027801514 -0.3206946551799774 -0.041046805679798126
-0.2693929076194763 -0.19444122910499573 -0.0947650596499443
-0.27020105719566345 -0.0485365055501461 0.1456013321876526
0.06536051630973816 -0.24884256720542908 -0.11701749265193939
0.28507936000823975 -0.39047735929489136 0.00018385471776127815
-0.18767935037612915 -0.24679362773895264 -0.12398525327444077
0.29615724086761475 -0.19221091270446777 -0.1356695145368576
0.29908186197280884 0.4462488889694214 0.09339253604412079
-0.27985528111457825 -0.39864790439605713 0.17340290546417236
0.2656806409358978 -0.3834712505340576 -0.07357882708311081
-0.09650313854217529 -0.2462957799434662 0.11071039736270905
-0.0240531824529171 -0.2429678738117218 -0.13675495982170105
-0.15985164046287537 0.22849050164222717 0.017160004004836082
-0.26906198263168335 0.0007917555049061775 -0.12038147449493408
-0.15453505516052246 0.22732093930244446 -0.13198834657669067
0.278985857963562 -0.24904166162014008 -0.12415474653244019
-0.2693958580493927 0.1171962320804596 -0.12637832760810852
0.20201842486858368 -0.3343390226364136 -0.06115197017788887
0.13270342350006104 -0.2512683570384979 -0.052706796675920486
0.29757407307624817 -0.007638037204742432 0.09877744317054749
-0.004491898231208324 0.22766219079494476 -0.1834685355424881
-0.32995113730430603 -0.35849687457084656 0.16958311200141907
-0.1379021406173706 0.20152492821216583 0.15815609693527222
-0.33205363154411316 -0.3985224664211273 0.0021127834916114807
-0.14849260449409485 0.22627486288547516 -0.12531186640262604
-0.19797460734844208 -0.44109922647476196 0.00031329086050391197
0.27846765518188477 -0.3276461362838745 0.07241401076316833
0.2937483787536621 0.38281574845314026 -0.02075406163930893
0.18754422664642334 0.3812079429626465 -0.059282995760440826
-0.26357904076576233 -0.3914991617202759 -0.09786383807659149
0.30117443203926086 0.4096379280090332 0.05647677928209305
-0.014663958922028542 -0.1672310084104538 0.16451050341129303
-0.2925797402858734 -0.031251728534698486 -0.27007192373275757
-0.2682332992553711 -0.03011966496706009 0.15181869268417358
0.20485654473304749 0.14274001121520996 0.16250309348106384
-0.271510511636734 -0.14911122620105743 0.008058104664087296
0.17612971365451813 -0.38134071230888367 0.16667667031288147
-0.20743237435817719 -0.383786141872406 -0.0697191059589386
0.14974400401115417 -0.34792187809944153 0.061374370008707047
0.26783376932144165 -0.24491649866104126 -0.1339511126279831
-0.2684817612171173 0.039681848138570786 -0.12572824954986572
0.1886717528104782 -0.4459087550640106 0.18828466534614563
0.29142042994499207 -0.21501295268535614 -0.13553403317928314
-0.039835166186094284 -0.24523203074932098 -0.13640239834785461
0.17819049954414368 0.22814124822616577 -0.05924947187304497
-0.29484084248542786 0.0509118027985096 -0.2751522660255432
-0.09153321385383606 -0.25101616978645325 0.1337132602930069
-0.09484559297561646 0.047682441771030426 0.1727672815322876
-0.15838780999183655 0.36757707595825195 -0.0075266556814312935
0.06004324182868004 0.19404427707195282 -0.1943632960319519
0.12101083248853683 -0.24477407336235046 -0.13217304646968842
-0.28382420539855957 -0.3155424892902374 0.03784094750881195
-0.2697862386703491 -0.07448762655258179 -0.126308873295784
-0.0608108714222908 0.2277432680130005 -0.06625888496637344
-0.1765928566455841 0.3892756700515747 -0.060761742293834686
0.28788647055625916 -0.24512329697608948 -0.1353500783443451
-0.2685133218765259 -0.06744425743818283 -0.13363367319107056
0.17485690116882324 0.42197519540786743 0.01564098335802555
-0.029886582866311073 0.23216624557971954 -0.12142572551965714
-0.27113375067710876 0.023261167109012604 -0.12152428925037384
-0.27277106046676636 -0.3743416965007782 -0.09840161353349686
0.20143400132656097 0.22587963938713074 0.08769076317548752
-0.2211015522480011 -0.25087159872055054 -0.08882041275501251
0.22895365953445435 0.39542099833488464 -0.09075535088777542
-0.2689148783683777 -0.14506478607654572 -0.13225887715816498
-0.027810227125883102 -0.24426577985286713 -0.1313578188419342
-0.13732527196407318 -0.24675968289375305 -0.1254829615354538
0.21638667583465576 0.42869624495506287 -0.08755184710025787
-0.1775786578655243 0.22291536629199982 -0.13397066295146942
-0.024501167237758636 -0.10654744505882263 0.16788095235824585
-0.22813618183135986 -0.3552596867084503 -0.08362209796905518
-0.27245649695396423 0.024157194420695305 -0.08874545991420746
0.2708981931209564 0.5016304850578308 0.028134062886238098
-0.11465419828891754 -0.2485997974872589 0.14154678583145142
0.25333523750305176 -0.24501162767410278 -0.1355402171611786
0.29780474305152893 0.010136395692825317 0.15263129770755768
-0.25718361139297485 -0.19188030064105988 -0.13565537333488464
0.1992361694574356 -0.4487437903881073 0.17197102308273315
0.2314944565296173 -0.2459300309419632 -0.1343335211277008
0.2366839349269867 -0.3920625150203705 -0.09097357839345932
0.012000087648630142 -0.24540899693965912 -0.13558727502822876
-0.13764843344688416 -0.1635105311870575 -0.13665065169334412
-0.07165370881557465 0.14301426708698273 -0.13511455059051514
-0.26452815532684326 -0.35785526037216187 -0.09916633367538452
0.29246947169303894 0.37950751185417175 -0.04159136116504669
0.19769927859306335 0.14797654747962952 0.16449353098869324
-0.2663649618625641 -0.24279063940048218 -0.05678778141736984
0.29815706610679626 0.4367002546787262 0.018311353400349617
0.12056685984134674 0.20728720724582672 0.15733614563941956
-0.012303040362894535 -0.15862081944942474 0.16571195423603058
0.29876482486724854 -0.0805615782737732 -0.1327480971813202
-0.24098271131515503 -0.3406975269317627 -0.08895684778690338
-0.26281726360321045 -0.3631667196750641 -0.09807740896940231
0.27836430072784424 -0.21223145723342896 -0.13343049585819244
-0.26954105496406555 -0.09741205722093582 -0.12741699814796448
-0.2205428183078766 -0.46997255086898804 0.054167069494724274
-0.27081000804901123 -0.141480952501297 -0.12523925304412842
-0.1820184886455536 0.3623295724391937 -0.05794668570160866
-0.27430278062820435 -0.2455490082502365 -0.10855948179960251
-0.2053227722644806 -0.2479582279920578 0.15128427743911743
0.29831042885780334 -0.09707444906234741 0.0460423119366169
-0.25810670852661133 -0.24848969280719757 -0.10833872109651566
-0.2677191495895386 -0.14301985502243042 -0.12501223385334015
0.15448465943336487 -0.405891478061676 0.1543886512517929
0.2982647716999054 -0.15268263220787048 0.13474738597869873
0.26705169677734375 0.00123518705368042 0.15316355228424072
0.2920064330101013 -0.22152212262153625 -0.13424630463123322
0.3024042546749115 -0.01370897889137268 0.0006619766354560852
0.29569318890571594 -0.21015654504299164 0.1480940580368042
-0.20053410530090332 -0.12867890298366547 0.1687048375606537
-0.26835209131240845 0.16361409425735474 -0.13318051397800446
0.21492138504981995 0.3670752942562103 -0.0815548226237297
-0.2701472342014313 0.20497429370880127 -0.12821997702121735
-0.26671499013900757 -0.23251597583293915 -0.13017843663692474
0.1626451015472412 -0.24887117743492126 -0.12111100554466248
-0.1930147111415863 -0.3982466459274292 0.10647394508123398
0.296037495136261 0.035913072526454926 -0.1347743272781372
0.29644453525543213 0.3893853724002838 0.10441003739833832
0.2589589059352875 0.45903709530830383 0.10562644153833389
-0.07962772250175476 -0.17411571741104126 0.16747675836086273
-0.27076199650764465 0.08923999965190887 -0.12566587328910828
0.13431906700134277 0.23120197653770447 0.1325703263282776
-0.26101309061050415 0.3761555850505829 -0.023292869329452515
0.2988740801811218 0.15753108263015747 -0.10575025528669357
-0.19989550113677979 0.22801610827445984 -0.12409752607345581
0.22652772068977356 -0.25401023030281067 0.12504413723945618
-0.23864755034446716 -0.03555182367563248 0.15252330899238586
-0.04936742037534714 -0.18818625807762146 0.15755926072597504
0.10373777896165848 0.22637730836868286 -0.12976384162902832
0.29276514053344727 0.006757356226444244 -0.1329919546842575
0.03725672885775566 0.07076939195394516 -0.13845670223236084
0.18034563958644867 -0.24537912011146545 -0.13352824747562408
0.22291190922260284 -0.24926602840423584 0.10122350603342056
0.2607457935810089 -0.4449615180492401 0.1781565397977829
0.15382368862628937 -0.41936394572257996 0.1649622917175293
0.12019436061382294 -0.24655774235725403 -0.1348605751991272
-0.06074024736881256 -0.15508900582790375 -0.13875578343868256
0.29598891735076904 -0.15873578190803528 0.1498798280954361
0.295166015625 0.046197619289159775 -0.1348363757133484
-0.21868906915187836 0.14388298988342285 0.16324780881404877
-0.2696937918663025 0.22317378222942352 -0.04582385718822479
-0.013521317392587662 -0.24436712265014648 -0.13066111505031586
0.18570633232593536 0.3405951261520386 0.01537706796079874
0.18244338035583496 -0.4435186982154846 0.008374128490686417
0.2535693645477295 -0.31785181164741516 0.11159071326255798
-0.16963237524032593 -0.24682502448558807 -0.11553250253200531
0.2998568117618561 0.05473572760820389 -0.014152765274047852
-0.14432434737682343 0.2273508459329605 -0.12746696174144745
0.1915569007396698 -0.21315352618694305 0.15181738138198853
-0.3001099228858948 -0.39237427711486816 -0.08313728868961334
0.1747378408908844 -0.2418256253004074 -0.1390460729598999
0.2637624740600586 -0.13376934826374054 0.14997419714927673
-0.2656278908252716 0.44661056995391846 0.08508622646331787
0.2962723970413208 0.06696844846010208 0.15271218121051788
0.22355206310749054 0.5105260610580444 -0.006043458357453346
-0.2655157148838043 0.41917720437049866 0.03807802125811577
0.2866082191467285 -0.38452640175819397 0.027890760451555252
-0.3391001224517822 -0.39684757590293884 -0.008649419993162155
0.2966795563697815 -0.09816911071538925 -0.13389074802398682
-0.1545829176902771 0.39462560415267944 0.014984313398599625
0.23907554149627686 0.04963192343711853 0.1673787236213684
0.22687457501888275 -0.24976897239685059 -0.13671596348285675
0.2991115152835846 0.20952396094799042 0.14949804544448853
-0.26161694526672363 0.43588316440582275 0.07798998802900314
-0.2713296711444855 0.21687176823616028 -0.12807664275169373
0.23966211080551147 -0.18171223998069763 0.16538730263710022
-0.07101669162511826 -0.197886660695076 0.14699363708496094
0.07282085716724396 -0.04739997163414955 -0.13340610265731812
0.29794853925704956 -0.4370984137058258 0.08376886695623398
0.24114151298999786 -0.04762343317270279 0.16097237169742584
0.2838689684867859 -0.402126282453537 0.17609542608261108
-0.2587159276008606 0.367826908826828 -0.03204789012670517
-0.21928739547729492 0.1372714638710022 0.16593948006629944
-0.25621193647384644 -0.25081467628479004 -0.07672093063592911
-0.24195197224617004 -0.11753542721271515 -0.13720174133777618
0.2998480796813965 0.38716423511505127 0.06811052560806274
0.16287918388843536 -0.39259281754493713 0.165067657828331
0.2948416471481323 -0.1963513344526291 -0.1361721307039261
0.2633887827396393 -0.3014042377471924 0.08218998461961746
0.2987583875656128 -0.09919413924217224 0.11932964622974396
0.038961261510849 0.22704297304153442 -0.13050387799739838
-0.2602502703666687 0.3721849024295807 -0.036754656583070755
0.19596196711063385 0.4589017629623413 -0.05444127321243286
-0.20969927310943604 0.21323466300964355 -0.13467752933502197
-0.2672627866268158 0.42880433797836304 0.05480174347758293
0.2643585801124573 -0.250832200050354 0.12906740605831146
0.29524993896484375 -0.20075757801532745 0.1553923487663269
-0.2234780490398407 -0.24898652732372284 -0.12205981463193893
-0.2695213258266449 0.15902510285377502 -0.12324124574661255
0.035290926694869995 -0.17257872223854065 0.1638440042734146
0.021706420928239822 -0.18995970487594604 0.15827633440494537
0.18347172439098358 0.22712117433547974 0.07190200686454773
-0.2266056090593338 -0.1410495638847351 0.16636961698532104
-0.1748989075422287 0.2276267260313034 -0.12486740201711655
-0.27019473910331726 -0.049834899604320526 -0.12680824100971222
0.044546835124492645 -0.2504560351371765 -0.12118956446647644
-0.272447407245636 0.074161596596241 -0.1270267218351364
0.03153354302048683 0.23143967986106873 0.12291261553764343
0.02694786712527275 -0.19213497638702393 0.15143202245235443
-0.2723383903503418 0.1631573736667633 -0.1358923316001892
-0.28772932291030884 -0.4545460045337677 -0.0702117532491684
-0.18576712906360626 -0.3537815511226654 0.07858017086982727
-0.2660771608352661 0.3963843286037445 0.00784861296415329
0.29764384031295776 0.21700462698936462 -0.046975020319223404
-0.02565152943134308 -0.059443529695272446 0.16844774782657623
0.1954789161682129 -0.24346782267093658 -0.13314387202262878
