-0.27335187792778015 0.18269899487495422 0.04366540163755417
-0.07515653967857361 -0.008726537227630615 -0.13477174937725067
0.01637212745845318 0.22247274219989777 -0.1696552038192749
0.08892647176980972 0.018244821578264236 -0.13477742671966553
-0.010305969975888729 -0.13252104818820953 -0.13269565999507904
0.18613362312316895 0.3574654459953308 -0.03691732883453369
0.2950896620750427 -0.20865654945373535 -0.05421537905931473
0.05370284244418144 -0.024398893117904663 -0.1391175240278244
-0.1550315022468567 0.44456830620765686 -0.0016280029667541385
-0.19071373343467712 0.19332806766033173 -0.1361960768699646
-0.07665479928255081 0.2280728816986084 0.13189803063869476
0.19341063499450684 -0.0408598817884922 0.16980546712875366
0.16013051569461823 -0.2520185708999634 0.07027238607406616
0.2981005609035492 -0.0989735797047615 -0.051584500819444656
-0.21214285492897034 0.11335846781730652 -0.13503232598304749
0.11590929329395294 -0.21380500495433807 0.15666301548480988
-0.25513434410095215 0.055840328335762024 0.1595105677843094
-0.27604880928993225 -0.3252532482147217 -0.03518518805503845
-0.2723159193992615 0.02422875538468361 0.1281285285949707
0.25386977195739746 0.22722403705120087 0.09125320613384247
0.1662769764661789 0.20099811255931854 -0.13176071643829346
-0.2075127512216568 -0.3828617036342621 0.13929316401481628
-0.27074024081230164 0.18722018599510193 -0.057621076703071594
0.29594480991363525 -0.06282243132591248 -0.07856303453445435
0.07832113653421402 -0.06551370024681091 -0.1364661157131195
0.1483636200428009 0.20373031497001648 -0.13580875098705292
0.18557658791542053 0.3348897695541382 0.018995825201272964
-0.26725709438323975 0.18591269850730896 0.13127651810646057
-0.18391455709934235 0.13275204598903656 0.16981187462806702
-0.23939825594425201 0.0033456969540566206 -0.13511624932289124
0.2980651259422302 -0.041316233575344086 -0.03401836380362511
0.23829124867916107 -0.2528511881828308 0.08922940492630005
0.2959084212779999 0.10495226085186005 -0.013722987845540047
-0.17059306800365448 0.0010626153089106083 -0.1334819346666336
-0.03469761461019516 -0.2503484785556793 -0.045125726610422134
-0.10110438615083694 0.01775696873664856 -0.13523684442043304
-0.26897644996643066 -0.40722790360450745 0.1891370266675949
-0.30818983912467957 -0.33114734292030334 0.07599668204784393
-0.16203822195529938 -0.3310798108577728 -0.0023825443349778652
0.2883491516113281 -0.39778944849967957 0.01109860185533762
-0.03445114940404892 0.19538219273090363 0.1553259938955307
0.17703130841255188 0.22880391776561737 -0.0077378591522574425
-0.2686249613761902 0.0587848536670208 -0.10795625299215317
0.29675111174583435 -0.21924179792404175 -0.02765302173793316
0.25440239906311035 0.23110172152519226 0.0773211121559143
-0.001689513330347836 0.22848966717720032 -0.0772649347782135
-0.2292262315750122 0.4966663718223572 -0.008366080932319164
-0.20468805730342865 -0.023401888087391853 0.1672835499048233
-0.11920011788606644 -0.04295947402715683 -0.13484184443950653
0.09543667733669281 0.06283385306596756 0.1716332882642746
-0.30538928508758545 -0.4250679612159729 0.016195934265851974
-0.2710144817829132 -0.042911093682050705 -0.05097932368516922
-0.26386919617652893 -0.29214173555374146 0.04580093175172806
0.00018172955606132746 0.22843870520591736 0.06177409738302231
0.17179515957832336 -0.2512759864330292 0.0642138123512268
0.06701290607452393 -0.01262497529387474 -0.13478605449199677
0.14345617592334747 -0.39834362268447876 -0.012762595899403095
-0.2740257978439331 -0.11960309743881226 0.07495018094778061
0.18801794946193695 -0.34973129630088806 0.12708042562007904
0.17868396639823914 0.36728018522262573 0.06474356353282928
-0.2965570092201233 -0.4280945062637329 0.03532024472951889
0.30160921812057495 0.4517504870891571 0.06202377751469612
0.19456548988819122 0.2304583191871643 0.0439554899930954
0.3018406331539154 0.4274838864803314 0.07308316975831985
-0.16847431659698486 0.3367448151111603 0.0010378978913649917
-0.16894958913326263 0.4073356091976166 -0.04822048917412758
0.1678083837032318 -0.20105133950710297 -0.13637205958366394
0.1897645890712738 -0.4466215670108795 0.0017281153704971075
0.03966807201504707 0.024471573531627655 -0.13586410880088806
-0.26820117235183716 -0.023935416713356972 -0.06823116540908813
-0.09254398196935654 0.2311968207359314 0.003386774333193898
-0.11435279995203018 -0.1229824349284172 0.16677851974964142
0.12847062945365906 -0.25275203585624695 0.00560007756575942
0.2562566101551056 -0.14113658666610718 -0.13524024188518524
-0.1850603222846985 -0.05104818940162659 -0.1340189427137375
-0.30397751927375793 -0.43772199749946594 -0.0245651975274086
0.021287258714437485 0.23005208373069763 -0.05722711980342865
0.20879249274730682 -0.13301610946655273 -0.1376640647649765
-0.2086392641067505 0.05246250703930855 -0.1350058615207672
-0.04718536138534546 0.07504573464393616 -0.1355118602514267
-0.12322323769330978 -0.14830368757247925 0.1715342253446579
-0.19794762134552002 -0.1851671040058136 -0.13518016040325165
0.209220290184021 -0.32723748683929443 0.10919898748397827
0.1693265289068222 -0.07954425364732742 -0.13007861375808716
-0.199571892619133 0.01126500591635704 -0.13502418994903564
0.20789846777915955 0.18645666539669037 -0.13191641867160797
0.2586241662502289 0.33418774604797363 0.08132971823215485
-0.01627732627093792 -0.11495009064674377 0.16846944391727448
-0.20963098108768463 0.07173749804496765 -0.1330724060535431
0.1504751443862915 0.05985875800251961 0.16972801089286804
0.2244659960269928 0.4038921892642975 -0.08942216634750366
-0.05635616555809975 -0.03272625431418419 -0.13246437907218933
0.26463833451271057 -0.44586560130119324 -0.010143290273845196
0.2989110052585602 0.181254580616951 0.09526436030864716
0.11793901771306992 0.2054147720336914 -0.13458672165870667
0.1601942479610443 -0.029233325272798538 -0.13920818269252777
-0.2938029170036316 -0.33171600103378296 -0.0010041433852165937
0.2756873667240143 -0.4452904164791107 0.07017907500267029
0.08741211146116257 0.17732569575309753 -0.13699865341186523
0.3016592264175415 -0.1395905613899231 -0.07784231752157211
-0.1047728955745697 0.22831778228282928 -0.10141785442829132
-0.2719266414642334 0.07153993099927902 -0.020054373890161514
0.052474018186330795 0.027889177203178406 -0.13475103676319122
-0.14849461615085602 -0.1799379289150238 -0.1363222897052765
0.23025274276733398 0.1342962682247162 -0.13499030470848083
-0.0851011648774147 -0.15532732009887695 -0.13712243735790253
0.06159671023488045 0.19633671641349792 -0.19991783797740936
0.17552609741687775 -0.36782801151275635 0.142460897564888
0.20012244582176208 -0.4485613703727722 0.11747362464666367
-0.17960883677005768 -0.36763137578964233 -0.03597133606672287
0.04644499719142914 -0.2509925067424774 0.05295847728848457
-0.16199375689029694 -0.09850579500198364 -0.13762131333351135
0.2236860990524292 0.39922061562538147 -0.09006007015705109
0.1835404932498932 -0.27438920736312866 -0.032175906002521515
0.017346246168017387 -0.05969946086406708 -0.13348273932933807
-0.27301567792892456 -0.06853479892015457 -0.11147216707468033
-0.11571609973907471 -0.16680127382278442 0.16852205991744995
-0.016908137127757072 -0.25086838006973267 0.14028336107730865
0.006737185642123222 -0.06220480054616928 -0.1347946673631668
0.29792457818984985 0.4171825647354126 0.10210228711366653
0.18007273972034454 0.361593097448349 -0.026093801483511925
-0.31921443343162537 -0.41268256306648254 0.006792385131120682
0.026884950697422028 0.15337292850017548 -0.13698995113372803
-0.05810057744383812 -0.03892313688993454 0.1696680188179016
-0.12283612787723541 0.22616373002529144 0.10320205986499786
0.2631632685661316 -0.2758843004703522 0.02318744920194149
0.2972027063369751 0.18459385633468628 -0.11507216095924377
-0.27101051807403564 0.05911247804760933 0.013389603234827518
0.21188205480575562 -0.14289268851280212 0.16984142363071442
0.2671455442905426 -0.07602018862962723 0.15779107809066772
-0.044119298458099365 -0.2511679530143738 -0.049053531140089035
-0.24820837378501892 0.11603007465600967 0.15688437223434448
-0.2395380437374115 -0.20166189968585968 0.15803033113479614
0.010434627532958984 0.19961108267307281 0.1599796712398529
0.2969858646392822 0.03827780485153198 0.11365243792533875
-0.163384810090065 -0.2056429088115692 -0.13511653244495392
0.21261879801750183 -0.4469970464706421 0.15165001153945923
0.1763104945421219 -0.25022241473197937 -0.07567266374826431
-0.22806328535079956 -0.11845096945762634 -0.1351725161075592
0.22830188274383545 -0.01116175577044487 -0.13495005667209625
-0.18932634592056274 -0.4084097445011139 -0.03366231918334961
-0.003323580138385296 0.030821790918707848 -0.1326952576637268
-0.27064093947410583 -0.01299692690372467 -0.1183154433965683
0.04692854732275009 0.12009047716856003 -0.1337541937828064
-0.243279829621315 -0.08954735100269318 0.1558571755886078
0.12033103406429291 0.22849297523498535 0.11854177713394165
0.2717010974884033 -0.0331261120736599 -0.13507363200187683
0.10243009775876999 -0.25114911794662476 -0.08981158584356308
-0.16287736594676971 0.225770965218544 0.06340541690587997
-0.08370401710271835 -0.15740728378295898 -0.1345994621515274
0.02026292309165001 0.12607476115226746 -0.1332448124885559
0.023783046752214432 0.20718394219875336 -0.156742125749588
-0.13782504200935364 -0.25231531262397766 -0.041703589260578156
0.1607866883277893 -0.08937501162290573 0.1709115356206894
-0.2103322297334671 -0.3149466812610626 0.08917359262704849
-0.2772994637489319 -0.32486337423324585 -0.03955230116844177
0.016995036974549294 0.16143490374088287 -0.1377246379852295
-0.21254514157772064 -0.45690277218818665 -0.010266821831464767
-0.19984810054302216 -0.4358431398868561 0.07599852234125137
-0.0692749097943306 0.1442853957414627 0.1696605682373047
-0.10711163282394409 -0.08294939994812012 0.17075757682323456
0.17972709238529205 0.3913673758506775 -0.02069079875946045
-0.2580117881298065 -0.4690358638763428 0.01577133685350418
-0.0763910785317421 0.14628684520721436 -0.13732950389385223
0.29378703236579895 -0.21790269017219543 -0.05223711580038071
-0.08578284084796906 0.06971826404333115 0.1729978621006012
-0.18413785099983215 -0.40605616569519043 -0.026560259982943535
-0.10037044435739517 -0.028796061873435974 0.1665387749671936
-0.20389331877231598 -0.38177943229675293 -0.06622981280088425
-0.267505407333374 0.157294362783432 0.033251598477363586
0.02706941030919552 0.22786317765712738 -0.06643979996442795
0.24563083052635193 -0.24982905387878418 0.10181628912687302
0.0727725550532341 -0.05388297885656357 -0.1341724693775177
-0.2725144624710083 0.10284941643476486 0.012661938555538654
-0.27104103565216064 0.13752460479736328 0.13356702029705048
-0.16861185431480408 0.19622710347175598 0.15619194507598877
0.18850629031658173 0.49057358503341675 0.03550804406404495
0.25397247076034546 -0.4170721769332886 -0.08566659688949585
-0.2687504291534424 0.19334612786769867 0.016842762008309364
-0.26968705654144287 0.1273527890443802 0.03828110545873642
-0.247386172413826 0.0363885834813118 -0.29635897278785706
-0.001219707541167736 -0.2537255585193634 -0.011179827153682709
0.17847469449043274 0.45831549167633057 0.0062415567226707935
-0.20922048389911652 -0.32372966408729553 -0.07394757866859436
0.1618868112564087 0.1106083020567894 -0.13703259825706482
0.13981881737709045 0.22712448239326477 0.0762455090880394
0.09933970868587494 -0.2485300451517105 0.033662691712379456
-0.12061098963022232 -0.03475198522210121 -0.13482631742954254
0.0031128046102821827 -0.04747259244322777 -0.13477802276611328
-0.04211737588047981 0.1408490091562271 0.17068374156951904
0.19431892037391663 0.019038125872612 0.17244337499141693
-0.2635851502418518 -0.3061571419239044 -0.03847460821270943
0.01900319755077362 -0.2511148154735565 0.08481977134943008
0.09022483229637146 -0.03786688670516014 -0.13357575237751007
0.06418533623218536 -0.23165130615234375 0.1591911017894745
0.29976820945739746 -0.11621440201997757 -0.09896530210971832
-0.27024123072624207 -0.45691418647766113 0.00852704606950283
0.2992192208766937 0.09201180189847946 -0.05510716512799263
-0.30518314242362976 -0.44458138942718506 -0.02986721135675907
-0.26879754662513733 -0.04760028421878815 -0.100806325674057
-0.2032517045736313 -0.008059075102210045 0.17155130207538605
0.26918354630470276 0.22984139621257782 -0.11074911057949066
0.27331504225730896 0.10322903841733932 -0.13972491025924683
0.2768559455871582 -0.25115859508514404 -0.04494626820087433
0.19558435678482056 0.4880886673927307 -0.014830942265689373
0.24290831387043 0.2047029286623001 0.15653254091739655
0.2977716624736786 -0.04225967824459076 -0.03924185037612915
-0.1889396756887436 -0.425189733505249 0.03736107051372528
0.23190732300281525 0.18732069432735443 -0.13486117124557495
-0.011710543185472488 0.22839640080928802 0.13180489838123322
-0.18433447182178497 0.10682906210422516 0.169777974486351
-0.11232898384332657 -0.033483900129795074 0.1684897243976593
0.05937359854578972 -0.16082902252674103 -0.13307371735572815
0.2188194990158081 -0.0026982142589986324 -0.13494375348091125
-0.2667655646800995 -0.29620876908302307 0.043884698301553726
-0.03984380513429642 0.11613965779542923 0.16751772165298462
-0.26953375339508057 0.4013763666152954 0.04530682787299156
0.029096167534589767 0.1397746205329895 -0.13391977548599243
0.022253388538956642 -0.2534712553024292 -0.04874931648373604
-0.11910952627658844 0.229368656873703 0.025047246366739273
0.049844611436128616 -0.21076294779777527 -0.134824737906456
0.16045142710208893 -0.3122064173221588 0.05148663744330406
0.016187502071261406 -0.09604992717504501 0.16887731850147247
0.16933853924274445 -0.27054962515830994 0.030321840196847916
0.27519509196281433 0.5013039112091064 0.07136230170726776
-0.08859411627054214 0.2037474811077118 -0.13529986143112183
0.2982266843318939 0.12581607699394226 0.10488048195838928
-0.21667538583278656 -0.13245274126529694 -0.1345149725675583
-0.26768630743026733 -0.11113297194242477 0.039770130068063736
-0.24433664977550507 0.22870318591594696 0.09054052829742432
-0.0017759717302396894 0.03463393449783325 -0.13628235459327698
0.29644012451171875 -0.15243463218212128 0.11153051257133484
-0.1962178647518158 -0.3793237507343292 0.10403640568256378
-0.17310763895511627 -0.39171698689460754 0.0369185246527195
0.2598728835582733 -0.24533498287200928 -0.11792923510074615
-0.008467160165309906 -0.25113582611083984 -0.06722811609506607
-0.2440931648015976 0.22843733429908752 -0.06153200566768646
0.13863365352153778 0.12154073268175125 -0.13495875895023346
0.2661535143852234 -0.4472709894180298 0.07313264161348343
0.2977948486804962 -0.10196958482265472 0.08508819341659546
0.10753785818815231 -0.13005498051643372 -0.1353210061788559
-0.19747640192508698 -0.2019328773021698 -0.13518540561199188
0.2596297562122345 -0.2825417220592499 -0.035308629274368286
0.056960344314575195 0.15028299391269684 -0.19245874881744385
0.1198713555932045 0.14054958522319794 0.16836906969547272
0.10134128481149673 0.08069092035293579 0.16971924901008606
0.12194091081619263 0.22856445610523224 0.08636438101530075
0.19342006742954254 0.022169534116983414 -0.13610461354255676
-0.10382619500160217 0.20530390739440918 0.1567133516073227
0.2448301911354065 -0.4474879801273346 0.08344093710184097
0.18094895780086517 -0.3167782425880432 0.08634662628173828
0.2119608074426651 0.20737621188163757 0.1576256901025772
0.2978788912296295 -0.05193556845188141 0.03559504449367523
0.19169923663139343 0.20796038210391998 -0.13519485294818878
0.29856911301612854 0.4251032769680023 0.008775396272540092
0.29776638746261597 -0.16661569476127625 0.1064130887389183
-0.27463069558143616 -0.16251684725284576 0.030299456790089607
0.1448836624622345 -0.3903777599334717 0.12727613747119904
0.26818615198135376 -0.17089305818080902 -0.13745468854904175
-0.0878520980477333 0.2266848087310791 -0.012332681566476822
0.28429484367370605 -0.36422502994537354 0.09175195544958115
0.1619032770395279 0.015919221565127373 -0.13481637835502625
-0.03837938606739044 0.13584816455841064 -0.16858726739883423
-0.22543847560882568 -0.37319517135620117 -0.08551715314388275
-0.24997609853744507 0.19596847891807556 0.15593086183071136
-0.27117207646369934 -0.21702806651592255 0.054233092814683914
-0.0184011347591877 0.18626441061496735 0.1563035249710083
-0.07996970415115356 0.18438872694969177 -0.1349865049123764
-0.11070960015058517 -0.25179746747016907 0.039848171174526215
-0.21571789681911469 0.34984150528907776 0.09165945649147034
0.1886301338672638 -0.3665427267551422 0.15103833377361298
0.1877342313528061 0.33533450961112976 0.011134126223623753
0.024389371275901794 0.22712266445159912 0.06501766294240952
0.29811999201774597 -0.19240231812000275 -0.09955145418643951
-0.27113741636276245 -0.03468208760023117 0.020394206047058105
-0.2692861557006836 0.1328086107969284 -0.038056034594774246
-0.1435268372297287 -0.2520899474620819 -0.053841397166252136
0.29784443974494934 0.037258442491292953 0.10688193142414093
-0.2508649528026581 -0.19948317110538483 -0.13729065656661987
0.17206411063671112 0.2301664501428604 0.030672788619995117
-0.03652677685022354 0.22851014137268066 -0.08873534947633743
0.16775168478488922 -0.38344088196754456 0.16027900576591492
-0.15544189512729645 -0.09806810319423676 0.16740486025810242
0.29445984959602356 0.13175861537456512 -0.02530023828148842
-0.2708877921104431 0.182654470205307 0.03509970009326935
-0.20401132106781006 0.07155697792768478 0.1714324653148651
-0.15719729661941528 0.2278614342212677 -0.0012053968384861946
0.20668436586856842 0.5014817118644714 -0.006053213961422443
0.1634466052055359 0.08126695454120636 0.16803331673145294
0.3006197214126587 -0.23024225234985352 0.11468435823917389
0.050096556544303894 0.08009672909975052 -0.13372313976287842
-0.12768931686878204 0.22572273015975952 -0.03095918335020542
-0.14714960753917694 -0.08367830514907837 0.16976408660411835
-0.26788797974586487 -0.025207102298736572 0.13925373554229736
0.2362128645181656 -0.19368615746498108 -0.13960278034210205
0.29779016971588135 -0.16561190783977509 0.04848518222570419
0.29388323426246643 -0.04535747319459915 0.08365251123905182
0.2978171408176422 0.10308928787708282 0.13390304148197174
-0.15969128906726837 0.4258245825767517 -0.026648472994565964
-0.1931978464126587 -0.42014041543006897 0.07447701692581177
0.0835762694478035 -0.06180518865585327 0.16842609643936157
-0.29413774609565735 0.02657405473291874 -0.2689293324947357
0.25331366062164307 -0.44570377469062805 -0.054148923605680466
0.18835224211215973 -0.30831483006477356 -0.0526772066950798
-0.2715873718261719 -0.15549367666244507 0.02840352989733219
0.14976760745048523 -0.21454055607318878 -0.13599656522274017
0.2327331006526947 0.22746917605400085 0.1281285583972931
0.14237722754478455 -0.3986501395702362 0.09534595161676407
-0.13856928050518036 -0.014434020966291428 -0.13487015664577484
-0.1851252317428589 0.2274448126554489 0.10446103662252426
-0.15005430579185486 0.2282513678073883 0.03208054229617119
0.04642914980649948 0.2285345047712326 0.03145036846399307
-0.27096492052078247 0.14404739439487457 0.058473363518714905
0.11276666074991226 0.08303575962781906 0.16908292472362518
-0.1572139412164688 -0.13093267381191254 0.16950660943984985
0.1900828778743744 0.22882892191410065 -0.07403723895549774
0.26929163932800293 0.5019298791885376 -0.0004513926396612078
-0.2680179178714752 0.3879477083683014 0.0403100810945034
0.21361230313777924 -0.12295382469892502 -0.1361427754163742
-0.07533586770296097 -0.2531028091907501 -0.021368559449911118
-0.2703258991241455 0.1801692396402359 -0.09218534827232361
0.1887028068304062 -0.31506943702697754 0.09435415267944336
0.014210229739546776 -0.2536671757698059 -0.059821031987667084
-0.2705271542072296 -0.023655300959944725 0.06623975932598114
-0.27036887407302856 0.05769878625869751 0.060268424451351166
0.17756161093711853 -0.2508126497268677 -0.09082461148500443
-0.06575782597064972 -0.24985851347446442 0.12692832946777344
-0.24303032457828522 -0.03766186535358429 -0.2703297436237335
0.2305118888616562 0.4137060046195984 -0.09024040400981903
0.06119321659207344 -0.09362684190273285 0.17158983647823334
0.30172303318977356 0.38775113224983215 0.04317248985171318
0.13682971894741058 -0.4045941233634949 0.043363671749830246
0.29597142338752747 0.04340546578168869 -0.017459386959671974
-0.2729777991771698 -0.13292178511619568 0.12133054435253143
0.1637679487466812 -0.446204274892807 0.1549312323331833
-0.04218592867255211 0.1635134220123291 -0.15909895300865173
0.2980765998363495 -0.08170200139284134 -0.05040089413523674
0.2387285977602005 0.19629482924938202 0.15596045553684235
-0.15615807473659515 0.3795698881149292 -0.015468538738787174
0.16658473014831543 0.22877879440784454 -0.0719425231218338
-0.2710959017276764 -0.14680816233158112 -0.11043719947338104
-0.2215157449245453 0.035114072263240814 -0.13505981862545013
0.19585739076137543 -0.2735021710395813 -0.046182114630937576
0.13178330659866333 0.0482492633163929 0.17278170585632324
0.1733306348323822 -0.2844618558883667 0.050650209188461304
-0.1754952222108841 -0.09668652713298798 -0.13502836227416992
0.20192229747772217 0.3611452877521515 -0.06691654771566391
-0.12841756641864777 -0.21494655311107635 -0.13280710577964783
0.203429713845253 -0.08343570679426193 0.1672089695930481
0.18464607000350952 0.46333056688308716 -0.005777075421065092
-0.04578853398561478 0.03617209196090698 -0.13471464812755585
0.25739067792892456 0.024304868653416634 -0.13739416003227234
0.1528531014919281 0.011166512034833431 -0.1348065882921219
0.031022941693663597 -0.12181972712278366 0.16980335116386414
-0.27094998955726624 0.059250570833683014 -0.015631135553121567
0.29813268780708313 0.017864840105175972 0.1057477667927742
0.10269556939601898 -0.04579661414027214 -0.1348331868648529
-0.27055779099464417 0.15535397827625275 0.07278911024332047
0.2982235252857208 -0.04929668828845024 -0.08415569365024567
0.12631693482398987 -0.047598712146282196 -0.13485325872898102
0.08420808613300323 -0.15750978887081146 -0.1333082914352417
0.12566857039928436 0.16388416290283203 -0.13868173956871033
0.1945069581270218 0.48719626665115356 0.0004852249112445861
0.1581147015094757 -0.33691078424453735 -0.029743695631623268
-0.1801750808954239 -0.3359606862068176 0.07523225992918015
-0.2389693409204483 -0.06907761842012405 -0.1376352310180664
0.20226925611495972 0.22858291864395142 -0.059480220079422
-0.06859219819307327 -0.2115565836429596 -0.1342739462852478
-0.12019173800945282 -0.25108233094215393 -0.08775505423545837
0.253760427236557 -0.22203606367111206 -0.13314558565616608
-0.07924938946962357 0.23177754878997803 0.13278517127037048
0.17232638597488403 -0.3768067955970764 -0.056659240275621414
0.11208219081163406 0.11642031371593475 -0.13491933047771454
-0.13083596527576447 0.22904250025749207 -0.06590930372476578
-0.1659918874502182 -0.03515756130218506 0.16916105151176453
0.269553005695343 0.4900861978530884 -0.029783127829432487
0.05895572900772095 0.23067575693130493 -0.07313898205757141
-0.22297455370426178 0.49900761246681213 0.08371704816818237
-0.27067771553993225 0.056174568831920624 0.09608778357505798
0.2974924147129059 0.05840124189853668 0.01409198995679617
-0.009127162396907806 -0.2536715865135193 -0.06834366917610168
0.1482805460691452 -0.2522437870502472 0.13191555440425873
0.05961877107620239 0.04473460093140602 -0.1347382813692093
0.014934943057596684 -0.2511369287967682 -0.08795636892318726
0.10332467406988144 0.22860798239707947 0.05860298126935959
-0.27120301127433777 -0.13876672089099884 0.005962979514151812
-0.26669472455978394 0.0089205177500844 -0.11674952507019043
-0.11167982220649719 -0.09578561037778854 -0.13496989011764526
-0.1587420105934143 0.45540252327919006 0.04841763898730278
-0.2711694538593292 -0.15086154639720917 0.12447628378868103
0.19456946849822998 -0.22495624423027039 -0.13370724022388458
0.2752475440502167 -0.3153980076313019 0.04613190144300461
-0.24074359238147736 -0.3569989502429962 0.16508272290229797
-0.24634785950183868 0.2276684194803238 0.06664570420980453
-0.29578137397766113 0.04836157336831093 -0.2727780044078827
-0.2628589868545532 0.3935298025608063 -0.02793186902999878
0.3022805452346802 0.021771540865302086 -0.019461631774902344
0.29908332228660583 -0.22164446115493774 0.07566331326961517
-0.05150771141052246 -0.04767240956425667 0.16784855723381042
0.2972694933414459 0.09482452273368835 0.04894475266337395
-0.0015793368220329285 -0.2522425651550293 0.05339311063289642
-0.1525486260652542 0.19475525617599487 -0.13446564972400665
0.157562255859375 0.10514974594116211 0.16703848540782928
0.2911142408847809 0.3363439738750458 -0.0033238749019801617
0.1485435962677002 0.22781112790107727 -0.01806238293647766
0.2081647366285324 0.22884969413280487 -0.08934398740530014
0.00652678357437253 -0.0035120241809636354 -0.13334935903549194
-0.2794656753540039 -0.4230964481830597 -0.09140583127737045
-0.22364158928394318 -0.4170880913734436 -0.07116066664457321
-0.0690411627292633 0.00423041544854641 -0.13475066423416138
-0.2514732778072357 0.4819372892379761 0.00612865062430501
0.05604825168848038 -0.04199893772602081 0.1673855483531952
0.228663370013237 -0.1746300756931305 -0.13446320593357086
-0.1112360954284668 -0.16819705069065094 -0.1312747746706009
0.2955936789512634 -0.21809875965118408 0.03724231198430061
0.1283530741930008 0.06527566909790039 -0.1349395215511322
-0.17547981441020966 -0.3796042501926422 -0.011580378748476505
-0.06935085356235504 -0.1722915917634964 -0.13489684462547302
0.25423842668533325 -0.33288607001304626 -0.07337943464517593
0.127731591463089 0.21236741542816162 -0.1348811388015747
-0.0243251770734787 0.226056769490242 0.06171468272805214
0.18554624915122986 -0.2524997591972351 0.08573208749294281
-0.11458242684602737 -0.05506551265716553 -0.13521894812583923
-0.2697891294956207 -0.07231687754392624 0.10963550955057144
-0.2817074656486511 -0.4526135325431824 -0.02683580480515957
-0.27185025811195374 -0.1917402595281601 0.07297033071517944
-0.3006444275379181 -0.4442984163761139 -0.056140363216400146
0.23608289659023285 -0.026890788227319717 -0.13404665887355804
-0.2011653184890747 -0.2535289227962494 0.09907296299934387
0.11399079114198685 0.13485120236873627 -0.13220372796058655
0.29790395498275757 -0.15841734409332275 0.0981212854385376
0.1856437772512436 -0.4440261125564575 -0.02054671198129654
-0.04425305500626564 0.22730381786823273 -0.07405053079128265
0.004479647614061832 -0.24608789384365082 -0.0022090261336416006
-0.2540305256843567 -0.42823269963264465 0.16354471445083618
-0.26866939663887024 -0.13057751953601837 0.012330040335655212
0.11935504525899887 -0.21652020514011383 0.15821969509124756
0.2851795554161072 0.4734989404678345 -0.015316961333155632
-0.21292103826999664 -0.38344183564186096 0.1504320502281189
0.3003464639186859 -0.11127746105194092 -0.06374143809080124
-0.2483561784029007 0.030850276350975037 -0.13467639684677124
-0.0833442211151123 0.15814921259880066 -0.13494381308555603
0.2594251036643982 -0.3053554594516754 -0.05298365652561188
-0.18644697964191437 -0.09206361323595047 -0.1350153088569641
0.1774531751871109 0.40728557109832764 -0.015749139711260796
0.1375485360622406 0.2277406007051468 0.1163858026266098
-0.027587495744228363 0.23298338055610657 -0.09368012100458145
-0.21175391972064972 -0.3820441663265228 0.1488824188709259
0.1839679777622223 -0.35868898034095764 0.1337074339389801
-0.03695586323738098 0.08820313960313797 0.17026250064373016
-0.2704882025718689 -0.22324717044830322 0.07301478832960129
0.26899629831314087 -0.18529292941093445 -0.13414233922958374
0.06385919451713562 -0.13965928554534912 -0.13492923974990845
-0.18047462403774261 0.4881401062011719 0.019913453608751297
0.09193789958953857 0.22839705646038055 0.1282092183828354
0.20393475890159607 0.2997549772262573 0.006220027804374695
0.29790550470352173 0.14974381029605865 0.0397799126803875
-0.12199296057224274 -0.2195184975862503 0.1547756940126419
-0.2675733268260956 0.11489119380712509 -0.0049945586360991
-0.19792240858078003 -0.09615283459424973 -0.13407309353351593
-0.260312020778656 -0.3164416551589966 -0.06010076403617859
0.10883647203445435 -0.11897606402635574 0.16969521343708038
-0.1214241236448288 -0.25418397784233093 -0.013290445320308208
0.29818305373191833 0.08789379149675369 -0.08147434145212173
-0.1173267737030983 0.2120608240365982 -0.13546353578567505
-0.11458662897348404 0.07849191874265671 0.169650599360466
-0.2370234727859497 0.5011793375015259 0.03669599071145058
0.2697874903678894 -0.30680176615715027 0.047876786440610886
-0.056771982461214066 -0.03936449810862541 0.16966959834098816
-0.28209128975868225 -0.32849693298339844 -0.03378354385495186
-0.10214944928884506 0.22673797607421875 -0.09999316930770874
-0.17745408415794373 -0.13894613087177277 0.17428560554981232
0.010988838970661163 0.16701054573059082 -0.1349877417087555
-0.12276674807071686 -0.06879827380180359 -0.13486087322235107
0.2695102095603943 -0.30025598406791687 0.03108290769159794
0.2256671041250229 -0.13981671631336212 0.16986343264579773
-0.2328953593969345 0.1818099170923233 0.15794400870800018
-0.24385704100131989 -0.161712184548378 -0.13783258199691772
0.1019473597407341 0.14168058335781097 0.1697092205286026
0.26109981536865234 -0.2774538993835449 -0.02566327340900898
0.1419241577386856 -0.04529658704996109 0.16950811445713043
0.1624266505241394 -0.24857281148433685 -0.11211766302585602
0.2509136199951172 -0.22897110879421234 -0.13540887832641602
-0.27215734124183655 0.08455897867679596 0.08515480905771255
0.3000761866569519 -0.18959888815879822 -0.10767606645822525
0.03170965984463692 -0.12445465475320816 -0.13579189777374268
0.17398802936077118 0.3868117928504944 0.04778864234685898
-0.11573659628629684 0.2283450961112976 -0.048583023250103
-0.15085770189762115 0.42196738719940186 0.01480469573289156
0.24550068378448486 0.07600510865449905 -0.1342395395040512
0.27211007475852966 -0.038252606987953186 0.15669074654579163
0.07473672181367874 0.2283862978219986 0.1290968507528305
0.10264325141906738 0.01686084270477295 -0.13448429107666016
-0.22251875698566437 -0.09386146813631058 -0.13521459698677063
0.09175204485654831 0.07828265428543091 0.17016050219535828
0.2535780370235443 -0.05874005705118179 -0.13503938913345337
-0.3016808331012726 -0.38477739691734314 0.16597473621368408
0.2998572289943695 0.15406008064746857 0.02711929939687252
-0.2726444602012634 -0.1810046285390854 0.06308916956186295
0.28839847445487976 0.3951287865638733 -0.06073727458715439
0.23478679358959198 0.06633390486240387 -0.13501085340976715
0.1254841536283493 -0.08343631029129028 0.1677274852991104
0.18715155124664307 0.47810518741607666 0.0888712927699089
0.23729297518730164 -0.14404761791229248 -0.13307006657123566
0.29435378313064575 -0.0076940483413636684 -0.010194164700806141
0.3006526231765747 -0.2059817910194397 -0.11684506386518478
0.300028532743454 0.3735988140106201 0.04956545680761337
-0.27122530341148376 -0.21538642048835754 0.03433898091316223
-0.0781400129199028 -0.14824165403842926 0.16983824968338013
0.2730213403701782 -0.2940468490123749 0.013581467792391777
0.10385984927415848 -0.25531432032585144 0.07113101333379745
0.29465529322624207 0.009152294136583805 -0.025801414623856544
-0.021507957950234413 0.228407621383667 0.07452952861785889
0.19725078344345093 -0.16835273802280426 0.17287495732307434
0.059353843331336975 0.2289821356534958 -0.0836234912276268
0.29838526248931885 -0.22740411758422852 -0.103133924305439
-0.22314663231372833 0.04638969525694847 -0.13406960666179657
0.2686644494533539 0.2314169853925705 0.0664227306842804
0.09063410758972168 0.15595313906669617 -0.13207733631134033
0.29805558919906616 -0.09214895963668823 -0.035959914326667786
0.18072660267353058 0.0022198159713298082 0.1676637828350067
0.23284780979156494 -0.4476527273654938 -0.010539557784795761
0.2400377094745636 0.1624114215373993 -0.1361021101474762
0.11851180344820023 0.1004578024148941 -0.1348738968372345
0.298259973526001 0.037347905337810516 -0.10170232504606247
-0.0616951584815979 -0.1938355416059494 -0.13340862095355988
0.298166424036026 -0.09740035235881805 -0.08979745209217072
0.020811667665839195 0.17570461332798004 -0.13500727713108063
0.2941989004611969 -0.17474760115146637 -0.025025775656104088
-0.27101150155067444 -0.04870324954390526 -0.050942596048116684
-0.2694169580936432 -0.023108405992388725 -0.026304876431822777
-0.13677284121513367 -0.06307108700275421 0.1697012037038803
-0.26864057779312134 0.12310505658388138 -0.03320721164345741
-0.26953616738319397 0.09058322757482529 0.10358631610870361
0.2186456024646759 0.22859828174114227 0.1299070119857788
0.008207438513636589 0.2281264066696167 -0.1763153076171875
0.22960108518600464 -0.44670841097831726 -0.0341775119304657
-0.3027428090572357 -0.35833680629730225 -0.04722902923822403
0.2835254967212677 0.38353559374809265 -0.07396676391363144
0.007150109391659498 -0.1909252107143402 -0.13495786488056183
0.16263869404792786 -0.339047372341156 -0.04649581387639046
-0.27178654074668884 0.053706686943769455 0.0591515488922596
0.3008020520210266 0.09591386467218399 0.019850987941026688
-0.07313332706689835 0.05235074460506439 -0.1330375373363495
-0.2419060319662094 0.3848039209842682 -0.07160625606775284
0.07612606137990952 -0.19375543296337128 -0.13393132388591766
0.1364036649465561 -0.4114350974559784 0.06872440874576569
0.0356559120118618 0.22885940968990326 -0.08966989815235138
-0.2706907391548157 0.14430451393127441 -0.10484793782234192
0.04144813492894173 -0.2140166312456131 -0.1318671554327011
-0.27184224128723145 0.046637143939733505 -0.08971746265888214
-0.135838583111763 0.22593994438648224 0.04858899489045143
0.15140658617019653 -0.011625751852989197 -0.13553544878959656
0.22966493666172028 -0.14206135272979736 0.16983497142791748
0.0669606626033783 -0.08722605556249619 0.17035293579101562
0.16387459635734558 -0.2526659071445465 0.12676873803138733
-0.2709362804889679 0.13291823863983154 0.017889784649014473
0.14041964709758759 0.2314338982105255 0.021495215594768524
-0.2653173506259918 0.4376831650733948 0.0038878379855304956
0.18531706929206848 -0.15789920091629028 -0.13516932725906372
-0.17967811226844788 -0.335151731967926 0.06768517196178436
-0.005267671309411526 0.21587640047073364 -0.1677955985069275
-0.09973996877670288 0.07952574640512466 -0.13479068875312805
0.29128381609916687 -0.41422393918037415 0.09908638149499893
0.30043748021125793 0.08207256346940994 -0.09692913293838501
-0.038696885108947754 -0.13162274658679962 -0.1359623670578003
0.22753867506980896 0.5141960382461548 0.07428616285324097
0.12992236018180847 -0.027009006589651108 0.16832475364208221
0.2977277338504791 -0.18944647908210754 0.13203135132789612
0.19189931452274323 -0.20159558951854706 -0.13585960865020752
0.0756477639079094 -0.1929996758699417 -0.1378091275691986
0.29129698872566223 -0.4218738377094269 0.11549793183803558
-0.10911107063293457 -0.21321958303451538 0.15569715201854706
-0.06490598618984222 -0.05748048797249794 -0.13480167090892792
-0.20233364403247833 -0.08120987564325333 0.16474111378192902
0.037196893244981766 0.22852662205696106 0.0200766921043396
-0.162091463804245 -0.34428131580352783 -0.014652576297521591
0.18349125981330872 0.4665444493293762 0.08807076513767242
0.14904256165027618 -0.3414098620414734 -0.006905954796820879
0.20643705129623413 -0.40473783016204834 -0.08392740786075592
-0.20912232995033264 -0.36831507086753845 -0.07305216044187546
-0.2886849045753479 -0.04322061687707901 -0.2724217176437378
0.009595130570232868 -0.24973230063915253 0.08976374566555023
-0.15570946037769318 -0.25053343176841736 -0.05410764738917351
0.29674720764160156 0.42202097177505493 -0.016253601759672165
-0.2752867043018341 0.03995344042778015 0.06450224667787552
-0.18632695078849792 0.44183576107025146 -0.0664556473493576
0.19737376272678375 -0.3069233000278473 -0.06215445324778557
-0.24356308579444885 -0.44373705983161926 0.13185927271842957
-0.006906925700604916 0.034354068338871 -0.13885216414928436
-0.053349245339632034 0.2293565571308136 0.034339260309934616
0.24516190588474274 -0.1426904797554016 -0.13523288071155548
0.011967229656875134 0.20334193110466003 -0.15353350341320038
-0.009349689818918705 0.19240662455558777 0.1549626588821411
-0.2296794056892395 -0.24645307660102844 -0.11385524272918701
-0.11589468270540237 -0.1221029981970787 -0.13464157283306122
0.25369229912757874 0.138871431350708 -0.13516511023044586
-0.13821741938591003 -0.2517523467540741 0.09797424077987671
-0.09976038336753845 -0.15571223199367523 0.17295369505882263
-0.2681269943714142 0.015252756886184216 -0.0509534627199173
0.12975746393203735 0.12145555764436722 0.16973011195659637
0.24444930255413055 0.32125329971313477 0.060858577489852905
0.18771040439605713 -0.44664111733436584 0.1215919554233551
-0.2709185779094696 0.15742316842079163 0.03585531562566757
0.12793193757534027 0.01748988777399063 0.1685369312763214
-0.32791581749916077 -0.40668442845344543 0.014727752655744553
-0.14043450355529785 0.05911270156502724 0.16967730224132538
0.17281225323677063 0.433239221572876 0.025838980451226234
-0.12255799770355225 0.13631831109523773 0.16933852434158325
0.19598866999149323 -0.4451552629470825 0.06872972846031189
-0.2956538498401642 0.011747688055038452 -0.25903239846229553
0.26583677530288696 0.19698511064052582 0.15660089254379272
-0.27189216017723083 0.10817304253578186 -0.0824275091290474
-0.017854895442724228 -0.25109490752220154 0.04900088906288147
-0.1570305973291397 0.40446892380714417 -0.016119400039315224
0.2988295555114746 -0.07653822749853134 0.03774634376168251
0.22705379128456116 -0.29524463415145874 -0.06890978664159775
0.13999512791633606 -0.0853230431675911 0.16982023417949677
0.14703193306922913 -0.2088535577058792 0.15473781526088715
0.11632198095321655 -0.060706887394189835 -0.13630938529968262
-0.13675974309444427 0.08267692476511002 -0.12953947484493256
0.2033795863389969 -0.25070589780807495 -0.11585985869169235
0.08656945824623108 -0.25099191069602966 0.08126281201839447
-0.02545921318233013 0.1453796774148941 -0.20575127005577087
0.296843945980072 0.1267041265964508 0.00927705317735672
0.29567772150039673 0.20534908771514893 -0.08240550756454468
-0.28071391582489014 -0.334006130695343 0.1811579316854477
0.21651729941368103 -0.44700348377227783 0.01981130987405777
-0.14185269176959991 -0.09419319778680801 0.16976721584796906
-0.27098339796066284 0.06340252608060837 0.0023708301596343517
0.17455743253231049 0.22884339094161987 -0.03491240367293358
-0.03317985311150551 0.1250821352005005 0.16794969141483307
-0.22655341029167175 0.22812753915786743 0.11082473397254944
-0.016964904963970184 0.10767102986574173 0.17226512730121613
-0.12280702590942383 -0.25216028094291687 0.009783360175788403
-0.27068132162094116 0.1313554346561432 -0.09514548629522324
-0.13133013248443604 -0.0042112357914447784 -0.1343294382095337
-0.01726163551211357 0.2284734845161438 0.015752937644720078
-0.14811904728412628 0.228271022439003 0.018824968487024307
0.19555003941059113 -0.3018331229686737 -0.05910748988389969
0.1556895226240158 -0.25035369396209717 0.07713818550109863
-0.014123276807367802 0.23238083720207214 -0.029488706961274147
0.19124019145965576 0.33012133836746216 -0.006000290159136057
0.15187104046344757 -0.04099814593791962 -0.13109856843948364
0.21036048233509064 -0.4409710764884949 0.08875659853219986
-0.08264037221670151 -0.22063763439655304 0.15586794912815094
0.2468104213476181 -0.21803337335586548 0.15384234488010406
-0.16559064388275146 -0.03410554677248001 0.16972987353801727
0.2978156507015228 -0.1410616785287857 0.09530281275510788
-0.27475064992904663 -0.09316116571426392 0.11587803065776825
-0.27109700441360474 0.015265404246747494 -0.08834652602672577
-0.27118563652038574 0.0005707226227968931 0.12058941274881363
-0.2696213722229004 -0.01575474813580513 -0.026305915787816048
-0.2715139091014862 -0.30999138951301575 -0.03136572614312172
-0.23172715306282043 -0.06700392812490463 -0.1351611465215683
-0.28092360496520996 -0.45943766832351685 -0.03320048749446869
0.09861886501312256 -0.25103089213371277 -0.0031731673516333103
0.065561443567276 -0.25034570693969727 0.09654919058084488
0.21719829738140106 0.40365540981292725 -0.08709554374217987
0.07566183060407639 0.22956934571266174 -0.10371523350477219
-0.23297666013240814 -0.45388486981391907 -0.05011569336056709
-0.27120906114578247 -0.13058407604694366 0.1177002340555191
-0.2632765471935272 -0.4352175295352936 -0.08366995304822922
-0.2667865455150604 -0.012189880944788456 0.12411876767873764
-0.10911914706230164 -0.07567586749792099 0.1676677167415619
-0.17879430949687958 0.40685009956359863 -0.06483184546232224
-0.16543422639369965 0.3897043764591217 -0.03994781896471977
-0.10543092340230942 0.05367427319288254 0.16963326930999756
0.2895248830318451 0.46813371777534485 0.10834605246782303
-0.27062729001045227 -0.16923579573631287 -0.05544360354542732
0.20151516795158386 -0.41149085760116577 -0.07936298102140427
-0.1937483698129654 -0.23108728229999542 0.15755270421504974
0.06838706880807877 0.23066899180412292 0.1152883768081665
-0.16124649345874786 0.43158456683158875 -0.01728222519159317
0.15773905813694 0.23273853957653046 0.110664963722229
-0.12196347117424011 -0.16270723938941956 0.17371512949466705
0.29787859320640564 0.0244130901992321 0.07030468434095383
-0.2708849608898163 0.20097079873085022 0.048777785152196884
-0.15676020085811615 0.44525784254074097 0.05952521041035652
0.0705450102686882 -0.02883952111005783 0.16975881159305573
-0.1875791847705841 -0.317516028881073 0.0737396702170372
-0.2214663028717041 -0.42380720376968384 -0.06285035610198975
0.2952902615070343 -0.21841445565223694 -0.08245169371366501
-0.22350004315376282 -0.3619668483734131 0.14147064089775085
0.2964411973953247 -0.13010115921497345 -0.08041273802518845
-0.132265105843544 -0.17134234309196472 0.17016242444515228
0.10536059737205505 0.22941644489765167 0.06248503178358078
0.04083902761340141 0.2301945984363556 0.08541034907102585
0.2953822612762451 0.04980111122131348 -0.08319584280252457
0.15470147132873535 -0.2510950565338135 0.07022658735513687
-0.024700267240405083 -0.25461867451667786 -0.08208802342414856
-0.016887912526726723 -0.24852605164051056 0.1225023865699768
-0.31025227904319763 -0.430141806602478 -0.018057806417346
0.29774224758148193 -0.2230275422334671 0.1121007651090622
0.21511532366275787 -0.06475493311882019 -0.13550610840320587
-0.03587852045893669 0.2284417748451233 0.004847624339163303
-0.24712370336055756 -0.19878359138965607 0.15443390607833862
-0.270186185836792 0.2070995420217514 0.035601068288087845
-0.3231213390827179 -0.34697216749191284 0.07124358415603638
-0.1579064279794693 -0.32549428939819336 0.015790589153766632
-0.27106308937072754 0.01621166057884693 0.031127143651247025
-0.17197252810001373 -0.3863328695297241 0.005773373879492283
-0.2709290385246277 0.1827489286661148 0.09347233921289444
-0.2733604907989502 0.09542525559663773 0.0860917940735817
-0.0792514830827713 -0.2507832944393158 -0.10432793945074081
0.008454730734229088 0.20267567038536072 -0.23489394783973694
0.2514207661151886 -0.3626541793346405 0.1573990136384964
-0.2731196880340576 0.1010984256863594 0.09680002182722092
-0.04937761276960373 0.2284158319234848 -0.09814136475324631
0.046068739145994186 0.20922043919563293 0.15387746691703796
-0.20906083285808563 -0.2506072223186493 -0.08499490469694138
-0.17714031040668488 -0.38507169485092163 0.05839710682630539
0.2747550308704376 -0.37671926617622375 -0.05453309789299965
-0.27166905999183655 -0.04933727905154228 0.005097075365483761
0.29777753353118896 -0.1847255527973175 0.03821791708469391
0.10430467873811722 -0.1649198979139328 -0.1370496153831482
0.16168008744716644 -0.0053931716829538345 0.16760484874248505
-0.1532738208770752 0.05588419362902641 0.16875363886356354
0.09177463501691818 -0.09610604494810104 -0.13202902674674988
-0.27114221453666687 0.018884388729929924 0.08485779166221619
0.19283904135227203 -0.19729161262512207 -0.13525883853435516
-0.2450820803642273 -0.4598601460456848 0.07392608374357224
0.29975995421409607 0.40201863646507263 0.0008756947354413569
-0.05900450050830841 -0.22568564116954803 -0.13500945270061493
0.04164491966366768 0.22928714752197266 0.11375144869089127
0.27343112230300903 0.46505090594291687 -0.06379164755344391
0.026843033730983734 -0.09535009413957596 0.16976946592330933
0.06195235252380371 -0.1479557454586029 0.16802676022052765
0.29795578122138977 -0.007897185161709785 -0.10131338238716125
0.2917007505893707 0.41955727338790894 -0.047689009457826614
-0.14454808831214905 0.22553549706935883 -0.10273957252502441
-0.03925507143139839 -0.25093573331832886 0.0468171089887619
-0.33043739199638367 -0.35848915576934814 0.04091335088014603
-0.2526065409183502 -0.19586847722530365 -0.1343698799610138
-0.27220433950424194 0.043768301606178284 -0.016239656135439873
0.2633911967277527 0.22637996077537537 0.1375131458044052
-0.272314190864563 -0.02526882290840149 0.04970041289925575
-0.020404493436217308 0.0900987982749939 0.16967891156673431
0.2301427721977234 0.06491121649742126 -0.1349940001964569
-0.270608514547348 0.20275749266147614 -0.11960595101118088
0.29783445596694946 0.005713079124689102 0.12234172970056534
-0.2711023986339569 -0.11668629199266434 -0.06759655475616455
0.19924519956111908 -0.3734540045261383 0.16433681547641754
0.29795002937316895 0.009133735671639442 0.0023167096078395844
-0.2688456177711487 -0.17652221024036407 -0.06965534389019012
-0.2124663144350052 -0.3915010988712311 0.15746775269508362
0.2948489487171173 0.37733349204063416 0.10379812121391296
-0.009613540954887867 0.23036807775497437 -0.09069433063268661
0.15478362143039703 -0.3607849180698395 0.09891027212142944
-0.3088933527469635 -0.3562764525413513 -0.02798912487924099
-0.073021799325943 0.20764096081256866 0.1564643234014511
-0.2640284299850464 0.4393603205680847 0.0003951381368096918
0.2575964033603668 -0.2099444717168808 -0.13551422953605652
0.19173789024353027 0.4887470006942749 0.09481934458017349
-0.18209251761436462 -0.40827247500419617 0.008567704819142818
-0.2082366794347763 0.14089687168598175 -0.13858169317245483
0.24368759989738464 0.0789993405342102 -0.13443604111671448
0.09566052258014679 0.08398094773292542 -0.13484324514865875
0.21013732254505157 -0.2525957226753235 0.12041152268648148
-0.2710541784763336 -0.11024419963359833 -0.0877605453133583
0.19275370240211487 0.1121673732995987 0.16973857581615448
-0.11405622959136963 -0.25254279375076294 -3.731455217348412e-05
0.2980201244354248 0.1093202456831932 -0.02388513833284378
-0.27107250690460205 0.050399910658597946 0.014358801767230034
0.09584540873765945 -0.2525651156902313 0.012159246020019054
-0.15408803522586823 0.08659730851650238 -0.13489751517772675
0.2012590914964676 0.36824870109558105 -0.07051143795251846
0.16218610107898712 0.01732448674738407 -0.134817972779274
-0.2655481994152069 0.3710493743419647 0.002674309303984046
-0.27122077345848083 -0.21935303509235382 0.028463225811719894
0.016259916126728058 0.22848716378211975 0.030222510918974876
-0.14334574341773987 0.19469688832759857 -0.13560666143894196
-0.07410255074501038 0.22990325093269348 -0.06515572965145111
0.29714125394821167 0.12260469794273376 -0.11360103636980057
-0.24275031685829163 -0.03457283973693848 -0.26633909344673157
0.19827918708324432 -0.31144455075263977 -0.0644538477063179
0.27737268805503845 0.4962448477745056 0.09574010968208313
0.2304476797580719 0.3844653367996216 -0.08959502726793289
0.26911115646362305 -0.390625 -0.07187575846910477
0.29769080877304077 0.4326750934123993 0.10838091373443604
-0.27266865968704224 0.04947882145643234 0.08184012770652771
-0.1030186265707016 0.22837595641613007 -0.03078531101346016
-0.2642242908477783 0.4208352863788605 -0.0023375055752694607
-0.2726769745349884 0.03631746023893356 0.13068030774593353
0.211364284157753 -0.2510160505771637 0.1092761904001236
-0.054231464862823486 0.027082862332463264 -0.13785606622695923
-0.034520749002695084 0.23089498281478882 -0.03421612083911896
