0.297959566116333 0.014370963908731937 0.005735643208026886
-0.2924085557460785 -0.31298547983169556 0.09439408779144287
0.22616443037986755 -0.4495948255062103 0.01199735701084137
0.009372284635901451 0.20216025412082672 0.15694120526313782
-0.3132267892360687 -0.3726344406604767 -0.04129387438297272
0.18028588593006134 -0.4461706876754761 -0.020150890573859215
0.20296736061573029 -0.337853342294693 0.11905201524496078
0.2981998920440674 0.1120714545249939 0.05278949439525604
0.0544440820813179 0.053919266909360886 0.17249555885791779
-0.3222805857658386 -0.3563944101333618 0.04999015852808952
0.29773202538490295 0.010365154594182968 0.07658541202545166
-0.18128974735736847 -0.29628390073776245 0.0664907693862915
0.2801290452480316 0.3290368616580963 -0.028512829914689064
0.2969919443130493 -0.1363334059715271 0.07908347249031067
0.13111962378025055 -0.2505341172218323 0.07316289097070694
-0.1064135953783989 -0.14343364536762238 0.17124341428279877
0.02859366126358509 -0.14553828537464142 -0.1372782289981842
-0.27141377329826355 0.023086760193109512 -0.07476405054330826
0.05378437414765358 0.029796147719025612 -0.13729286193847656
0.16988351941108704 0.049860961735248566 0.16991744935512543
0.264209508895874 -0.27827122807502747 -0.0031942278146743774
0.18795423209667206 0.3991338908672333 -0.057402562350034714
-0.2694137394428253 0.04355349391698837 0.08700766414403915
0.07199452817440033 -0.21076802909374237 0.15743154287338257
-0.2710858881473541 -0.09151169657707214 0.058433227241039276
-0.28088676929473877 -0.3469485640525818 -0.0685066282749176
-0.065902940928936 0.1925342082977295 -0.1360447108745575
0.2864750921726227 -0.36268168687820435 0.07315603643655777
0.21977122128009796 -0.3063592314720154 -0.07364111393690109
0.047172222286462784 0.12078940868377686 -0.1338694840669632
-0.187546506524086 -0.3864682614803314 -0.04154497757554054
0.1804116815328598 0.41547057032585144 -0.037527237087488174
0.29592007398605347 0.4548594355583191 -0.019136320799589157
-0.23820823431015015 0.2281874120235443 -0.08005673438310623
0.04992029815912247 -0.24808137118816376 0.06757534295320511
0.14793796837329865 -0.3844669759273529 -0.00634955195710063
-0.2962816059589386 -0.008789296261966228 -0.2690010666847229
-0.24987095594406128 -0.16419056057929993 0.1544344425201416
-0.13778215646743774 -0.25229743123054504 0.10623026639223099
-0.20035336911678314 0.09718861430883408 0.16897206008434296
-0.02646230161190033 -0.24894380569458008 -0.05046176537871361
0.29750388860702515 -0.0019660289399325848 0.023452166467905045
-0.15086950361728668 -0.1966271996498108 -0.13503962755203247
0.09905935078859329 -0.24994531273841858 0.13430394232273102
-0.1625048816204071 0.18469025194644928 -0.13359521329402924
0.19033880531787872 0.23081260919570923 0.030577659606933594
-0.24987290799617767 -0.2801913917064667 0.04080180823802948
-0.17435407638549805 0.17034001648426056 -0.13727042078971863
0.011244958266615868 -0.24910911917686462 -0.1122443825006485
0.23023392260074615 0.4182736575603485 -0.09144546091556549
0.1289922147989273 -0.19807730615139008 -0.1353706568479538
-0.20508557558059692 -0.43747836351394653 0.10988353192806244
0.26493993401527405 -0.4457882344722748 0.062060125172138214
0.12830951809883118 -0.13929858803749084 0.16898851096630096
0.0806201696395874 -0.16660255193710327 -0.13392503559589386
0.01147440541535616 -0.25081050395965576 -0.052479296922683716
-0.2706749439239502 0.005596536677330732 0.010720314458012581
-0.271432489156723 -0.06823299080133438 0.04168286919593811
0.20265161991119385 0.4193763732910156 -0.07209903746843338
-0.27077722549438477 0.017472708597779274 -0.023395195603370667
0.12863792479038239 -0.04227020964026451 -0.13493257761001587
0.2961830794811249 0.11038847267627716 -0.10742362588644028
0.29320645332336426 0.3346920907497406 0.0243332851678133
0.189802885055542 -0.25215011835098267 -0.09286992996931076
-0.27348780632019043 0.06658349186182022 0.09333936125040054
-0.08161981403827667 -0.2504018545150757 0.11671949177980423
0.14616307616233826 -0.25411614775657654 -0.0511164553463459
-0.24016954004764557 -0.46172016859054565 -0.04996867477893829
0.12929220497608185 -0.24956445395946503 0.050828155130147934
0.07069476693868637 -0.19378186762332916 -0.13484907150268555
-0.2415066510438919 -0.2522779405117035 -0.050158675760030746
-0.03128889575600624 -0.2478528767824173 0.047003064304590225
0.18509548902511597 -0.2510210871696472 -0.05586846172809601
0.2879539728164673 -0.396173357963562 0.03983345255255699
0.04737560823559761 -0.25153252482414246 -0.10485707223415375
-0.28874972462654114 -0.31219762563705444 0.09529829025268555
0.16032946109771729 -0.41396114230155945 -0.044772300869226456
0.058064501732587814 0.07486916333436966 -0.13581304252147675
0.06045742332935333 0.10240853577852249 0.16949938237667084
-0.30519309639930725 -0.43848079442977905 -0.04235111549496651
-0.271380752325058 -0.009781287051737309 0.09361468255519867
-0.31864914298057556 -0.352329283952713 0.023568036034703255
-0.28215593099594116 -0.4486085772514343 0.024052726104855537
-0.2693253755569458 0.18458302319049835 0.025536051020026207
-0.1546528935432434 0.4303206205368042 0.06426232308149338
-0.2254372239112854 -0.018351644277572632 -0.1354614496231079
0.1557951420545578 0.06960287690162659 -0.13315367698669434
0.16215035319328308 -0.24914301931858063 0.13785724341869354
-0.08502847701311111 0.16214551031589508 -0.13980162143707275
0.2042534202337265 0.22872096300125122 -0.008675585500895977
-0.13541650772094727 -0.04458849877119064 -0.13224194943904877
-0.20029191672801971 0.20362678170204163 0.1545926183462143
-0.2061426043510437 -0.25472697615623474 0.09323311597108841
0.29377055168151855 -0.10757650434970856 0.028435779735445976
-0.18630413711071014 0.13423871994018555 0.16943100094795227
-0.18816836178302765 -0.37468668818473816 0.08590846508741379
0.29372647404670715 0.07853792607784271 -0.02399378828704357
-0.1152707189321518 -0.25157397985458374 0.040085408836603165
0.27816465497016907 -0.3370996117591858 -0.026991616934537888
-0.30827394127845764 -0.3799699544906616 0.15486983954906464
-0.11134441196918488 0.2259029597043991 0.074764683842659
-0.03501955419778824 0.1631544977426529 -0.17903350293636322
-0.18162241578102112 0.2254512459039688 -0.05504794418811798
0.10853137820959091 0.22845807671546936 -0.07755760848522186
0.17186595499515533 -0.3520829379558563 -0.05133231729269028
0.2254946231842041 -0.058107584714889526 0.16897371411323547
0.09079356491565704 -0.03062615357339382 -0.13695384562015533
0.09834028035402298 0.22834016382694244 -0.060057010501623154
-0.1517142504453659 0.018774643540382385 -0.13575969636440277
-0.11166906356811523 0.15410010516643524 -0.13542012870311737
-0.2721298336982727 -0.020829955115914345 -0.04169592633843422
0.18997249007225037 0.031086916103959084 -0.13385549187660217
-0.27207785844802856 0.1556972861289978 -0.09189306944608688
0.23231038451194763 0.22705385088920593 0.1069997027516365
-0.16181251406669617 -0.2533181607723236 -0.10250551253557205
-0.2707047760486603 0.15366105735301971 -0.044552259147167206
0.23557864129543304 -0.1909152716398239 -0.13516192138195038
0.019619900733232498 -0.08993826061487198 -0.1344352662563324
-0.2388201504945755 -0.32777589559555054 0.12375687807798386
0.3018598258495331 0.361543744802475 0.019578194245696068
0.04064661264419556 0.0930909812450409 0.16949725151062012
-0.06960354000329971 0.1723160296678543 -0.13614915311336517
0.13013355433940887 0.2021307647228241 -0.13732776045799255
-0.059192027896642685 -0.07698652148246765 0.16954666376113892
0.29729190468788147 -0.21734726428985596 -0.04896431788802147
-0.2432444542646408 -0.25119084119796753 -0.06596808135509491
0.00034165417309850454 -0.2015550136566162 -0.1326216459274292
0.1814013421535492 0.4700549840927124 0.03409166261553764
-0.05834994837641716 -0.07441359013319016 0.16973231732845306
0.20388999581336975 -0.05749950185418129 0.17101137340068817
0.29865890741348267 0.13140836358070374 0.0721537321805954
0.16709960997104645 0.14182597398757935 0.17281432449817657
-0.19978703558444977 -0.18562470376491547 -0.13534894585609436
-0.27347010374069214 -0.42657774686813354 0.1086936965584755
0.19873668253421783 -0.4433647394180298 0.0513877309858799
-0.07894973456859589 0.11223328113555908 0.16957402229309082
0.1670062094926834 -0.25080057978630066 0.05401088297367096
0.2792656421661377 -0.17010493576526642 0.15684323012828827
-0.2699294686317444 -0.16748972237110138 0.0702957808971405
-0.1858765184879303 -0.19973008334636688 -0.13175472617149353
-0.2251088172197342 0.500998318195343 0.01136030163615942
-0.11027795076370239 -0.25081828236579895 0.11725164204835892
0.0484885610640049 -0.12478753924369812 -0.13457243144512177
0.07862211763858795 -0.21190007030963898 0.1572168469429016
0.2978086471557617 -0.2022099494934082 0.12038973718881607
-0.18478073179721832 -0.38357236981391907 -0.0446169450879097
0.2524854838848114 -0.21904507279396057 0.1579252928495407
-0.24474135041236877 -0.2821217477321625 -0.03755456954240799
-0.16831226646900177 0.05589773505926132 -0.13367494940757751
-0.049565836787223816 -0.2539011538028717 0.008293445222079754
-0.26957932114601135 0.10511241853237152 0.043646909296512604
0.08044003695249557 -0.0401289127767086 0.16993801295757294
-0.19431890547275543 -0.4055585265159607 0.11281010508537292
-0.22068151831626892 0.19495826959609985 0.1578441560268402
0.20413045585155487 0.500007688999176 0.0008026843424886465
0.16826000809669495 -0.44751644134521484 0.10621730238199234
0.06912773102521896 0.03328246250748634 -0.13180510699748993
0.13142934441566467 0.08071041852235794 0.1697969138622284
-0.22534874081611633 0.06079657003283501 -0.13566337525844574
0.13889232277870178 0.22763219475746155 -0.05082947015762329
-0.1849801391363144 0.06874019652605057 0.16997882723808289
0.0006087946239858866 -0.2508651614189148 -0.02891688235104084
-0.027994316071271896 0.22635138034820557 -0.10833717882633209
-0.07037444412708282 -0.2523161768913269 0.003312423825263977
-0.2532432973384857 -0.10999175161123276 0.15652363002300262
-0.24862419068813324 -0.037138864398002625 -0.1358841210603714
0.2946700155735016 -0.13654302060604095 -0.01022826973348856
0.2962041199207306 0.1946784406900406 -0.0033976284321397543
0.006062830798327923 0.16466252505779266 -0.13486818969249725
0.18004699051380157 -0.20285193622112274 -0.13653600215911865
-0.12304918467998505 -0.08469792455434799 0.17008967697620392
0.26975736021995544 -0.3688678443431854 -0.06307633221149445
0.25471237301826477 -0.05595370754599571 -0.13752679526805878
0.26897820830345154 0.20699727535247803 -0.13464565575122833
-0.24425658583641052 0.2548004388809204 0.012610823847353458
-0.20239655673503876 -0.4055212140083313 0.13857759535312653
-0.2676975429058075 -0.14238661527633667 0.06963430345058441
0.30203041434288025 0.4294271469116211 0.04829561337828636
0.13969506323337555 0.20698076486587524 0.15576329827308655
0.00970415398478508 0.15198101103305817 -0.1374022513628006
-0.038920674473047256 0.11158468574285507 0.1673138290643692
-0.004903837107121944 0.24196942150592804 -0.19257523119449615
0.14142227172851562 -0.42835068702697754 0.005102061666548252
0.18889720737934113 0.4876604378223419 0.0203715730458498
0.18201014399528503 -0.31982436776161194 0.08836936205625534
-0.27112528681755066 0.028416888788342476 0.03145464137196541
-0.3198549449443817 -0.4077847898006439 0.02315746434032917
0.10143584758043289 -0.21584273874759674 -0.13814716041088104
-0.14444376528263092 0.22757107019424438 0.0028253498021513224
-0.25443556904792786 0.016479656100273132 -0.13734158873558044
-0.029788970947265625 0.22774414718151093 -0.027444735169410706
-0.2459566742181778 0.20859165489673615 -0.13827762007713318
0.1277613490819931 -0.2506682276725769 0.040415845811367035
0.14160050451755524 -0.3673708140850067 0.03768554702401161
0.16700886189937592 0.03875831887125969 0.16843070089817047
-0.2463509738445282 -0.4644947946071625 0.04776688292622566
-0.1966194361448288 -0.2509292960166931 -0.11189714074134827
0.22303113341331482 0.5135255455970764 0.09095516800880432
-0.1676071286201477 0.46916693449020386 0.0009249391732737422
0.01112896017730236 -0.24795128405094147 -0.021758683025836945
0.2177152931690216 0.04484526440501213 0.1679919958114624
0.20489400625228882 -0.2550548315048218 -0.09137130528688431
0.2951113283634186 -0.14351029694080353 0.08693161606788635
-0.3248104453086853 -0.3640539348125458 0.1560695916414261
0.16105511784553528 -0.2919768691062927 0.02668091654777527
-0.29550355672836304 -0.022011127322912216 -0.27892470359802246
0.1444498896598816 -0.22013221681118011 -0.13404349982738495
-0.1597200185060501 0.22803908586502075 -0.1150064691901207
0.25349512696266174 -0.04145539551973343 -0.13401436805725098
0.007252595387399197 -0.25159040093421936 -0.10989618301391602
-0.18423989415168762 -0.1283177137374878 0.17159625887870789
-0.2669062316417694 0.4045749604701996 0.056927163153886795
-0.006219057831913233 -0.25191423296928406 0.12051782011985779
-0.2713307738304138 -0.0801980271935463 -0.07890434563159943
-0.05737714841961861 -0.2513318955898285 0.05196349322795868
0.2639917731285095 -0.4460386633872986 0.12684883177280426
-0.231153205037117 0.10687873512506485 -0.1369428038597107
0.23024040460586548 0.039581913501024246 -0.13496053218841553
0.2981995642185211 -0.20736420154571533 -0.07262738049030304
0.23874782025814056 0.1984938234090805 -0.13750988245010376
0.20149561762809753 0.22793787717819214 -0.039278656244277954
0.13686732947826385 -0.3992994427680969 0.07281548529863358
-0.21391049027442932 -0.45552685856819153 -0.01675797998905182
-0.10352873057126999 -0.25122418999671936 0.08418772369623184
-0.06424427777528763 -0.07031101733446121 0.17001193761825562
0.2950633764266968 0.12377505004405975 0.0442395955324173
0.09951379150152206 -0.25091612339019775 0.050530653446912766
-0.3170493245124817 -0.3213289678096771 0.135267972946167
-0.26906099915504456 -0.05975784361362457 -0.08768162876367569
0.2999517023563385 -0.029235191643238068 -0.0772731676697731
-0.15106211602687836 -0.0938752070069313 0.16922219097614288
0.08809544146060944 -0.25212955474853516 0.1395832747220993
0.044552985578775406 0.1386938840150833 -0.2070021778345108
0.0840803012251854 0.05579490214586258 -0.1345261186361313
0.2390475869178772 -0.13071902096271515 -0.13514204323291779
0.28078848123550415 0.4962836802005768 0.023502079769968987
0.2978217303752899 -0.0778423324227333 0.06983639299869537
0.2977076470851898 0.09579046070575714 0.019497090950608253
0.17659825086593628 0.381695955991745 0.0026116855442523956
-0.11812113225460052 -0.17749860882759094 -0.1347564160823822
0.2970820665359497 -0.15547209978103638 0.08107684552669525
0.07919047027826309 -0.2498398721218109 0.07560864835977554
0.27951580286026 0.22828246653079987 0.10862422734498978
-0.04467018321156502 -0.018898002803325653 0.1683342009782791
0.13521485030651093 -0.016878969967365265 -0.1343560367822647
0.29579979181289673 -0.04099150002002716 -0.06555569171905518
-0.2709351181983948 0.04713539779186249 -0.025157833471894264
-0.0639595165848732 -0.024483785033226013 0.17050060629844666
0.03448568284511566 0.12975221872329712 -0.2088882029056549
0.22661754488945007 0.04206119477748871 0.16761519014835358
-0.014224405400454998 0.22854045033454895 0.08549347519874573
-0.23452617228031158 0.2282918095588684 0.07701180130243301
0.29780852794647217 0.1509910672903061 -0.07221762090921402
-0.21671058237552643 -0.004324980545789003 -0.13533708453178406
-0.09889020025730133 0.2007230520248413 -0.13416922092437744
0.1341654658317566 -0.2528153359889984 -0.03737211972475052
0.14118558168411255 -0.15771383047103882 -0.13494759798049927
0.22185711562633514 -0.1486169397830963 -0.13706892728805542
0.023632539436221123 -0.07436340302228928 -0.13134510815143585
-0.2358693927526474 0.22597399353981018 -0.09943891316652298
-0.0038458281196653843 -0.2516290247440338 0.10581620782613754
0.2979239225387573 -0.028364460915327072 -0.07456264644861221
-0.27058157324790955 0.16717904806137085 0.007835527881979942
-0.2337629497051239 0.3464791476726532 0.08329607546329498
-0.14403440058231354 0.2272292822599411 0.025683484971523285
-0.12560409307479858 -0.22300444543361664 -0.13296426832675934
-0.22730030119419098 -0.22835424542427063 0.15685567259788513
-0.2274981290102005 0.19318751990795135 -0.13814857602119446
0.19034332036972046 0.05006949231028557 -0.1375829428434372
0.07256743311882019 -0.0774148479104042 -0.13125325739383698
0.017554396763443947 0.15570856630802155 -0.13701309263706207
0.17473289370536804 0.4249773323535919 0.04733334109187126
0.09204036742448807 -0.25165292620658875 -0.09311326593160629
0.29306209087371826 -0.4029751121997833 0.13951432704925537
-0.02473607286810875 -0.2467031031847 0.06053166091442108
-0.3174373209476471 -0.38398152589797974 -0.035393066704273224
0.2734714150428772 -0.1450999677181244 -0.13369221985340118
0.29971742630004883 0.4452785551548004 0.05755363032221794
0.18600502610206604 -0.2511075735092163 -0.08584453165531158
-0.0023066974245011806 0.23119154572486877 -0.07363341003656387
-0.271453857421875 0.11008800566196442 -0.11728770285844803
0.0736120343208313 -0.08332601934671402 -0.13588552176952362
0.016274450346827507 -0.2507731020450592 -0.04841439425945282
0.0011799936182796955 0.09863957017660141 -0.16072118282318115
0.2973053455352783 -0.12682965397834778 -0.07990362495183945
0.06197269633412361 -0.12619125843048096 0.16988584399223328
-0.3179006278514862 -0.3710940182209015 -0.02722128853201866
0.2987337112426758 0.04580022394657135 -0.0926475003361702
-0.2984025776386261 -0.43566015362739563 0.0023375998716801405
-0.13710059225559235 0.09523952007293701 -0.13673461973667145
-0.24522635340690613 0.22882185876369476 0.0866333544254303
0.17990028858184814 -0.09658458083868027 0.1700177788734436
0.17304733395576477 0.03590472415089607 -0.1302783042192459
-0.27018246054649353 0.20369774103164673 0.025106262415647507
-0.0016753793461248279 0.2548283338546753 -0.20432420074939728
-0.24505168199539185 -0.011894134804606438 -0.13766466081142426
-0.0709768682718277 -0.010897930711507797 0.16938303411006927
-0.2686425745487213 -0.07427413016557693 -0.014770266599953175
0.18194743990898132 0.22885145246982574 0.04617267847061157
0.29889607429504395 -0.08527229726314545 0.010800846852362156
-0.1504490077495575 -0.14503571391105652 -0.13248124718666077
-0.26715949177742004 -0.22048872709274292 0.03223581239581108
-0.10965350270271301 -0.039111893624067307 0.16933602094650269
-0.2729438841342926 0.11046801507472992 0.10562178492546082
-0.26456570625305176 0.3846812844276428 0.07016517966985703
-0.29229599237442017 0.07095937430858612 -0.2898646295070648
0.266654372215271 0.07543480396270752 0.1572713702917099
0.2372741997241974 -0.4463673233985901 0.11742810159921646
0.29772689938545227 -0.19260340929031372 0.01730351150035858
-0.25574418902397156 0.03058023937046528 0.15484222769737244
0.21894055604934692 -0.3527781665325165 0.14587467908859253
0.22560322284698486 0.36970949172973633 -0.08483261615037918
0.15197467803955078 -0.22062057256698608 0.15714453160762787
0.27485254406929016 -0.008893594145774841 -0.13351298868656158
0.13045229017734528 -0.2500542402267456 0.10846614092588425
-0.26426005363464355 0.3908582627773285 -0.021054882556200027
0.017960889264941216 0.22629110515117645 -0.017307063564658165
0.17582398653030396 0.0959290936589241 -0.13118723034858704
-0.029667744413018227 0.22771261632442474 0.07983721792697906
0.29981186985969543 0.12837742269039154 0.016354285180568695
-0.01717873103916645 0.13564321398735046 0.16966475546360016
0.00603081239387393 0.155807226896286 -0.1367669701576233
0.287620484828949 -0.3730173408985138 0.0808521956205368
0.2987484633922577 0.09326661378145218 0.08841340988874435
-0.04423270374536514 0.038692720234394073 -0.13464230298995972
0.12253652513027191 -0.013502099551260471 -0.13435718417167664
-0.0018564638448879123 0.24801105260849 -0.19776681065559387
-0.24419128894805908 -0.47240474820137024 0.028822116553783417
-0.13809818029403687 -0.11126513034105301 -0.13497531414031982
0.17888139188289642 0.3640000522136688 0.06677152216434479
0.29747334122657776 0.13408909738063812 0.016094835475087166
0.12056185305118561 -0.2537084221839905 0.10903795808553696
-0.3012307286262512 -0.4209533631801605 0.041311170905828476
-0.17417991161346436 0.22756552696228027 0.05412394180893898
0.2991945445537567 -0.01417090930044651 0.07930544763803482
0.013504108414053917 -0.12522989511489868 -0.13091903924942017
-0.284261554479599 -0.3330220878124237 -0.0392233282327652
0.21194468438625336 0.10962385684251785 0.16845102608203888
-0.041893571615219116 -0.24971093237400055 0.11236094683408737
0.20930802822113037 0.44401922821998596 -0.07550615817308426
-0.06767921149730682 0.12276509404182434 -0.13895536959171295
0.041948989033699036 0.2241978943347931 -0.07685733586549759
0.23454152047634125 0.2285917103290558 0.09512308239936829
-0.24923376739025116 0.23183783888816833 -0.08297641575336456
0.2761285901069641 -0.3700066804885864 -0.05003983527421951
0.19588179886341095 0.22861967980861664 -0.068801149725914
0.24046911299228668 0.45405593514442444 0.10221682488918304
0.29383596777915955 -0.014189064502716064 0.08804111927747726
0.12315305322408676 0.008465945720672607 -0.13561609387397766
0.2042912095785141 0.2288965880870819 -0.05606184899806976
0.27204322814941406 -0.25001004338264465 -0.1064085066318512
-0.27066656947135925 0.14136695861816406 0.043936941772699356
0.175648495554924 0.22838586568832397 0.035668887197971344
0.029682613909244537 -0.25128111243247986 0.06838422268629074
0.12990589439868927 -0.250064492225647 -0.06281356513500214
-0.1189054325222969 0.12016886472702026 0.1702210158109665
-0.22297365963459015 -0.4738622009754181 0.010540524497628212
-0.20186690986156464 0.4188547730445862 0.08234748244285583
-0.034304045140743256 0.22501251101493835 -0.023497743532061577
-0.23190368711948395 -0.09915941953659058 -0.136443093419075
-0.22858946025371552 -0.3713289201259613 0.16323629021644592
-0.011006145738065243 0.035449378192424774 -0.13373428583145142
0.05370146036148071 -0.029960157349705696 0.16874170303344727
-0.24230468273162842 -0.16407018899917603 -0.13518330454826355
-0.06700806319713593 0.05120878666639328 -0.14244142174720764
0.04593997076153755 -0.05072512850165367 0.16974416375160217
-0.2693639099597931 -0.011648666113615036 -0.005387449637055397
-0.044432494789361954 -0.010927705094218254 -0.13490144908428192
-0.3016754984855652 -0.35157510638237 -0.0218926090747118
0.0880703330039978 -0.05681491270661354 0.17091067135334015
0.038742292672395706 -0.013059047050774097 -0.1338353008031845
-0.2968728244304657 -0.40331020951271057 -0.09089574962854385
0.28335562348365784 0.2270568162202835 0.07515034824609756
0.2970203459262848 -0.047796498984098434 0.10677700489759445
-0.2530137300491333 0.3429732620716095 0.018132129684090614
0.2978378236293793 0.12554915249347687 -0.06377923488616943
0.20835962891578674 -0.44435378909111023 0.08781962841749191
-0.1147305816411972 0.22796358168125153 -0.09757138788700104
0.29749640822410583 0.15720801055431366 0.004901053849607706
-0.23443883657455444 -0.01565636321902275 -0.13341018557548523
-0.20033100247383118 -0.27272823452949524 -0.05524985119700432
0.17830802500247955 0.454908549785614 0.07230111211538315
0.16434650123119354 0.11886042356491089 0.17086581885814667
-0.2712373435497284 -0.14686763286590576 -0.06819532811641693
-0.16580688953399658 0.07607995718717575 -0.13610249757766724
-0.16983363032341003 0.46316948533058167 -0.026952460408210754
-0.27069154381752014 -0.2066282480955124 0.0437142550945282
0.24791210889816284 -0.07200933992862701 -0.13504016399383545
-0.07779381424188614 0.22812935709953308 0.0053331730887293816
-0.1733510047197342 0.11724074184894562 0.17065657675266266
0.029862139374017715 0.12020762264728546 -0.1346072256565094
-0.217751607298851 0.03161272779107094 -0.13486993312835693
0.20750896632671356 -0.4466153085231781 0.10975062847137451
-0.27246496081352234 0.02644268609583378 -0.07743833214044571
0.16316485404968262 0.23044870793819427 -0.05045976862311363
0.17867086827754974 -0.0008833737811073661 0.17063245177268982
-0.2692061960697174 -0.14366289973258972 -0.03736149147152901
0.058792952448129654 -0.08485722541809082 -0.13444368541240692
-0.14088864624500275 0.01370890811085701 -0.134223073720932
-0.2709493041038513 0.09031415730714798 0.007709702476859093
0.28799158334732056 -0.3972940742969513 0.06076633930206299
-0.25965985655784607 0.46153920888900757 0.014334121719002724
-0.2496376633644104 0.19817569851875305 0.15572792291641235
-0.26546281576156616 0.35676831007003784 0.009927941486239433
-0.18055498600006104 0.13324913382530212 -0.13657265901565552
-0.19372351467609406 0.07146100699901581 -0.13745515048503876
-0.2693686783313751 -0.12582847476005554 -0.05996138975024223
-0.05808660760521889 -0.09432698041200638 -0.13322478532791138
-0.19038531184196472 -0.3363608419895172 -0.05793672427535057
0.18417394161224365 -0.03382331132888794 -0.13418175280094147
-0.18440201878547668 0.2031036615371704 -0.1370602250099182
0.2979923486709595 -0.03156387805938721 -0.008242101408541203
0.08472141623497009 0.2266569286584854 0.07266683876514435
0.15518821775913239 -0.37239909172058105 -0.036241088062524796
0.17988410592079163 -0.4451064467430115 0.12177864462137222
-0.25762978196144104 -0.28841432929039 0.03466685116291046
-0.20249968767166138 -0.33683204650878906 -0.07236636430025101
0.1968802660703659 0.23236756026744843 0.0019541438668966293
-0.18386012315750122 -0.0680316612124443 0.1699119359254837
0.17779745161533356 -0.4199243187904358 0.19908775389194489
0.034504134207963943 0.19625063240528107 -0.22605617344379425
-0.2650156319141388 -0.29864057898521423 -0.005210066679865122
0.2979885935783386 0.008617064915597439 -0.02514415793120861
0.19016312062740326 0.4845607280731201 0.0949745699763298
0.16649635136127472 -0.28666824102401733 -0.011476350016891956
-0.1112854927778244 -0.25029680132865906 -0.04598559811711311
-0.2634616196155548 0.42967894673347473 -0.01487707532942295
0.017115693539381027 0.2531535029411316 -0.19586311280727386
-0.2922517955303192 0.04143497347831726 -0.2921651303768158
0.2175062596797943 -0.36109277606010437 0.1593059003353119
0.016057809814810753 -0.049132637679576874 0.16976024210453033
0.16853125393390656 -0.32458972930908203 0.08182372897863388
0.29887476563453674 0.20242616534233093 0.014900917187333107
0.16922573745250702 0.23047545552253723 0.08939331024885178
-0.20171448588371277 0.22843721508979797 0.07901880145072937
-0.32380902767181396 -0.3715766966342926 -0.01668008603155613
0.27321937680244446 -0.2993232309818268 -0.001935876440256834
-0.2603294551372528 0.36560896039009094 -0.030663250014185905
0.267639696598053 -0.20772114396095276 -0.1338985711336136
0.18737994134426117 -0.4436754584312439 0.12288933992385864
-0.19738858938217163 0.18845601379871368 0.15647096931934357
-0.1919632852077484 -0.3141014873981476 -0.059026218950748444
-0.2949424982070923 -0.41543859243392944 0.07819513976573944
0.05504133924841881 0.22494195401668549 0.024828657507896423
0.18793728947639465 0.3340429365634918 0.03454481065273285
-0.25961941480636597 0.3435007333755493 0.010825229808688164
-0.2547762393951416 -0.4426828622817993 0.10366182029247284
-0.27061426639556885 -0.017388762906193733 0.060266073793172836
0.2981436848640442 -0.0196295864880085 -0.03968023508787155
-0.284503310918808 -0.39576321840286255 0.1772702932357788
-0.0011821838561445475 -0.2508265972137451 0.11691967397928238
-0.27002066373825073 0.18579483032226562 0.05477010831236839
0.22735662758350372 -0.03723739832639694 0.170051708817482
-0.27069091796875 0.1303648054599762 0.04941513016819954
0.2501220405101776 -0.03596283495426178 -0.13766898214817047
-0.27350860834121704 -0.0366603322327137 -0.016524411737918854
-0.26910388469696045 0.12576131522655487 -0.06124702841043472
-0.11586865037679672 0.04683990031480789 0.16695410013198853
-0.08361714333295822 0.18927490711212158 -0.13605432212352753
-0.22361359000205994 -0.3482531011104584 -0.08080869913101196
-0.13205070793628693 0.03593865782022476 0.16953051090240479
-0.1151881292462349 -0.12455793470144272 -0.13552214205265045
-0.2710709273815155 -0.15598925948143005 0.015047276392579079
0.09131024032831192 0.058261752128601074 0.16858214139938354
0.13093385100364685 -0.07111743837594986 -0.1347624957561493
0.012191119603812695 0.2092229425907135 -0.23795589804649353
0.036769066005945206 -0.25025296211242676 -0.05590669438242912
-0.04249780252575874 0.2276473492383957 0.03771541640162468
0.08495557308197021 -0.21178609132766724 -0.13556234538555145
0.080565445125103 -0.17494899034500122 -0.13707594573497772
0.2987624406814575 -0.17284786701202393 0.12046611309051514
-0.17904812097549438 -0.34689804911613464 0.05620000511407852
0.17361000180244446 -0.33962154388427734 0.10375414043664932
0.16714216768741608 -0.12066146731376648 -0.13553036749362946
-0.10567456483840942 0.2271376997232437 0.019119825214147568
-0.24740387499332428 0.4900217354297638 0.03614700213074684
-0.025501521304249763 0.144839346408844 -0.13820360600948334
0.21545030176639557 -0.4471292495727539 -0.04730292037129402
0.0005591825465671718 0.23168030381202698 -0.08377955108880997
0.21364706754684448 0.14477378129959106 0.16540390253067017
0.30053046345710754 0.050673957914114 0.007050658110529184
0.21160921454429626 0.09501905739307404 -0.13706675171852112
0.03956935554742813 0.20579086244106293 -0.1621953696012497
0.21510998904705048 0.22816649079322815 0.06856858730316162
-0.24339506030082703 -0.25132524967193604 0.0830216184258461
-0.2940523326396942 -0.43104884028434753 0.028012026101350784
-0.11414118856191635 -0.13246968388557434 -0.137912318110466
-0.2749066650867462 0.15328826010227203 -0.058515578508377075
0.2995525002479553 0.0793013870716095 -0.04059617221355438
-0.04385018348693848 0.038609378039836884 -0.13295309245586395
0.18512274324893951 0.47117936611175537 0.020416121929883957
0.23263177275657654 -0.4463639259338379 0.08196068555116653
0.27627700567245483 0.22835078835487366 0.11100401729345322
0.17213304340839386 0.22837620973587036 0.03204677999019623
-0.20180009305477142 -0.42797306180000305 0.12691710889339447
0.11036479473114014 -0.21618197858333588 0.15826694667339325
0.29796332120895386 0.07939380407333374 -0.04472809657454491
0.289928674697876 -0.4080391228199005 0.03344419598579407
-0.15191376209259033 -0.13517451286315918 0.16741380095481873
-0.23391202092170715 0.4972097873687744 -0.0024691883008927107
-0.020915118977427483 -0.2514791190624237 -0.10339360684156418
-0.07092069834470749 0.22589154541492462 -0.09228618443012238
-0.11869058012962341 -0.2511563301086426 0.03345315158367157
-0.18342605233192444 -0.3703248202800751 -0.042981572449207306
0.01482314057648182 -0.18875432014465332 -0.13332848250865936
0.21175050735473633 -0.2839248478412628 -0.06059606745839119
0.15473727881908417 -0.4086107611656189 -0.03721058741211891
-0.26218682527542114 0.45333415269851685 0.04082722216844559
0.2766697108745575 -0.10471674054861069 -0.13506175577640533
0.06890600919723511 -0.17524848878383636 -0.13547618687152863
-0.13614562153816223 0.17940671741962433 -0.14036719501018524
-0.2643915116786957 -0.3108215630054474 -0.05239999666810036
0.0016198265366256237 -0.07004470378160477 -0.13418826460838318
0.1298966407775879 -0.25126323103904724 -0.09276914596557617
-0.19882072508335114 -0.15408949553966522 0.1688094586133957
0.2958381474018097 -0.09490639716386795 0.053608059883117676
0.2975958585739136 0.21143315732479095 0.10996970534324646
0.06821099668741226 -0.01958499848842621 0.16976362466812134
0.14626391232013702 -0.1579032838344574 -0.13424938917160034
0.18513523042201996 0.47561100125312805 0.08268532902002335
0.1641589105129242 -0.34478816390037537 -0.0410279855132103
0.15671822428703308 -0.25100722908973694 -0.05188688635826111
-0.18428172171115875 -0.09539064019918442 0.17214924097061157
0.27626490592956543 -0.24869823455810547 0.04399985447525978
0.2978012263774872 -0.06628789752721786 0.10409994423389435
-0.2634868621826172 0.43887898325920105 0.01831486076116562
-0.25760555267333984 0.4264281094074249 -0.04058658704161644
0.2985178232192993 0.1254652887582779 0.08670318126678467
0.17818571627140045 0.12519212067127228 -0.13834716379642487
-0.27147045731544495 0.11404702067375183 0.03744727373123169
0.011154894717037678 0.22481444478034973 -0.05610625445842743
-0.08862731605768204 -0.2524230182170868 0.072428397834301
-0.27069124579429626 0.06295577436685562 0.09841278940439224
-0.1788317859172821 -0.3161742687225342 0.06323687732219696
-0.22242362797260284 0.23337113857269287 0.13273324072360992
-0.029990458860993385 -0.07717331498861313 0.16880619525909424
0.07311451435089111 0.2293000966310501 0.07266639173030853
0.17597156763076782 0.23062880337238312 -0.09170269221067429
-0.0623762384057045 -0.16757969558238983 -0.13460968434810638
0.02665812522172928 0.2271510809659958 0.11486220359802246
-0.12915977835655212 0.10244738310575485 0.1692107766866684
0.24714960157871246 0.08340194821357727 -0.1363735795021057
0.09778422862291336 0.2300930768251419 -0.11154516786336899
0.295067697763443 -0.11133311688899994 -0.046532075852155685
-0.23805861175060272 -0.24830058217048645 -0.10880520194768906
-0.2692194879055023 0.19989244639873505 -0.033322639763355255
0.044339798390865326 0.22713959217071533 0.060616206377744675
-0.016248205676674843 -0.030254008248448372 -0.1344541609287262
0.135588139295578 0.07228045165538788 0.171362966299057
-0.12275324761867523 0.22593049705028534 -0.08545836061239243
-0.26641425490379333 0.08667029440402985 0.06045014411211014
-0.16099201142787933 -0.2859095633029938 0.04104025289416313
0.19109998643398285 -0.03392259404063225 0.1700410395860672
0.2978171408176422 -0.21693076193332672 0.1284814476966858
-0.09959371387958527 -0.10910338163375854 -0.13410577178001404
0.2055656611919403 -0.19510656595230103 -0.13431666791439056
0.17225854098796844 -0.2742069363594055 -0.01736483909189701
-0.30602630972862244 -0.33915048837661743 0.057355284690856934
-0.2027146965265274 -0.27363675832748413 -0.05608765035867691
0.1930447220802307 0.3326341211795807 0.026460688561201096
0.19568678736686707 0.08313881605863571 0.16975346207618713
0.29688891768455505 0.08221086114645004 0.023006487637758255
0.18879131972789764 -0.14526742696762085 0.17022275924682617
0.29780763387680054 -0.05732518061995506 0.1084514707326889
0.30112379789352417 -0.22429391741752625 0.10887886583805084
0.0913332998752594 0.22846680879592896 -0.08698984980583191
-0.27171412110328674 0.06176090985536575 0.08440761268138885
0.18023189902305603 -0.19940869510173798 -0.13289552927017212
-0.13479629158973694 0.22731614112854004 -0.03160536661744118
0.2555854320526123 -0.06527566909790039 -0.13329070806503296
-0.274726539850235 -0.14348629117012024 -0.12094412744045258
0.24958190321922302 0.22871741652488708 0.0818587988615036
0.1759464591741562 -0.4153428077697754 0.19354669749736786
0.2948654890060425 -0.2254219502210617 -0.09376094490289688
-0.04179844260215759 -0.07873179018497467 -0.13683268427848816
0.29793021082878113 -0.10836254060268402 0.0020657842978835106
-0.20423753559589386 -0.44415053725242615 -0.0019427360966801643
0.2983194589614868 -0.0717916488647461 0.08967427909374237
0.17475208640098572 0.3896361291408539 0.05835685506463051
0.157160684466362 -0.24450178444385529 0.13194064795970917
-0.15822331607341766 0.4214704930782318 -0.008379860781133175
0.06371012330055237 -0.24699626863002777 -0.03300996124744415
-0.03260955587029457 0.08489345759153366 -0.13815025985240936
-0.27369454503059387 0.09340503811836243 -0.06408848613500595
0.15128159523010254 0.12025615572929382 -0.13312843441963196
0.2978552579879761 -0.0945383831858635 0.030374977737665176
0.19937780499458313 -0.06552287191152573 -0.13177457451820374
-0.2457149177789688 -0.45205286145210266 0.09231791645288467
0.0934196189045906 -0.2513807713985443 -0.09793545305728912
0.04134503751993179 -0.2506070137023926 0.0786566436290741
0.02372596226632595 0.1192006841301918 0.1695479303598404
0.09268449246883392 0.09877759218215942 -0.1331118792295456
0.29583388566970825 0.0666111409664154 0.030528007075190544
0.09351391345262527 0.22772669792175293 -0.10322444885969162
0.2974703907966614 0.130551278591156 0.02853206917643547
0.06411189585924149 0.1660528928041458 -0.18060608208179474
0.2669551968574524 0.08394725620746613 -0.135757714509964
0.2562049329280853 -0.009271427057683468 -0.1349596232175827
0.23372140526771545 -0.4465603530406952 -0.028043832629919052
-0.136674165725708 0.22800980508327484 0.037591274827718735
0.3032084107398987 0.41594281792640686 0.023298021405935287
0.2839323878288269 -0.3950038552284241 -0.021231604740023613
-0.19293144345283508 -0.25119590759277344 0.1256350874900818
-0.15660762786865234 0.3668486773967743 0.0048920270055532455
-0.3086988925933838 -0.4268766939640045 0.00185092119500041
-0.02383660152554512 -0.2477203756570816 0.014424570836126804
-0.02814425341784954 -0.06897171586751938 0.16963350772857666
0.28687626123428345 -0.39530321955680847 0.0004318769497331232
-0.27070969343185425 0.1348794400691986 0.017001580446958542
0.2937978208065033 -0.41921699047088623 0.11870549619197845
0.040504734963178635 0.02634548395872116 -0.13449935615062714
-0.21253585815429688 -0.452675998210907 0.081169992685318
-0.23504950106143951 -0.09043454378843307 -0.13566172122955322
-0.23338568210601807 -0.2527247667312622 -0.09417270123958588
0.2898615002632141 -0.39284607768058777 0.05124462768435478
-0.0630740374326706 0.22647355496883392 0.05971164256334305
0.14534322917461395 0.12281444668769836 -0.13674914836883545
0.021551018580794334 -0.11740966141223907 0.16947205364704132
-0.15623578429222107 0.43166160583496094 0.0709390789270401
0.18446099758148193 0.08225276321172714 0.16988416016101837
0.21943342685699463 -0.01455190684646368 0.17070357501506805
0.11252561956644058 0.20514723658561707 0.15941815078258514
0.15005351603031158 -0.22189755737781525 -0.13518202304840088
-0.25101691484451294 -0.08563068509101868 0.15702125430107117
-0.13186895847320557 0.011174575425684452 0.16926133632659912
0.28884944319725037 -0.3615722954273224 0.08276505768299103
-0.27238520979881287 -0.11282983422279358 0.02966236136853695
0.014291100203990936 0.2255454957485199 0.02065528742969036
0.2976859211921692 0.16631481051445007 -0.05974872037768364
0.2969217002391815 0.0928347110748291 -0.0940447673201561
-0.18170176446437836 -0.3781217634677887 -0.03602402284741402
-0.16489960253238678 0.40216538310050964 -0.03813735023140907
-0.252423495054245 -0.3410227298736572 0.15779216587543488
0.10214128345251083 0.11895199865102768 -0.13494645059108734
0.189689502120018 0.4532473683357239 -0.05107440799474716
0.0019131123553961515 0.2284967601299286 -0.08499958366155624
0.26396605372428894 0.22626926004886627 0.12153692543506622
0.17386269569396973 -0.3749805986881256 -0.05471309646964073
-0.051920086145401 0.020099829882383347 -0.1346055418252945
0.1795213222503662 -0.40906569361686707 -0.06599313020706177
0.0285983644425869 -0.24791434407234192 0.029770979657769203
0.042566657066345215 -0.13600993156433105 -0.13183945417404175
0.19438667595386505 0.3815728724002838 -0.06230965256690979
-0.08823785930871964 -0.008926941081881523 -0.1345435231924057
0.033319681882858276 0.2287921905517578 -0.016574831679463387
-0.2627456486225128 0.3802388310432434 -0.0202663354575634
-0.06791392713785172 -0.2511095702648163 -0.017650753259658813
-0.09213105589151382 -0.0017241049790754914 0.16929316520690918
0.29689061641693115 -0.023529047146439552 0.017564807087183
0.2990364730358124 0.0057713803835213184 -0.11473752558231354
0.16232065856456757 -0.3177000880241394 0.05625231936573982
0.29749223589897156 0.11468487977981567 0.0673922598361969
-0.17757345736026764 -0.25398939847946167 -0.07943136990070343
0.013543409295380116 -0.07119613140821457 -0.13488730788230896
0.1854400485754013 -0.3009706437587738 0.08033768832683563
-0.009197582490742207 -0.1658141016960144 0.16987313330173492
0.29930856823921204 0.0215603020042181 -0.05533068999648094
-0.294209748506546 -0.3138440251350403 0.10024051368236542
0.1792752742767334 0.38653063774108887 -0.024573305621743202
-0.09981990605592728 0.22770223021507263 0.12452371418476105
0.08601060509681702 0.22793243825435638 -0.00027085570036433637
-0.18546180427074432 -0.33327654004096985 -0.052487898617982864
-0.16986234486103058 0.22785834968090057 -0.039703063666820526
-0.06293593347072601 -0.24857091903686523 -0.09416510164737701
-0.1719953715801239 -0.35766488313674927 -0.01689217984676361
-0.19317466020584106 -0.20942039787769318 -0.135247603058815
-0.20961013436317444 0.33821621537208557 0.07904264330863953
0.008676566183567047 -0.25083819031715393 -0.05763687565922737
-0.1566338688135147 0.4111805558204651 0.07600962370634079
0.28592637181282043 0.4884871542453766 0.09454374760389328
-0.25661027431488037 0.45989665389060974 -0.0008767567342147231
-0.07986916601657867 -0.24893200397491455 -0.10356065630912781
-0.16565707325935364 0.04526793211698532 -0.13493993878364563
0.2943812906742096 -0.2123505175113678 -0.0926397442817688
0.010469688102602959 0.16766001284122467 -0.1358756273984909
-0.02868160605430603 -0.17851781845092773 -0.13814260065555573
-0.2075606733560562 -0.443173348903656 -0.027700256556272507
-0.03977879136800766 -0.2503710091114044 -0.03888868913054466
0.2774897515773773 -0.34201815724372864 0.09149869531393051
0.034011706709861755 0.028666531667113304 -0.13452334702014923
-0.24286291003227234 0.4664500951766968 -0.040498409420251846
0.20821021497249603 -0.25126025080680847 0.12981876730918884
0.21545888483524323 -0.44519031047821045 0.18098561465740204
-0.2709912061691284 0.06137695908546448 -0.018648160621523857
0.20833520591259003 -0.10828982293605804 -0.13479703664779663
-0.2706615626811981 -0.11938181519508362 -0.015488067641854286
-0.27197903394699097 -0.07303668558597565 -0.11275676637887955
0.01741659641265869 0.06959530711174011 0.1695306897163391
0.2976376712322235 0.06744721531867981 0.022112391889095306
0.2979715168476105 -0.020465882495045662 0.0005802306113764644
0.04189015179872513 0.12754333019256592 0.17228689789772034
0.296781063079834 -0.09712618589401245 0.017490657046437263
-0.27252528071403503 0.05106399208307266 -0.03256317600607872
-0.09743622690439224 0.22758005559444427 0.0004892002325505018
0.2994650900363922 0.4354938864707947 0.08639385551214218
0.17735739052295685 0.44061848521232605 0.08440779149532318
0.1535792052745819 -0.19205930829048157 -0.1380375474691391
-0.06533075124025345 -0.25202634930610657 -0.010256221517920494
0.23124228417873383 -0.44484812021255493 0.0013290339848026633
-0.2419232279062271 0.2087714672088623 0.15710850059986115
-0.07224326580762863 0.2044849842786789 -0.1362999677658081
0.19899983704090118 -0.3882986307144165 0.18368655443191528
0.13884864747524261 0.22643257677555084 0.10819027572870255
-0.2673642337322235 -0.10836466401815414 -0.04410393163561821
-0.167273610830307 0.023986827582120895 -0.13302770256996155
0.1977941244840622 -0.30641254782676697 -0.06266912072896957
0.3020523190498352 0.4090994596481323 0.012895986437797546
-0.13727928698062897 -0.12353643029928207 -0.1321861296892166
0.29510462284088135 -0.170305997133255 0.13662074506282806
0.06893625110387802 0.07422853261232376 -0.13456660509109497
0.07032648473978043 -0.15869596600532532 0.17004680633544922
0.22345180809497833 -0.09858103096485138 -0.13616086542606354
-0.25241097807884216 -0.35101214051246643 0.16866250336170197
-0.2572459876537323 0.42789486050605774 -0.03890945389866829
0.03370630741119385 0.2292391061782837 -0.08938228338956833
0.20981192588806152 -0.36087268590927124 0.15366984903812408
0.05157971754670143 0.22812776267528534 -0.07975609600543976
-0.2702588140964508 0.4223558008670807 0.04660898447036743
-0.2488488107919693 -0.04393305629491806 0.15490223467350006
-0.2734488248825073 0.13504497706890106 0.05248897150158882
-0.17975302040576935 -0.25235700607299805 -0.11254958808422089
0.20634526014328003 -0.04096776992082596 -0.13301154971122742
0.140638068318367 -0.08476412296295166 0.1699625849723816
0.17149458825588226 -0.1596754491329193 -0.1363794058561325
-0.2653522789478302 -0.4380897879600525 0.1048869788646698
0.02289370447397232 0.22787486016750336 0.08262351900339127
0.2622635066509247 -0.09601068496704102 -0.13499175012111664
-0.008383113890886307 0.03855443000793457 0.16961295902729034
0.28532275557518005 0.4797898828983307 -0.010165347717702389
0.2747046649456024 0.22851133346557617 0.11291930824518204
-0.3017529249191284 -0.35383370518684387 -0.03427552804350853
-0.2100411057472229 0.22847172617912292 0.12709537148475647
-0.14865614473819733 -0.049625903367996216 0.16912414133548737
-0.16200534999370575 0.005537858232855797 0.16873623430728912
0.15644517540931702 0.0486944355070591 0.17222250998020172
-0.07486511766910553 -0.14479874074459076 -0.13751716911792755
-0.2700522243976593 0.17789608240127563 0.018595144152641296
-0.06298685818910599 -0.004948550369590521 0.17268425226211548
0.27344420552253723 0.4958675801753998 0.00244376203045249
0.01557107362896204 0.22785411775112152 -0.01724841631948948
0.10483688861131668 -0.06535766273736954 -0.1367434561252594
0.15680710971355438 -0.3860545754432678 0.1455598771572113
0.10941429436206818 -0.19677841663360596 -0.13223952054977417
-0.29010775685310364 -0.014705476351082325 -0.2903750240802765
0.24848045408725739 -0.4480220079421997 0.12411855906248093
-0.2728542983531952 -0.007564591709524393 -0.10651934891939163
-0.253073513507843 0.2309739887714386 -0.09090641885995865
0.25105947256088257 -0.4043706953525543 0.2007674127817154
0.08107339590787888 0.1742240935564041 -0.13597872853279114
0.17602521181106567 0.4023386538028717 -0.012035065330564976
-0.26890408992767334 -0.08285882323980331 0.09219919890165329
-0.15766900777816772 0.4506552219390869 0.022124070674180984
-0.22585436701774597 0.17277520895004272 -0.13619258999824524
-0.2328449934720993 -0.22472679615020752 0.15855708718299866
-0.02434958517551422 0.22852632403373718 -0.09378642588853836
-0.2690151333808899 0.018645498901605606 -0.03618334233760834
0.19948290288448334 0.43559926748275757 -0.0677405446767807
-0.2945966124534607 0.04337343946099281 -0.2813636362552643
0.18090751767158508 0.467298299074173 0.07370231300592422
0.17481766641139984 0.22889702022075653 -0.08375795930624008
0.29772841930389404 -0.17180824279785156 -0.0054557910189032555
0.10413260757923126 0.18274357914924622 -0.13276639580726624
0.2387189418077469 -0.2523578405380249 0.08975189924240112
-0.027687951922416687 -0.24931414425373077 -0.05722541734576225
0.2033989280462265 0.0858820453286171 0.16949738562107086
0.09598612040281296 0.010733353905379772 0.1698438823223114
-0.27193862199783325 0.029453705996274948 0.1210075244307518
-0.21943755447864532 -0.39544185996055603 0.17527984082698822
-0.31544771790504456 -0.37730637192726135 0.1487528681755066
0.11248878389596939 -0.028475018218159676 0.16990403831005096
-0.1505175232887268 -0.27808839082717896 -0.009815295226871967
-0.2151685357093811 -0.46415430307388306 0.017932914197444916
-0.004464509431272745 0.1658250093460083 -0.21991243958473206
-0.1413930207490921 -0.014504884369671345 -0.13344964385032654
-0.2899683713912964 -0.04772914573550224 -0.2662919759750366
0.04752615839242935 -0.08596280962228775 0.16649439930915833
-0.27087274193763733 0.11097592115402222 -0.013453129678964615
0.29791396856307983 -0.009565772488713264 -0.0366424024105072
0.29915851354599 0.4335036873817444 -0.019573012366890907
-0.23266415297985077 -0.33032098412513733 0.11419807374477386
-0.18963868916034698 -0.09410074353218079 -0.1330839842557907
-0.15574096143245697 0.22794046998023987 -0.06693588942289352
0.2885993719100952 -0.3811393976211548 0.10336838662624359
-0.27169671654701233 0.03080415166914463 -0.11867652088403702
0.139955073595047 -0.36069175601005554 0.03048808127641678
0.30095991492271423 -0.06530626118183136 0.06635525077581406
