0.3003416359424591 -0.2267037034034729 -0.03320508077740669
0.248929962515831 0.22849558293819427 0.08166071027517319
-0.30202826857566833 -0.3197890818119049 0.12033040821552277
-0.21228545904159546 0.1627970039844513 -0.13554352521896362
-0.07949063926935196 -0.13313086330890656 -0.13562938570976257
0.18661072850227356 0.22887693345546722 -0.08274887502193451
0.29590708017349243 0.037820376455783844 0.09522838890552521
-0.26727166771888733 -0.20162717998027802 -0.08265412598848343
0.046877603977918625 -0.2512022852897644 -0.04763590544462204
-0.1829719990491867 -0.25460854172706604 -0.10899319499731064
-0.271571546792984 0.11769815534353256 0.0248100608587265
0.23870447278022766 0.04980083182454109 -0.13540568947792053
0.2972559928894043 0.17928461730480194 0.018510079011321068
0.10684221982955933 -0.20658907294273376 0.15642499923706055
-0.2714498043060303 0.18256984651088715 0.09294861555099487
-0.272824764251709 -0.02950923703610897 0.1365637481212616
-0.0252207163721323 -0.2513029873371124 -0.0005457591032609344
0.2714539170265198 0.01941840350627899 -0.13598844408988953
0.29299455881118774 0.4226744771003723 -0.04708711802959442
0.12671250104904175 -0.2477961778640747 0.09103308618068695
0.17615513503551483 0.3983028531074524 0.0809466689825058
0.1759718954563141 0.42582905292510986 0.08782345801591873
0.27912867069244385 0.31954312324523926 0.01827801577746868
0.2042572945356369 -0.18317916989326477 -0.13556380569934845
0.1755664199590683 -0.38785648345947266 -0.06169968470931053
-0.12826108932495117 -0.04208898916840553 0.1652759611606598
0.04793836548924446 -0.2529982626438141 0.06807846575975418
0.29781854152679443 -0.1742738038301468 0.08185158669948578
0.29732367396354675 -0.005359050817787647 0.10779749602079391
-0.04642975702881813 0.22735793888568878 -0.08976204693317413
-0.3185255229473114 -0.3836691379547119 -0.051363665610551834
0.2361704409122467 -0.2501782178878784 0.1336851567029953
-0.26814940571784973 0.4271358549594879 0.05702817067503929
-0.15669338405132294 -0.3194890320301056 -0.0036648553796112537
-0.1799161732196808 0.4263654053211212 -0.06496722996234894
-0.2722291052341461 -0.23370857536792755 0.0031253525521606207
-0.1577894389629364 -0.16028444468975067 -0.13564662635326385
-0.27003052830696106 0.18204092979431152 -0.05967896059155464
0.1823749989271164 0.38242676854133606 0.09532808512449265
-0.2206280529499054 0.44944897294044495 0.09266664832830429
-0.274139404296875 0.008436053991317749 0.08361322432756424
0.12338070571422577 -0.17957362532615662 -0.13631673157215118
-0.042630940675735474 -0.11188673228025436 0.16986005008220673
-0.260599821805954 0.46654316782951355 0.0286257266998291
0.3005245327949524 0.12537088990211487 0.057103224098682404
0.0687279999256134 -0.25039994716644287 0.06279537081718445
-0.1775551736354828 -0.09959598630666733 0.16945374011993408
-0.23728206753730774 -0.25188761949539185 -0.06602843850851059
0.27282559871673584 0.31674715876579285 -0.022707410156726837
0.26805752515792847 -0.0034615371841937304 -0.13545402884483337
-0.27278798818588257 0.12608814239501953 0.0993935689330101
0.3003896474838257 0.43295130133628845 0.07335229963064194
0.15111738443374634 -0.3713885247707367 0.09818281978368759
-0.04810674861073494 -0.04113456979393959 -0.13505294919013977
0.29736411571502686 0.000815252133179456 -0.07866401225328445
-0.012466367334127426 -0.119522325694561 -0.13685041666030884
0.2979564666748047 -0.13581596314907074 -0.02195996604859829
0.2968108654022217 0.19452130794525146 -0.0764913260936737
-0.06142061576247215 0.23004977405071259 0.12294036895036697
-0.1351194679737091 -0.022502871230244637 0.16957078874111176
0.18730221688747406 -0.4472788870334625 0.12095487117767334
0.15013882517814636 0.10665331780910492 0.16930903494358063
-0.18905282020568848 -0.3760043978691101 -0.05118219554424286
0.2959294021129608 -0.16672348976135254 -0.056313104927539825
-0.08691302686929703 -0.1873287409543991 -0.13551829755306244
-0.17777881026268005 -0.25258275866508484 0.12154319137334824
-0.16385774314403534 0.4090668261051178 -0.04824959486722946
-0.2545055150985718 0.02709965966641903 0.15951582789421082
0.03758760914206505 -0.007537366822361946 -0.13195693492889404
0.30010855197906494 0.41450071334838867 -7.131462189136073e-05
-0.021763985976576805 0.15570077300071716 -0.13539904356002808
0.21922898292541504 0.39824962615966797 -0.0864819884300232
-0.2546893060207367 0.36775028705596924 -0.05533335357904434
0.1754203736782074 0.38776299357414246 0.07356192171573639
-0.09488978981971741 0.2274625152349472 -0.01587706245481968
0.01764487475156784 0.15700961649417877 -0.22036996483802795
-0.008025315590202808 0.057478439062833786 -0.1348501741886139
-0.002521477174013853 0.17792582511901855 -0.13309605419635773
-0.061907775700092316 -0.04184760898351669 -0.13483771681785583
-0.2691223621368408 0.07990708947181702 -0.08483785390853882
0.25310927629470825 -0.250381201505661 0.12268897145986557
-0.043609291315078735 0.2275627702474594 0.0009068895597010851
0.19952352344989777 0.0025155828334391117 0.1729149967432022
0.1570630818605423 0.1048646867275238 0.16689065098762512
-0.24916517734527588 0.1474163979291916 0.1563602089881897
0.02680807188153267 0.002376548945903778 0.16979257762432098
-0.15845102071762085 -0.17574065923690796 -0.13373403251171112
0.11235905438661575 -0.12271744012832642 0.16837280988693237
0.2973085939884186 0.05045093223452568 0.11364535987377167
-0.0007084808312356472 0.06617722660303116 0.1694587618112564
-0.28971192240715027 -0.023025766015052795 -0.2531208395957947
0.2832547724246979 0.47754600644111633 -0.012667037546634674
-0.07126951962709427 -0.25136685371398926 0.08726256340742111
-0.24386578798294067 0.23032543063163757 0.061131589114665985
-0.17418354749679565 -0.3644408583641052 -0.02907661534845829
-0.15674638748168945 0.011660242453217506 0.16940228641033173
0.29602742195129395 -0.1550169587135315 0.014207537285983562
0.29738911986351013 -0.0811690017580986 -0.008741756901144981
-0.23253461718559265 -0.21660470962524414 -0.1400308609008789
0.19670143723487854 -0.3098601698875427 -0.06401870399713516
-0.27660050988197327 -0.4047231376171112 0.17088864743709564
-0.17552149295806885 -0.3784499168395996 -0.0009164472576230764
-0.19784559309482574 -0.01779056526720524 -0.1380847841501236
-0.2702081501483917 0.20700839161872864 0.08909933269023895
0.29738593101501465 -0.16028183698654175 -0.08754715323448181
0.104033924639225 0.1530272662639618 -0.1374346911907196
-0.03987245261669159 -0.0824265331029892 -0.13556748628616333
-0.270627498626709 -0.23065106570720673 0.03164886683225632
0.289588063955307 0.47772470116615295 0.011296899057924747
0.1862420290708542 0.05051662400364876 0.17032383382320404
0.027889084070920944 0.16332709789276123 -0.21958813071250916
-0.27309370040893555 0.1403353214263916 0.10564818233251572
-0.04591149836778641 0.09342431277036667 -0.13716554641723633
0.10157566517591476 -0.1251983493566513 0.16964347660541534
0.1005767285823822 -0.1274905651807785 -0.1355692744255066
0.22187858819961548 0.0005791196599602699 0.17022407054901123
0.1870361864566803 0.48396146297454834 0.02054428681731224
0.11993750184774399 0.23178638517856598 -0.10075469315052032
0.004733240231871605 0.07172037661075592 -0.13577352464199066
0.10036672651767731 0.20068329572677612 -0.1353382170200348
0.06242309510707855 0.22819113731384277 0.03606531769037247
0.2973763048648834 -0.11358407139778137 -0.11728452146053314
-0.24662689864635468 0.06499301642179489 -0.1354352831840515
-0.19953516125679016 -0.4396035671234131 0.06566172093153
-0.28953123092651367 0.07102683186531067 -0.29894861578941345
0.051537029445171356 0.02250957116484642 0.17188197374343872
-0.27482181787490845 -0.20733807981014252 0.09674624353647232
-0.2725242078304291 0.11545158922672272 -0.053740669041872025
0.300150066614151 0.035984501242637634 -0.10395064204931259
-0.26890695095062256 -0.08742517977952957 0.08354422450065613
-0.226511612534523 0.5006709694862366 0.01194114238023758
0.23725281655788422 0.33284205198287964 0.07875998318195343
-0.22371116280555725 -0.46023643016815186 -0.034686874598264694
-0.31235557794570923 -0.4419461488723755 -0.05345927178859711
0.2684573829174042 -0.12342812120914459 -0.13550208508968353
0.27102136611938477 0.08799557387828827 0.1520235240459442
0.13741475343704224 -0.0074767149053514 -0.13546261191368103
-0.13345278799533844 -0.25290024280548096 -0.012664119713008404
0.2032180279493332 0.2279467135667801 -0.07063620537519455
0.17597024142742157 -0.28223374485969543 -0.04038434848189354
0.07606492936611176 -0.09627482295036316 0.16756340861320496
-0.028394166380167007 -0.018056344240903854 0.16944223642349243
0.2972973883152008 -0.0033012391068041325 -0.08121954649686813
-0.27046623826026917 0.13236233592033386 0.07925833016633987
-0.004098758101463318 -0.1483471691608429 -0.13384409248828888
-0.25650158524513245 -0.2921256124973297 0.06775543093681335
-0.1517285257577896 -0.07812243700027466 0.17207907140254974
-0.2524354159832001 0.4635371267795563 -0.031454943120479584
0.29739049077033997 -0.052495699375867844 -0.04149443656206131
0.032790083438158035 -0.13900801539421082 -0.13560864329338074
-0.07957768440246582 -0.1449805498123169 0.16909600794315338
-0.2707555592060089 0.13590066134929657 0.14044684171676636
0.29739463329315186 -0.2265743762254715 0.08875059336423874
0.27909621596336365 -0.32804158329963684 0.03689569607377052
-0.2213856428861618 0.4429277181625366 0.09430378675460815
0.12006025016307831 -0.25189653038978577 -0.03592253476381302
-0.1318221241235733 -0.2523178458213806 -0.04161504656076431
0.18788839876651764 -0.35394832491874695 0.1325675994157791
-0.008558565750718117 -0.25152161717414856 0.004940291400998831
0.21872767806053162 0.22680357098579407 0.13696515560150146
-0.1537691056728363 -0.2500339150428772 -0.11558949202299118
0.11455753445625305 -0.08531074225902557 0.17459991574287415
-0.22356656193733215 -0.2516513466835022 -0.08912092447280884
0.2967557907104492 0.12876248359680176 -0.004863244481384754
-0.2605185806751251 -0.40114110708236694 -0.09548689424991608
0.22566796839237213 0.08887846022844315 -0.13538245856761932
0.03659003600478172 -0.20494459569454193 0.15529181063175201
0.1250140368938446 0.05964295566082001 0.16817167401313782
-0.25981655716896057 -0.42495816946029663 0.14703308045864105
-0.1828521341085434 0.22789694368839264 0.13705337047576904
0.1311102658510208 0.23062455654144287 -0.017113272100687027
0.071929931640625 0.17267408967018127 -0.1357293277978897
-0.0098585719242692 0.22611325979232788 0.08640557527542114
0.29957571625709534 0.37556523084640503 0.057293057441711426
-0.004733373876661062 -0.25113874673843384 -0.055182792246341705
-0.2957421541213989 0.025848478078842163 -0.2750776708126068
-0.2727108299732208 -0.14635592699050903 0.08688865602016449
0.014014163054525852 0.22744449973106384 -0.03617292642593384
0.2974992096424103 -0.22300106287002563 0.05506740137934685
0.22780393064022064 -0.1250905692577362 -0.13229314982891083
-0.2130948156118393 -0.3919234871864319 0.15585072338581085
0.06112479791045189 -0.21995589137077332 -0.13564930856227875
0.20860734581947327 0.4734732508659363 -0.060894448310136795
0.11968798190355301 0.09556381404399872 0.16767893731594086
0.03055294044315815 0.07933247834444046 0.17172707617282867
0.13772456347942352 -0.3888844847679138 0.02982872910797596
0.14239732921123505 -0.0030423763673752546 0.17109471559524536
0.14166195690631866 0.2254442572593689 -0.11343105137348175
-0.16113686561584473 0.4615775942802429 0.07217106968164444
0.2703288793563843 0.4728696346282959 -0.05891787260770798
0.24081924557685852 -0.38265958428382874 0.18450817465782166
-0.27296745777130127 -0.20165735483169556 0.04290247708559036
-0.15077261626720428 -0.05126974731683731 -0.13692493736743927
0.15051980316638947 -0.3430146276950836 0.05695997178554535
0.19998261332511902 0.22826944291591644 0.06422741711139679
0.29996457695961 -0.1356629729270935 -0.017506500706076622
0.02131544053554535 -0.2510143220424652 -0.10572011768817902
0.19220677018165588 0.22823143005371094 0.017828013747930527
-0.07573536783456802 -0.25163668394088745 0.008709491230547428
0.2680243253707886 0.22553537786006927 0.12632910907268524
-0.2744120657444 -0.143851175904274 -0.11988900601863861
0.042023200541734695 0.007058404851704836 -0.13370725512504578
0.17858876287937164 -0.4467175006866455 0.17643068730831146
0.13095861673355103 0.02435087226331234 0.16857723891735077
-0.2725909948348999 -0.05890174210071564 0.03173444792628288
-0.1624034345149994 0.2279542237520218 -0.09923295676708221
0.22437147796154022 0.0823524221777916 -0.135390505194664
0.21338742971420288 0.22821252048015594 0.009097772650420666
-0.26931461691856384 0.19131852686405182 0.10687700659036636
0.30166155099868774 0.4438520073890686 0.04571209475398064
-0.16551384329795837 0.22725623846054077 -0.05899427458643913
-0.25182369351387024 -0.28625819087028503 0.04394318163394928
-0.302217036485672 -0.44807344675064087 -0.05765894800424576
0.1744210571050644 0.37847521901130676 0.042163997888565063
-0.19046439230442047 -0.43157076835632324 0.022151369601488113
-0.11847198754549026 0.08298610895872116 0.168484166264534
-0.2558947801589966 0.4755975306034088 0.07502913475036621
0.2973482310771942 0.07856947928667068 -0.09416782855987549
0.2764310836791992 0.327963262796402 -0.0332927405834198
-0.18320387601852417 0.40214306116104126 -0.06734170019626617
0.10983613133430481 -0.25120189785957336 0.030423803254961967
0.036894556134939194 -0.07780278474092484 0.1671968251466751
-0.17635278403759003 0.22980782389640808 -0.05340302363038063
0.19355429708957672 0.10390492528676987 -0.13537050783634186
0.13615480065345764 0.22523924708366394 0.042891860008239746
0.004858327563852072 0.2253495752811432 -0.04347608983516693
0.29569336771965027 -0.20023362338542938 -0.06412599980831146
0.03400200605392456 0.15627644956111908 -0.1353786140680313
0.22101444005966187 -0.4473763704299927 0.12197472900152206
0.08452372997999191 0.09285775572061539 -0.1363927274942398
-0.2943890690803528 -0.0009482961613684893 -0.2796453833580017
0.11483579874038696 -0.09411747008562088 0.16807743906974792
-0.24950753152370453 -0.19547201693058014 0.15322540700435638
-0.24749481678009033 0.07410705089569092 -0.13542614877223969
0.09079024940729141 -0.011066862381994724 0.17050126194953918
0.22345700860023499 -0.448195219039917 -0.05140717700123787
-0.1834474354982376 0.011638972908258438 -0.13548149168491364
-0.27380087971687317 -0.10348294675350189 -0.0223639365285635
0.052414420992136 0.14507755637168884 0.1679779291152954
-0.03624971956014633 0.2266945242881775 0.11186489462852478
-0.045087020844221115 -0.06603273749351501 0.16946245729923248
0.2972615361213684 0.15709245204925537 0.08191127330064774
-0.16809387505054474 -0.28312647342681885 0.0554196797311306
0.2691783607006073 -0.03629246726632118 -0.13544374704360962
0.007415398955345154 0.13657055795192719 0.1717292070388794
-0.04316714406013489 -0.24829266965389252 0.008734623901546001
-0.19732144474983215 -0.31138432025909424 -0.06355154514312744
-0.06209831312298775 -0.16055476665496826 -0.1356543004512787
0.1186533272266388 0.10880255699157715 0.17004279792308807
0.20106816291809082 0.22905994951725006 0.07647396624088287
-0.27211764454841614 0.07304463535547256 -0.1118563860654831
0.29739052057266235 -0.1903495341539383 -0.03477700427174568
-0.04965021461248398 0.22775277495384216 -0.09983836114406586
-0.24435819685459137 0.3175817131996155 -0.0057956199161708355
-0.24659863114356995 0.12450478225946426 -0.13539619743824005
-0.2883107364177704 -0.419249027967453 0.07959522306919098
0.21199338138103485 -0.1542171984910965 -0.1351325958967209
0.1363469958305359 -0.41094887256622314 0.055783711373806
0.1457938253879547 -0.25254976749420166 0.093416228890419
-0.2715219259262085 0.13254119455814362 0.01766611635684967
0.17450834810733795 0.409424364566803 0.0706382766366005
0.26192399859428406 0.060160841792821884 -0.13700200617313385
0.168610081076622 -0.34009525179862976 -0.0555095449090004
0.19499224424362183 0.10532376915216446 0.16515107452869415
0.17973263561725616 0.20639124512672424 0.1594594568014145
-0.2636413872241974 -0.43545231223106384 -0.08446504920721054
0.29738661646842957 -0.2230844348669052 0.02439408004283905
0.13361354172229767 -0.029985418543219566 -0.13527628779411316
-0.011158689856529236 -0.148503839969635 -0.13599048554897308
-0.27894464135169983 -0.3199065029621124 -0.021310782060027122
-0.2714229226112366 0.20873387157917023 0.10546368360519409
0.09712332487106323 0.22745269536972046 0.019195737317204475
0.2134285718202591 -0.25087684392929077 0.1093968078494072
-0.2145654410123825 -0.4534713625907898 -0.020613739266991615
-0.039637017995119095 -0.11097454279661179 -0.13392463326454163
-0.037552352994680405 -0.1512252539396286 0.169552743434906
0.2975776195526123 0.005031741224229336 0.0305038969963789
-0.0010728186462074518 -0.2512378990650177 0.11570839583873749
-0.044193800538778305 0.2011321783065796 -0.1365441232919693
0.24855546653270721 -0.25011879205703735 -0.11031096428632736
-0.27168455719947815 -0.16706347465515137 -0.02758875861763954
0.29639339447021484 0.20316386222839355 0.09758294373750687
-0.27221643924713135 -0.21365858614444733 0.05424527823925018
-0.27275702357292175 0.17531746625900269 -0.0388571098446846
-0.29349151253700256 -0.011552956886589527 -0.25840941071510315
-0.24199919402599335 0.32236623764038086 0.028342045843601227
0.2091936469078064 -0.22379067540168762 0.156777024269104
0.27931445837020874 -0.33708950877189636 -0.012403709813952446
0.1786089986562729 0.4507254660129547 -0.0033732594456523657
0.25357502698898315 -0.3325698971748352 -0.07339147478342056
0.21618333458900452 0.22811327874660492 -0.08974434435367584
-0.19341221451759338 -0.25292643904685974 -0.0927252247929573
-0.12062553316354752 0.22804754972457886 -0.07966047525405884
-0.3027111887931824 -0.3299930691719055 0.044446829706430435
-0.10211072117090225 0.21008871495723724 0.15419062972068787
-0.15087160468101501 0.22588862478733063 -0.08760076761245728
0.07014676928520203 0.09734683483839035 0.16793569922447205
0.10135968029499054 -0.2511644959449768 0.03199109435081482
-0.2365766167640686 -0.25558918714523315 0.08070211112499237
-0.21264640986919403 -0.45775970816612244 -0.011200785636901855
-0.18912476301193237 0.027001891285181046 0.16898907721042633
0.24642878770828247 0.22817742824554443 -0.11513525247573853
-0.06918318569660187 -0.2515032887458801 0.0799119770526886
0.2964553236961365 -0.09025616198778152 0.13483865559101105
-0.31863662600517273 -0.3393235206604004 0.05870164930820465
-0.1849507838487625 -0.06335478276014328 -0.1331116110086441
0.297315776348114 0.03560066223144531 0.08876389265060425
0.026702266186475754 -0.2255730777978897 -0.13666068017482758
-0.187350794672966 -0.41440528631210327 0.051912322640419006
0.18154554069042206 -0.4008135199546814 -0.06836038082838058
0.14416587352752686 -0.40266677737236023 -0.009021745063364506
-0.1980823129415512 0.08256931602954865 0.17173664271831512
0.028232073411345482 0.03681793436408043 -0.1335187405347824
0.14294059574604034 -0.40108612179756165 0.027568573132157326
-0.24610628187656403 0.005518660414963961 -0.2598308026790619
0.11197832971811295 -0.20007149875164032 -0.13257554173469543
0.09741191565990448 -0.25011366605758667 -0.030251940712332726
-0.2699107825756073 -0.15987592935562134 -0.01956428587436676
-0.0736054927110672 -0.25158339738845825 -0.01511090062558651
-0.09155872464179993 -0.2528601288795471 0.11019431054592133
0.15598636865615845 -0.08577883988618851 -0.13729320466518402
0.05638115108013153 -0.22148707509040833 -0.13565057516098022
-0.1827538162469864 0.4967506527900696 0.03491688519716263
-0.05945822224020958 0.11243251711130142 0.16950073838233948
0.16406653821468353 -0.0892125740647316 0.16761505603790283
-0.14151529967784882 0.037915460765361786 0.1701710969209671
0.12255895882844925 0.22828243672847748 0.13562297821044922
-0.2363651841878891 -0.12548398971557617 -0.1350945383310318
0.29725655913352966 0.17026320099830627 0.06896486133337021
-0.28896552324295044 -0.03658085688948631 -0.24397559463977814
0.030672363936901093 0.19506803154945374 -0.23218315839767456
-0.10342264920473099 -0.058204539120197296 -0.1342468112707138
-0.20419259369373322 -0.38199061155319214 -0.06681676208972931
0.2987280786037445 0.41927555203437805 0.08340811729431152
-0.031138643622398376 -0.020585045218467712 -0.13338088989257812
0.26397719979286194 -0.250841349363327 0.09287380427122116
-0.1521724909543991 -0.03223971650004387 0.16663067042827606
-0.2670077979564667 0.3835282325744629 0.0726204589009285
-0.018685616552829742 -0.05395849421620369 0.1665908247232437
-0.08672000467777252 -0.0778505727648735 0.1722755879163742
-0.2467840164899826 0.11635148525238037 -0.1353958547115326
0.29738712310791016 -0.20178689062595367 0.009994487278163433
0.02520412765443325 0.20632049441337585 -0.15913665294647217
0.2972332239151001 0.39224326610565186 0.10379658639431
0.21263323724269867 -0.004582289606332779 0.1697838455438614
-0.2716427147388458 0.00393312331289053 0.047385770827531815
-0.22533626854419708 0.4330456256866455 0.09058226644992828
-0.2658867835998535 -0.2962817847728729 0.048269812017679214
0.29768744111061096 -0.10067912191152573 0.07562445849180222
0.06775572150945663 -0.2508653998374939 -0.11480848491191864
0.16468463838100433 -0.3064558506011963 0.055424243211746216
-0.30432766675949097 -0.33712053298950195 0.019137192517518997
0.14432941377162933 -0.03507210686802864 -0.13531480729579926
-0.15018178522586823 -0.21327757835388184 -0.1357155740261078
0.0001448590774089098 -0.249039426445961 0.11040370911359787
-0.2701032757759094 0.3929049074649811 0.030341533944010735
0.17759102582931519 -0.31927773356437683 0.08275610208511353
0.07704318314790726 -0.08989329636096954 0.16958555579185486
0.09785513579845428 0.1396624892950058 -0.13102491199970245
0.2767312228679657 -0.25053906440734863 -0.09125661104917526
-0.2518165409564972 -0.08706074953079224 0.15572704374790192
0.19048824906349182 0.024066727608442307 0.16904793679714203
0.09364692121744156 -0.008917259983718395 0.17013655602931976
0.024002904072403908 0.22879457473754883 0.11946293711662292
0.13657359778881073 -0.09809903055429459 -0.1322493702173233
0.2834702730178833 0.32790088653564453 -0.0022565508261322975
-0.1359315663576126 -0.1650475263595581 -0.13521559536457062
0.30070963501930237 0.015605341643095016 0.11732512712478638
-0.2716080844402313 0.02543647773563862 0.034330859780311584
0.1929333508014679 0.23094356060028076 -0.009268891997635365
0.2588949501514435 0.40818917751312256 0.10713516920804977
0.17159971594810486 0.380836546421051 0.048498138785362244
0.24309802055358887 0.2276688665151596 -0.12283872067928314
-0.27172577381134033 0.14820370078086853 0.09005381911993027
0.1275649070739746 -0.2524225115776062 -0.011032605543732643
-0.27165818214416504 -0.03499308228492737 0.02520693838596344
-0.0468120314180851 -0.2514178454875946 0.03888784721493721
-0.27171310782432556 -0.23139849305152893 -0.006588126067072153
0.26900601387023926 0.07474932074546814 -0.13539129495620728
-0.17443974316120148 -0.3659384250640869 0.046521466225385666
0.23913180828094482 0.21105808019638062 -0.1344834268093109
0.26731616258621216 0.14347952604293823 -0.1371036022901535
0.2965756356716156 -0.22026894986629486 -0.06646725535392761
-0.03663984313607216 -0.2534361779689789 0.06877046823501587
0.13919436931610107 0.16404511034488678 -0.137587770819664
-0.29393309354782104 -0.4269229471683502 0.04600726068019867
0.010805845260620117 0.18549931049346924 0.15607161819934845
0.1801697015762329 0.4654974937438965 -0.006391517817974091
-0.18957622349262238 0.2309083491563797 0.07660883665084839
-0.32378309965133667 -0.38481858372688293 0.1015542596578598
0.28522375226020813 -0.3660021722316742 0.1177048608660698
-0.10936331748962402 -0.06179024651646614 0.16935545206069946
-0.12144583463668823 0.22811488807201385 -0.0034907793160527945
0.14359807968139648 -0.2516777515411377 -0.11527393758296967
0.09999804198741913 -0.13507306575775146 0.17186430096626282
-0.24426515400409698 -0.2524632513523102 -0.08221443742513657
0.15465322136878967 0.13706085085868835 0.16876879334449768
0.011809689924120903 0.13018161058425903 0.16826055943965912
-0.2452222853899002 0.008154424838721752 -0.26455920934677124
0.2519485056400299 0.41715919971466064 0.10347657650709152
0.2984939217567444 0.1824435442686081 -0.036652714014053345
0.11109530925750732 -0.25403621792793274 0.13113735616207123
0.05674311891198158 -0.0153249716386199 -0.13605566322803497
-0.2697365880012512 0.14804863929748535 0.09971289336681366
0.2879597246646881 0.486329585313797 0.03906318545341492
0.17266546189785004 0.42093417048454285 0.01537727378308773
-0.26384854316711426 -0.46739691495895386 -0.00965089537203312
-0.17495611310005188 0.3389908969402313 0.04806002601981163
0.29724666476249695 0.20940418541431427 0.04044371470808983
-0.07738339155912399 -0.0600372850894928 0.16828253865242004
-0.274652898311615 -0.08102647215127945 -0.004441516473889351
0.29735156893730164 -0.03162141516804695 0.001888560364022851
0.09755648672580719 0.009968752041459084 -0.1359919011592865
0.039838507771492004 -0.22847068309783936 -0.13351945579051971
0.14938318729400635 -0.34564605355262756 -0.017971541732549667
0.23836182057857513 0.07771628350019455 -0.13627177476882935
-0.1627768576145172 -0.34308764338493347 -0.007268537301570177
0.1431703120470047 -0.3559601306915283 0.02759687975049019
-0.24749425053596497 -0.39120471477508545 -0.08966756612062454
0.2896135151386261 -0.40300703048706055 0.14225555956363678
-0.15137138962745667 0.019674066454172134 -0.13400903344154358
-0.015138883143663406 0.22909332811832428 0.08305591344833374
-0.09454943239688873 -0.24944989383220673 0.12285346537828445
-0.17424276471138 -0.3413757383823395 -0.04404454305768013
-0.2500147521495819 -0.2879142165184021 -0.04261133447289467
0.29713958501815796 0.08609341084957123 -0.09014618396759033
-0.21690773963928223 -0.06735405325889587 -0.13553231954574585
-0.23247116804122925 -0.4642075300216675 -0.03939032927155495
-0.014250212348997593 0.22811013460159302 -0.01941641792654991
-0.30441412329673767 -0.3350282609462738 0.02897220104932785
-0.24027438461780548 -0.09766033291816711 0.15675829350948334
-0.0181877538561821 0.22943465411663055 -0.07285477966070175
0.2495945394039154 -0.4470010995864868 0.12918005883693695
0.24393939971923828 -0.12920323014259338 -0.13979849219322205
0.19170354306697845 0.06908963620662689 0.1710250824689865
-0.16827580332756042 -0.11138492822647095 0.17131640017032623
-0.25626733899116516 -0.3409510850906372 0.16101959347724915
-0.029992880299687386 0.2320200353860855 -0.10354885458946228
0.16049708425998688 -0.06737887114286423 -0.1354919821023941
0.19413211941719055 -0.42022809386253357 -0.07940690964460373
0.04868655651807785 0.08432106673717499 0.1704241931438446
-0.20090673863887787 -0.23235604166984558 0.15642718970775604
0.07884557545185089 0.22789877653121948 -0.02136402763426304
-0.12739510834217072 0.21219401061534882 -0.13189615309238434
-0.24506953358650208 -0.1397525668144226 0.1545536071062088
0.08282851427793503 -0.16488631069660187 -0.13560330867767334
0.2971111536026001 0.186741441488266 0.004141614306718111
0.29723355174064636 0.19946876168251038 0.09992645680904388
0.12438058108091354 0.2248810976743698 -0.06657291203737259
-0.0512256994843483 0.19583038985729218 0.1591029018163681
-0.2030790001153946 -0.3554989695549011 0.09933893382549286
-0.3123590648174286 -0.3823864161968231 0.13533030450344086
-0.012142862193286419 -0.2512796223163605 0.020161841064691544
-0.2617263197898865 -0.3414515256881714 0.1712082177400589
-0.2625179886817932 -0.4212494492530823 0.15495659410953522
-0.022486655041575432 0.03344499692320824 0.1704547256231308
0.0690263882279396 -0.10497802495956421 -0.13489826023578644
-0.04914262518286705 0.10123942047357559 0.1688828021287918
-0.2235974371433258 0.07342977076768875 -0.13543066382408142
-0.074424609541893 0.06244109570980072 0.17076246440410614
-0.15353547036647797 0.1963210254907608 -0.13540378212928772
-0.043147485703229904 -0.09934412688016891 -0.13557547330856323
-0.16588276624679565 0.22814048826694489 0.05405890941619873
0.13747625052928925 -0.42545846104621887 0.08180802315473557
-0.048850156366825104 0.23063035309314728 0.030032461509108543
0.2948205769062042 -0.10135960578918457 0.006003579590469599
-0.030172444880008698 -0.12130952626466751 0.1691930741071701
0.17085570096969604 0.42761194705963135 0.06814024597406387
0.15063625574111938 0.1349320411682129 0.16782625019550323
-0.19119760394096375 -0.2509682774543762 -0.11849716305732727
-0.2720860540866852 0.18221193552017212 -0.07426979392766953
0.025987885892391205 -0.2538444697856903 0.10168709605932236
0.17161943018436432 0.43532678484916687 0.06442908197641373
-0.2754223346710205 -0.1551520824432373 0.060293734073638916
0.018740510568022728 -0.25124359130859375 0.0799437090754509
-0.22799023985862732 -0.34877800941467285 0.13042303919792175
0.2864774763584137 -0.3824588358402252 0.029873138293623924
0.17179831862449646 0.1112586036324501 0.1696457415819168
0.10611885040998459 -0.24820271134376526 -0.11337791383266449
0.27192026376724243 -0.39389580488204956 -0.06260153651237488
0.2959139347076416 -0.15516920387744904 -0.10189776122570038
0.033882465213537216 -0.15038199722766876 -0.1405106782913208
0.15231357514858246 0.2298475056886673 -0.006556962616741657
-0.33022624254226685 -0.37177929282188416 0.014983385801315308
0.2691121995449066 -0.44613784551620483 0.05095447227358818
-0.1833963394165039 0.3121078610420227 0.0034009909722954035
0.03773203492164612 0.06474923342466354 0.16949771344661713
0.21228337287902832 -0.4506213366985321 -0.014115436002612114
-0.1232040524482727 0.085707888007164 -0.1322171539068222
-0.26996341347694397 -0.13571955263614655 -0.10080301761627197
-0.19879525899887085 0.12219908088445663 -0.13660255074501038
0.17361587285995483 0.423236221075058 0.05314687266945839
-0.25927871465682983 -0.34955671429634094 0.17028318345546722
-0.27396008372306824 0.18092285096645355 0.11283347755670547
-0.32291796803474426 -0.4078368544578552 0.01547926478087902
0.10488411784172058 -0.22140301764011383 -0.13374829292297363
0.10764829069375992 0.14284609258174896 -0.13612337410449982
-0.2572498023509979 0.4077715277671814 -0.05183430016040802
0.2917514443397522 0.3644500970840454 0.0658961609005928
0.1158689484000206 0.047230470925569534 -0.13542307913303375
0.2601354718208313 0.19575484097003937 -0.1366211622953415
-0.14872856438159943 -0.05973660573363304 0.17116448283195496
0.2928520441055298 -0.012306759133934975 0.06038293242454529
-0.17466123402118683 -0.37358057498931885 0.053461503237485886
-0.09550821036100388 0.08509188145399094 -0.1354539692401886
-0.2244098037481308 0.23006731271743774 0.08989503234624863
0.1716344952583313 0.40193507075309753 0.01534199807792902
-0.19588099420070648 -0.15631772577762604 -0.13812147080898285
-0.2719489336013794 -0.14421530067920685 0.01801835559308529
-0.26967114210128784 -0.1126866266131401 -0.09989412128925323
0.02924373745918274 -0.022257579490542412 -0.13549962639808655
0.297355592250824 -0.017069043591618538 0.0686706155538559
-0.07714181393384933 -0.2552490830421448 0.0509147122502327
-0.01357166189700365 0.22855010628700256 0.06251943856477737
0.1648871898651123 -0.27299317717552185 0.01037463080137968
0.22985996305942535 -0.4476299583911896 -0.04604630544781685
0.07349731028079987 -0.2512091100215912 0.09210365265607834
0.2969951331615448 0.005987980868667364 -0.10529503971338272
0.2973713278770447 -0.02960205264389515 -0.02963252179324627
0.2857096195220947 -0.37438178062438965 0.005508605390787125
0.26368871331214905 0.014191756024956703 -0.1354457437992096
0.29736724495887756 0.0032039093784987926 -0.05668716877698898
-0.15773634612560272 0.44076767563819885 0.005782017018646002
0.07922322303056717 -0.04638267308473587 0.1699010133743286
-0.06713967025279999 -0.24858082830905914 -0.0651034489274025
0.297913134098053 -0.12451773881912231 -0.050385378301143646
-0.2025628685951233 -0.43736782670021057 0.062179211527109146
-0.16165681183338165 -0.28083986043930054 0.042442839592695236
0.08417677134275436 -0.2542225122451782 -0.06298115849494934
-0.3060120642185211 -0.35927850008010864 -0.03597621992230415
-0.054467931389808655 0.12801912426948547 -0.13681010901927948
0.2817709743976593 -0.345893919467926 0.08399805426597595
-0.269677072763443 -0.10089587420225143 0.018767695873975754
-0.26723840832710266 0.4116576313972473 0.007157844956964254
-0.15462128818035126 0.12928201258182526 0.17090505361557007
0.04814623296260834 -0.22111710906028748 0.15728473663330078
-0.24007050693035126 0.1480739265680313 -0.13536542654037476
0.2946198582649231 0.15689092874526978 -0.02023114264011383
0.1330592930316925 0.22489644587039948 0.0927763506770134
-0.15950386226177216 0.35798564553260803 -0.006277318112552166
-0.15447266399860382 0.2271299809217453 0.03892039507627487
-0.1601182222366333 0.12455824017524719 0.16963408887386322
0.17699912190437317 0.3711772859096527 0.015658827498555183
0.20135076344013214 -0.16535037755966187 0.16970252990722656
0.29682666063308716 -0.029739564284682274 0.04886689409613609
0.024073630571365356 0.2280169278383255 -0.10609187930822372
-0.27517372369766235 -0.22844111919403076 -0.07944855093955994
-0.13711681962013245 0.22787754237651825 0.12135563790798187
0.29485252499580383 0.45461195707321167 -0.004617063328623772
0.014037271030247211 -0.1020582914352417 0.16762717068195343
-0.09085260331630707 -0.01759250834584236 -0.1344539374113083
0.2973838448524475 -0.0420212484896183 -0.03425290435552597
0.29739516973495483 -0.05359435826539993 -0.05473947152495384
0.2973857522010803 -0.15840986371040344 0.03754579648375511
-0.04758691042661667 -0.2526969611644745 0.05021169036626816
-0.271442711353302 0.18298090994358063 -0.07898017764091492
0.29822060465812683 0.4633137881755829 0.03610191121697426
0.29823407530784607 0.018544167280197144 0.046785276383161545
-0.2976149022579193 -0.4491955637931824 -0.045612361282110214
0.29873958230018616 -0.20489314198493958 0.029245460405945778
0.10450450330972672 0.012790649197995663 -0.13616448640823364
0.013489008881151676 0.20609895884990692 -0.23717187345027924
-0.2115030139684677 0.4226849377155304 0.08528425544500351
-0.27038317918777466 0.1259821653366089 0.0016064033843576908
0.15597817301750183 -0.07179770618677139 0.17237208783626556
-0.27257588505744934 0.08598192036151886 -0.09432893991470337
0.18490828573703766 -0.19223876297473907 -0.13406510651111603
0.185383602976799 0.49147331714630127 0.055455200374126434
-0.09144725650548935 0.11820913106203079 0.16815456748008728
-0.04782896116375923 0.22966034710407257 0.14036692678928375
0.14118333160877228 -0.4145006537437439 0.0031800067517906427
0.10025209933519363 -0.24931524693965912 0.06107205152511597
-0.2714865207672119 0.0729275643825531 -0.10510936379432678
0.09332851320505142 0.08720003068447113 0.1742098480463028
-0.12586714327335358 -0.2521415650844574 0.03663291782140732
0.17365260422229767 -0.3312476873397827 0.08988121151924133
-0.2714083194732666 0.07612808793783188 0.0003247750282753259
0.13966594636440277 0.007465499918907881 0.16575579345226288
-0.16703644394874573 0.2300078272819519 0.13367515802383423
-0.24425376951694489 -0.04728482663631439 -0.2490292638540268
-0.06890508532524109 0.22813056409358978 0.008250225335359573
0.20857147872447968 -0.446407288312912 -0.04739714786410332
0.011078291572630405 0.22811882197856903 -0.04106869548559189
-0.12599988281726837 0.16668111085891724 -0.135270357131958
-0.2756097614765167 -0.016571441665291786 -0.028499731793999672
0.18053458631038666 0.3895721733570099 0.09397123008966446
0.29531535506248474 -0.01636396162211895 0.12777277827262878
0.0392625629901886 0.1349133998155594 -0.13538837432861328
-0.26968732476234436 -0.17507405579090118 0.06741110980510712
0.2997547686100006 -0.22914324700832367 0.10667034983634949
0.2974109947681427 -0.13944301009178162 -0.0213953647762537
-0.17283421754837036 0.04313359782099724 0.16720233857631683
0.0100729214027524 -0.16899238526821136 0.17006462812423706
0.088658407330513 0.12018129974603653 0.1695551574230194
-0.2866359353065491 -0.05921586602926254 -0.26760128140449524
0.29583874344825745 0.3721425533294678 0.03357163071632385
-0.02580205351114273 -0.06380883604288101 0.16949275135993958
-0.12236221134662628 0.18991529941558838 -0.13485437631607056
0.20476290583610535 -0.44965311884880066 0.06402470916509628
-0.024900279939174652 0.06804203987121582 -0.13286875188350677
0.010733687318861485 0.051315173506736755 -0.13922937214374542
0.29312843084335327 -0.14988456666469574 0.10960627347230911
-0.2646287679672241 0.3636816143989563 0.0028960895724594593
-0.13931190967559814 0.09943639487028122 -0.1351524144411087
-0.09933789819478989 -0.11274853348731995 -0.13858644664287567
0.2332550585269928 0.0950668677687645 -0.13536910712718964
0.2247960865497589 -0.2507420778274536 -0.11267217993736267
0.22785678505897522 -0.40400078892707825 -0.09100237488746643
0.29800525307655334 0.08747423440217972 -0.03936868533492088
0.12920327484607697 0.22942595183849335 -0.11540643125772476
0.22904931008815765 -0.44601547718048096 0.13140231370925903
0.2857668399810791 0.4859076142311096 0.07448034733533859
0.2908574044704437 0.33997416496276855 0.033898234367370605
0.13515666127204895 0.06890878081321716 -0.13540604710578918
0.07376319169998169 0.22694064676761627 0.059833280742168427
0.03176739811897278 0.20973508059978485 -0.1632552593946457
-0.06303589791059494 -0.2240752875804901 -0.13541284203529358
-0.20733538269996643 -0.3418886959552765 0.09556647390127182
0.17420418560504913 -0.44668272137641907 0.013892972841858864
-0.07340671122074127 -0.15202219784259796 0.16808657348155975
-0.27173885703086853 -0.02403559908270836 0.05161731317639351
0.21275050938129425 0.5082240700721741 -0.0027949984651058912
0.14669877290725708 -0.2508905827999115 -0.013942048884928226
0.03135636821389198 -0.2253735065460205 -0.13567586243152618
-0.1715293824672699 0.38026562333106995 -0.04469563066959381
-0.15826769173145294 0.1848907172679901 0.15381518006324768
-0.029506254941225052 0.12161191552877426 -0.13541477918624878
0.28919973969459534 0.39432546496391296 -0.05266948416829109
-0.1628195345401764 -0.2509491741657257 0.1364443004131317
0.12313827872276306 -0.206309974193573 0.15736621618270874
-0.0599234402179718 0.03692236542701721 0.17185641825199127
-0.18046747148036957 -0.0626915842294693 0.16945165395736694
-0.19647997617721558 -0.3595588505268097 -0.0636136382818222
0.14916391670703888 -0.3230644762516022 0.010273169726133347
0.2904411554336548 -0.4043444097042084 0.1302427351474762
-0.17654748260974884 -0.12064890563488007 0.1675919145345688
0.2989164888858795 0.04766014963388443 -0.05933665856719017
-0.1927313506603241 0.1573968231678009 -0.1373235434293747
-0.0409565344452858 -0.045489273965358734 0.16947060823440552
0.1784377247095108 -0.3660150170326233 -0.06274151802062988
-0.1603584885597229 -0.3321782946586609 -0.005677308887243271
-0.14488059282302856 -0.2523571252822876 -0.09125247597694397
0.2782345116138458 0.31979623436927795 -0.011954029090702534
0.29736214876174927 -0.016011951491236687 0.025435948744416237
-0.09563892334699631 -0.2517932057380676 -0.021668586879968643
-0.2700504660606384 -0.16794614493846893 -0.10709815472364426
-0.10836882889270782 0.07810819149017334 -0.13434144854545593
0.030024109408259392 0.01085855532437563 -0.13560684025287628
-0.07157958298921585 -0.03836244344711304 0.17263922095298767
-0.20684967935085297 0.4348768889904022 0.08502934128046036
0.09631375223398209 -0.15472756326198578 -0.13644404709339142
0.2059612274169922 0.22869214415550232 0.054508958011865616
0.2659330666065216 -0.15404511988162994 -0.1377890557050705
0.2572772800922394 -0.18672525882720947 -0.13696002960205078
-0.18882769346237183 0.5002886056900024 0.03567434474825859
0.11640477925539017 0.22540929913520813 0.10335673391819
0.22659967839717865 0.22867219150066376 0.11659111827611923
-0.27170220017433167 -0.036534179002046585 0.08686402440071106
0.29739317297935486 -0.11314792186021805 -0.048217810690402985
0.22881437838077545 0.3288905918598175 -0.04414660111069679
0.10939086228609085 -0.13957428932189941 -0.13460831344127655
0.06806699186563492 0.08665645122528076 0.17205096781253815
0.20503732562065125 0.42814901471138 -0.07621483504772186
-0.15776468813419342 -0.047883421182632446 -0.1309748739004135
0.06862495094537735 0.22824408113956451 0.07978255301713943
-0.2728872001171112 0.12993301451206207 0.12009461969137192
0.2939249277114868 -0.14851368963718414 -0.07823050767183304
0.2973586320877075 -0.007907218299806118 -0.008796975947916508
-0.06549755483865738 -0.24850742518901825 0.05643152445554733
-0.1736561357975006 -0.38856860995292664 0.0031422085594385862
-0.16461141407489777 -0.2879040539264679 0.05051977187395096
0.061324067413806915 0.22817514836788177 0.013082636520266533
0.08217351138591766 -0.044926177710294724 -0.13369299471378326
0.1740696281194687 0.4533330202102661 0.049002233892679214
0.24190831184387207 -0.4491618275642395 0.16350848972797394
0.17336450517177582 -0.30875933170318604 -0.04219042509794235
-0.1452011615037918 -0.1237967312335968 -0.1356092095375061
0.21303363144397736 0.17414991557598114 -0.13932842016220093
0.11362895369529724 0.05586401745676994 -0.1337815672159195
0.19357486069202423 0.41514888405799866 -0.06763239949941635
-0.17898759245872498 0.048967838287353516 0.17012889683246613
-0.018303213641047478 0.2279449701309204 -0.11746048927307129
0.20658880472183228 0.23130305111408234 0.06201019510626793
-0.24364396929740906 0.17289286851882935 0.1562892347574234
-0.2723524570465088 0.07689213752746582 0.11132322251796722
0.236837238073349 -0.4535476863384247 0.14998266100883484
0.22155950963497162 0.4481940269470215 0.09941063076257706
-0.2694159150123596 0.1527685970067978 0.0002297199534950778
0.2872242331504822 -0.3715169131755829 0.0528445839881897
-0.16519178450107574 0.4094240069389343 -0.03395570069551468
0.2959018647670746 0.13324624300003052 0.07641758769750595
-0.04211220517754555 -0.07773061096668243 -0.13556718826293945
-0.045114368200302124 -0.17512719333171844 -0.1399127095937729
-0.2289445847272873 -0.2160230278968811 -0.13212786614894867
-0.07347788661718369 -0.2503969073295593 0.05861363932490349
0.13131383061408997 0.12670661509037018 0.17005926370620728
0.2957977056503296 0.12171030789613724 0.13704614341259003
0.16418996453285217 -0.308558851480484 0.05152103677392006
0.22123296558856964 -0.11536940187215805 -0.13385580480098724
0.1391623467206955 -0.3665986657142639 0.05054261535406113
0.27920132875442505 0.17368027567863464 -0.13478460907936096
-0.047172922641038895 -0.12726229429244995 -0.1366720348596573
0.009887424297630787 0.04527067765593529 0.1680198460817337
0.17049665749073029 -0.017534855753183365 0.1695827841758728
-0.23414824903011322 0.2271670550107956 -0.060736142098903656
-0.20553337037563324 -0.45184412598609924 0.045250751078128815
-0.054328348487615585 -0.2496742308139801 0.1338435262441635
-0.2716541290283203 -0.06651412695646286 0.0653659999370575
0.036114465445280075 0.06491081416606903 -0.1354249119758606
0.0052284360863268375 0.12852586805820465 0.16725453734397888
-0.0676814466714859 -0.2514169216156006 -0.07409758120775223
0.13605251908302307 0.2255708873271942 -0.04224017262458801
-0.21672582626342773 -0.3088524341583252 0.08981618285179138
0.19932705163955688 -0.4043790400028229 -0.07555471360683441
0.16032172739505768 0.08207891136407852 -0.13538740575313568
0.1561342030763626 -0.35327842831611633 0.08712519705295563
0.29540523886680603 0.44179078936576843 0.109688401222229
0.2260286509990692 -0.4463837444782257 0.07691608369350433
0.1512138396501541 0.003662107978016138 -0.13846981525421143
-0.036121539771556854 0.2303212434053421 0.04618259146809578
0.2962357997894287 -0.08373037725687027 -0.004358656704425812
-0.271558552980423 0.06983212381601334 0.01944153383374214
-0.2453845739364624 -0.4492870271205902 0.09443142265081406
0.01142870169132948 0.2280946522951126 -0.06820320338010788
0.05447085574269295 -0.12308152765035629 0.16959220170974731
-0.1978169083595276 0.1444951444864273 -0.13541147112846375
0.015498795546591282 -0.2505478858947754 -0.11977772414684296
0.24586115777492523 -0.2298455685377121 -0.1340421587228775
-0.2269764393568039 -0.3929348886013031 0.18147768080234528
-0.1625344455242157 0.43537262082099915 -0.028314001858234406
-0.10917303711175919 0.14473991096019745 0.16948701441287994
0.29630246758461 -0.02291875146329403 -0.09716731309890747
0.12362809479236603 -0.03422102332115173 -0.136347696185112
0.08809547871351242 -0.10713396221399307 0.17171765863895416
0.18395012617111206 0.38633641600608826 -0.04280489683151245
0.15233995020389557 0.05097099766135216 -0.13594460487365723
-0.14863204956054688 0.228086456656456 -0.02279050275683403
0.2973332107067108 -0.175471693277359 0.017099322751164436
-0.27424007654190063 0.12195392698049545 0.004228050354868174
-0.2627027630805969 0.45119085907936096 0.05791178718209267
0.1656617373228073 -0.350935697555542 0.10893017053604126
0.2959911525249481 0.19934046268463135 0.09112299233675003
0.19591160118579865 -0.45009633898735046 0.02488364279270172
0.15966419875621796 -0.3147140145301819 0.05563940480351448
-0.03975725546479225 0.2301967889070511 0.12765376269817352
-0.21369291841983795 0.22831912338733673 0.09334677457809448
0.13693587481975555 -0.4187740981578827 0.12470527738332748
0.008471764624118805 0.006115808617323637 0.16945283114910126
-0.15472224354743958 0.40981313586235046 0.0029322889167815447
0.29584112763404846 -0.0340464748442173 0.13243131339550018
-0.09958909451961517 0.0319538377225399 0.1694345474243164
0.29479679465293884 -0.22554746270179749 -0.03659895807504654
-0.1753387451171875 0.23034127056598663 0.05778462439775467
-0.26884162425994873 -0.32731783390045166 0.1534438580274582
0.2095920890569687 -0.3962065279483795 -0.08385259658098221
0.22932875156402588 -0.22835741937160492 -0.13558514416217804
0.301089346408844 0.3780674338340759 0.046729926019907
-0.023864509537816048 -0.2536899149417877 0.08093485236167908
-0.2715111970901489 0.051299307495355606 -0.10284622758626938
0.024348683655261993 0.06459914147853851 -0.13521908223628998
-0.2654542624950409 0.4201224744319916 0.0069815791212022305
-0.19669662415981293 -0.4074420630931854 -0.04695940762758255
0.23362968862056732 -0.2541731595993042 -0.06954789161682129
-0.27174532413482666 -0.21328093111515045 0.05912225693464279
0.19940920174121857 0.3661462664604187 -0.06381262838840485
-0.15595635771751404 0.3866376280784607 0.028376566246151924
0.2777997851371765 -0.3414665162563324 0.056282225996255875
-0.18625225126743317 -0.2508872151374817 0.13628605008125305
-0.26357337832450867 0.4390595555305481 -0.013838522136211395
-0.2753709554672241 -0.33201107382774353 -0.059956617653369904
0.035177573561668396 -0.09283854812383652 -0.13534153997898102
0.28638955950737 -0.4124705195426941 -0.0012316948268562555
0.10260281711816788 -0.2500646710395813 -0.11016131192445755
0.15155990421772003 -0.13593143224716187 0.16890674829483032
0.06685193628072739 -0.133795365691185 0.16963908076286316
0.2956019937992096 -0.14617426693439484 -0.11208067834377289
0.03431514650583267 0.1421966552734375 -0.2119830995798111
0.16981241106987 0.2261008471250534 -0.03564322367310524
0.12198194116353989 0.22581669688224792 -0.059584569185972214
0.18451473116874695 -0.31836968660354614 -0.05769350379705429
-0.2858145833015442 -0.32057544589042664 0.0031606554985046387
0.1592835783958435 0.22955933213233948 0.044872384518384933
0.0738513320684433 0.2273000031709671 0.03745168820023537
-0.16665059328079224 0.15354207158088684 -0.13513517379760742
-0.2710389792919159 -0.020047996193170547 -0.11277920752763748
0.21823276579380035 0.3286912441253662 -0.04661482572555542
-0.25503459572792053 0.47729751467704773 0.09210473299026489
