0.299459308385849 -0.13331350684165955 -0.12520331144332886
-0.20625028014183044 0.22076299786567688 0.1547136753797531
0.18609684705734253 0.1535239964723587 0.16832566261291504
-0.2653985619544983 -0.09860856086015701 -0.1384778618812561
-0.018762778490781784 0.22958886623382568 -0.09080475568771362
-0.11632034182548523 0.22920309007167816 0.02160429023206234
-0.23087884485721588 -0.4537723660469055 0.12112373858690262
0.21638160943984985 -0.25263625383377075 0.10093455016613007
-0.19506457448005676 0.24240149557590485 -0.022822976112365723
0.2992570400238037 -0.13427646458148956 -0.135740265250206
-0.16992872953414917 0.38861092925071716 0.09407724440097809
-0.32819682359695435 -0.4081301689147949 -0.059135761111974716
-0.11799965798854828 0.2160232663154602 -0.1370457261800766
0.2934478521347046 0.2278057336807251 0.05662020668387413
-0.1260029822587967 -0.24641244113445282 -0.12838083505630493
0.03730829060077667 -0.2505395710468292 0.1441781222820282
-0.24850688874721527 0.22691567242145538 0.12413817644119263
-0.15108266472816467 -0.1809604912996292 0.16623657941818237
-0.27013570070266724 0.2267039567232132 -0.08344542235136032
0.29689037799835205 0.21970748901367188 -0.12079012393951416
-0.1086459830403328 0.15043306350708008 0.16942916810512543
0.21286386251449585 0.48071521520614624 -0.05958569049835205
-0.17902402579784393 0.23758989572525024 0.026301220059394836
0.29704734683036804 0.22329719364643097 0.1334208846092224
-0.25267845392227173 0.4282696545124054 0.12146592140197754
0.261797696352005 -0.2602425813674927 0.006924713030457497
0.26112547516822815 -0.3376927077770233 0.11992385238409042
-0.19863013923168182 -0.4291960299015045 -0.020992092788219452
-0.27198585867881775 0.22766481339931488 -0.08715207129716873
0.06387826055288315 0.12243536114692688 -0.13938644528388977
-0.1278582662343979 0.23021359741687775 -0.12883123755455017
-0.2258411943912506 -0.46767616271972656 0.06246257573366165
0.02867736667394638 0.1836046576499939 -0.2267327904701233
0.032836996018886566 0.07067587971687317 -0.1371283233165741
-0.15809157490730286 0.45293286442756653 0.08716583251953125
-0.17366638779640198 -0.356696218252182 -0.026912230998277664
-0.26394742727279663 -0.25092509388923645 -0.056745704263448715
0.22010809183120728 0.51600182056427 0.06738372147083282
-0.26057136058807373 0.14877630770206451 -0.13622288405895233
-0.24755606055259705 0.4420589506626129 0.11277776956558228
0.21466350555419922 -0.24939803779125214 -0.1352740228176117
0.2953011989593506 0.12418191134929657 -0.13606101274490356
-0.16637414693832397 -0.24579638242721558 0.15635761618614197
-0.1757649928331375 0.35430318117141724 -0.043697111308574677
-0.2681553363800049 0.014956713654100895 -0.1357814073562622
-0.2670775055885315 0.08990947902202606 -0.13351404666900635
-0.08098335564136505 0.22240228950977325 -0.13676422834396362
-0.27055490016937256 -0.010937429964542389 -0.12608551979064941
0.283425897359848 -0.3734159767627716 0.12131928652524948
0.2956421971321106 0.18876975774765015 0.15277895331382751
0.0842636302113533 0.2232864648103714 0.1555199921131134
0.23457813262939453 -0.18879956007003784 0.1575392633676529
0.15988817811012268 0.2242341786623001 -0.1325995922088623
0.2927655577659607 0.005539191886782646 -0.13651973009109497
0.17667457461357117 -0.20123320817947388 0.15346047282218933
0.2944999039173126 0.07916627824306488 0.15065287053585052
0.20144549012184143 0.3180181384086609 0.026060372591018677
-0.20589527487754822 -0.3059763014316559 0.08463204652070999
0.17084579169750214 -0.3227822184562683 0.07942943274974823
0.09254544973373413 -0.24772445857524872 0.1449965238571167
0.06080194562673569 0.21311768889427185 -0.13616612553596497
-0.2606651186943054 0.2098233848810196 -0.13843542337417603
-0.28725433349609375 0.06291977316141129 -0.2989858388900757
0.23217231035232544 -0.4412703216075897 -0.07913085073232651
0.2950288653373718 -0.14156222343444824 -0.13794074952602386
0.007353886961936951 0.15934015810489655 0.1639556735754013
-0.21830695867538452 0.012201428413391113 0.1644892394542694
-0.1508834809064865 -0.02414914220571518 -0.13600724935531616
-0.0804959386587143 0.23047690093517303 -0.13141359388828278
0.29906854033470154 0.22461864352226257 0.056892216205596924
-0.20678214728832245 -0.05118461698293686 0.16891764104366302
-0.1926501989364624 0.35141319036483765 -0.061100952327251434
-0.16778069734573364 -0.3452419638633728 0.03906463831663132
0.17703530192375183 -0.18597730994224548 0.16143466532230377
-0.027240458875894547 -0.06493569165468216 0.16913171112537384
0.27481192350387573 0.3211856484413147 0.05072060972452164
0.006255310028791428 0.15418823063373566 0.16811488568782806
-0.26656222343444824 -0.3241063356399536 -0.06822945922613144
-0.2684122920036316 -0.07192201912403107 0.14572551846504211
0.11377552896738052 0.2145841270685196 0.15694177150726318
-0.2250421792268753 -0.44878333806991577 -0.03741566464304924
0.23994532227516174 -0.001930922269821167 0.16587947309017181
0.15589886903762817 -0.24756816029548645 0.14800187945365906
-0.13297641277313232 0.1482681781053543 -0.13822275400161743
-0.10918436199426651 -0.13537216186523438 0.16881537437438965
-0.26841527223587036 -0.09519809484481812 0.14949578046798706
-0.003942262381315231 0.15004830062389374 0.16600847244262695
-0.10902728140354156 0.2312014251947403 -0.06837686151266098
-0.23255041241645813 -0.3823436498641968 0.1836307942867279
0.1924426108598709 -0.390715628862381 0.17850027978420258
0.29569917917251587 0.39478355646133423 0.11503748595714569
0.06754667311906815 -0.18264712393283844 0.16617439687252045
0.1775466650724411 -0.10217305272817612 0.16783563792705536
-0.26408272981643677 -0.10067906230688095 0.15554875135421753
-0.2700168788433075 0.0010463036596775055 0.14751482009887695
-0.2692287862300873 -0.09364688396453857 0.1529064178466797
0.07911093533039093 -0.24878118932247162 -0.006618870887905359
0.19272221624851227 0.42882904410362244 0.1161099225282669
0.0812872052192688 -0.005034029483795166 -0.13914762437343597
0.2857706844806671 0.16967201232910156 -0.13699758052825928
0.1889333724975586 0.3382261097431183 -0.02239779755473137
0.2569841742515564 -0.1876627802848816 0.1521642655134201
-0.26415351033210754 0.04841769114136696 0.1558932214975357
-0.20623329281806946 0.5017128586769104 0.09072618931531906
-0.1775396764278412 -0.27544382214546204 -0.04072941094636917
0.17779560387134552 -0.4446638226509094 -0.0534888431429863
-0.2711511552333832 0.15175370872020721 0.1517651081085205
-0.2707318067550659 0.05983969569206238 -0.13833537697792053
-0.2320627123117447 -0.4230363667011261 0.19353421032428741
0.24011048674583435 0.11275003850460052 0.16771619021892548
0.2948704659938812 0.10373496264219284 0.15345975756645203
-0.18853025138378143 -0.2548295855522156 -0.05319565534591675
0.22993998229503632 0.456187903881073 -0.08404538780450821
-0.273958683013916 -0.018413346260786057 -0.13513348996639252
0.0022451234981417656 0.18982818722724915 -0.13910304009914398
0.2685408294200897 -0.38269978761672974 0.1812237799167633
-0.025362515822052956 -0.13662326335906982 -0.1394098401069641
0.29366615414619446 -0.1493377685546875 -0.13648344576358795
0.28883591294288635 0.029890025034546852 0.1584915816783905
-0.21139752864837646 0.004339797422289848 0.1683460921049118
0.210017591714859 0.23322901129722595 -0.005092314910143614
0.2939165234565735 -0.15506678819656372 -0.13649456202983856
0.22351935505867004 0.23284386098384857 0.05728621780872345
0.2448039948940277 -0.4406227767467499 -0.0824766457080841
0.2695713937282562 -0.4462932348251343 0.13533012568950653
0.2720922827720642 0.4620356857776642 -0.06725414097309113
0.10525088012218475 -0.2508877217769623 -0.01937766931951046
-0.2143937051296234 -0.0806104764342308 0.16536985337734222
-0.10736138373613358 0.21133393049240112 -0.13917997479438782
-0.2733209729194641 -0.09351874887943268 -0.1341160088777542
0.2904326915740967 0.059709470719099045 -0.13550156354904175
0.2932792007923126 0.23094739019870758 0.020086325705051422
0.26240968704223633 0.3447778820991516 -0.06878501921892166
-0.21136876940727234 -0.20318223536014557 0.15444141626358032
-0.18174663186073303 -0.00971666444092989 0.1717052161693573
0.24946105480194092 -0.1252167671918869 0.16051733493804932
-0.25641945004463196 0.14036816358566284 0.15636275708675385
-0.2724228501319885 -0.035026341676712036 -0.13804484903812408
-0.2511083781719208 0.47253090143203735 0.11262467503547668
-0.2694259285926819 0.23070020973682404 0.019132358953356743
0.29423829913139343 -0.24586863815784454 -0.09890393167734146
-0.24923528730869293 0.3354548215866089 0.03867359086871147
0.2415662705898285 -0.11000171303749084 0.16835083067417145
0.29512661695480347 0.15951132774353027 -0.12430693954229355
0.12158578634262085 -0.254013329744339 -0.10757488012313843
0.05585339665412903 0.12159188091754913 -0.1384417712688446
0.27840036153793335 -0.39481231570243835 0.1868404746055603
-0.02692996710538864 -0.20422209799289703 0.15458619594573975
0.28558245301246643 0.181446373462677 -0.13759750127792358
-0.08008892834186554 0.07776542007923126 -0.1374405175447464
0.2601841390132904 0.233259379863739 -0.03704121336340904
0.227210134267807 0.07019469887018204 0.16628505289554596
-0.2573910355567932 0.45906081795692444 0.02073608711361885
0.2912857234477997 -0.14643509685993195 -0.1361379623413086
0.24120956659317017 -0.4000774919986725 -0.08998100459575653
0.23802614212036133 -0.4471190869808197 0.19020263850688934
-0.0968727245926857 -0.25121772289276123 0.05557897686958313
0.24192839860916138 0.10410644114017487 0.16492034494876862
-0.26481929421424866 -0.07029896974563599 -0.13785351812839508
0.19923627376556396 0.23092427849769592 0.001966684591025114
-0.2683039605617523 -0.017332620918750763 0.1548633575439453
0.2397182285785675 -0.27305832505226135 0.07891467958688736
0.2593437135219574 -0.400574654340744 -0.08250941336154938
0.039643872529268265 0.1702270209789276 0.15708576142787933
0.2886999249458313 -0.2502981722354889 0.07855706661939621
0.29689309000968933 0.06016084924340248 0.1518349051475525
0.2726084887981415 0.3126126229763031 0.028390534222126007
-0.27217137813568115 0.036198511719703674 -0.12653104960918427
0.1907968521118164 0.22186201810836792 -0.13539095222949982
0.21836605668067932 0.22722557187080383 -0.11649753153324127
-0.2680191993713379 0.040395621210336685 -0.13651984930038452
0.1985846608877182 -0.4456813633441925 0.05844935029745102
0.2961750626564026 -0.21980354189872742 0.022789765149354935
0.08995197713375092 -0.14424163103103638 -0.13982273638248444
0.1941900998353958 0.49996867775917053 0.014949610456824303
0.28940895199775696 -0.19933663308620453 -0.13848356902599335
0.2386845350265503 -0.011128928512334824 0.17030319571495056
-0.2638656497001648 0.1365676373243332 -0.13651812076568604
0.21843375265598297 0.3324551582336426 0.07283364981412888
-0.1206631138920784 0.18222473561763763 0.15520106256008148
0.09289312362670898 0.16666463017463684 0.1593962162733078
0.2946770191192627 -0.19133856892585754 0.14909809827804565
-0.25764042139053345 0.2265644073486328 0.04926242306828499
0.29110318422317505 0.22797740995883942 -0.13561420142650604
-0.12199404835700989 -0.08263751864433289 -0.13817863166332245
0.29217854142189026 -0.15945777297019958 -0.13708744943141937
0.30087241530418396 -0.24591578543186188 -0.04997067153453827
-0.04596211761236191 0.2194652110338211 0.1586114913225174
0.2935926914215088 0.2035353183746338 -0.1381315290927887
0.05435328930616379 -0.17462188005447388 0.16938656568527222
0.2884799838066101 -0.18422356247901917 -0.13560530543327332
0.19416095316410065 0.4413135349750519 0.11110787093639374
-0.2682567238807678 0.16528621315956116 0.15173214673995972
-0.2043733447790146 -0.20071236789226532 0.15416014194488525
0.2894390821456909 -0.1230294406414032 0.15827977657318115
-0.16316771507263184 0.4429313540458679 0.023257654160261154
-0.2700437903404236 0.009784620255231857 -0.13730478286743164
0.11714668571949005 -0.23581016063690186 -0.1347895860671997
-0.27085331082344055 0.2257755696773529 -0.00014916248619556427
0.2789826989173889 -0.2475186437368393 0.15371517837047577
-0.30551114678382874 -0.31667786836624146 0.16856388747692108
-0.22667400538921356 -0.47042953968048096 0.05752332881093025
-0.2704104781150818 0.1511324644088745 0.13688702881336212
-0.2699562907218933 -0.21820379793643951 -0.1356872022151947
-0.22726455330848694 -0.4679054915904999 0.08159492909908295
0.13618037104606628 0.12747390568256378 0.1669233739376068
-0.2507629692554474 -0.19898317754268646 0.15494020283222198
0.2716863751411438 0.07620376348495483 -0.13894295692443848
-0.2694443166255951 0.001711040735244751 0.019353605806827545
-0.31712767481803894 -0.3632049560546875 0.17419299483299255
-0.2705979645252228 -0.24860551953315735 -0.11724020540714264
0.08656465262174606 0.22749656438827515 0.15026551485061646
0.2149871289730072 0.17486640810966492 0.15131297707557678
-0.2658650279045105 0.22739583253860474 0.011168835684657097
-0.14332887530326843 -0.25252339243888855 0.021321116015315056
-0.2628438472747803 -0.1526121348142624 -0.13463374972343445
-0.27019962668418884 -0.24159154295921326 0.0506831631064415
0.21562263369560242 0.3476388156414032 0.11251745373010635
0.28508269786834717 -0.25099673867225647 0.07370241731405258
-0.1493748128414154 0.22557500004768372 -0.1360650658607483
-0.007103471085429192 -0.24747353792190552 0.1576429307460785
-0.2615509629249573 0.4417459964752197 0.11080469191074371
0.15152135491371155 -0.4026326835155487 0.1638868749141693
0.2961445450782776 -0.06644661724567413 -0.13663651049137115
0.24108636379241943 0.23363186419010162 -0.03907174989581108
-0.3327731788158417 -0.37661024928092957 0.014924105256795883
-0.005005557555705309 0.1806696653366089 -0.1393425464630127
0.19251304864883423 0.1776518076658249 0.15160971879959106
-0.27290189266204834 -0.12316294014453888 -0.12791167199611664
0.17489789426326752 -0.4076188802719116 0.1871359944343567
0.17575804889202118 0.4324115514755249 0.09766775369644165
-0.03828336298465729 -0.08018456399440765 -0.13790912926197052
0.24186217784881592 0.05505482479929924 0.1671331226825714
0.2634039521217346 -0.4101428687572479 0.1989208161830902
0.24725781381130219 0.0633954182267189 0.1608191430568695
0.2961452603340149 0.2094590812921524 0.15325075387954712
-0.21425434947013855 -0.44901764392852783 0.12664107978343964
-0.01138352882117033 0.29445967078208923 -0.2450874000787735
0.2634764611721039 -0.40514421463012695 0.19655965268611908
0.20953084528446198 0.3810293674468994 -0.0846521183848381
0.28875356912612915 0.16570159792900085 0.15680131316184998
0.1623920053243637 0.07015859335660934 -0.13923312723636627
0.037525489926338196 0.12931890785694122 -0.20812414586544037
0.15214598178863525 0.179195374250412 0.1527302861213684
0.2950516939163208 0.2279055416584015 0.1227438673377037
0.24158993363380432 -0.036577191203832626 0.16764575242996216
0.24095575511455536 0.3550563156604767 -0.080096535384655
-0.2648548185825348 0.08254677057266235 -0.13426423072814941
-0.27245742082595825 -0.10953638702630997 -0.12853065133094788
-0.2605549693107605 -0.29244348406791687 0.03548581153154373
0.16595441102981567 -0.20714113116264343 0.155622199177742
-0.2676464319229126 0.0009489390067756176 -0.13427825272083282
0.2524496912956238 -0.3262181878089905 0.11709602177143097
0.29320019483566284 0.19375164806842804 -0.1353432536125183
0.2579892873764038 -0.33947625756263733 0.1273171454668045
-0.2914222180843353 -0.4319346845149994 -0.09215280413627625
0.12746647000312805 0.2242257297039032 0.14725196361541748
0.19256502389907837 0.16421888768672943 0.16332271695137024
-0.25052982568740845 0.008291564881801605 -0.13771562278270721
-0.17387226223945618 0.33317264914512634 0.016104990616440773
0.19199208915233612 0.22163456678390503 0.15304768085479736
0.1765853613615036 0.4105539321899414 0.10086371749639511
0.28886324167251587 -0.07239789515733719 -0.13706596195697784
-0.3334711492061615 -0.40199294686317444 0.0037102820351719856
-0.025877920910716057 0.22523461282253265 0.15696260333061218
-0.1735682189464569 -0.37122100591659546 0.0029011592268943787
-0.2671952247619629 0.22769695520401 0.12626056373119354
-0.2722152769565582 -0.22064706683158875 -0.12777982652187347
0.25309261679649353 -0.4244464635848999 0.2040930688381195
-0.01435057818889618 0.1874898076057434 -0.13861173391342163
0.24054133892059326 0.00046563148498535156 0.1673489511013031
0.2902451753616333 0.22412633895874023 -0.1358088254928589
-0.20502904057502747 0.2300163060426712 0.08609414100646973
-0.26943880319595337 0.04817129671573639 -0.13791655004024506
0.07628373801708221 0.23072069883346558 -0.13675068318843842
0.2597309350967407 0.22796274721622467 0.12494845688343048
-0.2702418267726898 0.06247938424348831 -0.1361110359430313
0.28946948051452637 0.1717938780784607 0.15765425562858582
0.2791757881641388 0.4452551603317261 0.12672853469848633
-0.1203414723277092 -0.21220427751541138 -0.13457587361335754
0.2901434898376465 -0.04134403169155121 0.15824060142040253
0.21923188865184784 -0.2766869068145752 0.08179247379302979
0.14837568998336792 -0.24108238518238068 0.156712144613266
0.2883104979991913 0.4548863470554352 0.12564165890216827
0.21471953392028809 0.16941222548484802 0.16051343083381653
-0.2508692145347595 -0.3496590554714203 -0.09348179399967194
0.2975286841392517 0.009475665166974068 -0.12913747131824493
-0.2705036997795105 0.1727694869041443 0.1560344099998474
0.15317915380001068 -0.3673575818538666 0.11870458722114563
-0.27187129855155945 0.20879267156124115 0.141626238822937
-0.08767734467983246 -0.24866220355033875 -0.12681971490383148
0.22526437044143677 0.03735671937465668 -0.13979022204875946
-0.010669320821762085 0.06709331274032593 -0.1376175433397293
0.048871152102947235 -0.23626214265823364 -0.1381097435951233
0.28594812750816345 -0.19320663809776306 -0.13724443316459656
0.1748034656047821 -0.2413093000650406 -0.13722847402095795
-0.3301622271537781 -0.41467317938804626 -0.03995651751756668
0.25764763355255127 -0.10854202508926392 0.15220530331134796
0.014546487480401993 0.18203739821910858 0.15626151859760284
0.23862749338150024 0.09217333793640137 -0.1396472454071045
0.05027947574853897 0.23078802227973938 0.14361079037189484
0.3019331991672516 0.43888601660728455 0.03637299686670303
-0.27211618423461914 0.2146967202425003 -0.02843189239501953
-0.05653803050518036 -0.2345542460680008 -0.13800132274627686
0.28437340259552 -0.09619665145874023 -0.13729068636894226
-0.21279999613761902 -0.4405786693096161 0.14307408034801483
-0.10430529713630676 -0.05463353171944618 0.16746112704277039
0.2655715048313141 0.36795860528945923 -0.08306971937417984
0.19811251759529114 0.23210103809833527 0.01902392879128456
0.2946837246417999 0.047351814806461334 0.15410594642162323
0.1564338207244873 0.2245790958404541 -0.13886268436908722
0.19817684590816498 0.3826428949832916 -0.07337485253810883
-0.013048293069005013 0.18422742187976837 -0.13565820455551147
0.2898843288421631 -0.4316628575325012 0.15997104346752167
-0.03638792410492897 0.11885692924261093 -0.15547464787960052
-0.19414952397346497 0.17975743114948273 0.15371470153331757
0.2862853705883026 -0.3869844675064087 0.14017705619335175
0.20292063057422638 0.23296168446540833 0.0023943521082401276
0.1775595247745514 0.4503172039985657 -0.0046991994604468346
0.29608166217803955 -0.07143079489469528 0.1575629711151123
0.0018833965295925736 0.09804286807775497 -0.1626528799533844
-0.2687074542045593 -0.23294347524642944 0.009255274198949337
0.09589583426713943 -0.25289732217788696 0.0499909445643425
0.20451654493808746 0.2196706235408783 0.15448032319545746
0.29558438062667847 0.08864226937294006 0.14479325711727142
-0.2598103880882263 0.44914916157722473 0.11321244388818741
-0.2681887447834015 -0.006082907319068909 -0.13858498632907867
0.2602981626987457 -0.08804398030042648 0.1546296626329422
0.291288822889328 0.12712310254573822 -0.13661900162696838
0.2982449531555176 -0.03835935890674591 0.14804628491401672
0.11389477550983429 0.15621036291122437 0.16899529099464417
-0.26392894983291626 0.17515085637569427 0.15879526734352112
0.29622799158096313 0.10822762548923492 0.15449750423431396
-0.2551383078098297 -0.285349577665329 0.04046078026294708
0.2941068112850189 -0.21818062663078308 0.152564138174057
0.2901054322719574 0.4693818688392639 -0.005781751126050949
0.2941223382949829 -0.20464196801185608 0.14899995923042297
-0.2724580466747284 -0.4721102714538574 -0.03868168592453003
0.2953531742095947 0.2288823425769806 0.1199866533279419
0.20634238421916962 0.23114655911922455 -0.13714002072811127
-0.26920008659362793 -0.23220773041248322 0.0486607626080513
0.22870294749736786 0.5091498494148254 0.10931853950023651
0.25199684500694275 -0.011200778186321259 0.15412837266921997
0.16022992134094238 0.2308099865913391 -0.1286155730485916
0.3002554178237915 -0.15087507665157318 0.14919860661029816
0.2384655624628067 0.5187231302261353 0.07974648475646973
-0.07949705421924591 0.15616324543952942 0.16841325163841248
-0.26341891288757324 -0.05704045668244362 -0.139137402176857
-0.21506264805793762 -0.35372209548950195 0.11845090985298157
-0.10409307479858398 0.2136145979166031 0.15737344324588776
0.19374004006385803 0.17572201788425446 0.15185487270355225
0.2823641896247864 0.3743625283241272 0.12412671744823456
0.23292042315006256 0.08077521622180939 0.16905388236045837
0.2463640421628952 -0.2843954861164093 0.08119162172079086
-0.2643837332725525 -0.3817376494407654 -0.0947730541229248
0.23489513993263245 0.01063523255288601 0.16761183738708496
0.2942090928554535 0.009508464485406876 0.15683674812316895
-0.17695161700248718 0.23120130598545074 0.039833053946495056
-0.2712336778640747 0.09857496619224548 -0.11979636549949646
-0.2671167552471161 -0.12678830325603485 -0.13584941625595093
0.29720672965049744 -0.05753294751048088 0.14757570624351501
-0.26718056201934814 -0.06475437432527542 -0.13581888377666473
0.04645461216568947 -0.05492361634969711 -0.13839836418628693
-0.27365991473197937 -0.14625100791454315 -0.13555678725242615
-0.27003157138824463 0.14973343908786774 -0.14029783010482788
-0.22030702233314514 -0.0031060315668582916 0.16724194586277008
-0.16057634353637695 0.43023523688316345 0.09203101694583893
0.1827269196510315 -0.25404682755470276 -0.0425318218767643
-0.03736547380685806 0.034404974430799484 -0.13786840438842773
-0.2637235224246979 0.12255953252315521 0.15877847373485565
-0.22874003648757935 -0.3946656584739685 0.18281275033950806
0.05440698564052582 0.20179229974746704 -0.19916899502277374
0.09117232263088226 0.2278415560722351 0.14180883765220642
-0.16128681600093842 0.4497247040271759 0.035533659160137177
0.2940502166748047 0.035979922860860825 -0.13534191250801086
-0.10230869054794312 -0.06655716150999069 0.16839908063411713
-0.1690419316291809 0.4086531400680542 0.09224457293748856
-0.07185877859592438 0.22189630568027496 0.15785592794418335
-0.16414907574653625 0.21480214595794678 0.15670785307884216
-0.22120700776576996 0.49269524216651917 -0.028361141681671143
-0.26488572359085083 0.21327172219753265 0.15813010931015015
-0.08816322684288025 0.10833252966403961 -0.1377715766429901
-0.2861706018447876 -0.3511504530906677 0.20147240161895752
-0.25509941577911377 0.38248324394226074 0.11211003363132477
0.28247135877609253 0.4751054048538208 0.12735897302627563
0.2966651916503906 0.2251114398241043 -0.12314799427986145
0.2951356768608093 0.16474656760692596 0.15465247631072998
-0.2721501886844635 -0.14799490571022034 -0.0030142515897750854
0.256473183631897 -0.08869807422161102 0.153753861784935
-0.2734197974205017 -0.07937564700841904 -0.13458506762981415
0.1452583372592926 -0.41872072219848633 -0.02176034264266491
0.28628963232040405 0.23130694031715393 -0.05244683101773262
0.29532721638679504 0.07987721264362335 0.1520756185054779
0.23051640391349792 0.2295772135257721 -0.13399745523929596
0.23546622693538666 -0.31031888723373413 -0.07676610350608826
0.21134060621261597 0.22424696385860443 0.14978644251823425
-0.2677309513092041 0.1113976463675499 -0.1259685456752777
-0.10408427566289902 -0.02556775137782097 0.17101240158081055
-0.2586975395679474 -0.24879856407642365 0.11080504953861237
-0.1750657558441162 0.37276116013526917 0.09481416642665863
0.10259168595075607 -0.25319942831993103 0.015909140929579735
0.031247690320014954 -0.086829774081707 0.16802163422107697
0.28433847427368164 0.45082804560661316 0.13068270683288574
-0.03695685416460037 0.1764843463897705 -0.199296772480011
-0.24420154094696045 0.315489798784256 0.026187017560005188
-0.25305527448654175 -0.4811928868293762 -0.03952246904373169
-0.27302658557891846 0.1323889195919037 -0.13610170781612396
0.28749871253967285 0.1765892505645752 -0.13766497373580933
0.2795179486274719 -0.4470032751560211 0.10051026940345764
0.19319278001785278 0.05181374400854111 0.1691301316022873
0.08240938186645508 -0.16001786291599274 -0.13913841545581818
0.20220205187797546 0.23150520026683807 0.008760836906731129
0.297635555267334 0.027660459280014038 -0.12960496544837952
-0.004220996052026749 0.15263985097408295 0.1690191626548767
0.2420007437467575 -0.25183016061782837 0.14993822574615479
0.027325760573148727 -0.20469804108142853 0.1550883948802948
0.19477401673793793 0.4348939061164856 0.11412996053695679
0.15246672928333282 -0.41324952244758606 0.17125631868839264
0.2963014543056488 -0.09746038913726807 0.1511063128709793
0.29698312282562256 -0.13073872029781342 -0.1362185776233673
-0.29443544149398804 -0.4574083685874939 -0.06638091802597046
0.2947159707546234 -0.0875106230378151 -0.1366616040468216
-0.24992237985134125 0.49015000462532043 0.071369968354702
-0.26280465722084045 -0.3345372676849365 -0.0799858495593071
0.2217041254043579 -0.44372424483299255 -0.07349033653736115
0.2970886528491974 0.08916269242763519 0.1494850367307663
0.2780959904193878 0.4419917166233063 -0.0643526166677475
-0.28415587544441223 -0.03699566051363945 -0.28555718064308167
0.2898860573768616 0.2301512062549591 -0.1263662427663803
0.2818271517753601 0.0778389424085617 0.15856386721134186
-0.2668469548225403 -0.21027661859989166 -0.13582327961921692
-0.30981916189193726 -0.378470242023468 -0.058204758912324905
-0.0008672932162880898 0.15174561738967896 -0.2194192111492157
0.21180638670921326 0.23132915794849396 -0.12502336502075195
0.23935312032699585 -0.008234208449721336 0.16920286417007446
0.19590698182582855 -0.44551384449005127 -0.0664706900715828
0.2420332133769989 -0.38156428933143616 0.17919376492500305
0.26095959544181824 -0.11272285878658295 0.1559220552444458
0.3000010848045349 0.00536899222061038 -0.1279442459344864
0.0598614327609539 0.2235586792230606 0.1560075283050537
-0.16805893182754517 0.2288326621055603 -0.12837913632392883
-0.10054700076580048 -0.24410763382911682 -0.13603679835796356
0.17461082339286804 -0.2496034801006317 0.1452120840549469
0.14857222139835358 -0.4464154839515686 0.08007846772670746
0.27831563353538513 0.4979585111141205 0.02070925012230873
0.06035062298178673 0.1601194590330124 0.16777494549751282
0.29008036851882935 0.22416195273399353 0.15350060164928436
0.2951246500015259 0.04524897783994675 0.1557644009590149
-0.12219097465276718 0.22378382086753845 -0.13813242316246033
0.08405764400959015 -0.22564807534217834 -0.13669222593307495
0.16926218569278717 -0.2490576207637787 -0.13012871146202087
0.2892864942550659 -0.19656769931316376 -0.13668666779994965
-0.216740220785141 0.39154893159866333 -0.07944272458553314
0.2971850335597992 -0.236846923828125 0.034605421125888824
-0.21234658360481262 -0.027086563408374786 0.16810479760169983
0.20068570971488953 0.23171836137771606 0.01451560202986002
0.1952366828918457 0.45310062170028687 0.11433142423629761
0.290903776884079 0.45319491624832153 0.12402459979057312
0.2371278703212738 -0.057664964348077774 0.16870945692062378
-0.23121148347854614 -0.4084799885749817 0.19374799728393555
0.2921522557735443 0.012844927608966827 -0.13510017096996307
-0.21879658102989197 -0.44074225425720215 0.14330142736434937
0.18721283972263336 -0.2635975182056427 0.058597683906555176
-0.06519623845815659 -0.25283083319664 -0.0756673812866211
-0.18090300261974335 0.22964990139007568 -0.10425417125225067
0.18388232588768005 0.007877815514802933 0.1681818962097168
-0.26097723841667175 -0.1622810810804367 -0.1352323591709137
-0.19237516820430756 -0.32656359672546387 -0.05625009536743164
0.28691741824150085 0.43441736698150635 0.1289922595024109
-0.2703346014022827 -0.06209361180663109 -0.12282143533229828
0.19330883026123047 0.23162542283535004 -0.04027772322297096
0.29922252893447876 -0.09474945068359375 -0.125562846660614
0.07329347729682922 -0.25182875990867615 0.08068186044692993
0.14303933084011078 0.1521795094013214 0.16674885153770447
-0.27003493905067444 0.0011194795370101929 0.1484670639038086
-0.27308404445648193 0.2201371192932129 -0.09888096153736115
0.15701836347579956 0.18209923803806305 0.15552739799022675
-0.15452197194099426 -0.25443699955940247 0.041833773255348206
0.29401063919067383 -0.05072932690382004 -0.1373588740825653
-0.25042837858200073 0.3544420003890991 -0.04605631157755852
-0.24014177918434143 -0.47142472863197327 -0.0276931319385767
-0.21238744258880615 0.44048061966896057 0.08906552195549011
0.2863873541355133 0.22440192103385925 -0.135144904255867
-0.22717192769050598 -0.1025591790676117 0.1546182781457901
0.2932135760784149 -0.04378337413072586 0.157765194773674
-0.2092856615781784 -0.18677778542041779 0.159896120429039
0.28199145197868347 0.4920356273651123 0.11517132073640823
0.16530179977416992 -0.17804019153118134 0.17015711963176727
0.15193164348602295 0.17760777473449707 0.15276767313480377
-0.2814415395259857 -0.4598051607608795 -0.03452114388346672
0.2979273200035095 -0.0964101254940033 0.1445242315530777
-0.09737798571586609 -0.20193496346473694 0.1547664999961853
0.2392958551645279 0.0086950259283185 0.16840873658657074
0.2129058539867401 0.4776577055454254 0.10860496014356613
-0.27072811126708984 -0.001487884670495987 -0.1368696391582489
0.13448113203048706 -0.4311230480670929 0.06929867714643478
0.2870766818523407 0.20749148726463318 0.15639185905456543
0.28672078251838684 0.2286226600408554 -0.04445338621735573
-0.1138230413198471 -0.20176991820335388 0.15455764532089233
0.29674455523490906 0.11103968322277069 -0.13423438370227814
-0.07932794094085693 0.22048480808734894 -0.13637210428714752
0.16400285065174103 -0.2025558352470398 0.15278932452201843
0.24049511551856995 -0.14343789219856262 0.1689598262310028
-0.18601077795028687 -0.23814350366592407 0.1587168574333191
-0.21945302188396454 -0.4637225568294525 0.060576289892196655
0.05152418464422226 0.08312787115573883 -0.13679495453834534
-0.1480836123228073 -0.25567910075187683 0.023406654596328735
0.2873106598854065 0.42556828260421753 0.1293545961380005
-0.2684370279312134 0.08965335041284561 0.15577811002731323
0.03266005218029022 0.23140022158622742 0.06185987591743469
0.1708884984254837 -0.42201468348503113 0.19014416635036469
0.2506619989871979 -0.25657448172569275 -0.005964825861155987
0.29482829570770264 0.15480981767177582 0.15568439662456512
-0.27090632915496826 0.1368435025215149 -0.13523617386817932
-0.22863593697547913 -0.27669525146484375 -0.055569976568222046
0.2813379168510437 -0.38196516036987305 -0.0006222482770681381
0.17533858120441437 -0.2421005815267563 0.1576157808303833
-0.230826735496521 0.06678657233715057 0.15339447557926178
-0.2670050263404846 -0.0621834360063076 -0.13911664485931396
0.2071680724620819 0.28974324464797974 0.00427850941196084
0.29635554552078247 -0.05814492702484131 0.14631682634353638
-0.27177491784095764 0.142667755484581 -0.13644808530807495
-0.2702055275440216 0.19733363389968872 0.14979004859924316
0.24530327320098877 -0.3768099844455719 0.1750064343214035
0.2811696231365204 -0.36748698353767395 0.13203918933868408
0.17090725898742676 -0.18408465385437012 0.16692644357681274
0.18240419030189514 -0.24488390982151031 -0.13720989227294922
-0.26752740144729614 -0.08117716759443283 0.07185205817222595
0.058514613658189774 0.12672246992588043 -0.1390923410654068
0.23965607583522797 0.2330624759197235 0.05071939527988434
0.2041902244091034 0.33488065004348755 -0.04398081824183464
0.2829534709453583 0.3723011910915375 -0.06708690524101257
0.2343643754720688 0.2255449742078781 -0.1333421766757965
0.2967206835746765 0.06469645351171494 -0.13584840297698975
0.2895500659942627 -0.20061780512332916 -0.1353318691253662
0.14172694087028503 0.004615630954504013 -0.13709966838359833
0.2811470627784729 0.22794272005558014 0.13767997920513153
-0.27203071117401123 -0.11971408873796463 -0.13380517065525055
-0.2615099549293518 -0.05108778923749924 0.1566876769065857
-0.3308626711368561 -0.4091755151748657 -0.05010296404361725
0.17272725701332092 0.22253486514091492 -0.1372608095407486
0.12443466484546661 -0.11531420052051544 -0.1377507895231247
-0.2616894841194153 0.04540782421827316 0.1574711799621582
0.28733697533607483 0.22925712168216705 -0.07088504731655121
-0.06281080096960068 0.2181975245475769 -0.1368769407272339
-0.22385722398757935 0.23442129790782928 -0.033299047499895096
0.2812831401824951 -0.12627030909061432 -0.13945887982845306
0.26816824078559875 0.41347619891166687 -0.0857122391462326
0.15389111638069153 -0.2480686902999878 -0.14018064737319946
-0.2675723731517792 0.1408817321062088 0.152094766497612
0.2952699065208435 -0.21360395848751068 0.151723712682724
-0.2363392859697342 -0.15234549343585968 0.15417198836803436
0.22898389399051666 -0.18754367530345917 0.1593136340379715
-0.19834354519844055 -0.24698419868946075 -0.09391582012176514
-0.2278582900762558 -0.2504906952381134 -0.1284548044204712
-0.273936003446579 -0.10075504332780838 -0.13253609836101532
-0.284472793340683 -0.41405385732650757 0.10758746415376663
0.2987082898616791 -0.12650693953037262 -0.12070339918136597
-0.1844152957201004 0.3109329640865326 -0.002573492703959346
0.20702418684959412 0.23171710968017578 0.04076741263270378
0.28733086585998535 0.11653049290180206 -0.13602754473686218
-0.04624955356121063 0.15673521161079407 0.16590836644172668
0.24504181742668152 -0.07663512229919434 0.16428856551647186
-0.20691123604774475 0.23541679978370667 -0.031262245029211044
0.028735078871250153 0.1876131296157837 -0.13943985104560852
0.262432724237442 -0.406728059053421 0.19688168168067932
-0.32786819338798523 -0.36060088872909546 0.14164459705352783
0.29066258668899536 -0.20303605496883392 -0.13729524612426758
-0.32678285241127014 -0.423967182636261 -0.048361700028181076
0.09025191515684128 0.22885407507419586 0.14354640245437622
-0.12101026624441147 0.22870178520679474 -0.13918426632881165
0.29195335507392883 -0.006280634086579084 -0.13557355105876923
-0.11444900184869766 -0.24495255947113037 0.15720821917057037
0.27415651082992554 -0.4435116946697235 0.1929214894771576
-0.056924741715192795 0.22118981182575226 0.15836642682552338
-0.23943418264389038 -0.4688052237033844 0.05430915206670761
0.13216522336006165 -0.06318666785955429 -0.13732324540615082
-0.023662738502025604 0.10879673063755035 0.16796661913394928
0.19367609918117523 0.40168771147727966 0.11598613113164902
-0.15470696985721588 -0.29417166113853455 0.011629166081547737
-0.03901168704032898 -0.15967874228954315 -0.13772927224636078
-0.054545897990465164 -0.20436891913414001 0.15623798966407776
0.25777631998062134 0.3177727460861206 0.05324191227555275
0.29170894622802734 0.052325181663036346 -0.13512176275253296
0.09342841804027557 0.22818879783153534 -0.1376466453075409
-0.2079416811466217 -0.14390388131141663 -0.13816045224666595
-0.0038184099830687046 0.22309283912181854 -0.17369839549064636
-0.19458481669425964 0.2353152185678482 0.052837200462818146
0.06856964528560638 0.0607941560447216 -0.13817350566387177
0.18840926885604858 0.3685357868671417 0.09787597507238388
-0.2654486894607544 -0.07923130691051483 -0.1380213499069214
-0.25792890787124634 0.08671166747808456 0.15790924429893494
-0.0920344740152359 -0.24616673588752747 -0.13464801013469696
-0.24604009091854095 0.0014779707416892052 -0.2586454749107361
0.05077558010816574 0.1834673285484314 -0.14023391902446747
0.29461655020713806 0.22470158338546753 0.13273724913597107
0.28036388754844666 -0.36509189009666443 0.12062478065490723
-0.27334079146385193 -0.07409939169883728 0.14783482253551483
0.18751488626003265 0.37901660799980164 0.10371436178684235
0.28574123978614807 0.22903572022914886 -0.132746160030365
0.03754283860325813 -0.1813967227935791 0.16408215463161469
0.18677562475204468 0.22555696964263916 0.14931166172027588
-0.09263183921575546 0.1516520380973816 0.16924811899662018
-0.2678130269050598 -0.07301090657711029 0.15882891416549683
-0.27091628313064575 -0.15704888105392456 -0.1222812831401825
-0.16241754591464996 0.45071709156036377 0.08990263938903809
-0.2512734532356262 0.22853560745716095 0.05490773916244507
-0.2757355272769928 -0.16453704237937927 -0.13295632600784302
-0.23088166117668152 -0.4706237018108368 -0.011940972879529
0.21133407950401306 0.4975690543651581 -0.03782203048467636
0.2257862091064453 -0.2713741660118103 0.08254088461399078
-0.00033869780600070953 0.09047326445579529 -0.13947853446006775
0.27217575907707214 0.41697344183921814 -0.08340149372816086
0.20037218928337097 0.5015519261360168 0.07671800255775452
-0.270100861787796 0.23406510055065155 0.0775069147348404
0.2502593994140625 0.04204292595386505 0.1536155790090561
0.2933311462402344 -0.027266815304756165 -0.13494770228862762
-0.025270018726587296 0.15268754959106445 0.16825221478939056
0.29716768860816956 -0.15021245181560516 -0.11999474465847015
0.050357233732938766 0.11057934165000916 -0.13918820023536682
0.2913261950016022 0.1761726289987564 0.15692804753780365
-0.01855965331196785 -0.2508277893066406 -0.10080187767744064
0.29173246026039124 0.22575022280216217 -0.12568332254886627
-0.29044654965400696 -0.4405481815338135 -0.08952972292900085
-0.20261400938034058 -0.2511902451515198 0.10979980230331421
0.29660794138908386 -0.1635960340499878 0.15028420090675354
-0.2690896987915039 -0.23428848385810852 0.013689430430531502
0.24353182315826416 -0.42297112941741943 0.2043684720993042
-0.00677836686372757 0.015207894146442413 -0.13634230196475983
0.2803226113319397 0.4247628450393677 -0.07521862536668777
-0.2321552187204361 -0.47989335656166077 0.022755969315767288
-0.20332665741443634 -0.04621180519461632 0.16906799376010895
0.28225937485694885 -0.2450563758611679 0.1576317548751831
-0.045541420578956604 0.20618703961372375 -0.1383546143770218
0.19753378629684448 0.22522903978824615 0.14637812972068787
0.08621913194656372 -0.2476573884487152 0.14485929906368256
0.2141401171684265 0.17665816843509674 0.15126700699329376
-0.2323547601699829 -0.031155932694673538 0.15377461910247803
0.03409881517291069 0.1483144909143448 -0.21917234361171722
-0.3263968229293823 -0.34839221835136414 0.1884058564901352
0.04444236680865288 0.2323618084192276 0.14347507059574127
-0.09305869787931442 0.21314899623394012 0.15736156702041626
-0.28489816188812256 -0.40838223695755005 -0.09530965983867645
0.294301301240921 0.2220844030380249 0.06606622785329819
0.15179821848869324 -0.4445978105068207 0.15852658450603485
-0.3126578629016876 -0.3666093349456787 0.19610926508903503
0.2973993420600891 -0.1766306757926941 -0.13159827888011932
-0.2690923511981964 0.19199252128601074 0.15306463837623596
-0.22361093759536743 -0.4547128677368164 0.11210553348064423
0.2897208333015442 -0.4347492456436157 0.13558588922023773
0.20385956764221191 -0.24893763661384583 -0.12597037851810455
0.17445296049118042 0.10234299302101135 -0.13963963091373444
0.03174898773431778 -0.20794057846069336 0.15582400560379028
0.2800219655036926 -0.38036441802978516 -0.02115287259221077
0.1088985726237297 0.22546350955963135 -0.13822481036186218
-0.03077799454331398 0.2185845524072647 -0.13553741574287415
0.24828875064849854 -0.2537692189216614 -0.07470458745956421
-0.2705180048942566 0.08842305839061737 0.1474616527557373
-0.24384425580501556 -0.24908852577209473 -0.13345301151275635
0.2875231206417084 -0.2076215296983719 -0.13630056381225586
0.2803053855895996 -0.44367220997810364 0.08459315448999405
0.2419874370098114 0.06584920734167099 0.1670907586812973
-0.26751354336738586 -0.17297910153865814 0.15492555499076843
0.2577657699584961 -0.13612952828407288 0.15445400774478912
-0.27146175503730774 -0.21226269006729126 -0.13385994732379913
0.2857836186885834 0.15482155978679657 0.15713080763816833
0.29662150144577026 0.018529342487454414 0.15839236974716187
-0.03693544119596481 -0.23406466841697693 -0.13567610085010529
-0.2657187283039093 0.2256375253200531 0.13506850600242615
-0.22209209203720093 -0.43391966819763184 0.16118887066841125
0.2510405480861664 0.03107537515461445 0.15491195023059845
-0.27290764451026917 0.10642494261264801 -0.1364508718252182
-0.21707263588905334 -0.23765714466571808 0.15816502273082733
0.1415930688381195 -0.43611136078834534 0.15494276583194733
0.2822020649909973 0.4867134690284729 0.004518058151006699
-0.06841209530830383 0.22718067467212677 -0.13695384562015533
0.21121208369731903 0.2996932864189148 -0.01591883972287178
0.15995976328849792 0.06068797409534454 0.16726411879062653
0.2628364562988281 -0.36655426025390625 -0.07828475534915924
0.23526298999786377 0.516126811504364 0.03297293931245804
-0.27141326665878296 -0.20302046835422516 -0.13802750408649445
0.2761366367340088 -0.3502050042152405 0.11921126395463943
-0.05622556060552597 0.14107775688171387 -0.13878695666790009
-0.27120667695999146 -0.03232086822390556 -0.13854098320007324
0.24015939235687256 0.23048359155654907 0.07065087556838989
0.1417793482542038 0.22379861772060394 -0.13690055906772614
0.18212616443634033 0.10568402707576752 -0.13952744007110596
0.1511903703212738 -0.4412557780742645 0.03048619255423546
0.024761557579040527 -0.05375208705663681 0.16775168478488922
-0.2918466329574585 -0.4366336762905121 -0.09003176540136337
-0.2782481908798218 -0.35941067337989807 -0.09041766077280045
0.23122000694274902 -0.418680340051651 0.2023872584104538
-0.25908154249191284 -0.06058954820036888 0.15500196814537048
0.061645474284887314 -0.24353036284446716 -0.1364489495754242
-0.06879914551973343 -0.2524688243865967 0.15550699830055237
-0.2201889306306839 -0.2855204641819 -0.06781570613384247
0.27891817688941956 -0.4421502351760864 0.016384011134505272
0.28826993703842163 0.16266775131225586 -0.13730594515800476
0.06581763923168182 0.22571036219596863 -0.13674353063106537
0.07120819389820099 0.00043268129229545593 0.1679144650697708
-0.007288618013262749 -0.22531716525554657 -0.13694489002227783
0.1930493861436844 0.2262805849313736 -0.13708379864692688
-0.16639088094234467 -0.2549133002758026 0.05579562112689018
-0.27031409740448 0.07042235881090164 -0.08832291513681412
-0.21859723329544067 0.2308509796857834 -0.1330452263355255
-0.2731242775917053 -0.24719896912574768 -0.11432735621929169
0.23866844177246094 -0.17127399146556854 0.17056287825107574
0.2309247851371765 0.21823349595069885 0.1534103900194168
-0.2229495644569397 -0.4708552956581116 0.013956640847027302
-0.21791929006576538 0.10780271887779236 0.16538697481155396
-0.23704230785369873 -0.24689610302448273 0.15229091048240662
-0.2709556519985199 -0.41630449891090393 0.14863885939121246
-0.16395263373851776 0.43104684352874756 0.09302110224962234
0.29785844683647156 0.10631312429904938 -0.129500150680542
-0.25912171602249146 -0.4021610915660858 0.2010423243045807
-0.15425115823745728 -0.2564370632171631 -0.006152330432087183
0.2351369857788086 0.04598715156316757 0.16742043197155
0.05090295523405075 0.1834772527217865 0.1549384742975235
0.29577985405921936 -0.10944192111492157 0.1559622585773468
0.26665404438972473 -0.3029724955558777 0.08053372800350189
-0.269592821598053 0.011736646294593811 0.008753113448619843
0.023245397955179214 0.11257359385490417 -0.13738806545734406
-0.2143859565258026 -0.2590925693511963 -0.051955848932266235
-0.2641928493976593 -0.20544825494289398 -0.1381058543920517
-0.24642536044120789 -0.016592908650636673 -0.2808021008968353
0.17919595539569855 0.21180473268032074 0.1564290076494217
-0.27174872159957886 0.057070184499025345 -0.0936024859547615
0.13659659028053284 -0.44227170944213867 0.02162526175379753
0.14123336970806122 -0.4351445436477661 0.14611190557479858
0.20522378385066986 0.15439823269844055 0.16869232058525085
-0.07326860725879669 -0.23516333103179932 -0.13671258091926575
-0.26993441581726074 -0.17220750451087952 0.030096648260951042
-0.19331276416778564 -0.2507034242153168 -0.12857094407081604
0.2402592897415161 0.010986855253577232 0.16724883019924164
-0.2795690596103668 -0.3101368844509125 0.13643138110637665
-0.03277425840497017 0.23010730743408203 -0.011532749980688095
0.2960832715034485 0.14988894760608673 0.0007851943373680115
0.29358237981796265 0.22357408702373505 0.1512516438961029
0.27667251229286194 -0.42861413955688477 -0.0532214418053627
0.06574924290180206 0.1629665195941925 -0.14036528766155243
0.29943135380744934 0.05067947879433632 -0.1257205307483673
0.2921268343925476 0.05136876553297043 -0.13551712036132812
-0.26097598671913147 0.227864608168602 0.08173426240682602
0.19884330034255981 0.22415007650852203 0.15065014362335205
0.292009174823761 0.2242475301027298 0.1470194011926651
0.24912142753601074 -0.06719236820936203 0.1598665714263916
0.22238273918628693 0.226283460855484 0.14767664670944214
0.2948770523071289 -0.0810961127281189 -0.004741605371236801
0.02591479755938053 0.10582172870635986 -0.13821442425251007
-0.16422292590141296 0.43786129355430603 0.09857622534036636
-0.272342324256897 -0.04066942259669304 -0.13260094821453094
-0.2731276750564575 -0.22171622514724731 -0.1286933571100235
0.2882389426231384 -0.08308272808790207 -0.13693761825561523
-0.26847219467163086 -0.07300278544425964 0.1561223268508911
-0.27244269847869873 -0.11247840523719788 -0.12826091051101685
0.2635955512523651 0.23095762729644775 -0.13339903950691223
-0.26531651616096497 0.11004483699798584 -0.13633452355861664
-0.2726256847381592 0.19076910614967346 -0.018194105476140976
0.24136629700660706 -0.44569170475006104 0.1972590982913971
-0.2697770893573761 0.22515983879566193 0.03412158787250519
-0.26026463508605957 -0.3554832339286804 -0.09598518162965775
-0.23343689739704132 -0.32661229372024536 -0.08465386182069778
0.2577211856842041 0.3639797568321228 -0.08592361211776733
-0.16296318173408508 0.22981132566928864 -0.050459124147892
-0.2690739929676056 -0.036300502717494965 0.1573597639799118
-0.2934754192829132 -0.4367426037788391 -0.08987284451723099
0.05779331922531128 0.21345636248588562 0.1578144133090973
-0.2739824056625366 -0.11182031780481339 -0.13453128933906555
0.29754409193992615 0.182765394449234 0.15688428282737732
-0.18352974951267242 0.22882169485092163 0.09472766518592834
-0.0876540094614029 -0.24979934096336365 -0.12601463496685028
0.0641293004155159 0.1753525733947754 -0.13924744725227356
0.26877066493034363 -0.24940736591815948 0.1491771787405014
0.10201867669820786 0.10324427485466003 -0.13770321011543274
-0.15838171541690826 0.45501282811164856 0.08408462256193161
-0.10393169522285461 -0.20125620067119598 0.1542494148015976
0.2536044120788574 -0.07524557411670685 0.15600751340389252
0.29434269666671753 -0.15337255597114563 -0.13808192312717438
-0.23079019784927368 -0.44945475459098816 0.12952739000320435
0.046460848301649094 0.2299657166004181 -0.13688334822654724
0.30292102694511414 0.42228737473487854 0.058638688176870346
0.24235957860946655 0.14746081829071045 0.1664152592420578
-0.26401621103286743 0.3420089781284332 -0.008274798281490803
0.25940993428230286 -0.3352585732936859 0.12257403880357742
0.2556922733783722 -0.25675684213638306 0.01719949021935463
0.2657240629196167 0.22717660665512085 -0.13755089044570923
0.22770127654075623 -0.18685585260391235 0.16153837740421295
-0.2708403170108795 -0.14003175497055054 -0.1372934877872467
0.278190940618515 -0.24866265058517456 -0.12287914007902145
-0.2734733819961548 -0.18215152621269226 -0.13544853031635284
-0.31999924778938293 -0.38267868757247925 -0.040154196321964264
0.01876557245850563 0.22896546125411987 -0.1825776845216751
