0.2949083149433136 0.343471497297287 0.01682036928832531
0.20607469975948334 0.34102320671081543 0.08965185284614563
-0.26804429292678833 0.2145266979932785 -0.009610549546778202
-0.27103981375694275 -0.0692228451371193 0.03938566893339157
-0.26283955574035645 0.029492944478988647 -0.13328887522220612
0.29990682005882263 0.13911502063274384 0.016832053661346436
-0.27153870463371277 -0.2275378704071045 0.13953810930252075
0.22380727529525757 -0.34315311908721924 -0.08131499588489532
0.2842165231704712 -0.350208044052124 0.11126130819320679
-0.18666093051433563 0.22954364120960236 -0.061264123767614365
0.29851633310317993 0.22378209233283997 0.07926543056964874
0.2592679560184479 -0.28952285647392273 0.06757062673568726
-0.20659400522708893 0.06776408851146698 0.1702001392841339
-0.25104352831840515 0.2068442404270172 -0.13321255147457123
-0.19502288103103638 -0.3493731915950775 -0.05451105907559395
-0.25699296593666077 0.1389395296573639 -0.13577762246131897
-0.32639747858047485 -0.34556204080581665 0.19438616931438446
0.219977006316185 -0.24806168675422668 0.13853757083415985
-0.30364805459976196 -0.32882851362228394 0.18599578738212585
0.20241400599479675 -0.366423636674881 -0.07263060659170151
-0.20593996345996857 0.03036283142864704 0.16902099549770355
-0.23944275081157684 0.43574258685112 -0.06913932412862778
0.25901180505752563 -0.33594733476638794 0.12979485094547272
-0.25911304354667664 0.10580198466777802 -0.13323067128658295
0.29838138818740845 -0.10750003159046173 0.15021619200706482
-0.23671142756938934 -0.2506332993507385 -0.04112503305077553
-0.26830556988716125 -0.023793192580342293 0.15444645285606384
0.0948890745639801 0.22769902646541595 -0.11008501052856445
-0.19736050069332123 0.42223960161209106 -0.07295532524585724
0.2658940255641937 -0.07768895477056503 0.1572662591934204
0.2863500714302063 -0.22522959113121033 -0.13382887840270996
0.06265553832054138 0.2291954904794693 -0.11530862748622894
0.005344461649656296 -0.16863703727722168 -0.1337742805480957
0.20913246273994446 -0.36635318398475647 -0.07556362450122833
-0.2632182240486145 -0.3557106554508209 -0.09055347740650177
0.2774134874343872 -0.442501962184906 0.13162437081336975
-0.1756184846162796 0.17082054913043976 0.15524223446846008
0.13452422618865967 -0.25006741285324097 0.15052925050258636
0.25335395336151123 0.5179872512817383 0.05476274713873863
-0.20087391138076782 -0.028387434780597687 0.17023223638534546
-0.02219010330736637 0.17580774426460266 0.15957213938236237
0.10250455141067505 0.15534980595111847 0.16986511647701263
-0.2907261848449707 -0.017491811886429787 -0.26524224877357483
0.30290764570236206 0.021518684923648834 0.06497711688280106
-0.10204840451478958 -0.0016345381736755371 -0.13127200305461884
-0.2629292607307434 -0.11448684334754944 -0.13499043881893158
0.26419779658317566 -0.3678302764892578 0.1644722819328308
0.2353665977716446 -0.377713680267334 -0.09147695451974869
-0.266009658575058 -0.0418529212474823 -0.12378303706645966
-0.26682165265083313 0.3806703984737396 0.05530223622918129
0.21292996406555176 0.41071972250938416 -0.07233278453350067
0.29680564999580383 0.04814723879098892 0.15025629103183746
-0.26843002438545227 0.2248237431049347 -0.11140277236700058
-0.18993791937828064 -0.3239169418811798 0.07808738946914673
-0.20519664883613586 0.39854350686073303 -0.07778705656528473
0.28371334075927734 0.32038813829421997 -0.005611283704638481
-0.20962023735046387 -0.1685498207807541 0.16666553914546967
-0.2635324001312256 -0.029097475111484528 -0.1327996850013733
-0.2837253212928772 -0.407241553068161 -0.0904545933008194
0.15318229794502258 -0.182533398270607 0.16587471961975098
0.15360413491725922 0.2263152301311493 0.11448546499013901
-0.262965589761734 -0.02756277471780777 -0.12877291440963745
0.24041542410850525 0.3826262056827545 -0.0863511711359024
0.25283998250961304 -0.25100770592689514 0.08863279223442078
0.08527433127164841 0.17891187965869904 0.15726099908351898
0.2973819673061371 0.06428486853837967 0.14322789013385773
0.188691183924675 -0.2491651475429535 0.12436603754758835
-0.18602022528648376 0.17153480648994446 0.1554156392812729
0.295145183801651 -0.20038576424121857 0.13499155640602112
-0.27387747168540955 -0.3297605514526367 0.1555059403181076
0.2655127942562103 -0.28205907344818115 0.021144550293684006
0.2590790390968323 0.44282394647598267 0.10935484617948532
-0.2079327404499054 -0.3203965723514557 0.09379236400127411
-0.2605152130126953 -0.05272430181503296 -0.13441979885101318
-0.25594887137413025 0.47692498564720154 0.0738789290189743
0.008934400975704193 0.22709514200687408 -0.11602739989757538
0.2709546685218811 0.22872377932071686 0.11681735515594482
0.2554408609867096 0.36760443449020386 -0.08476874232292175
0.28177356719970703 -0.44300663471221924 0.17624853551387787
-0.21792282164096832 0.1541246920824051 0.16110095381736755
0.26016807556152344 -0.24874907732009888 0.05923997983336449
0.2869448959827423 -0.24780422449111938 -0.11980963498353958
-0.16155557334423065 0.206388458609581 -0.1332056224346161
0.2828417718410492 0.23139165341854095 -0.11022114008665085
-0.2606983780860901 -0.05682668462395668 -0.1333535611629486
-0.2732014060020447 0.05278993025422096 -0.1243770569562912
0.2758173644542694 0.12647242844104767 0.15752071142196655
-0.19885030388832092 0.22270207107067108 -0.13078701496124268
-0.20037545263767242 0.14656585454940796 0.16702702641487122
-0.25180840492248535 0.05957488715648651 -0.2927069067955017
-0.2621709704399109 0.019229434430599213 -0.13230620324611664
-0.19006431102752686 0.22417615354061127 -0.11257368326187134
-0.2750209867954254 -0.3628861606121063 -0.08030928671360016
-0.23278136551380157 -0.08648860454559326 -0.13649414479732513
-0.2693530321121216 -0.16904176771640778 -0.11969437450170517
-0.25988614559173584 0.02147139608860016 -0.13134580850601196
0.20098210871219635 0.3445248305797577 0.09039480984210968
-0.16517294943332672 0.22980505228042603 -0.007219194434583187
-0.27065423130989075 -0.20702609419822693 -0.09004373848438263
-0.20582729578018188 -0.321611613035202 0.08789600431919098
0.1878587007522583 0.4553969204425812 -0.03004176914691925
-0.16103263199329376 0.22998587787151337 -0.0006212383741512895
-0.16001084446907043 0.3529244661331177 -0.0037921019829809666
-0.09237202256917953 0.22760158777236938 -0.11823421716690063
-0.2589840888977051 -0.39203470945358276 -0.08753207325935364
-0.21425005793571472 0.13688236474990845 0.16301384568214417
0.24424085021018982 -0.026497602462768555 0.16742196679115295
0.061732981353998184 -0.2480064481496811 0.1534683257341385
0.20668581128120422 0.009152816608548164 -0.13474580645561218
-0.27017784118652344 -0.2205374836921692 -0.08243052661418915
-0.2047589123249054 0.056278228759765625 0.17043888568878174
0.21465544402599335 0.2282678186893463 -0.025419414043426514
0.012111308053135872 -0.24128837883472443 -0.13376188278198242
0.2608875334262848 -0.3880346119403839 -0.08357102423906326
-0.2576409876346588 -0.46919700503349304 -0.00835309736430645
-0.25957125425338745 0.16634675860404968 -0.1335221230983734
0.3000286817550659 0.011507188901305199 0.14926311373710632
-0.05058394744992256 -0.2530990242958069 0.096183642745018
0.15892118215560913 -0.25239694118499756 0.13727064430713654
-0.08314411342144012 -0.24936866760253906 0.1446540355682373
-0.18808308243751526 0.34635207056999207 0.0814831405878067
0.29706788063049316 0.1455952227115631 0.14969447255134583
-0.1736132651567459 -0.2802277207374573 -0.034014634788036346
-0.2582157552242279 0.22456178069114685 -0.13078711926937103
0.1918187290430069 0.3295603096485138 0.028794607147574425
0.18731871247291565 -0.44617754220962524 0.18222501873970032
-0.26419126987457275 -0.05563627928495407 -0.1363220065832138
0.22095757722854614 -0.24827940762043 0.09763773530721664
0.14193612337112427 0.15775266289710999 0.16492512822151184
0.23724687099456787 0.2291521430015564 0.10581295192241669
-0.2474430352449417 0.22565901279449463 -0.13330793380737305
-0.27227768301963806 -0.24318274855613708 -0.10861115157604218
-0.26979008316993713 0.20025792717933655 0.14834994077682495
0.22772282361984253 -0.41566339135169983 0.2061668038368225
-0.26227888464927673 -0.1431378424167633 -0.13454748690128326
0.2290738970041275 0.5162920951843262 0.040174826979637146
0.22253742814064026 -0.21957531571388245 -0.13265377283096313
0.15352731943130493 -0.1933891773223877 0.1601836234331131
-0.23711788654327393 -0.2511000335216522 -0.0697980746626854
-0.20157207548618317 0.213396817445755 0.15666896104812622
0.2302495539188385 -0.24757225811481476 -0.12712451815605164
-0.2690851092338562 0.21895520389080048 0.10837943851947784
-0.32517775893211365 -0.35982710123062134 0.1615017056465149
-0.26746153831481934 0.09515641629695892 -0.11151564121246338
-0.20744530856609344 0.1162499338388443 0.1664542555809021
0.25039201974868774 0.22935335338115692 -0.12063995003700256
0.18537083268165588 0.3967357277870178 -0.03350233659148216
-0.2737656831741333 -0.4691542983055115 -0.05505906045436859
-0.2689141035079956 -0.22258304059505463 -0.11802098900079727
-0.20850273966789246 0.4321582615375519 -0.07457331568002701
-0.24656787514686584 0.021812792867422104 -0.2795133888721466
-0.13451983034610748 -0.2426438182592392 0.1509614884853363
-0.1614282876253128 0.44020727276802063 -0.016782250255346298
0.2986973822116852 0.19365225732326508 -0.1338907927274704
0.004250595346093178 0.13107547163963318 -0.13490569591522217
-0.24320268630981445 -0.01493600383400917 -0.2614879310131073
-0.07314049452543259 0.22810690104961395 -0.11802403628826141
0.29980790615081787 0.20504620671272278 -0.11414533853530884
-0.2682717442512512 -0.029042046517133713 -0.12657685577869415
-0.26696863770484924 0.4045233726501465 0.044432420283555984
0.012607051059603691 0.09134794771671295 -0.13495907187461853
-0.3262845277786255 -0.40281930565834045 0.023828919976949692
0.17679628729820251 -0.24756276607513428 0.15676474571228027
-0.21259990334510803 -0.24880489706993103 0.1535547971725464
-0.24842992424964905 0.2145058959722519 -0.13338136672973633
-0.2247057557106018 -0.24649503827095032 0.15844593942165375
-0.2515590190887451 0.22479915618896484 -0.06842154264450073
-0.2532048523426056 -0.41305017471313477 0.20160384476184845
0.29930081963539124 0.14742635190486908 -0.11594409495592117
0.228384330868721 -0.2291381061077118 0.1561366766691208
0.18102039396762848 0.229066401720047 -0.08439085632562637
0.17577722668647766 0.4054493010044098 0.02607209049165249
0.2973870038986206 0.04103774577379227 0.14195257425308228
0.2803546190261841 -0.2315865010023117 -0.1355573832988739
0.22356416285037994 0.16808152198791504 0.16393984854221344
0.2966116666793823 0.048948660492897034 0.1448219120502472
-0.26371854543685913 0.4627958834171295 0.04198149964213371
0.2987295091152191 0.02961530163884163 -0.13441933691501617
-0.26406317949295044 0.016429804265499115 -0.13734525442123413
-0.26770925521850586 0.12555667757987976 0.11121542006731033
-0.15280869603157043 -0.24140498042106628 -0.13432428240776062
0.29523658752441406 -0.15890350937843323 0.15111765265464783
-0.2601107060909271 0.07999224960803986 -0.13301660120487213
-0.20092947781085968 0.22688135504722595 -0.13214728236198425
0.29181110858917236 -0.20323477685451508 -0.13466733694076538
0.2763128876686096 0.23160526156425476 -0.065361388027668
0.26804739236831665 0.4379899501800537 -0.08132350444793701
0.2549920082092285 -0.44542184472084045 0.18505431711673737
-0.09789770841598511 0.18725639581680298 -0.13600435853004456
0.2195119559764862 0.47576674818992615 -0.06774921715259552
0.2603006362915039 -0.34872105717658997 -0.07711917161941528
-0.16126272082328796 -0.17805877327919006 0.1656499058008194
-0.2621665894985199 -0.0017379941418766975 0.1582680493593216
-0.15523171424865723 0.41009262204170227 0.009557805955410004
-0.33074110746383667 -0.3467434048652649 0.18532322347164154
0.29706278443336487 0.3835209608078003 0.08889313042163849
0.29836440086364746 0.1760081797838211 -0.13337260484695435
-0.19877438247203827 -0.4134843647480011 0.12590831518173218
0.20606838166713715 0.4363346993923187 -0.06788340210914612
-0.1501363217830658 -0.2563701570034027 0.023816246539354324
-0.26389068365097046 0.41860783100128174 0.06615059822797775
-0.040407296270132065 0.15732069313526154 0.16837748885154724
-0.04984372481703758 0.19777175784111023 -0.13547883927822113
0.26361364126205444 0.1381625533103943 0.15513889491558075
0.2137976437807083 -0.35799700021743774 -0.07802695035934448
0.1518266350030899 0.22693182528018951 -0.038745857775211334
-0.2690816819667816 -0.12375287711620331 -0.12264776229858398
-0.10075962543487549 0.1776043325662613 -0.13550715148448944
0.29421818256378174 0.22339411079883575 0.11312885582447052
-0.22380276024341583 -0.3302448093891144 -0.07593408972024918
0.20236721634864807 -0.019085459411144257 -0.13414698839187622
-0.26694342494010925 -0.30145302414894104 0.017079008743166924
-0.021127954125404358 -0.09906625747680664 -0.13267388939857483
0.29571858048439026 0.008165581151843071 0.1451149433851242
0.2959703803062439 0.34711509943008423 0.06539115309715271
0.2698792815208435 -0.37185338139533997 0.1644333153963089
0.24945750832557678 -0.24640385806560516 -0.12587524950504303
0.2994299530982971 -0.19383178651332855 0.04188249260187149
-0.27080103754997253 0.2220495641231537 0.012532413005828857
-0.12352342158555984 0.22167286276817322 -0.13761623203754425
0.29892101883888245 0.41669586300849915 0.03210653364658356
0.29828643798828125 0.07230523228645325 -0.11975143104791641
-0.15416885912418365 0.22791394591331482 -0.13120532035827637
-0.290658563375473 0.04672737792134285 -0.29053181409835815
-0.2604711055755615 0.06598274409770966 -0.13199038803577423
0.21857410669326782 -0.24578070640563965 -0.12444069981575012
0.24558240175247192 0.16874149441719055 0.15853357315063477
0.20909154415130615 -0.23847442865371704 -0.13371914625167847
0.29205864667892456 -0.15118911862373352 -0.1345597505569458
-0.026008540764451027 0.2295752465724945 -0.05423448234796524
0.12941962480545044 0.22863803803920746 -0.11604075133800507
-0.26933833956718445 -0.19967111945152283 -0.12502296268939972
-0.20436888933181763 0.16083574295043945 0.15946882963180542
0.038403235375881195 0.0921548530459404 -0.13497237861156464
0.20810699462890625 0.22911587357521057 -0.015164565294981003
-0.26790252327919006 0.22753411531448364 0.013526953756809235
0.08713128417730331 0.1248520016670227 -0.13559263944625854
-0.05703643709421158 -0.24943503737449646 0.15021105110645294
-0.019550902768969536 0.17518839240074158 0.1555493324995041
-0.15882165729999542 0.23077276349067688 -0.00022002682089805603
-0.11675383895635605 0.22743523120880127 -0.12158453464508057
-0.2704811990261078 0.20144237577915192 -0.12077547609806061
0.2926941514015198 0.10213504731655121 -0.13459904491901398
-0.2686784565448761 0.13146451115608215 -0.12311805039644241
-0.23778487741947174 -0.26913154125213623 0.02076001465320587
-0.06593110412359238 0.16733473539352417 0.15562723577022552
-0.02480831928551197 -0.24933718144893646 -0.11948367208242416
0.2967260479927063 0.2229761928319931 0.04387209564447403
-0.23693540692329407 0.4417814612388611 -0.07142893970012665
0.2553764879703522 0.41117244958877563 -0.0916714072227478
-0.26800864934921265 -0.23810863494873047 0.12362143397331238
0.11288265138864517 0.17597724497318268 0.14922142028808594
-0.26916810870170593 0.20852763950824738 -0.030883461236953735
0.29858770966529846 0.0991550087928772 0.14157915115356445
0.16414277255535126 -0.22131268680095673 0.15628264844417572
-0.26176735758781433 0.06142517924308777 -0.132041335105896
-0.22449877858161926 -0.21236541867256165 -0.1335856020450592
0.023741135373711586 0.09135602414608002 -0.1369544416666031
-0.10261821746826172 0.16876450181007385 0.15924254059791565
0.17512908577919006 -0.23653548955917358 -0.13346964120864868
0.24550363421440125 -0.24798792600631714 -0.12474032491445541
-0.2597459852695465 0.0715976357460022 -0.13143505156040192
-0.19428393244743347 -0.10428500175476074 0.17019569873809814
-0.2580203711986542 -0.013464827090501785 -0.1329164206981659
-0.006059982813894749 0.18883271515369415 -0.13381487131118774
-0.2658021152019501 -0.22868861258029938 0.006738966330885887
-0.14862334728240967 0.09785926342010498 0.17172624170780182
-0.1995314061641693 0.12956902384757996 -0.12875203788280487
-0.19480490684509277 0.10004772245883942 -0.131460040807724
-0.0750817060470581 -0.017987899482250214 -0.1308867484331131
-0.26338186860084534 -0.34510311484336853 -0.07770204544067383
0.17665845155715942 0.22871407866477966 -0.10864469408988953
0.2971051335334778 -0.22643153369426727 0.013048231601715088
-0.26792463660240173 -0.22482722997665405 -0.12084432691335678
0.2977803349494934 -0.1149151474237442 0.1513950228691101
-0.1117788776755333 -0.24870510399341583 0.14097395539283752
0.2488022744655609 -0.33450669050216675 -0.08255232125520706
0.06678349524736404 0.1790054887533188 -0.18113864958286285
0.29488644003868103 -0.08325538784265518 0.14221087098121643
-0.2703806161880493 -0.16005145013332367 -0.12430346757173538
0.24654525518417358 -0.25064617395401 0.08355807512998581
-0.13491591811180115 0.17454788088798523 0.15546277165412903
-0.26055365800857544 0.10499053448438644 -0.13441507518291473
-0.11349619925022125 0.22830648720264435 -0.12138732522726059
0.05172894522547722 0.1647987961769104 0.16352587938308716
-0.2611290216445923 0.07834094017744064 -0.13364915549755096
-0.18414786458015442 0.349433958530426 0.07099609822034836
-0.2458021640777588 -0.29536205530166626 -0.04571408033370972
-0.23353463411331177 0.4938682019710541 -0.02101808227598667
-0.22091735899448395 -0.3953803479671478 0.18176832795143127
0.27325862646102905 -0.09106946736574173 0.1529526561498642
0.2347167581319809 0.33382904529571533 0.08472014963626862
-0.2683001458644867 0.11984404921531677 -0.08712942898273468
0.2466260939836502 0.2325269728899002 -0.05541291832923889
0.019564175978302956 0.10503752529621124 -0.17919035255908966
0.022858696058392525 0.08501346409320831 -0.1375400274991989
0.2595638632774353 -0.0845402330160141 0.15367354452610016
-0.08197493851184845 0.1622466742992401 0.16696810722351074
0.029779102653265 0.2281385213136673 -0.1121254414319992
0.13338956236839294 0.22990910708904266 -0.08604100346565247
0.2178373634815216 -0.4155160188674927 -0.08638198673725128
0.27171891927719116 0.4584488570690155 -0.06882823258638382
-0.26451626420021057 -0.17921167612075806 0.06742346286773682
0.29697367548942566 0.1751757562160492 0.14495538175106049
0.10682997107505798 0.22975321114063263 -0.10974995791912079
-0.0178423672914505 0.09714630991220474 -0.13522017002105713
0.0378267727792263 0.17905515432357788 0.15615087747573853
-0.24287372827529907 -0.37782981991767883 0.19578523933887482
0.20492956042289734 -0.22304092347621918 0.15496943891048431
-0.2704057991504669 -0.2257341891527176 0.14109671115875244
0.059767961502075195 0.15820805728435516 -0.1939714401960373
-0.16042093932628632 0.1748506873846054 0.1575188785791397
-0.27019137144088745 -0.062415581196546555 -0.1230279728770256
0.2817175090312958 -0.35167381167411804 0.11543917655944824
-0.2683330476284027 0.06121937558054924 0.025652965530753136
-0.2985348403453827 -0.3379657566547394 0.19522497057914734
0.2991260886192322 -0.01942671835422516 0.1494147926568985
-0.21887072920799255 0.1311454027891159 -0.1310044527053833
-0.18399199843406677 0.2226782888174057 -0.13531632721424103
-0.1792214810848236 0.22074271738529205 -0.133355975151062
-0.25617948174476624 -0.0017468668520450592 -0.13481111824512482
0.2848818004131317 -0.43922704458236694 0.039625246077775955
-0.21099120378494263 0.11699052155017853 0.16882461309432983
0.2805641293525696 -0.44427648186683655 0.144059419631958
0.09377271682024002 0.22965367138385773 -0.07573845982551575
0.2216959446668625 -0.417891263961792 -0.0904892310500145
-0.2704775631427765 -0.12082189321517944 -0.1216113418340683
0.24768038094043732 -0.1007326990365982 0.16866129636764526
-0.23773817718029022 -0.045049335807561874 0.15467463433742523
0.08727595210075378 -0.1424161046743393 0.16974227130413055
-0.1916734278202057 0.22571367025375366 -0.12954804301261902
-0.2795429825782776 -0.3539718985557556 0.20081031322479248
-0.21233810484409332 -0.24781066179275513 -0.09146860241889954
-0.27471956610679626 -0.4290066361427307 0.07250955700874329
-0.09816433489322662 0.22778911888599396 -0.12040452659130096
-0.16567273437976837 -0.18037858605384827 0.16403871774673462
-0.16690823435783386 -0.34251856803894043 -0.018941788002848625
-0.2638234794139862 -0.033066634088754654 -0.1360662430524826
-0.32177868485450745 -0.3486742079257965 0.06586506962776184
0.19795005023479462 0.15661317110061646 0.16839925944805145
-0.25915688276290894 -0.24832528829574585 -0.10164643079042435
0.06511151045560837 0.1769498884677887 0.15398314595222473
0.1672338843345642 -0.23716655373573303 -0.13379038870334625
-0.1977582573890686 -0.25344204902648926 -0.07900093495845795
-0.24816125631332397 -0.3135484755039215 -0.06723687052726746
-0.05378422141075134 -0.24645479023456573 -0.11362986266613007
-0.20582512021064758 -0.2818853259086609 -0.057610806077718735
0.24185699224472046 0.13593246042728424 0.16794024407863617
0.19932034611701965 0.23079495131969452 0.03267112374305725
-0.2682821452617645 0.21622896194458008 -0.10871835052967072
0.1683085858821869 0.1574447602033615 0.16837604343891144
-0.2681630253791809 0.2200845181941986 0.0975618064403534
-0.25737589597702026 -0.2498246133327484 0.14937344193458557
0.29763758182525635 -0.24280433356761932 0.041374702006578445
0.26576414704322815 -0.36345523595809937 0.15791350603103638
-0.1826455444097519 0.1661682277917862 -0.13491955399513245
-0.10083412379026413 0.22978760302066803 -0.0213780477643013
-0.1834687441587448 0.1604962944984436 0.1691204309463501
-0.056174688041210175 -0.2287457287311554 -0.1296270489692688
-0.2024809718132019 -0.03375455364584923 0.16844601929187775
0.0024815648794174194 0.16700434684753418 0.16479486227035522
-0.17307820916175842 0.35118716955184937 -0.04604371637105942
-0.04023037105798721 0.22615140676498413 -0.11181694269180298
-0.22913922369480133 0.1907631754875183 -0.13304002583026886
-0.22956353425979614 -0.31675493717193604 -0.07331138849258423
-0.2038249671459198 0.3867388963699341 -0.0774935856461525
-0.20524320006370544 -0.45394986867904663 0.05195382237434387
-0.20553384721279144 0.0171806663274765 0.17046554386615753
-0.26626133918762207 -0.0005740646156482399 0.15990059077739716
-0.1811406910419464 -0.22309191524982452 0.15690173208713531
-0.3184666037559509 -0.3285018503665924 0.1725229024887085
-0.16006463766098022 0.39807286858558655 -0.02453858219087124
-0.33133652806282043 -0.3523581326007843 0.16755574941635132
0.05805055424571037 0.17234665155410767 -0.19568249583244324
-0.07331037521362305 0.2282574474811554 -0.11804082989692688
-0.22164572775363922 0.22871892154216766 0.09467421472072601
-0.2692870497703552 0.3871508240699768 0.08230505883693695
-0.15538032352924347 -0.2770521342754364 -0.010207894258201122
-0.25995808839797974 0.07895247638225555 -0.13301917910575867
0.15158022940158844 -0.3331713080406189 -0.012052048929035664
-0.27021124958992004 0.20167413353919983 -0.11852014064788818
0.20525631308555603 0.22830556333065033 -0.11551147699356079
-0.25985902547836304 0.14685019850730896 -0.13052010536193848
-0.17481835186481476 -0.3932287096977234 0.058627255260944366
0.24181710183620453 -0.29014262557029724 0.08620196580886841
-0.2632220685482025 -0.09391360729932785 -0.13025541603565216
-0.1598442643880844 0.15765738487243652 0.16780045628547668
0.14978301525115967 -0.23633788526058197 -0.1333654671907425
0.17945080995559692 0.22804726660251617 0.04603675752878189
0.18501143157482147 0.228810116648674 0.005909979343414307
-0.26599857211112976 -0.35551437735557556 -0.09133174270391464
0.2938551902770996 -0.16530758142471313 -0.13751401007175446
0.25468340516090393 -0.3888934850692749 0.18374918401241302
0.24233946204185486 -0.23929913341999054 -0.13345177471637726
-0.2568761706352234 0.05101042985916138 -0.13342279195785522
0.07795322686433792 -0.1872130036354065 0.1609192192554474
-0.2624659240245819 0.39194178581237793 -0.02583133615553379
0.20631828904151917 0.1862078756093979 0.15617863833904266
-0.2445985972881317 -0.38056397438049316 0.19773653149604797
-0.2691011130809784 0.10498154908418655 -0.11995702981948853
-0.20872218906879425 -0.3073464035987854 -0.06400208175182343
0.26297029852867126 -0.3748927712440491 -0.07148125767707825
-0.1592291295528412 0.4395720362663269 0.020398888736963272
-0.26372095942497253 -0.4605488181114197 -0.06075052544474602
-0.2611265182495117 -0.08237205445766449 -0.1342792958021164
-0.2711353302001953 -0.21423013508319855 0.13422612845897675
0.2993086576461792 0.23184385895729065 -0.061146363615989685
0.18197022378444672 0.1542494297027588 0.16770900785923004
0.12344254553318024 0.22756896913051605 -0.10593978315591812
-0.26696744561195374 0.061793889850378036 0.049179982393980026
0.20496881008148193 0.340315043926239 0.07729247957468033
0.25606733560562134 0.006028875708580017 0.15466757118701935
-0.2600431442260742 0.37129709124565125 -0.01544810552150011
0.18962861597537994 -0.24901577830314636 -0.12507405877113342
0.2856627106666565 -0.2237626016139984 -0.13452979922294617
-0.26908522844314575 -0.03794854134321213 -0.12615056335926056
-0.1199435144662857 0.22799800336360931 -0.11848653852939606
0.24675238132476807 -0.3700070381164551 -0.08959311246871948
0.2945259213447571 0.40105798840522766 0.11564759910106659
-0.11180849373340607 0.2282434105873108 -0.11751095950603485
0.2806416153907776 -0.4112755060195923 -0.04334186390042305
-0.21083813905715942 -0.39462265372276306 0.1745469868183136
-0.2669089734554291 0.13108272850513458 -0.12205563485622406
-0.25652068853378296 -0.24904584884643555 -0.10584194958209991
0.01330244168639183 0.19626665115356445 -0.1338048279285431
0.2516328692436218 0.13142544031143188 0.15868058800697327
0.248072549700737 -0.3634940981864929 0.15578819811344147
0.2879977822303772 -0.24808178842067719 -0.11507663130760193
-0.058965325355529785 0.17325043678283691 0.15536931157112122
0.26208585500717163 0.13700324296951294 0.1565249115228653
0.2809983789920807 0.3709549009799957 -0.05256844684481621
0.24939626455307007 -0.23928183317184448 -0.13707958161830902
0.2953013479709625 -0.19221583008766174 -0.13559363782405853
0.29823124408721924 0.10273490101099014 -0.13414667546749115
0.24930572509765625 0.37620365619659424 -0.08351047337055206
-0.13189788162708282 -0.24904854595661163 0.15195882320404053
-0.26667502522468567 -0.10956677794456482 0.15779046714305878
0.28320449590682983 -0.37136310338974 -0.017180901020765305
0.2853977382183075 0.38621819019317627 -0.06114479526877403
0.03402215987443924 0.15786167979240417 0.16987305879592896
-0.2568195164203644 -0.15274019539356232 -0.13263046741485596
0.2823697626590729 0.49151116609573364 0.0687248632311821
-0.19073233008384705 -0.3309280574321747 -0.05350758880376816
-0.037191107869148254 -0.17087669670581818 0.16415749490261078
-0.2018570750951767 -0.09450218826532364 0.17038118839263916
0.15878109633922577 -0.444379597902298 0.12555460631847382
0.2986205518245697 0.03590306639671326 -0.11924692988395691
0.04732199013233185 -0.24779318273067474 -0.1223595142364502
0.25134268403053284 -0.4426683783531189 0.2019093930721283
0.29053816199302673 -0.4021829068660736 0.10488554835319519
-0.19971229135990143 0.14784562587738037 0.16487006843090057
0.1385628879070282 0.23180033266544342 0.06429688632488251
-0.22780904173851013 0.5057594776153564 0.00033616088330745697
0.2972402572631836 -0.14691811800003052 0.13515105843544006
0.2958352267742157 0.029501186683773994 -0.13349144160747528
-0.3311615586280823 -0.3511770963668823 0.08781516551971436
0.29731228947639465 0.21062888205051422 0.14338576793670654
0.29662537574768066 -0.2213941365480423 -0.03276032954454422
-0.22682245075702667 -0.4499322474002838 0.13784600794315338
0.23045851290225983 -0.43995311856269836 -0.08170786499977112
0.21407705545425415 0.23019473254680634 0.05286789312958717
0.2507004141807556 -0.32141393423080444 0.10941964387893677
-0.25937166810035706 0.12001559138298035 -0.1327637881040573
-0.33179327845573425 -0.36030516028404236 0.14331921935081482
0.22326554358005524 -0.44084885716438293 -0.08273763209581375
-0.1700160950422287 0.2273145616054535 0.12377545237541199
0.15615421533584595 -0.32169580459594727 0.04683108627796173
0.20481154322624207 0.23067612946033478 0.00817636027932167
-0.23958729207515717 -0.10890453308820724 0.15581808984279633
0.29860296845436096 0.11260205507278442 0.150130033493042
0.22761234641075134 -0.23906309902668 -0.13404949009418488
-0.26835396885871887 0.20273736119270325 -0.12029024958610535
0.2965761423110962 0.06253830343484879 0.1488846391439438
-0.08831573277711868 0.22783300280570984 -0.11698171496391296
-0.2439717799425125 0.09958165884017944 0.1553846299648285
-0.2073441594839096 0.07031141966581345 0.17337416112422943
0.29949888586997986 -0.09393148124217987 0.12252533435821533
-0.2706792950630188 0.061349138617515564 0.13538461923599243
0.28845223784446716 0.41696032881736755 -0.0444309338927269
-0.1707722693681717 0.3466343283653259 -0.026640526950359344
0.17341947555541992 -0.24812541902065277 -0.12042147666215897
-0.2688663601875305 0.09433326125144958 -0.12367448955774307
0.29836568236351013 -0.017996639013290405 0.14593127369880676
-0.29127198457717896 0.0062940604984760284 -0.2592891752719879
0.2947409451007843 -0.2223297655582428 0.14837437868118286
-0.2387540489435196 -0.42096349596977234 0.20843614637851715
0.2743764817714691 0.20526985824108124 0.15498876571655273
-0.12874945998191833 -0.24912068247795105 0.15026485919952393
-0.26774516701698303 -0.02958456240594387 0.15116581320762634
0.15380126237869263 0.22782990336418152 0.05071292817592621
-0.03601734712719917 0.2301488071680069 0.018435530364513397
-0.2690385580062866 -0.21345952153205872 -0.12127964198589325
-0.2676313519477844 0.4081513285636902 0.05887184664607048
0.03659866377711296 0.22663696110248566 -0.11755384504795074
0.15099717676639557 -0.24970640242099762 0.14595937728881836
0.019023461267352104 -0.24566814303398132 0.1563100814819336
-0.21977514028549194 0.4520535171031952 0.0922527015209198
0.29610809683799744 0.22547385096549988 0.07620947062969208
-0.15917469561100006 0.1738768219947815 0.15822045505046844
0.29705193638801575 0.1250983476638794 0.1431577056646347
-0.25956666469573975 -0.3776923716068268 -0.0880948156118393
-0.25990116596221924 -0.0946630910038948 -0.1332755833864212
-0.26844659447669983 -0.17526358366012573 -0.12215055525302887
-0.26170986890792847 -0.08921551704406738 -0.132455512881279
0.20263293385505676 0.23160789906978607 0.037382688373327255
0.07735487073659897 -0.2474193125963211 0.15503357350826263
0.2997450828552246 0.013405229896306992 -0.11959724128246307
-0.2701413333415985 -0.04066638648509979 -0.12850192189216614
0.08201070129871368 -0.2526126205921173 0.04080918803811073
0.2971523106098175 -0.14778055250644684 0.14925098419189453
0.17503629624843597 -0.44421836733818054 0.17867329716682434
-0.16763457655906677 0.46574029326438904 -0.022775117307901382
0.29965072870254517 0.018421895802021027 0.0666353702545166
-0.26302438974380493 0.030489765107631683 -0.12945176661014557
0.2979225218296051 0.4149315655231476 0.010296564549207687
0.04358461871743202 0.2305201143026352 -0.11702258139848709
0.2996152341365814 0.22630473971366882 -0.10423251986503601
0.02027302235364914 -0.2499055564403534 -0.12886664271354675
-0.32388633489608765 -0.42586129903793335 -0.06731873750686646
0.06579713523387909 0.2338942587375641 0.1341221183538437
-0.17018011212348938 -0.16737912595272064 0.16715066134929657
0.04275671765208244 -0.2528543472290039 0.002140309661626816
-0.27573031187057495 -0.06565086543560028 -0.12374661862850189
0.29744192957878113 -0.04909779131412506 0.14328500628471375
-0.2688714563846588 -0.24076274037361145 -0.11530045419931412
0.1890428066253662 -0.2488422840833664 0.08264600485563278
-0.14154526591300964 -0.18011698126792908 0.16762858629226685
-0.2673124372959137 0.38612523674964905 0.044256072491407394
-0.26915472745895386 -0.06019798666238785 -0.1272965371608734
0.29715168476104736 0.22763028740882874 -0.08219575136899948
-0.1744776964187622 -0.24792435765266418 -0.12195169180631638
0.30067747831344604 0.1058393344283104 -0.03085063397884369
-0.2915133535861969 -0.3294071555137634 0.18916302919387817
0.29568424820899963 -0.20459169149398804 0.15020939707756042
0.2942436635494232 0.17161335051059723 0.1474410593509674
-0.18849843740463257 0.3778015971183777 -0.06316845864057541
-0.1779050976037979 -0.3103126883506775 -0.04200687259435654
-0.24669332802295685 -0.41525915265083313 0.20817159116268158
-0.27131542563438416 -0.14072111248970032 -0.1251516342163086
0.13136707246303558 -0.42315763235092163 0.09467826783657074
-0.09829919040203094 0.1316356658935547 -0.1369646042585373
0.29962003231048584 -0.024180002510547638 0.08802901208400726
-0.26834896206855774 0.05794558674097061 0.028021568432450294
0.18215546011924744 -0.2385081946849823 -0.13334156572818756
0.28345590829849243 0.22575464844703674 -0.1336449235677719
0.29744675755500793 -0.22726726531982422 -0.046632856130599976
-0.26082438230514526 0.03341503441333771 -0.13264714181423187
0.03826126456260681 -0.24694333970546722 0.155158132314682
0.276189386844635 -0.4398137032985687 -0.016836538910865784
0.24836978316307068 0.23187455534934998 -0.13480505347251892
-0.26108139753341675 0.05535273253917694 -0.13103780150413513
-0.2997080981731415 -0.44539928436279297 -0.0543760247528553
0.1875486522912979 0.20657266676425934 -0.1374329924583435
-0.3102996051311493 -0.40716785192489624 0.06313533335924149
0.2961423993110657 -0.08818861842155457 -0.13715356588363647
0.3003854751586914 0.0728478878736496 0.15147556364536285
0.23388510942459106 0.2279612123966217 -0.13461466133594513
0.14072319865226746 -0.38548561930656433 0.11200176924467087
-0.0554935522377491 0.16850987076759338 0.15523949265480042
-0.2675471007823944 -0.07103335112333298 0.1499958634376526
-0.26910093426704407 -0.2340029925107956 0.08796954900026321
-0.1725400984287262 0.23432770371437073 0.050168607383966446
0.017511215060949326 0.14004002511501312 -0.13849909603595734
0.24082860350608826 0.14211270213127136 0.16753467917442322
-0.2077590823173523 0.42893415689468384 -0.07615499943494797
0.10647335648536682 0.02481819875538349 -0.13261356949806213
-0.18979164958000183 -0.2500523328781128 0.148408904671669
0.26379138231277466 -0.24807503819465637 -0.06779766082763672
-0.21901501715183258 -0.34268292784690857 0.1204267144203186
0.30032801628112793 0.4035722613334656 0.08172489702701569
-0.032316599041223526 0.1700519174337387 0.1572430282831192
-0.07166581600904465 0.22959570586681366 -0.12037287652492523
0.07492291182279587 0.11419333517551422 -0.1353289932012558
0.1887775957584381 0.20667853951454163 0.1593610644340515
-0.12722310423851013 0.22774386405944824 -0.121239073574543
-0.18614491820335388 0.3766278326511383 -0.06577033549547195
0.12068066000938416 0.15606689453125 0.17008109390735626
-0.26983335614204407 0.06513281166553497 0.14796152710914612
-0.15879330039024353 0.2316618412733078 0.03304794430732727
-0.21295683085918427 0.09460537135601044 0.16335439682006836
0.2909316420555115 -0.20010769367218018 -0.1347634494304657
0.13987267017364502 0.22666308283805847 -0.11278977245092392
0.08330041170120239 0.15951895713806152 0.167766734957695
-0.3286594748497009 -0.4194689095020294 -0.054869070649147034
0.2885891795158386 -0.4239196479320526 0.030550885945558548
0.2918713390827179 0.4596675932407379 0.11322955042123795
-0.10664176940917969 0.22581800818443298 -0.1205269917845726
-0.26613864302635193 0.22109580039978027 0.12005279958248138
-0.3331949710845947 -0.377404123544693 0.08544974029064178
-0.33239150047302246 -0.3513522148132324 0.16747570037841797
-0.2034529149532318 0.15872302651405334 0.16171738505363464
-0.030504845082759857 -0.24648794531822205 -0.11727462708950043
-0.2685779929161072 0.06579840183258057 -0.05030547082424164
-0.20565666258335114 0.010089695453643799 0.1708681583404541
-0.0965513288974762 0.16511118412017822 0.16779188811779022
-0.05963754281401634 0.17045575380325317 0.1606072038412094
0.17525522410869598 0.17985156178474426 0.15548212826251984
0.17797531187534332 0.45030462741851807 0.006840083748102188
-0.28841251134872437 -0.03362381085753441 -0.24732349812984467
0.21940723061561584 -0.44700756669044495 -0.012468009255826473
0.20062728226184845 0.1699029505252838 0.1626429408788681
0.21170294284820557 -0.2806571424007416 -0.06119494140148163
-0.2703304588794708 0.2016524225473404 -0.1236935555934906
-0.2670119106769562 -0.12493659555912018 -0.10899171978235245
-0.21461041271686554 -0.42577269673347473 0.17182353138923645
0.27951496839523315 -0.4380010664463043 0.05496913567185402
0.3007676601409912 0.2025355100631714 -0.08307293057441711
-0.1539052426815033 0.42259934544563293 0.054984789341688156
-0.08639921247959137 0.16891098022460938 0.15881450474262238
-0.2702133357524872 0.14863653481006622 -0.12005840241909027
0.17431920766830444 -0.24447301030158997 -0.12709693610668182
-0.26945731043815613 0.015491033904254436 -0.12873585522174835
0.0433029942214489 0.14388620853424072 -0.20948433876037598
0.10819902271032333 -0.2504805624485016 0.1506281942129135
0.09554917365312576 0.228448748588562 -0.11384584754705429
-0.0009161927737295628 0.22760489583015442 -0.11543843895196915
0.29056504368782043 -0.40631043910980225 0.1160658597946167
-0.2576925754547119 0.13726845383644104 -0.13206836581230164
0.12471182644367218 0.13189661502838135 -0.13591045141220093
0.2928166389465332 0.4183858335018158 -0.017491884529590607
-0.09948718547821045 0.17415215075016022 0.1559509038925171
-0.15004654228687286 0.22875452041625977 -0.12900616228580475
0.2638799846172333 -0.32852014899253845 0.11817412078380585
-0.2675599455833435 0.21664324402809143 0.1409984827041626
-0.2241215705871582 0.23084482550621033 -0.13047248125076294
-0.17320309579372406 0.1597350537776947 0.16786882281303406
0.297587126493454 -0.025941312313079834 0.14932096004486084
0.2879793047904968 0.23113766312599182 -0.11351984739303589
0.2490065097808838 0.22773361206054688 -0.1205010637640953
-0.2659478485584259 0.0441591739654541 0.15504898130893707
-0.20187754929065704 -0.008373040705919266 0.1684466153383255
-0.14878958463668823 0.1723690629005432 0.1563616245985031
0.13359449803829193 -0.24831132590770721 -0.095285564661026
-0.330547958612442 -0.41370290517807007 -0.046983323991298676
0.29005882143974304 -0.2235700786113739 -0.13590840995311737
0.049710020422935486 0.22730214893817902 -0.11458644270896912
0.2575433850288391 -0.35820597410202026 0.15424558520317078
0.2997598350048065 -0.021854493767023087 0.15011709928512573
-0.26971107721328735 -0.23806297779083252 -0.05069591850042343
-0.269159197807312 0.030150022357702255 -0.12156186997890472
0.29752275347709656 0.1990121603012085 0.1508573442697525
-0.2680429220199585 0.0332287922501564 -0.12991517782211304
0.1952396035194397 0.37415117025375366 -0.05306551605463028
0.2624494433403015 -0.35338395833969116 0.14162002503871918
0.30139100551605225 0.10477302968502045 -0.039509475231170654
0.2162710428237915 -0.2371765673160553 -0.13468211889266968
0.10051988065242767 0.17505675554275513 0.15742072463035583
0.29747694730758667 0.04980089142918587 0.15108487010002136
-0.07033172249794006 0.15494117140769958 0.17284247279167175
-0.26801109313964844 -0.1686265915632248 0.15631172060966492
0.257408082485199 0.13727468252182007 0.15438394248485565
-0.26854386925697327 -0.06187623366713524 0.15264147520065308
0.2988651692867279 0.22074690461158752 0.12138160318136215
0.19588567316532135 0.37994056940078735 -0.05882583186030388
-0.2844000458717346 -0.3423607647418976 0.19891008734703064
0.08308462798595428 0.22891685366630554 -0.11092834174633026
-0.3269790709018707 -0.4053223431110382 -0.010993406176567078
0.0013231700286269188 0.21317917108535767 -0.23583285510540009
0.29079708456993103 0.3531346619129181 -0.02091958187520504
0.2052847445011139 0.3670455813407898 -0.06360173225402832
-0.2551758885383606 0.21023160219192505 -0.13274194300174713
-0.1887289136648178 0.16728588938713074 0.16229046881198883
0.29644444584846497 -0.13788262009620667 0.15149140357971191
-0.2898392677307129 -0.4428141117095947 -0.08399718254804611
-0.13474221527576447 0.10570207238197327 0.1711096316576004
-0.25625360012054443 0.07323387265205383 -0.1268368661403656
-0.14790721237659454 0.22635753452777863 -0.12842869758605957
-0.26878026127815247 0.08210678398609161 0.14739376306533813
-0.2057279497385025 -0.11929743736982346 0.1682424545288086
-0.2631509602069855 0.4573061466217041 0.011801844462752342
-0.17397665977478027 0.17115944623947144 0.16171196103096008
0.02122610993683338 0.21341964602470398 -0.13529254496097565
0.2960740923881531 -0.14741480350494385 0.14921934902668
-0.22904014587402344 -0.42536699771881104 -0.06425842642784119
0.2532864809036255 -0.24949850142002106 -0.09646685421466827
0.01901428960263729 -0.24423983693122864 0.15448427200317383
0.1786787211894989 -0.23969388008117676 -0.13604389131069183
-0.25994759798049927 0.11524274945259094 -0.1320827156305313
-0.06119868904352188 0.06038692966103554 -0.13435004651546478
-0.2000906616449356 -0.4271361231803894 0.10949773341417313
0.16053162515163422 0.15119926631450653 0.16302527487277985
-0.2650657892227173 0.3603544533252716 0.012145135551691055
-0.04004880040884018 -0.2494422346353531 0.14993098378181458
0.09686075896024704 -0.1832389235496521 -0.1330815851688385
-0.25654885172843933 0.1244574785232544 -0.13045580685138702
-0.2713664174079895 0.0022052479907870293 -0.0854974240064621
0.2986888587474823 0.2124236822128296 0.1369752734899521
-0.2632480561733246 0.013215012848377228 -0.1331956386566162
-0.23362959921360016 0.5012741088867188 0.047927141189575195
-0.2679036557674408 -0.010352037847042084 -0.12912525236606598
0.08873269706964493 0.19473516941070557 -0.13495834171772003
-0.26606443524360657 0.11509233713150024 0.15457439422607422
0.10560933500528336 0.2291639894247055 -0.10984568297863007
-0.22227731347084045 0.19954133033752441 0.15707145631313324
-0.24846740067005157 0.22440814971923828 -0.13158921897411346
-0.08343111723661423 -0.08911706507205963 -0.13264717161655426
-0.2649003565311432 0.3739679455757141 0.04599772393703461
-0.16097420454025269 0.14173296093940735 0.16652202606201172
0.13765612244606018 -0.3892289698123932 0.0962216854095459
0.2976949214935303 -0.07232657819986343 0.1496795266866684
0.11009661853313446 0.1961521953344345 -0.1359362155199051
0.21601104736328125 -0.2466108798980713 -0.1260320544242859
-0.32574132084846497 -0.3334850072860718 0.1818832904100418
0.20374000072479248 0.34405556321144104 -0.04790589213371277
-0.25527143478393555 0.128402441740036 -0.13132280111312866
-0.31629478931427 -0.34094396233558655 0.08096955716609955
0.2724175453186035 0.12089832127094269 0.1563524603843689
0.2982563376426697 0.11351678520441055 0.1522875428199768
0.011456376872956753 -0.24858948588371277 0.1553431749343872
0.2548205554485321 0.4764598608016968 0.11372168362140656
-0.26217904686927795 -0.12108193337917328 -0.13359571993350983
0.24911698698997498 0.22880086302757263 -0.11911427974700928
0.24864336848258972 0.2366039901971817 -0.060761481523513794
-0.16235287487506866 -0.010273545980453491 0.168054461479187
0.19774480164051056 -0.38401007652282715 0.18728642165660858
0.2969779372215271 0.22402440011501312 0.07514038681983948
0.22882619500160217 -0.18982982635498047 0.15867586433887482
-0.19838157296180725 -0.057122644037008286 -0.1308748871088028
0.29531770944595337 -0.1589171290397644 -0.1358049213886261
-0.26827436685562134 0.22676421701908112 0.04655597731471062
-0.26929616928100586 -0.07185814529657364 -0.1252080500125885
0.23652119934558868 -0.23142269253730774 -0.131671741604805
0.29937902092933655 -0.16061179339885712 0.03155103325843811
0.30054962635040283 0.13291551172733307 -0.13294805586338043
-0.19587117433547974 0.2289249151945114 0.09521224349737167
0.0878438949584961 0.10447891801595688 -0.13723187148571014
0.007807081565260887 0.16542398929595947 -0.13562019169330597
0.1051480695605278 -0.25452807545661926 0.1427071988582611
0.29743391275405884 0.09899719059467316 0.14173704385757446
0.280417263507843 -0.24966683983802795 -0.0425720289349556
0.23107734322547913 0.33357083797454834 0.0766005665063858
0.10542149841785431 0.22926434874534607 0.13108724355697632
0.17582421004772186 0.44275960326194763 0.042587146162986755
0.09263097494840622 0.17528942227363586 0.1563551425933838
0.2880862355232239 0.4009853005409241 -0.029421664774417877
-0.014633750542998314 -0.2447480857372284 -0.12998728454113007
0.1374722123146057 -0.2517654001712799 -0.056360650807619095
-0.265419065952301 -0.3150598704814911 -0.04435247182846069
-0.26733821630477905 -0.23990538716316223 -0.024507522583007812
-0.2717567980289459 -0.17081238329410553 0.14366009831428528
-0.27002477645874023 0.2263265997171402 -0.11516192555427551
-0.20443302392959595 0.03301957994699478 0.16910289227962494
-0.183877632021904 0.15820731222629547 0.16796185076236725
0.17523518204689026 0.23801524937152863 -0.1347389966249466
-0.2682976722717285 -0.2155332863330841 0.1314842253923416
-0.2686491310596466 -0.025078188627958298 -0.007777396589517593
0.21327805519104004 0.3763328492641449 -0.06896904110908508
0.07678215205669403 -0.02246434986591339 -0.1314546912908554
-0.20558878779411316 0.5037215352058411 0.06251990050077438
0.25842979550361633 0.05755823105573654 0.1535719782114029
0.055491749197244644 0.22699928283691406 0.06956823170185089
-0.007394351065158844 0.10830582678318024 -0.13367359340190887
-0.26084643602371216 0.20572429895401 -0.13390755653381348
0.2625569701194763 -0.27688977122306824 0.03795328736305237
-0.2691955864429474 0.2279089093208313 -0.07712065428495407
-0.26744648814201355 0.03553871810436249 0.15500427782535553
-0.2717132270336151 -0.05802037566900253 0.1394234001636505
-0.21707658469676971 -0.296162486076355 0.09421646595001221
0.26547497510910034 -0.2864404022693634 0.045804399996995926
0.0938723236322403 0.23083367943763733 0.13916528224945068
0.17700442671775818 0.3803759813308716 0.041294947266578674
-0.15434980392456055 0.050761811435222626 0.17026709020137787
-0.2701783776283264 -0.12574882805347443 -0.1206742376089096
-0.06462152302265167 0.16921664774417877 0.16339389979839325
-0.24795964360237122 0.16219930350780487 0.1576642394065857
0.16677013039588928 -0.24165549874305725 -0.1341385543346405
0.2624266743659973 -0.39241424202919006 -0.08095265924930573
-0.05751730129122734 0.1758471131324768 0.15488149225711823
0.24600255489349365 -0.4449236989021301 -0.030337905511260033
0.2414480298757553 -0.25009891390800476 0.1293432116508484
-0.2698099613189697 -0.21021929383277893 -0.1232680082321167
-0.271642804145813 -0.12188524752855301 -0.12043113261461258
0.2972758412361145 0.11224875599145889 0.1499040424823761
0.1909240484237671 0.2284635603427887 -0.11476778984069824
-0.019118672236800194 0.2289429008960724 -0.11057737469673157
0.26842257380485535 0.2306487113237381 -0.10305686295032501
0.03651113063097 0.1995602399110794 -0.22934751212596893
-0.2654135227203369 -0.1473378986120224 0.1578069031238556
0.29125356674194336 0.004835494793951511 -0.13390131294727325
-0.019363582134246826 0.16988898813724518 0.15457922220230103
0.24982047080993652 -0.3033874034881592 0.09458503872156143
0.01746859773993492 -0.1598382145166397 0.16864114999771118
0.08178044110536575 -0.25251874327659607 -0.12225501239299774
0.2985186278820038 0.36629271507263184 0.06908275932073593
0.27835988998413086 0.4750526547431946 -0.04130682349205017
0.2357151210308075 -0.3104449510574341 -0.07787907868623734
0.09639847278594971 0.17894408106803894 0.15804128348827362
0.15621903538703918 -0.36469629406929016 0.10294847190380096
-0.13540934026241302 0.17652921378612518 0.1545364260673523
0.23417407274246216 -0.36837852001190186 -0.09030521661043167
