0.2606354057788849 0.5034924149513245 0.115934818983078
0.2948839068412781 0.22600029408931732 0.12487657368183136
0.29568031430244446 0.22113357484340668 0.05732350796461105
-0.21192607283592224 -0.16994696855545044 0.17106755077838898
0.2983388304710388 0.006590201519429684 -0.132404163479805
0.2882832884788513 -0.42251086235046387 0.06780049204826355
-0.1599479615688324 -0.18195509910583496 0.16503314673900604
-0.11922821402549744 0.2163124829530716 -0.13416454195976257
-0.2720566987991333 0.07979880273342133 -0.12990541756153107
0.1887163519859314 -0.25213462114334106 -0.05459136515855789
0.15937766432762146 -0.38991105556488037 0.16461902856826782
-0.2691929042339325 0.0499560721218586 -0.13296078145503998
0.2877718508243561 -0.06367015838623047 -0.13480332493782043
0.07500304281711578 -0.2481589913368225 0.1184447631239891
0.0663854107260704 0.17671893537044525 0.15498432517051697
0.285730242729187 -0.1716620922088623 -0.1353447288274765
0.2917386293411255 -0.018433991819620132 -0.13732674717903137
-0.26859569549560547 0.21467192471027374 0.15693846344947815
-0.27032753825187683 0.044366274029016495 -0.128640279173851
0.0676145851612091 -0.19912061095237732 0.15586808323860168
0.2521384358406067 -0.297468364238739 0.0863935574889183
0.006457778625190258 0.2665198743343353 -0.2206449806690216
-0.264455109834671 -0.2965705394744873 0.026920538395643234
0.17644473910331726 -0.25159674882888794 0.14375203847885132
-0.19669122993946075 0.2262885719537735 0.15421080589294434
0.18554583191871643 -0.2524491548538208 0.06080183386802673
0.1716209501028061 -0.2485620379447937 -0.11810503900051117
0.2820528745651245 -0.23754703998565674 -0.13487353920936584
-0.27191293239593506 0.21695581078529358 -0.056322306394577026
-0.23072609305381775 0.00789719820022583 -0.13429756462574005
-0.2681157886981964 0.11238059401512146 -0.13254784047603607
0.21740691363811493 -0.446801096200943 0.1803637444972992
0.29470551013946533 -0.21427404880523682 0.14945559203624725
-0.11488144099712372 -0.24168695509433746 0.15923067927360535
0.08526558429002762 -0.23650284111499786 -0.13571423292160034
-0.044819898903369904 0.22567406296730042 0.15172860026359558
0.2902493178844452 0.22113478183746338 -0.13288886845111847
-0.22843186557292938 -0.0003988267853856087 0.1551157683134079
-0.2707338333129883 0.080503448843956 0.1467483788728714
-0.23930376768112183 -0.25766152143478394 0.005783027969300747
-0.01490964274853468 -0.1747937798500061 0.16958467662334442
-0.2697889506816864 -0.035881876945495605 -0.08460968732833862
0.012576738372445107 0.1817316859960556 -0.13630065321922302
-0.3064071238040924 -0.39841997623443604 -0.08482732623815536
-0.2705966532230377 0.11482875049114227 -0.0574231818318367
0.25574174523353577 -0.2416890263557434 -0.1342771351337433
0.16194787621498108 0.21568754315376282 0.15655146539211273
-0.2162536382675171 -0.0557454489171505 0.16317959129810333
-0.2613542079925537 -0.47094517946243286 -0.036891575902700424
-0.2743018865585327 -0.14099597930908203 0.10004913806915283
0.2422143667936325 0.16508428752422333 0.15816816687583923
0.09460936486721039 -0.25096768140792847 0.04449281841516495
0.022879300639033318 0.21101444959640503 -0.16750887036323547
0.25719526410102844 0.5000701546669006 -0.031461045145988464
0.23798221349716187 -0.049743253737688065 0.17220553755760193
0.09021943807601929 0.22890707850456238 0.1399986445903778
0.09136170893907547 -0.23676933348178864 -0.13545063138008118
0.25239941477775574 -0.07840625941753387 0.15475060045719147
-0.008629764430224895 -0.19037488102912903 0.15855823457241058
-0.2596915066242218 0.22589606046676636 -0.13255570828914642
-0.27081364393234253 -0.24274353682994843 0.14952825009822845
-0.3086589574813843 -0.3423715829849243 -0.0032531730830669403
0.0456148125231266 -0.17991167306900024 0.168600395321846
0.20216555893421173 -0.4317570626735687 -0.08140043914318085
0.29279643297195435 -0.07920768857002258 -0.13387808203697205
-0.270173043012619 -0.16099335253238678 -0.12320205569267273
0.29552462697029114 -0.23940294981002808 -0.013062447309494019
-0.15538319945335388 -0.25228261947631836 -0.020161306485533714
-0.2106037139892578 -0.28060948848724365 -0.062126439064741135
0.29526495933532715 0.1662614643573761 0.14610111713409424
-0.29749003052711487 -0.4239545464515686 -0.08973520249128342
0.08897370845079422 -0.23999753594398499 -0.13586312532424927
0.23788663744926453 -0.28868451714515686 0.08692900836467743
0.25014275312423706 -0.2589511275291443 0.05617012456059456
-0.2500651478767395 0.3902701437473297 -0.06385927647352219
-0.3168988823890686 -0.4019022583961487 -0.07595133781433105
0.1635015606880188 -0.251507967710495 0.05149278789758682
-0.10335925966501236 -0.2404806762933731 -0.13514308631420135
-0.17673464119434357 0.46656808257102966 0.10478486120700836
-0.15378254652023315 0.4009147584438324 0.014305130578577518
-0.13012325763702393 -0.19878944754600525 0.15591426193714142
0.10701736807823181 0.22681160271167755 0.15158197283744812
0.2890852987766266 0.1860649138689041 -0.13366585969924927
-0.12065838277339935 0.2260441929101944 -0.131577268242836
-0.19142714142799377 0.2312023937702179 0.05518556386232376
0.28614604473114014 -0.08367606997489929 -0.1343836784362793
0.2499036192893982 0.030401024967432022 0.15465781092643738
-0.2722940742969513 0.21334031224250793 -0.08942342549562454
-0.2707308828830719 -0.11229580640792847 -0.1264694780111313
0.18045420944690704 -0.43290796875953674 -0.06969285011291504
0.2966634929180145 -0.11371126770973206 -0.05994415283203125
-0.03372594341635704 0.22725160419940948 0.15174785256385803
-0.2318391501903534 0.15995948016643524 0.1555059552192688
-0.2474927008152008 0.3267821967601776 -0.005634215660393238
0.28781816363334656 -0.23605769872665405 -0.1335795372724533
-0.2898580729961395 0.01172651071101427 -0.30443012714385986
-0.2469063699245453 0.2270921766757965 -0.1301863193511963
0.28446653485298157 0.33344748616218567 0.0330662727355957
0.21364636719226837 0.4690573215484619 -0.06613799929618835
0.21256758272647858 0.17302516102790833 0.15295015275478363
-0.268679141998291 -0.050413940101861954 -0.1321067214012146
0.2778885066509247 0.0802643746137619 -0.13414548337459564
0.02635761722922325 -0.24858315289020538 0.1496274769306183
0.15770822763442993 -0.3506457805633545 -0.040998902171850204
-0.03586157411336899 0.20415852963924408 -0.1350756138563156
0.20267009735107422 0.3025648593902588 0.016622785478830338
0.24176564812660217 0.041197218000888824 0.1669272482395172
0.21199269592761993 -0.26744917035102844 -0.05313574895262718
0.06303958594799042 0.17565931379795074 0.15487493574619293
-0.27260562777519226 -0.11590438336133957 -0.08543521910905838
-0.18927356600761414 0.4550219178199768 -0.06314456462860107
-0.18666718900203705 -0.17839547991752625 0.1696518510580063
-0.1401047706604004 -0.14289821684360504 -0.13587963581085205
0.17026101052761078 -0.1582009196281433 -0.13355928659439087
-0.20762789249420166 -0.3106403648853302 -0.06650654971599579
0.2971799373626709 0.21689839661121368 -0.062351591885089874
0.28968173265457153 -0.046042975038290024 -0.1333804875612259
0.03140100836753845 0.2270352840423584 -0.11822625994682312
-0.2994517982006073 -0.4450175166130066 -0.07640593498945236
0.050762075930833817 0.09893667697906494 -0.13656304776668549
0.24850811064243317 0.5139132738113403 0.10794006288051605
0.08976325392723083 -0.24868826568126678 -0.133512482047081
0.2489253580570221 0.08192720264196396 0.15542420744895935
0.21058356761932373 0.22880178689956665 0.05389232188463211
0.07302087545394897 -0.18993604183197021 0.15693651139736176
0.28631630539894104 0.02538514882326126 -0.13366155326366425
-0.12189240753650665 0.2255827784538269 -0.1265699565410614
-0.09968048334121704 -0.21457239985466003 -0.13756079971790314
-0.25707197189331055 0.22606918215751648 -0.11676180362701416
0.255582332611084 -0.29104503989219666 0.07648015767335892
-0.019084690138697624 0.22915861010551453 -0.07348061352968216
-0.2359684705734253 -0.3203870356082916 0.11356362700462341
-0.24399012327194214 -0.43150579929351807 0.15560194849967957
-0.15981124341487885 0.4177437424659729 0.09449997544288635
0.2920152246952057 -0.06528080999851227 0.15699371695518494
0.284103661775589 0.09629273414611816 0.1585625857114792
0.007996439933776855 -0.24749839305877686 0.15604037046432495
-0.23670706152915955 0.22606371343135834 -0.1220378428697586
-0.0908462181687355 0.14226508140563965 0.17083601653575897
-0.27036067843437195 -0.02286454290151596 0.15432173013687134
0.2436787337064743 -0.41584745049476624 0.20261195302009583
-0.26875078678131104 -0.0264892615377903 -0.11386507749557495
0.21336740255355835 0.31655094027519226 -0.027091968804597855
0.1312635838985443 -0.24937565624713898 0.10949636995792389
-0.2685900330543518 0.10077378153800964 0.1201503723859787
0.29418081045150757 -0.2047460824251175 0.14745517075061798
0.06770210713148117 -0.24246108531951904 0.15637493133544922
0.14427921175956726 -0.4443562924861908 0.06722909212112427
-0.233217254281044 0.1561926007270813 0.15602858364582062
0.172438845038414 0.4241558015346527 0.0030939201824367046
-0.15300387144088745 -0.19938664138317108 0.1574188619852066
0.10322261601686478 0.22911906242370605 0.1389535665512085
-0.2452860325574875 -0.003250441513955593 -0.2607567608356476
-0.26749175786972046 -0.1347096711397171 0.15801236033439636
-0.2696002423763275 0.14030081033706665 -0.1311686933040619
0.07146266102790833 -0.2471408098936081 -0.1272478848695755
0.2856983542442322 -0.22400572896003723 -0.13630938529968262
0.28427332639694214 -0.21602311730384827 -0.13288195431232452
-0.28702613711357117 -0.4251032769680023 -0.09184162318706512
-0.1767883449792862 0.2299165576696396 -0.011716590262949467
0.18690288066864014 -0.2432999163866043 -0.13481494784355164
-0.26866698265075684 -0.1121181771159172 0.156155526638031
-0.19327139854431152 0.23043464124202728 -0.03026408888399601
0.2086351364850998 0.3045581877231598 -0.013784365728497505
0.13301832973957062 0.14854539930820465 0.17033368349075317
0.28620561957359314 -0.25284722447395325 0.08271898329257965
-0.2700137495994568 -0.22799044847488403 -0.1285676658153534
0.10419151186943054 0.16418492794036865 0.15885967016220093
0.1459156572818756 -0.4458528459072113 0.09853458404541016
0.255034476518631 0.5090309381484985 0.11037200689315796
0.19838690757751465 0.229778453707695 0.040534403175115585
-0.2678854465484619 -0.07764100283384323 -0.12943080067634583
0.2976209819316864 0.21888048946857452 -0.0786241739988327
0.22146281599998474 -0.07158209383487701 -0.13481725752353668
-0.261944055557251 0.17351621389389038 0.15750068426132202
0.2558608055114746 -0.1041780412197113 0.15483927726745605
0.27770939469337463 -0.4390817880630493 0.1959250569343567
-0.2699596583843231 0.2273634523153305 -0.0026082382537424564
0.19206351041793823 0.22636879980564117 -0.02853008732199669
0.287301242351532 -0.14694398641586304 -0.13424605131149292
-0.3005305230617523 -0.31345662474632263 0.15227273106575012
-0.26911869645118713 -0.05126594752073288 -0.12641799449920654
-0.26903581619262695 -0.18102337419986725 -0.13302941620349884
0.22033363580703735 0.17471885681152344 0.1537112146615982
0.2825119197368622 -0.20237141847610474 -0.1332695335149765
-0.0855928510427475 0.21462412178516388 0.15662096440792084
0.2955208420753479 -0.05745484307408333 0.1428731381893158
-0.21152596175670624 0.4487645626068115 -0.0738072469830513
0.2807287573814392 0.48729294538497925 0.11081436276435852
-0.23306772112846375 0.22988298535346985 -0.027129940688610077
0.29947102069854736 -0.012858999893069267 -0.13275112211704254
0.22759562730789185 0.51607745885849 0.0021737718489021063
-0.27048319578170776 -0.153067484498024 -0.12593933939933777
-0.26321879029273987 -0.3283590078353882 -0.07340753823518753
-0.2822871804237366 -0.00939952488988638 -0.30670320987701416
0.29225361347198486 -0.432975709438324 0.10021090507507324
0.10725901275873184 -0.17455971240997314 0.16949540376663208
0.026910953223705292 -0.2469814419746399 0.15623146295547485
-0.20110616087913513 -0.25324058532714844 -0.05637483671307564
-0.2933371365070343 -0.45301562547683716 -0.07011760771274567
-0.31639569997787476 -0.3215091824531555 0.15067236125469208
0.2880159318447113 -0.24811428785324097 -0.07775723934173584
-0.27090325951576233 0.21047347784042358 -0.10839749127626419
0.28148141503334045 0.07759436964988708 -0.13469037413597107
-0.249873086810112 -0.2498810887336731 0.06537304818630219
-0.31648311018943787 -0.36108070611953735 0.1902887225151062
-0.24145078659057617 -0.3325708210468292 -0.08301100879907608
-0.18731585144996643 -0.2520444095134735 0.08517242968082428
0.29411041736602783 0.026883795857429504 -0.13217781484127045
0.288655549287796 -0.07812505960464478 -0.1339087188243866
0.23517340421676636 -0.24817973375320435 -0.12135753035545349
0.0037306444719433784 0.1778310388326645 -0.13714216649532318
0.2722426950931549 -0.4473002254962921 0.1682433784008026
-0.3287796378135681 -0.33555057644844055 0.16040943562984467
0.1374097317457199 -0.432616263628006 0.019202720373868942
0.29747551679611206 0.2198302298784256 0.0924745723605156
-0.2718925178050995 -0.23367497324943542 -0.06226680427789688
-0.22157473862171173 0.24533843994140625 -0.025400489568710327
0.23542094230651855 0.4578748345375061 -0.07737163454294205
0.29693403840065 0.02981654554605484 0.13508810102939606
0.24163450300693512 0.04940998554229736 0.1647360920906067
-0.2727260887622833 -0.0493721142411232 -0.13183915615081787
0.29413557052612305 0.058082275092601776 -0.13233090937137604
-0.21424108743667603 0.1500343680381775 0.1666872650384903
0.11242403835058212 0.17903168499469757 0.15568837523460388
0.2881079912185669 -0.15766772627830505 -0.13559648394584656
0.29256534576416016 0.16990907490253448 0.15744823217391968
-0.26976335048675537 0.11400212347507477 -0.12962988018989563
-0.20839321613311768 0.08530284464359283 0.16978855431079865
-0.2319599688053131 -0.27692997455596924 -0.05181976407766342
-0.2707514464855194 0.22028878331184387 -0.03227455914020538
0.10604842007160187 -0.24948722124099731 -0.11896110326051712
0.28607940673828125 -0.14340180158615112 -0.1346268355846405
-0.2128354012966156 -0.25701871514320374 -0.052608389407396317
0.04784111678600311 0.09209223836660385 -0.1340019702911377
0.00831497274339199 -0.2483997493982315 0.15235093235969543
0.10572774708271027 -0.2505970299243927 0.14384114742279053
0.2878858149051666 0.009771870449185371 -0.13465140759944916
0.2923109531402588 0.22503463923931122 -0.004745939746499062
0.296919584274292 0.12879469990730286 -0.12552540004253387
0.10779834538698196 0.06683088839054108 -0.1375526636838913
-0.26597559452056885 0.22449824213981628 -0.08229672908782959
0.20576512813568115 0.36740532517433167 -0.07343053817749023
0.24457648396492004 -0.07750768214464188 0.16433241963386536
0.21568749845027924 -0.26803550124168396 0.07377447187900543
-0.24216528236865997 0.38518214225769043 -0.07139624655246735
-0.27200403809547424 0.21845625340938568 0.03458477929234505
0.1252715289592743 -0.25379785895347595 0.06319420039653778
0.2891986668109894 -0.43750259280204773 0.032179009169340134
0.28799813985824585 -0.07951225340366364 -0.134160578250885
0.28955814242362976 -0.11078116297721863 0.1565374881029129
-0.026038698852062225 0.171895369887352 -0.13709591329097748
-0.04854201897978783 0.2274315357208252 0.14414428174495697
0.286099910736084 -0.10695867240428925 0.15530486404895782
0.2937276065349579 -0.25094738602638245 0.11648969352245331
-0.11168966442346573 0.22791574895381927 -0.12416169792413712
-0.2817838788032532 -0.3073228895664215 0.1043008342385292
0.04587903991341591 0.223550483584404 -0.20443163812160492
0.2902910113334656 0.22481705248355865 0.0952659472823143
0.19576877355575562 0.4879012107849121 0.09767422080039978
-0.26720166206359863 -0.213585764169693 -0.13237695395946503
0.2662447690963745 0.2166251689195633 -0.13431736826896667
-0.21308505535125732 -0.428201824426651 0.1566007286310196
0.27704674005508423 -0.33742254972457886 0.10919518768787384
-0.33521994948387146 -0.40341106057167053 -0.004715658724308014
-0.2706792652606964 -0.13017311692237854 -0.12155188620090485
-0.18748244643211365 0.23262329399585724 -0.01850166730582714
0.287590891122818 -0.009116919711232185 -0.13314570486545563
-0.15156880021095276 0.38631346821784973 0.02937937341630459
-0.24925482273101807 -0.3430372476577759 -0.08461599051952362
0.2273622304201126 0.12540119886398315 0.1711500585079193
0.2698896825313568 0.47433745861053467 0.12811605632305145
-0.27117919921875 0.00485694594681263 -0.13463729619979858
-0.2626086473464966 -0.30578041076660156 0.10947959125041962
-0.18460403382778168 0.22408463060855865 0.0799277126789093
0.2373281866312027 0.22871316969394684 -0.03511546552181244
0.25633132457733154 -0.31534886360168457 0.09987049549818039
-0.15879830718040466 0.17684058845043182 0.15464921295642853
-0.002853225916624069 0.18898087739944458 -0.1351877897977829
0.29629331827163696 0.1945250928401947 0.1549249291419983
-0.09802523255348206 0.21713285148143768 0.1571754515171051
-0.1756223440170288 0.37105822563171387 0.10163915157318115
0.0880834311246872 0.16771656274795532 -0.13406987488269806
-0.1406211256980896 -0.18588632345199585 0.16084499657154083
-0.10306137055158615 -0.09113622456789017 -0.13406150043010712
0.15217462182044983 0.21170949935913086 -0.13449601829051971
-0.21011672914028168 0.4136030375957489 -0.08166584372520447
-0.27224254608154297 0.0340757854282856 -0.13048942387104034
0.009629583917558193 0.08565305918455124 0.1700291633605957
-0.22881412506103516 -0.47815194725990295 0.03782506287097931
-0.2722799479961395 0.0042897239327430725 -0.1311703473329544
0.2921437621116638 0.13392311334609985 -0.1344330608844757
-0.27601203322410583 -0.34600162506103516 -0.08210927248001099
-0.21503911912441254 0.038118474185466766 0.16767631471157074
0.05470242351293564 -0.24886980652809143 -0.12474372982978821
-0.25228843092918396 0.0585794597864151 -0.28949180245399475
-0.25986871123313904 -0.1371002346277237 -0.13215406239032745
0.2931370139122009 0.11239945888519287 -0.1321600079536438
-0.24184675514698029 -0.35318371653556824 -0.08866136521100998
0.1988125443458557 -0.24964649975299835 0.1298186480998993
-0.2200402319431305 0.4270176589488983 -0.0781317725777626
0.16740617156028748 -0.2637051045894623 0.00890686921775341
-0.12611660361289978 -0.23660187423229218 0.15767942368984222
0.2900468707084656 -0.022960975766181946 -0.13235919177532196
-0.1165609210729599 0.22831398248672485 -0.12999695539474487
0.2935567796230316 0.14136601984500885 -0.13406410813331604
0.22076630592346191 0.1449141800403595 0.17024195194244385
0.20121359825134277 0.30953890085220337 0.004876328632235527
0.29701003432273865 0.09867013245820999 0.1488264948129654
0.280807226896286 -0.4459530711174011 0.10792442411184311
0.27980107069015503 -0.16165919601917267 0.15444114804267883
0.21723078191280365 0.4913828372955322 -0.04155135899782181
0.25804486870765686 0.09710744023323059 0.15585707128047943
0.2954389750957489 -0.09944029152393341 -0.13123813271522522
0.2565799653530121 -0.26149019598960876 0.0017964895814657211
-0.1382610946893692 0.2270798236131668 0.15220105648040771
0.06429442763328552 0.08989281207323074 0.1699090451002121
0.27503103017807007 -0.34346646070480347 0.11768247187137604
0.22985407710075378 -0.18227967619895935 0.16418710350990295
0.29776328802108765 0.19531500339508057 -0.12689106166362762
0.0547202005982399 -0.23903268575668335 -0.13415464758872986
0.28535497188568115 0.13870695233345032 -0.13243047893047333
-0.07180425524711609 0.21622388064861298 -0.1342380940914154
0.26172542572021484 0.2306458204984665 -0.031306538730859756
0.2535988688468933 0.1766001433134079 -0.1350376158952713
-0.2295875996351242 -0.02078115940093994 0.15379196405410767
-0.2707873582839966 0.09911282360553741 -0.12735092639923096
-0.2697050869464874 -0.18599340319633484 -0.12715907394886017
-0.020593173801898956 -0.19132423400878906 0.15481609106063843
0.2829491198062897 -0.09641195833683014 -0.13864056766033173
-0.2293556034564972 0.09773992002010345 0.1534164398908615
0.29653236269950867 -0.11547240614891052 -0.13153499364852905
-0.2703893184661865 -0.08685896545648575 -0.12923990190029144
-0.10565700381994247 0.21211308240890503 -0.13492850959300995
0.050045132637023926 0.2142593413591385 -0.1348249465227127
0.2251001000404358 0.16011226177215576 0.1648966670036316
0.1963837593793869 0.4960514008998871 -0.0006570527330040932
0.2972482740879059 0.18473388254642487 -0.11783188581466675
-0.08044029772281647 -0.23788245022296906 -0.13291588425636292
0.08193603157997131 0.21602247655391693 -0.13539007306098938
-0.24839575588703156 -0.3255392611026764 -0.08104926347732544
0.17605605721473694 -0.24650830030441284 0.12746521830558777
-0.2617000937461853 -0.18758590519428253 -0.13365931808948517
0.21435236930847168 -0.3799491822719574 -0.08808642625808716
0.243890181183815 -0.40546002984046936 -0.08937691152095795
-0.20036646723747253 0.3784990906715393 -0.07522527873516083
0.29699796438217163 0.18515002727508545 -0.13252714276313782
0.2859593331813812 -0.22928962111473083 -0.13510772585868835
-0.1401987075805664 0.22626951336860657 0.04795253276824951
0.15933823585510254 -0.25008121132850647 -0.0703793466091156
-0.24974152445793152 0.350927472114563 -0.04930863156914711
0.2098069190979004 0.22400595247745514 -0.1325741708278656
0.1674995720386505 -0.2509560286998749 -0.005778508260846138
0.297991544008255 0.2053912878036499 -0.12338076531887054
0.26648399233818054 -0.42457303404808044 -0.07929984480142593
-0.26751142740249634 -0.23462367057800293 0.12419398128986359
0.044219519942998886 0.11270669102668762 -0.13489706814289093
0.2056952565908432 0.4302358627319336 0.0964529812335968
-0.22042794525623322 -0.46502983570098877 0.07229422777891159
0.27156123518943787 -0.441377192735672 -0.020390329882502556
0.1945239007472992 0.39211708307266235 0.11450029909610748
0.23846115171909332 -0.28881797194480896 0.08619983494281769
0.22926069796085358 0.3542681932449341 -0.08107045292854309
-0.21116718649864197 -0.07780690491199493 0.16915765404701233
0.2843429148197174 -0.4287022054195404 0.011341797187924385
0.2915182113647461 -0.09247682988643646 0.15598243474960327
0.18908649682998657 0.3377744257450104 -0.03185687214136124
0.2972480058670044 -0.24054594337940216 -0.09791618585586548
-0.2703680992126465 0.22524556517601013 0.034041181206703186
-0.2599293887615204 -0.2513008415699005 0.1280202865600586
0.15417322516441345 -0.25095024704933167 0.1534581482410431
-0.2347850799560547 -0.2907330393791199 -0.06014704704284668
0.07099297642707825 0.22331702709197998 0.15683285892009735
0.21617016196250916 -0.4457664489746094 0.18127477169036865
-0.33329328894615173 -0.3517231345176697 0.18107515573501587
0.23178242146968842 -0.06542503833770752 0.1698116660118103
-0.2783040404319763 -0.38588088750839233 0.20877134799957275
-0.16229838132858276 0.46032649278640747 0.08073373883962631
0.2446259707212448 -0.2603241801261902 -0.036443229764699936
0.29733169078826904 0.4016660153865814 0.12254077196121216
-0.2712627649307251 0.2182251214981079 -0.028780288994312286
-0.22006744146347046 -0.24678239226341248 0.15420542657375336
-0.23914359509944916 0.4930674731731415 0.10347465425729752
0.24092432856559753 0.09523500502109528 -0.13436292111873627
-0.2648122310638428 -0.250550776720047 -0.09736253321170807
-0.02126896381378174 0.1773219257593155 -0.1305139660835266
-0.2701042890548706 0.17273497581481934 -0.12234073877334595
0.017857927829027176 -0.05555525794625282 -0.1351260542869568
-0.23452264070510864 -0.2325219213962555 -0.1379905790090561
-0.23221832513809204 -0.2840758264064789 0.08443909138441086
0.29142266511917114 0.04890694469213486 -0.13483214378356934
0.008407285436987877 0.22474005818367004 -0.2462172955274582
-0.2699112594127655 0.1312265843153 -0.12795935571193695
-0.1917363703250885 -0.2507207691669464 -0.056912630796432495
-0.18474429845809937 0.4825395941734314 -0.030584346503019333
-0.26817071437835693 -0.03929795324802399 -0.1338355988264084
0.29506024718284607 -0.2464623749256134 0.10954425483942032
-0.15210066735744476 -0.2648160457611084 0.02319655753672123
-0.14975717663764954 -0.2517249882221222 -0.01915096305310726
0.2845890522003174 -0.14086374640464783 -0.13463424146175385
-0.27081912755966187 0.22197526693344116 -0.07185950875282288
-0.2349185347557068 -0.08939997851848602 -0.13395532965660095
0.2839822769165039 -0.2248818576335907 -0.13218575716018677
-0.029989324510097504 -0.23363161087036133 -0.13462035357952118
-0.3329600691795349 -0.4053525924682617 -0.056469231843948364
0.29592686891555786 0.1359879970550537 0.14591167867183685
0.09059373289346695 -0.24934035539627075 0.14542460441589355
-0.2929874062538147 0.058663420379161835 -0.301482230424881
0.20250296592712402 0.22722309827804565 -0.12866100668907166
-0.24447773396968842 0.11551856249570847 -0.13643348217010498
-0.047040488570928574 -0.23185090720653534 -0.1359236240386963
-0.2213616669178009 -0.41016870737075806 0.1839190125465393
-0.27176523208618164 0.10481327772140503 -0.05663812533020973
0.2083340734243393 -0.2482149302959442 0.14599013328552246
-0.272953063249588 0.2115587741136551 -0.09893374145030975
-0.2948836386203766 0.06260456144809723 -0.2836677134037018
0.22250571846961975 0.22816602885723114 0.15088379383087158
0.19571778178215027 0.5013273358345032 0.011711928993463516
-0.26866552233695984 -0.11978663504123688 -0.13192389905452728
-0.27148744463920593 -0.0007771849632263184 0.15092253684997559
0.24167895317077637 -0.2886526584625244 0.08440890908241272
0.29533886909484863 -0.23728659749031067 0.05995231121778488
0.296428382396698 -0.20206689834594727 -0.1326395720243454
-0.26789402961730957 0.028306251391768456 -0.13336873054504395
-0.1985718309879303 0.3560275733470917 -0.0646808072924614
-0.22202971577644348 -0.43241459131240845 0.1668882668018341
-0.2374613881111145 0.23104886710643768 0.10637282580137253
0.07825932651758194 0.16805540025234222 0.15316346287727356
0.26708105206489563 0.34621065855026245 -0.07189816236495972
0.09823812544345856 -0.24829818308353424 0.15085084736347198
0.06251168251037598 -0.24939465522766113 -0.11771126836538315
0.2886287569999695 -0.04668173938989639 -0.1334865391254425
-0.15005627274513245 -0.25097009539604187 -0.04690583795309067
0.27900850772857666 -0.44402197003364563 0.0743999257683754
0.024226350709795952 -0.2477988451719284 -0.12337270379066467
0.254738450050354 -0.09555728733539581 0.153293177485466
0.17350895702838898 -0.24274034798145294 -0.1355118304491043
-0.26205113530158997 -0.2984897494316101 0.10138431936502457
0.23354649543762207 0.14156362414360046 0.16870400309562683
0.20283478498458862 -0.2407279908657074 -0.13282637298107147
0.2040334939956665 0.2310820072889328 0.14144174754619598
0.08186514675617218 0.1652975082397461 0.1564464569091797
0.16467969119548798 -0.2457243651151657 -0.13555864989757538
-0.2697020173072815 0.05094236508011818 -0.13056257367134094
0.3004409372806549 -0.24609366059303284 0.11994840949773788
-0.15041939914226532 0.17775869369506836 0.15536117553710938
-0.27200084924697876 -0.2219846099615097 0.009861867874860764
-0.2706572115421295 -0.21139748394489288 0.1519235372543335
-0.13602742552757263 0.05764337629079819 -0.13145209848880768
0.2579575777053833 0.5031907558441162 -0.01182024460285902
-0.2611279785633087 -0.30836036801338196 -0.04959002137184143
-0.2692088782787323 0.0948561504483223 -0.12318862974643707
0.2788550853729248 -0.21375685930252075 -0.1338385045528412
-0.046736493706703186 0.1445317566394806 0.17054200172424316
0.032213639467954636 0.22720281779766083 0.15008853375911713
-0.0023553380742669106 0.15169015526771545 0.17003269493579865
-0.26330387592315674 0.16892875730991364 -0.1341344118118286
0.09361007809638977 0.22254100441932678 0.15433816611766815
0.2192242294549942 0.22623474895954132 -0.13038063049316406
0.09394930303096771 0.22765858471393585 0.06334783881902695
0.29033970832824707 -0.0703309029340744 -0.13438674807548523
0.17365789413452148 0.2238408774137497 0.15620452165603638
0.2839980721473694 -0.2013925462961197 -0.13671092689037323
0.19737672805786133 0.48898211121559143 0.10825125128030777
0.25698620080947876 0.017746487632393837 0.1548529714345932
0.04325198382139206 0.2153388261795044 -0.23093043267726898
-0.2420511245727539 0.2537713944911957 -0.004093147814273834
0.20252996683120728 0.5051434636116028 0.05689416825771332
0.2950887382030487 -0.07883138954639435 0.14338552951812744
-0.25666090846061707 0.46299663186073303 0.10145441442728043
-0.26963719725608826 -0.17000329494476318 -0.09946583211421967
-0.19158488512039185 0.008843278512358665 0.1695294827222824
0.24171242117881775 0.02962213009595871 0.16424590349197388
-0.26519352197647095 -0.45090851187705994 -0.07357257604598999
0.26569461822509766 0.39010438323020935 -0.08096001297235489
-0.015225695446133614 0.15724468231201172 -0.13524769246578217
0.28967905044555664 -0.0509621761739254 -0.13453443348407745
0.2919265925884247 0.10472656786441803 -0.13225050270557404
0.2051047384738922 0.3134955167770386 0.032464176416397095
-0.2175455242395401 0.1557682454586029 0.15906676650047302
0.08403714746236801 -0.25056615471839905 -0.05065209046006203
0.24700023233890533 -0.015173293650150299 0.15775077044963837
-0.26112228631973267 -0.3110853433609009 0.12104056775569916
0.28273046016693115 -0.2275848090648651 -0.13193799555301666
0.24191711843013763 -0.4045652449131012 -0.0907549038529396
-0.09134067595005035 -0.24727945029735565 0.1499517560005188
-0.22593837976455688 -0.1973411738872528 0.15535138547420502
-0.2528987526893616 0.3440394103527069 -0.037970997393131256
-0.2937115430831909 -0.45358699560165405 -0.06653232872486115
-0.2710207998752594 -0.17545107007026672 -0.09092703461647034
0.2969946563243866 0.12098987400531769 -0.07936340570449829
0.21366867423057556 -0.24410879611968994 -0.13391909003257751
-0.2330196499824524 0.4941426217556 0.10613119602203369
-0.28833460807800293 -0.44868746399879456 -0.08187834173440933
-0.03599495813250542 0.17262496054172516 -0.13784651458263397
-0.27052685618400574 0.045043639838695526 0.15403544902801514
0.2955086827278137 0.08674783259630203 -0.1322648525238037
-0.2692555785179138 0.1936260312795639 -0.00593733973801136
-0.25290393829345703 0.34182798862457275 -0.03350495919585228
-0.2198525369167328 0.24488388001918793 0.052793100476264954
0.2338516116142273 -0.14032019674777985 0.17086204886436462
-0.19024747610092163 -0.39603400230407715 0.10206841677427292
0.2602946162223816 -0.44550400972366333 0.07097574323415756
0.13503840565681458 -0.43554410338401794 0.08591865748167038
0.148910790681839 -0.2506769597530365 0.05296499282121658
-0.04774334654211998 0.21618369221687317 -0.13595983386039734
-0.29687345027923584 -0.43951722979545593 -0.08731584995985031
-0.22011728584766388 -0.07397544384002686 0.16241325438022614
0.0896177887916565 0.22888462245464325 0.1398381143808365
-0.27158626914024353 -0.18143489956855774 -0.12650805711746216
-0.15829506516456604 -0.2509067952632904 0.054420240223407745
-0.2677370309829712 -0.008364069275557995 -0.13305139541625977
0.05178992450237274 0.1684938371181488 -0.2073727399110794
-0.2717117369174957 0.15641574561595917 0.14650364220142365
-0.262591153383255 0.16885092854499817 -0.13470405340194702
-0.2635360062122345 0.07014361768960953 0.15787772834300995
-0.28507450222969055 -0.03181402012705803 -0.2948221266269684
-0.2713245749473572 -0.3413318693637848 -0.07812988758087158
0.28933316469192505 -0.15277868509292603 0.15688854455947876
-0.21081019937992096 0.08938687294721603 0.1693035513162613
-0.26589226722717285 -0.08387695252895355 -0.13214300572872162
0.06499134004116058 0.0012303125113248825 -0.13433516025543213
-0.20805899798870087 -0.25052908062934875 -0.05707816034555435
0.2294270396232605 -0.2764970064163208 -0.0602806992828846
-0.2701285183429718 -0.10905548930168152 -0.12289994955062866
0.10821942985057831 0.14942488074302673 0.1709395945072174
0.2861415445804596 0.21461835503578186 -0.1327793151140213
0.29351741075515747 -0.14214448630809784 0.14470545947551727
0.23840489983558655 -0.2355378270149231 -0.13387003540992737
-0.13617312908172607 -0.17540645599365234 0.1709705889225006
-0.2540220320224762 -0.22447508573532104 -0.13680116832256317
0.23579803109169006 -0.2387407422065735 0.15526823699474335
-0.2432367503643036 -0.29969388246536255 0.09326403588056564
0.27792027592658997 0.4244328737258911 0.12157880514860153
-0.10543242841959 -0.2481984794139862 -0.031605564057826996
0.09996733069419861 -0.18678221106529236 0.16141824424266815
-0.025678075850009918 0.22451524436473846 -0.031203554943203926
0.0640389546751976 0.10980378091335297 -0.13539756834506989
-0.2663845717906952 -0.2504331171512604 -0.07294376194477081
-0.02377706579864025 0.2275753766298294 0.14994609355926514
-0.2619021534919739 0.06484164297580719 0.15834176540374756
0.2956244647502899 -0.08169025927782059 -0.06390219181776047
0.2947167456150055 -0.009083064272999763 0.14893728494644165
-0.22355397045612335 -0.3010040521621704 -0.06530167907476425
-0.26190000772476196 -0.36366233229637146 -0.09249532222747803
-0.0736675038933754 0.22693374752998352 -0.12414040416479111
-0.2702953815460205 -0.09143510460853577 -0.13170810043811798
0.2946118116378784 0.1472546011209488 0.14448189735412598
-0.27022117376327515 -0.09189867228269577 -0.13121987879276276
-0.20220857858657837 0.24289965629577637 0.050641439855098724
-0.20188775658607483 -0.25226891040802 -0.05404333025217056
-0.26981738209724426 0.22288867831230164 -0.033509887754917145
-0.26770249009132385 0.19887541234493256 0.15788236260414124
0.27165907621383667 -0.3798161745071411 0.17306815087795258
0.005021337419748306 -0.2473689466714859 -0.05194880813360214
-0.27996280789375305 -0.3218994140625 -0.03060709498822689
-0.2612209618091583 0.022259972989559174 -0.13508917391300201
0.1512807458639145 0.22948984801769257 -0.05131014809012413
0.10084103047847748 -0.24965296685695648 0.1443212628364563
-0.22836843132972717 -0.2398899346590042 0.1587466299533844
0.09289810806512833 -0.2456442415714264 0.15354284644126892
-0.23790600895881653 -0.3524455428123474 -0.08844172954559326
0.23123200237751007 -0.24582555890083313 0.15254244208335876
-0.26925429701805115 0.08452735096216202 -0.12947146594524384
-0.21423593163490295 0.08119553327560425 -0.1321878433227539
0.14063586294651031 -0.44212013483047485 0.09959164261817932
-0.2511705160140991 -0.24751409888267517 0.06731978058815002
-0.24948355555534363 -0.4297677278518677 0.14983445405960083
-0.1302836388349533 0.2266763597726822 -0.12021392583847046
-0.2261650264263153 0.16488467156887054 0.1531728208065033
-0.1805787831544876 -0.40249067544937134 0.013103370554745197
0.21860286593437195 0.041397612541913986 0.16909922659397125
-0.2625606656074524 -0.04945451766252518 -0.1336440145969391
0.21062777936458588 0.4733911454677582 -0.06135993450880051
0.29099851846694946 -0.24727950990200043 -0.07601171731948853
0.11036419868469238 0.2236056625843048 0.15548761188983917
0.29056882858276367 -0.43077579140663147 0.07311089336872101
0.2923867702484131 -0.04095478728413582 -0.13292020559310913
-0.2643827795982361 -0.0644463449716568 -0.13253624737262726
0.19560489058494568 -0.17927144467830658 0.17099390923976898
0.21395254135131836 0.1784757375717163 0.15572834014892578
-0.024403512477874756 -0.24669624865055084 -0.12993121147155762
-0.08433422446250916 0.15208373963832855 0.16796794533729553
-0.2687285840511322 0.20081797242164612 -0.12381009757518768
-0.09611287713050842 -0.17739176750183105 0.1696188747882843
0.2951120436191559 0.22681716084480286 -0.108301542699337
-0.012114888057112694 0.22709038853645325 0.05762401968240738
-0.19307057559490204 0.4615635871887207 -0.05683403089642525
-0.10963553190231323 0.165900319814682 0.1558048129081726
0.23684900999069214 0.05800003185868263 0.16888192296028137
-0.2681727111339569 -0.0051520103588700294 -0.13360251486301422
0.1440659612417221 -0.42981985211372375 0.16255247592926025
-0.18524879217147827 0.23002487421035767 0.049447640776634216
0.13858705759048462 -0.1818457692861557 0.1647820770740509
-0.21596702933311462 -0.2506144344806671 -0.06058371439576149
-0.20858079195022583 0.11912927776575089 0.16753965616226196
-0.26338082551956177 0.20675715804100037 -0.1330234557390213
-0.26679182052612305 0.21428143978118896 0.15630528330802917
-0.1938006430864334 0.1652197539806366 0.15892283618450165
0.0014027617871761322 0.00803929753601551 -0.1351420283317566
-0.26989638805389404 0.0718928724527359 0.15495094656944275
0.27908340096473694 -0.44313859939575195 0.1005895584821701
-0.2401454895734787 -0.013923663645982742 -0.13461638987064362
0.28922250866889954 0.4564361572265625 0.11952182650566101
0.13219916820526123 -0.23530200123786926 -0.1343420445919037
0.23199209570884705 0.061841778457164764 0.1717943698167801
-0.01732664182782173 -0.04299772158265114 -0.1335793435573578
-0.2728483974933624 0.2187419980764389 -0.06275516003370285
-0.26263871788978577 -0.09637854993343353 -0.1338619589805603
0.21797208487987518 0.3613358438014984 -0.08028677850961685
0.25559481978416443 -0.10638237744569778 0.15400749444961548
0.27770155668258667 -0.401540070772171 -0.04310303181409836
0.28769582509994507 0.22666746377944946 0.07389800250530243
0.29423701763153076 0.0892455130815506 -0.13181500136852264
0.1264023333787918 0.22824491560459137 0.15372484922409058
-0.15857601165771484 0.04848092049360275 -0.13354112207889557
0.06076601892709732 0.17431442439556122 0.15488336980342865
-0.28946399688720703 0.07842294871807098 -0.27840015292167664
-0.18119719624519348 0.2258453667163849 0.14893776178359985
0.1664821356534958 0.21554701030254364 0.1567402482032776
-0.206376314163208 0.2188762128353119 0.15572142601013184
-0.33219656348228455 -0.41284143924713135 -0.034573379904031754
0.28538912534713745 0.012358998879790306 -0.13334347307682037
-0.17908212542533875 0.4739588797092438 0.10812139511108398
-0.2647344470024109 0.1656617969274521 -0.13245944678783417
0.28529560565948486 -0.1844182312488556 -0.13546693325042725
-0.2691642940044403 0.036181915551424026 -0.13187181949615479
0.2041206657886505 0.1571885049343109 0.16722600162029266
-0.26528406143188477 0.04919338971376419 0.15860986709594727
-0.09655023366212845 0.2197519689798355 0.1568470597267151
-0.2141156941652298 -0.18210506439208984 0.1639314740896225
-0.27360105514526367 0.21892142295837402 0.02532138302922249
0.04246204346418381 0.01218363456428051 0.17038293182849884
0.18955574929714203 -0.34801343083381653 0.12354469299316406
0.28840139508247375 0.34404435753822327 -0.040804170072078705
-0.1970626711845398 -0.2735584080219269 -0.05316171050071716
0.2947711944580078 0.21684302389621735 0.01878718100488186
-0.2679305374622345 0.12575799226760864 -0.13325025141239166
-0.17819315195083618 -0.040967874228954315 -0.13441778719425201
0.2967078983783722 -0.2414156049489975 -0.030168898403644562
0.28878068923950195 -0.2538917660713196 0.024795550853013992
-0.2602502703666687 -0.14505642652511597 -0.13390275835990906
0.19092926383018494 0.22635208070278168 -0.13096414506435394
-0.28239527344703674 -0.39670687913894653 -0.09230709075927734
-0.014318814501166344 0.1792253851890564 -0.13448019325733185
-0.2630881369113922 0.22519487142562866 -0.07378675043582916
0.2797549068927765 -0.0769418254494667 -0.1360526978969574
-0.259219229221344 0.39795053005218506 0.11190935224294662
-0.19214604794979095 0.26553961634635925 -0.009160528890788555
0.27089351415634155 -0.43610987067222595 0.19678345322608948
-0.2783271074295044 -0.34299808740615845 -0.07372008264064789
-0.27020591497421265 0.004561912268400192 0.059028979390859604
0.020745228976011276 -0.24988432228565216 -0.13153034448623657
-0.20568880438804626 0.22607922554016113 -0.13033446669578552
0.1443413943052292 -0.44624805450439453 0.06186268478631973
-0.21826264262199402 0.1342266947031021 0.16126514971256256
-0.28263434767723083 -0.009102316573262215 -0.3051947057247162
0.25105708837509155 -0.17655113339424133 0.1507635861635208
0.23385089635849 0.5029178857803345 -0.03531123697757721
-0.26938921213150024 -0.46420249342918396 -0.06730395555496216
0.20536796748638153 0.5017402768135071 0.0971783846616745
0.28627124428749084 0.05381119251251221 0.15803661942481995
-0.26524993777275085 -0.3021185100078583 0.10750687122344971
-0.2677001357078552 0.19656869769096375 0.15263722836971283
0.24786731600761414 0.507355809211731 0.0031954580917954445
-0.2690753936767578 0.21497079730033875 0.15817245841026306
0.27240413427352905 0.2271905094385147 -0.12657353281974792
0.06936967372894287 -0.17991778254508972 0.16891281306743622
0.28484660387039185 -0.1646122932434082 -0.13471052050590515
0.14256465435028076 0.22868794202804565 -0.12202924489974976
-0.27111926674842834 -0.03943362832069397 -0.1225050836801529
0.014014000073075294 -0.19322523474693298 0.15715685486793518
0.29539594054222107 -0.09774018079042435 0.021958589553833008
-0.26998651027679443 0.22000634670257568 -0.030383020639419556
-0.21697214245796204 0.12665008008480072 0.16263921558856964
0.2908289134502411 0.18710464239120483 -0.1335611790418625
-0.2661662995815277 -0.07171472162008286 0.1569613218307495
0.18383479118347168 0.22688205540180206 -0.125892773270607
0.09399499744176865 0.09657993912696838 -0.1376393884420395
0.24890495836734772 0.0423530712723732 0.1561535894870758
0.28674209117889404 -0.0830112099647522 -0.13553380966186523
0.21165214478969574 0.17099808156490326 0.1520516574382782
-0.05409330874681473 -0.10827548801898956 -0.13425906002521515
0.1250586360692978 0.22839267551898956 0.15098607540130615
0.2812407612800598 -0.17621999979019165 -0.13435350358486176
-0.27280932664871216 0.204482302069664 -0.12070818990468979
-0.21710734069347382 -0.2547592222690582 -0.05101867765188217
-0.27030855417251587 -0.06446711719036102 -0.13195818662643433
0.28201717138290405 -0.06412990391254425 -0.13353729248046875
0.28210702538490295 -0.4125802218914032 0.18425887823104858
0.29662996530532837 -0.2406136691570282 0.03626646101474762
0.015886027365922928 0.10164006054401398 -0.17605315148830414
-0.25114795565605164 -0.2505578398704529 -0.09235066920518875
-0.14340534806251526 0.004877641797065735 0.1695239245891571
0.20801906287670135 0.3134755492210388 -0.019538676366209984
-0.21747303009033203 -0.23071780800819397 -0.13520973920822144
-0.10740610957145691 0.22648885846138 -0.12095574289560318
-0.21843484044075012 -0.3981262445449829 -0.06739678233861923
-0.26014000177383423 0.0524866059422493 -0.1335846185684204
0.21341100335121155 0.22799177467823029 0.10659552365541458
-0.23545706272125244 0.23468443751335144 0.0537026971578598
0.24669383466243744 0.3017776906490326 0.044033944606781006
-0.23344331979751587 -0.41967421770095825 0.19087734818458557
0.06860717386007309 0.02218000404536724 0.17115798592567444
0.1381455659866333 -0.42737141251564026 0.14846402406692505
0.29619207978248596 0.21641714870929718 -0.0700531005859375
-0.19851665198802948 -0.425006240606308 0.106858991086483
0.2885667681694031 -0.05716122314333916 -0.13473106920719147
0.2390897274017334 0.03620779514312744 0.16746817529201508
-0.2684549391269684 0.22729767858982086 0.14688599109649658
-0.2615897059440613 -0.1459117829799652 0.15724603831768036
0.1641664355993271 0.21129819750785828 -0.13401056826114655
-0.3333929181098938 -0.3696727752685547 0.025019995868206024
-0.2722773551940918 -0.08624595403671265 -0.0831679254770279
-0.261749267578125 -0.18722768127918243 -0.1338193714618683
-0.2706589996814728 0.07039123773574829 0.14873379468917847
0.25006118416786194 0.10589484125375748 0.15379375219345093
0.24728083610534668 -0.2676089406013489 0.06329874694347382
-0.26823359727859497 0.194351926445961 -0.1264263391494751
-0.270564466714859 0.023542534559965134 0.14958427846431732
0.2485755980014801 -0.14255468547344208 0.1569545418024063
0.1348295509815216 -0.3941420316696167 0.06895224750041962
0.18646275997161865 -0.44491517543792725 -0.0399177111685276
0.2532535195350647 -0.23989270627498627 -0.1328669786453247
0.2767975926399231 0.2286674827337265 -0.12687388062477112
-0.2218119502067566 -0.1720758080482483 0.16339977085590363
0.22897565364837646 -0.24137423932552338 -0.13361148536205292
-0.22837473452091217 -0.004457247443497181 -0.13505449891090393
-0.2689465284347534 0.09240902215242386 -0.13270263373851776
0.2955913543701172 0.07206515967845917 -0.13221196830272675
0.06102661415934563 0.21944700181484222 0.1584888994693756
-0.27134332060813904 0.21296072006225586 -0.051489170640707016
-0.10737969726324081 0.2268427461385727 -0.13244475424289703
-0.33414044976234436 -0.3719971179962158 0.09843780845403671
0.21610569953918457 0.14894980192184448 0.17084179818630219
-0.26944077014923096 0.0141533762216568 -0.12518031895160675
0.2953872084617615 0.14149565994739532 -0.13294552266597748
-0.22967064380645752 -0.4489298462867737 0.13440921902656555
0.12584395706653595 -0.19984005391597748 0.1554674208164215
0.29073190689086914 0.15164142847061157 -0.13434438407421112
-0.03566142916679382 -0.23513874411582947 -0.1346450001001358
-0.2691985070705414 0.10636799782514572 -0.1307479441165924
-0.2422916293144226 0.22490496933460236 -0.11867983639240265
-0.17989303171634674 0.3320286273956299 0.04279860109090805
-0.25032609701156616 -0.021583326160907745 -0.1344461292028427
-0.22249609231948853 -0.17030420899391174 0.1618218570947647
-0.22868967056274414 -0.47796231508255005 0.03215884417295456
-0.26978495717048645 -0.08126355707645416 -0.13270334899425507
0.023143090307712555 0.15559229254722595 0.16613641381263733
-0.0013140467926859856 0.17961952090263367 -0.1346741020679474
-0.02073684148490429 -0.24784395098686218 -0.127166286110878
-0.26604408025741577 0.2017679661512375 0.1583125740289688
0.295573890209198 -0.15523973107337952 0.1494947075843811
0.20514187216758728 0.22878234088420868 0.15076115727424622
-0.1549351066350937 -0.26360663771629333 -0.015915386378765106
-0.22182977199554443 0.22832512855529785 0.14434310793876648
0.21820618212223053 0.4936395585536957 -0.037832364439964294
0.05515652894973755 0.16308408975601196 0.15950725972652435
0.27179664373397827 -0.24849577248096466 -0.04461837559938431
0.060592055320739746 -0.24595433473587036 -0.13302907347679138
0.29623186588287354 0.2193278819322586 0.03501729667186737
-0.18679532408714294 0.35486671328544617 -0.05868636444211006
-0.274050235748291 -0.01989775523543358 -0.1027335375547409
-0.10860815644264221 -0.25133562088012695 0.1092747300863266
0.29380524158477783 0.3413267731666565 0.04236490651965141
-0.18326175212860107 0.3151721656322479 0.027699533849954605
0.28550949692726135 -0.16855783760547638 -0.13511842489242554
-0.3386855721473694 -0.3911256492137909 -0.008525471203029156
-0.24509669840335846 -0.05591997504234314 -0.2656329572200775
-0.28733569383621216 -0.3753277063369751 0.2088274508714676
0.2913314700126648 0.2255292683839798 0.0009946692734956741
-0.29177919030189514 0.06359102576971054 -0.269377201795578
0.14407485723495483 -0.43773335218429565 -0.013892031274735928
-0.05625941604375839 0.22588923573493958 0.14411349594593048
0.19468335807323456 0.39905035495758057 0.11321099102497101
0.2534039616584778 -0.2975757122039795 0.07786958664655685
-0.26924845576286316 0.11072768270969391 -0.13221463561058044
-0.19110217690467834 0.3903646469116211 -0.07245834916830063
-0.2312776744365692 -0.32024431228637695 -0.07873131334781647
0.29460427165031433 -0.22760260105133057 -0.061833981424570084
0.09883742034435272 -0.23539413511753082 -0.13518834114074707
-0.09688526391983032 -0.2501950263977051 -0.12180443853139877
-0.27297672629356384 -0.22840553522109985 -0.13170656561851501
0.028423501178622246 0.2253132313489914 -0.2442297488451004
0.23398499190807343 -0.0055514052510261536 0.1699080467224121
0.2664020359516144 -0.357548326253891 0.1528574526309967
0.1870245337486267 0.4862375259399414 0.018923195078969002
0.2905309796333313 -0.23490430414676666 -0.13646256923675537
-0.19736391305923462 -0.1963050663471222 0.15624354779720306
-0.26875680685043335 0.054067451506853104 -0.13699080049991608
