-0.1731358766555786 0.37858378887176514 0.10408792644739151
0.29609888792037964 -0.24866163730621338 0.10575266182422638
0.2668903172016144 0.33897480368614197 0.09722329676151276
0.12350884079933167 0.15507596731185913 0.16839589178562164
0.2861383855342865 -0.18921832740306854 -0.1366233229637146
-0.17375308275222778 0.3565087616443634 -0.052043553441762924
-0.17307829856872559 0.2297097146511078 0.027245741337537766
-0.2451067566871643 -0.4766603112220764 0.009745083749294281
-0.27219775319099426 -0.2363807111978531 -0.1310890018939972
-0.012861311435699463 0.08832468837499619 -0.13660714030265808
-0.25899168848991394 -0.25108417868614197 0.08917631953954697
-0.25412046909332275 0.4230434000492096 0.11775709688663483
0.2515634596347809 0.07560211420059204 0.15450724959373474
0.2895720899105072 0.020339002832770348 -0.13395701348781586
-0.24925994873046875 0.36944225430488586 0.1087333932518959
-0.0061016995459795 0.16812269389629364 0.1601327806711197
-0.22015522420406342 0.056115590035915375 0.161551833152771
-0.2729704678058624 0.22132223844528198 -0.07883737981319427
0.24930623173713684 0.3160316050052643 0.05637180432677269
-0.012047563679516315 0.17932558059692383 -0.13674655556678772
0.28695452213287354 0.060191236436367035 -0.13564255833625793
0.29143771529197693 0.33573877811431885 0.03890209645032883
-0.23427340388298035 0.2212292104959488 0.15698707103729248
-0.27156776189804077 0.22057446837425232 -0.09598031640052795
0.2491530328989029 0.15088027715682983 0.16218367218971252
0.1929139941930771 0.16462084650993347 0.16508978605270386
-0.267138808965683 0.12406708300113678 -0.13602809607982635
0.2586495578289032 0.11985214799642563 0.15394680202007294
-0.008342073298990726 0.05104101821780205 0.1705336570739746
0.0796002447605133 0.15578362345695496 0.17012639343738556
-0.18234257400035858 0.31519973278045654 -0.0069827791303396225
-0.2633465528488159 -0.25364384055137634 0.017151907086372375
-0.20431412756443024 -0.04009681195020676 0.17070706188678741
-0.26865530014038086 -0.15868186950683594 -0.13614635169506073
0.028560301288962364 0.09058915078639984 -0.13756519556045532
-0.2679387927055359 -0.24421869218349457 -0.1164650097489357
-0.17853671312332153 0.23264633119106293 0.03956201672554016
-0.2676854729652405 -0.06541594862937927 0.1554076373577118
0.2493125945329666 -0.17216965556144714 0.15696795284748077
-0.03953839838504791 0.22485774755477905 0.15574315190315247
0.2357935607433319 -0.15822957456111908 0.1705532819032669
0.29803863167762756 -0.1014653667807579 -0.12416458874940872
-0.08580774813890457 -0.17690494656562805 0.17101354897022247
-0.1529541313648224 -0.2570110559463501 0.039757367223501205
-0.19864630699157715 0.00858127698302269 -0.13508467376232147
0.2919342815876007 -0.1843828409910202 0.1536703109741211
-0.18224260210990906 0.47215813398361206 -0.025281425565481186
-0.25788363814353943 0.46080297231674194 0.11721227318048477
-0.2414521872997284 -0.12125087529420853 -0.13646985590457916
-0.26802313327789307 0.22412553429603577 0.04666629433631897
-0.270201176404953 -0.134358212351799 -0.1331276297569275
0.01980317011475563 0.1649986058473587 0.1628667265176773
-0.259172648191452 0.1229529157280922 -0.1368972361087799
-0.26786690950393677 0.10624078661203384 -0.13499772548675537
0.2968742251396179 0.215805321931839 -0.03916658088564873
0.185750350356102 0.41205674409866333 0.11003579199314117
-0.1773112267255783 -0.25593703985214233 0.0723705142736435
-0.26690617203712463 0.21990014612674713 0.15331842005252838
-0.25196489691734314 0.35665178298950195 0.07253225147724152
0.22435706853866577 0.31041499972343445 -0.0263383649289608
0.19008426368236542 -0.24148139357566833 -0.13622517883777618
-0.271797239780426 -0.03695422410964966 -0.013545257039368153
-0.2660329341888428 0.1600106656551361 -0.13567271828651428
-0.16348840296268463 0.1594604253768921 0.16728956997394562
0.0990404486656189 -0.2557288706302643 0.06188975274562836
-0.2688576877117157 -0.008313767611980438 0.1168285608291626
-0.26908546686172485 -0.16862189769744873 -0.13665848970413208
-0.254300981760025 -0.31165143847465515 0.11469860374927521
-0.27056753635406494 -0.21335184574127197 -0.13239239156246185
0.29802432656288147 0.36170411109924316 0.00014291517436504364
-0.23278015851974487 -0.00922260619699955 0.15410906076431274
0.06661998480558395 -0.2486780285835266 0.1426640748977661
-0.23318251967430115 -0.47620365023612976 0.0070469253696501255
-0.26829734444618225 0.2259005904197693 -0.09832184761762619
-0.022593507543206215 0.09667272120714188 -0.1373516470193863
0.23232726752758026 0.23302380740642548 0.05256921052932739
0.29287412762641907 0.21883749961853027 -0.134137824177742
-0.21388530731201172 0.1479003131389618 0.16929517686367035
-0.24555034935474396 -0.3468998670578003 -0.08986106514930725
-0.2708345055580139 -0.013336347416043282 -0.12595851719379425
-0.33366313576698303 -0.3606138825416565 0.08633138984441757
0.17569106817245483 -0.25448915362358093 -0.0358017235994339
-0.2571406364440918 -0.012130118906497955 0.15692053735256195
0.22201913595199585 0.5116577744483948 0.021035153418779373
0.1891399323940277 0.4164116680622101 0.11518323421478271
-0.2726863920688629 0.14444021880626678 -0.13224159181118011
-0.33351999521255493 -0.3883552551269531 0.05281887203454971
0.19918064773082733 0.17793673276901245 0.15368865430355072
0.22098779678344727 0.21675722301006317 -0.1370764523744583
0.2879992425441742 0.406138151884079 0.12906932830810547
0.18110762536525726 -0.25172901153564453 -0.03233063593506813
0.29476842284202576 -0.2436038851737976 0.1108764186501503
0.044696275144815445 -0.25047266483306885 0.15159626305103302
0.230918288230896 -0.23899467289447784 -0.13675358891487122
-0.262853741645813 -0.24625618755817413 -0.12258040904998779
0.1633927822113037 -0.3461552858352661 0.10288369655609131
0.07493998855352402 0.14693067967891693 -0.13685612380504608
-0.2544972002506256 -0.09362202882766724 0.1559772938489914
0.2888958752155304 -0.25272828340530396 -0.0069678109139204025
0.29500114917755127 -0.08286363631486893 -0.13517118990421295
0.2976253628730774 -0.23658114671707153 -0.057623740285634995
-0.2703888416290283 -0.13068878650665283 -0.13297373056411743
-0.26981523633003235 -0.057031549513339996 -0.13299696147441864
0.2973717749118805 -0.2430081069469452 0.04488128796219826
0.03895361348986626 -0.2424429953098297 -0.13488152623176575
0.07781627029180527 0.16874240338802338 -0.13705405592918396
0.21852414309978485 0.3614356815814972 -0.07826945185661316
0.010511679574847221 -0.20418736338615417 0.154767245054245
0.14803799986839294 -0.2533809244632721 -0.006477966904640198
0.1969577819108963 -0.24399107694625854 -0.1358286738395691
0.2917250394821167 -0.05169358849525452 -0.13396163284778595
0.2918500304222107 0.21941426396369934 -0.13508619368076324
0.24277812242507935 0.22582900524139404 -0.12661860883235931
0.10598427057266235 0.20984992384910583 0.1567414551973343
-0.26961395144462585 -0.19836759567260742 -0.13352546095848083
-0.2717633545398712 0.05354955419898033 -0.13374534249305725
-0.22888997197151184 -0.21193638443946838 -0.1370687037706375
0.16679784655570984 0.21468399465084076 0.15631529688835144
-0.16563275456428528 -0.18862685561180115 -0.1367802619934082
-0.3127966523170471 -0.36208319664001465 0.20061439275741577
0.23737508058547974 0.02183159813284874 0.1700798124074936
0.29402709007263184 -0.24055692553520203 0.14991191029548645
0.24885642528533936 -0.06944451481103897 0.16013343632221222
-0.2708700895309448 0.1917387992143631 -0.1294691413640976
0.1952739804983139 0.1632169485092163 0.1644449532032013
0.29096415638923645 -0.2098706066608429 -0.13600783050060272
0.20054325461387634 0.3184027671813965 0.03719177842140198
-0.2678542137145996 -0.04326824098825455 -0.13343994319438934
-0.20851290225982666 0.4499954283237457 -0.0712016299366951
0.2924858331680298 0.2242034375667572 -0.12812276184558868
-0.07855398952960968 0.2167353332042694 -0.13647694885730743
-0.217941015958786 -0.1189945638179779 0.16687040030956268
0.0031204093247652054 0.1062861755490303 -0.19342991709709167
0.2939518094062805 0.2188362330198288 -0.12004654854536057
0.29361361265182495 0.12958867847919464 -0.13516438007354736
0.24753648042678833 0.5124182105064392 0.0806993916630745
-0.2702571451663971 -0.07751215249300003 0.1453595757484436
-0.05042373389005661 0.1303187906742096 -0.13888925313949585
0.17292572557926178 -0.20735590159893036 0.15626642107963562
0.183792844414711 -0.40408825874328613 0.1876547634601593
-0.27060437202453613 -0.10432162880897522 -0.12721315026283264
-0.23844046890735626 0.2248525172472 0.15557701885700226
-0.17620991170406342 0.4593751132488251 0.1014561727643013
-0.24047674238681793 0.22732481360435486 0.1489650160074234
0.2912170886993408 -0.07007057219743729 0.15597015619277954
-0.33146756887435913 -0.3563512861728668 0.15230754017829895
0.2686048746109009 0.30275681614875793 -0.006650114431977272
0.17427490651607513 0.22466826438903809 0.15595383942127228
-0.2673976421356201 -0.2996422350406647 0.010082109831273556
0.20516040921211243 -0.4500027298927307 0.10858775675296783
0.2817051410675049 -0.3373398780822754 0.03800933063030243
-0.25043660402297974 0.2275630533695221 -0.11933838576078415
0.23845934867858887 -0.2667614221572876 -0.04959917068481445
0.23799729347229004 -0.3502148985862732 -0.08920938521623611
0.09052816033363342 0.22741569578647614 0.07552382349967957
0.2932073473930359 0.04059382900595665 -0.1358972042798996
-0.25875934958457947 -0.46690019965171814 -0.04963826388120651
0.26554396748542786 -0.3938622772693634 -0.07862310111522675
-0.24270093441009521 0.22848527133464813 -0.05308578163385391
0.29456162452697754 0.4329480528831482 0.11939575523138046
-0.13723018765449524 0.22917671501636505 -0.12429361790418625
-0.24539072811603546 -0.2535543739795685 -0.028491314500570297
-0.2887154817581177 0.07937194406986237 -0.2781713902950287
0.07878908514976501 -0.2530820965766907 0.1531914621591568
0.1764208972454071 -0.25452637672424316 -0.02795638144016266
-0.295152485370636 -0.44729870557785034 -0.08335627615451813
-0.27067816257476807 -0.19509221613407135 -0.13376520574092865
-0.16453596949577332 0.391932874917984 0.09904772788286209
-0.21103662252426147 0.3853721022605896 -0.07560107856988907
0.1364096850156784 -0.24826103448867798 0.14662452042102814
0.24180126190185547 0.2300177663564682 0.05951770395040512
-0.1679931879043579 0.4767237901687622 0.00753441359847784
-0.21061846613883972 -0.440388023853302 0.12927092611789703
0.2995709776878357 -0.24607592821121216 0.10258214175701141
-0.23347844183444977 0.4122994542121887 -0.07841344177722931
-0.16896675527095795 0.3345167636871338 0.020455293357372284
0.29886966943740845 0.222469300031662 0.055403612554073334
-0.23343923687934875 -0.4645918309688568 0.07232046872377396
0.16775332391262054 0.16059675812721252 0.16645553708076477
-0.3104831874370575 -0.36380985379219055 0.20293231308460236
0.29462260007858276 -0.1046077162027359 0.1549493670463562
-0.215558260679245 -0.060494374483823776 0.16826055943965912
0.23229080438613892 -0.4450536370277405 0.045193977653980255
-0.09594425559043884 0.228678897023201 -0.12741482257843018
-0.333101749420166 -0.37753012776374817 0.0820278450846672
0.23974016308784485 0.05841672793030739 0.16897635161876678
-0.1826934963464737 0.3373561501502991 -0.03092767670750618
-0.21788199245929718 -0.007006339728832245 0.16584955155849457
0.23093926906585693 -0.24779590964317322 -0.12484954297542572
0.28802937269210815 0.08316925913095474 -0.13563987612724304
-0.17118987441062927 0.4563288390636444 0.10444582998752594
0.18928807973861694 0.3611648678779602 0.08833067864179611
0.2971079349517822 -0.22528773546218872 0.1411902755498886
0.24398204684257507 -0.06173719838261604 0.16805419325828552
0.29167109727859497 -0.13109610974788666 -0.13569006323814392
0.014815661124885082 0.2263244390487671 0.15198013186454773
0.25419411063194275 -0.12257036566734314 0.15344597399234772
0.23290129005908966 0.17441993951797485 0.15249907970428467
-0.2096845805644989 0.020976830273866653 0.16942362487316132
-0.24034547805786133 0.2564965784549713 0.029049711301922798
-0.24745936691761017 0.20795930922031403 -0.13749797642230988
0.24883611500263214 -0.19951286911964417 0.15350225567817688
0.07587134838104248 -0.24142105877399445 0.15519261360168457
-0.23027586936950684 -0.1570620983839035 0.1542341709136963
0.2872066795825958 0.0025857314467430115 -0.13507966697216034
-0.2705628275871277 0.18696674704551697 0.1535683572292328
-0.15097299218177795 0.1541273593902588 0.17009314894676208
-0.1328807771205902 0.19717836380004883 -0.13423404097557068
0.22743725776672363 -0.27455776929855347 -0.05929282307624817
-0.270658940076828 0.2049313336610794 0.14307361841201782
-0.26678597927093506 0.2126382291316986 -0.1349543035030365
-0.28060606122016907 -0.3817005753517151 0.2082776427268982
0.1654086709022522 -0.1784881353378296 0.17045211791992188
-0.046659186482429504 0.22845043241977692 -0.010060852393507957
0.2939804196357727 -0.13309021294116974 -0.13485875725746155
0.13164207339286804 -0.24226900935173035 -0.13530373573303223
0.2792971730232239 -0.44411739706993103 0.09659901261329651
-0.04909878969192505 -0.19201457500457764 0.15572483837604523
-0.18883167207241058 0.06947039067745209 0.1698988974094391
0.29328182339668274 0.014468014240264893 0.15583360195159912
0.2918411195278168 -0.22578325867652893 -0.13425448536872864
-0.1305803656578064 0.1702764630317688 -0.13618041574954987
0.22147278487682343 0.46954581141471863 -0.07008136063814163
-0.2711203098297119 -0.013730663806200027 -0.13414880633354187
0.027558624744415283 0.030373234301805496 -0.13720624148845673
0.27671414613723755 -0.22778791189193726 -0.13904762268066406
-0.045557811856269836 -0.1838042438030243 0.16511842608451843
0.07276380062103271 -0.24900077283382416 0.14421570301055908
-0.24465203285217285 -0.39300236105918884 0.20116537809371948
0.2475435882806778 0.07502277195453644 0.1602874994277954
0.10045026987791061 -0.23983655869960785 -0.13747993111610413
0.28782743215560913 -0.4313616156578064 0.031619347631931305
-0.272687703371048 0.18527007102966309 0.14235961437225342
-0.2037336826324463 -0.3782897889614105 -0.06833042204380035
-0.24298617243766785 -0.4500182569026947 0.09038062393665314
-0.25796088576316833 0.2285836935043335 0.04059496149420738
-0.33443114161491394 -0.38341644406318665 0.05723609775304794
0.10815340280532837 -0.2503573000431061 -0.004182256758213043
0.2962375283241272 -0.23967596888542175 0.01465652883052826
0.24793964624404907 0.48007211089134216 -0.07005522400140762
0.29819732904434204 -0.009416842833161354 0.0007153637707233429
0.28103357553482056 -0.35652783513069153 0.12226813286542892
0.11500310897827148 -0.2415803074836731 -0.1359955370426178
0.0514313206076622 0.06390533596277237 0.16982850432395935
0.2901034355163574 -0.251338392496109 0.001393323764204979
-0.1646534651517868 0.39450711011886597 0.09956588596105576
0.20657065510749817 0.1535770297050476 0.1694575548171997
-0.2529330551624298 0.3567435145378113 0.07477361708879471
0.05078619346022606 -0.03148273751139641 0.17087367177009583
-0.32615792751312256 -0.4100925624370575 -0.06688810884952545
-0.22175578773021698 -0.44134190678596497 0.1525880992412567
0.26455727219581604 -0.35384437441825867 0.13937842845916748
-0.07038883864879608 -0.23569603264331818 -0.1351691633462906
-0.25254160165786743 0.06790977716445923 -0.1342431902885437
-0.19191080331802368 0.3806976079940796 -0.07026250660419464
-0.2521197199821472 0.2314995676279068 0.036607448011636734
-0.24626857042312622 -0.2536076605319977 0.06381422281265259
-0.2701503336429596 -0.0053543150424957275 0.14699485898017883
0.23533037304878235 -0.3126926124095917 0.10495620965957642
-0.2690233588218689 0.13257357478141785 -0.1382628083229065
-0.2301366627216339 -0.44695547223091125 0.1399395763874054
-0.26782453060150146 -0.24791446328163147 -0.1360994130373001
-0.26526185870170593 0.14983654022216797 -0.13582682609558105
0.29364120960235596 -0.09247981011867523 -0.13543261587619781
-0.26967963576316833 0.2212141752243042 0.019632775336503983
-0.19780704379081726 -0.11696659028530121 0.16936808824539185
-0.22594989836215973 -0.46831458806991577 0.04705774039030075
-0.18568526208400726 -0.4054146409034729 -0.0212283656001091
-0.16854575276374817 -0.246840700507164 -0.1354818344116211
0.2506036162376404 0.17622444033622742 0.1540350466966629
-0.211623415350914 -0.14069312810897827 0.16831009089946747
0.2974832355976105 -0.24367259442806244 0.07167454063892365
0.1664305031299591 -0.24403050541877747 -0.13779640197753906
0.06812163442373276 -0.24812869727611542 -0.1241939440369606
-0.22190985083580017 0.10759058594703674 0.16253022849559784
-0.2706587016582489 -0.037615977227687836 -0.12553304433822632
-0.23458373546600342 -0.24869000911712646 -0.10473135113716125
-0.2712271213531494 -0.24408306181430817 0.07893156260251999
-0.322504460811615 -0.42231032252311707 -0.04277127981185913
0.30061718821525574 -0.2445651888847351 0.08339913189411163
-0.27160266041755676 -0.08174114674329758 0.14230304956436157
0.29671207070350647 -0.0525636300444603 -0.13441477715969086
0.1906934678554535 -0.25175678730010986 -0.04475332051515579
0.20085076987743378 0.23296180367469788 -0.0029054151382297277
0.2736824154853821 -0.44569095969200134 0.18274720013141632
-0.26733389496803284 0.11718101799488068 -0.135624960064888
0.07111266255378723 0.12218233197927475 -0.13678084313869476
0.2695576250553131 -0.34973984956741333 0.12735621631145477
-0.26523473858833313 -0.1478627622127533 -0.13550080358982086
-0.16600258648395538 0.22157105803489685 0.15753298997879028
-0.20885039865970612 0.05400919169187546 0.1700584590435028
-0.22863279283046722 -0.4619569778442383 0.07947064191102982
0.29789191484451294 -0.17433343827724457 -0.12772510945796967
-0.19227121770381927 0.16754725575447083 0.15890714526176453
0.2843243479728699 -0.36192816495895386 0.04243483766913414
0.2968215346336365 -0.013085750862956047 -0.13412216305732727
0.20437143743038177 0.21354950964450836 -0.13622969388961792
-0.07973171770572662 -0.19092120230197906 0.15728530287742615
-0.056241028010845184 0.10312669724225998 -0.13704314827919006
0.28111764788627625 0.40255653858184814 0.12759441137313843
-0.30627763271331787 -0.37169116735458374 -0.06118263304233551
0.17293626070022583 -0.255513995885849 0.025556016713380814
0.07283536344766617 0.1276043802499771 -0.13446645438671112
0.00027971481904387474 0.13346651196479797 0.17067739367485046
-0.333921879529953 -0.36969780921936035 0.10770111531019211
0.2060803771018982 -0.18007737398147583 0.16873030364513397
-0.26639437675476074 -0.16929200291633606 -0.13347117602825165
-0.1716916263103485 0.22032907605171204 0.15804043412208557
0.1390562802553177 -0.4311008155345917 0.12090539932250977
-0.26891496777534485 -0.1401626467704773 -0.13396131992340088
0.29643768072128296 0.0012009255588054657 0.14982347190380096
-0.09966622292995453 -0.2444479614496231 -0.13360323011875153
0.14119446277618408 0.22649988532066345 -0.12194211781024933
0.15118013322353363 0.22651790082454681 -0.12453021109104156
-0.19684278964996338 0.23165296018123627 -0.1278650462627411
-0.25282979011535645 0.22637303173542023 0.13916538655757904
0.2907370924949646 -0.20029599964618683 -0.13619834184646606
-0.25198468565940857 0.23681886494159698 -0.006993062794208527
-0.33638226985931396 -0.35173916816711426 0.16766822338104248
0.28564131259918213 -0.4263354539871216 -0.023131007328629494
-0.26146385073661804 -0.24142204225063324 0.15658321976661682
-0.27011826634407043 0.12202444672584534 0.14405740797519684
-0.27276909351348877 0.21252012252807617 0.11675620824098587
0.2947830557823181 0.10517842322587967 0.15589319169521332
-0.007918952032923698 0.17975515127182007 -0.13663886487483978
0.1581360399723053 0.22531579434871674 -0.0168172474950552
-0.03600839897990227 0.22765472531318665 -0.12152715772390366
-0.20956286787986755 0.16410410404205322 0.16194835305213928
-0.29900363087654114 -0.3945525288581848 0.1376771330833435
0.018676215782761574 0.24689362943172455 -0.2610319256782532
0.2597936987876892 0.3499506413936615 -0.07661782950162888
0.2932864725589752 0.08796471357345581 -0.1372084617614746
-0.21423262357711792 0.23606322705745697 0.05763031169772148
0.29727354645729065 0.14445063471794128 -0.12680020928382874
-0.16776803135871887 0.4615359604358673 0.09608675539493561
0.22667700052261353 -0.2776360809803009 0.07589901983737946
0.10662601888179779 -0.2491975873708725 0.153611958026886
-0.26788491010665894 -0.24871757626533508 -0.13428790867328644
-0.21698737144470215 -0.08221498131752014 0.16529308259487152
0.1267871856689453 -0.24800941348075867 -0.1307632029056549
-0.02879505418241024 -0.2484905868768692 0.14358402788639069
0.2951604127883911 0.1494549661874771 0.15465138852596283
-0.20650632679462433 0.32778099179267883 0.05772605910897255
-0.27074533700942993 -0.09115725755691528 -0.12717634439468384
0.18074803054332733 0.13846434652805328 0.16888584196567535
0.03935724124312401 0.2044997364282608 -0.16385598480701447
0.057696547359228134 0.22696277499198914 -0.12301653623580933
-0.2473369687795639 -0.3280910551548004 -0.08392442762851715
0.012620076537132263 0.22672337293624878 0.1496250480413437
0.2973029613494873 0.12552380561828613 -0.072202667593956
-0.21850179135799408 -0.0015213284641504288 0.16340264678001404
0.009825027547776699 0.16385717689990997 -0.22158358991146088
-0.2725725769996643 -0.1128929927945137 0.14987489581108093
0.2856352627277374 -0.23683691024780273 -0.13418656587600708
0.18521329760551453 0.4705829918384552 0.08404280245304108
-0.2201693058013916 -0.4550955891609192 0.09945046901702881
-0.15329188108444214 -0.2415575385093689 0.15646378695964813
0.28548356890678406 -0.05389340966939926 0.15540088713169098
0.26058152318000793 0.09022153913974762 0.15531449019908905
0.19992515444755554 -0.4000066816806793 0.19356591999530792
-0.3325069844722748 -0.3612986207008362 0.052630141377449036
0.29917988181114197 0.17757496237754822 -0.12469664961099625
0.2381097376346588 0.3135617971420288 -0.029050568118691444
-0.2718604803085327 -0.12249922752380371 0.14327570796012878
0.126493901014328 0.15283560752868652 0.16981960833072662
0.20330405235290527 0.15236276388168335 0.1710614114999771
-0.2706863582134247 -0.1796734631061554 -0.12589670717716217
0.2550389766693115 -0.2554410398006439 0.031384922564029694
-0.24728752672672272 -0.30156809091567993 0.09366640448570251
-0.2711130976676941 0.17200155556201935 -0.04088077321648598
0.2973511815071106 -0.24094903469085693 0.0674908310174942
-0.17838183045387268 0.1677415370941162 0.16074448823928833
0.2925055921077728 0.22209393978118896 -0.13618232309818268
-0.270680695772171 -0.08153098076581955 -0.13214178383350372
-0.3258001208305359 -0.328622430562973 0.17494319379329681
-0.08265605568885803 0.228229358792305 -0.05657379329204559
0.247784823179245 -0.3372105062007904 0.12572678923606873
-0.21118861436843872 0.00020403414964675903 0.16985563933849335
0.06238073855638504 0.1670602709054947 0.1596929132938385
-0.2612318992614746 0.4435597360134125 0.10914817452430725
-0.3426934480667114 -0.3943852484226227 -0.0007542241364717484
-0.33723917603492737 -0.3890298902988434 0.028511732816696167
-0.24574562907218933 -0.05269381403923035 -0.23968690633773804
0.2968984544277191 -0.13589441776275635 -0.017121901735663414
0.18978500366210938 0.2255084365606308 -0.13178521394729614
-0.2617185413837433 -0.24058271944522858 0.1559559553861618
-0.18090888857841492 0.35907915234565735 0.10330873727798462
0.298345685005188 0.017388129606842995 0.14314864575862885
0.289935439825058 -0.2499852180480957 -0.07598181068897247
0.018265392631292343 0.11756560206413269 -0.13509410619735718
-0.27105528116226196 -0.09914828836917877 -0.13399170339107513
0.13623753190040588 -0.4269976019859314 0.11075664311647415
0.15618036687374115 -0.18175864219665527 0.16895057260990143
-0.24118222296237946 -0.26309922337532043 0.013381673023104668
0.2243688702583313 0.5152153372764587 0.040990933775901794
0.2177371084690094 0.14884965121746063 0.16982536017894745
0.29381388425827026 -0.10318280011415482 0.1546478569507599
-0.271236389875412 -0.46414944529533386 -0.031272467225790024
0.2891097366809845 0.21047303080558777 -0.133640319108963
-0.28571292757987976 -0.44674646854400635 -0.0839642882347107
-0.25715723633766174 0.01716611161828041 -0.13630253076553345
-0.2648753821849823 -0.08295271545648575 0.15665453672409058
0.25682830810546875 -0.21960973739624023 -0.13707852363586426
-0.08644545823335648 -0.24512825906276703 -0.13425201177597046
0.17700423300266266 0.21390791237354279 0.15651705861091614
0.009722360409796238 -0.2522663176059723 -0.004651830997318029
0.19723325967788696 0.43290117383003235 0.10959257185459137
-0.2692893147468567 0.14388319849967957 -0.1334725320339203
-0.1668221652507782 0.22980360686779022 -0.12559551000595093
-0.18154999613761902 0.22605596482753754 -0.13590332865715027
0.2986263930797577 -0.16505438089370728 0.1485942155122757
0.19372150301933289 0.21345509588718414 -0.13240714371204376
0.29848143458366394 0.0956374928355217 0.04494647681713104
-0.19685806334018707 0.23059110343456268 -0.1261644959449768
-0.2902565002441406 -0.378314733505249 -0.08672310411930084
-0.27200594544410706 -0.11833152174949646 -0.12600097060203552
-0.11445736885070801 0.03575758635997772 -0.13755986094474792
-0.2829422354698181 -0.05110854655504227 -0.2682653069496155
-0.25861892104148865 0.10534035414457321 -0.13675566017627716
-0.2583858072757721 -0.10142259299755096 0.15663446485996246
-0.2703621983528137 -0.2511313259601593 -0.011240273714065552
-0.22123368084430695 -0.4666347801685333 0.05296576768159866
0.15830384194850922 -0.4006214439868927 0.16982358694076538
-0.29233214259147644 -0.3121854066848755 0.13173626363277435
-0.2705594301223755 -0.2115083485841751 -0.12801960110664368
-0.2197456657886505 0.14657607674598694 0.16640415787696838
0.29525187611579895 0.21589569747447968 0.15179254114627838
0.297309935092926 -0.23701786994934082 -0.11348369717597961
-0.03315543010830879 0.1758277863264084 -0.13590234518051147
0.19136664271354675 0.48221248388290405 -0.012295929715037346
0.2690885663032532 -0.42236748337745667 -0.0735529437661171
-0.23520152270793915 -0.26490142941474915 -0.02971978485584259
0.20987540483474731 -0.2559429407119751 0.06791102886199951
0.2412874549627304 0.35113540291786194 -0.08063419908285141
-0.2708513140678406 0.06481003761291504 0.14505735039710999
-0.2698221802711487 -0.10001331567764282 -0.135438933968544
0.24869322776794434 0.15845850110054016 0.16246184706687927
-0.2039589136838913 0.43745893239974976 -0.07596439868211746
-0.1727295219898224 0.3823126554489136 0.1011703759431839
0.14818061888217926 -0.44421735405921936 0.024882804602384567
-0.009339268319308758 0.2747584283351898 -0.28115174174308777
0.18736980855464935 0.17626795172691345 -0.13455413281917572
-0.26998716592788696 0.028666522353887558 -0.13526882231235504
0.23139166831970215 -0.37286821007728577 -0.09004548192024231
-0.27773600816726685 0.04453323036432266 0.14299364387989044
-0.13645142316818237 0.15807807445526123 0.16875691711902618
-0.2719549536705017 0.16482475399971008 -0.1355559229850769
0.2683256268501282 -0.3888469636440277 0.1842910498380661
0.2660755217075348 0.4645210802555084 -0.06855256855487823
0.17232172191143036 -0.26913782954216003 -0.014071992598474026
0.28563031554222107 -0.44371849298477173 0.15703678131103516
-0.20704835653305054 0.16704517602920532 0.15865953266620636
0.12453167885541916 -0.10023455321788788 0.1706445962190628
-0.17749884724617004 0.3178899586200714 0.014804580248892307
-0.10529528558254242 -0.17622071504592896 0.1701873540878296
-0.2707209289073944 -0.06293919682502747 0.15048399567604065
0.19325068593025208 0.1754678636789322 0.15243332087993622
-0.27089840173721313 0.05087859928607941 -0.13561764359474182
0.29655560851097107 0.19431070983409882 0.15426252782344818
0.2972295582294464 0.21112559735774994 -0.11979775875806808
-0.2694256007671356 -0.07964557409286499 -0.13314227759838104
0.2915981411933899 -0.1083211749792099 0.15590620040893555
-0.24638785421848297 -0.00665514450520277 -0.24636858701705933
0.29276496171951294 -0.02061723731458187 -0.13375844061374664
-0.27289965748786926 0.15545356273651123 -0.1311623454093933
0.29806753993034363 0.2106950283050537 -0.10373963415622711
0.21845699846744537 -0.24349044263362885 0.15379789471626282
0.15547214448451996 -0.20526093244552612 0.15500612556934357
0.13704673945903778 -0.4390985667705536 0.0799860805273056
0.29610422253608704 -0.2419983297586441 -0.02090705931186676
-0.11818867921829224 0.2268267124891281 -0.12826377153396606
-0.005864206701517105 -0.24471993744373322 -0.13691315054893494
-0.2728094160556793 0.1775520145893097 -0.13390159606933594
0.2977517545223236 -0.22223135828971863 -0.11986154317855835
-0.03125176578760147 -0.2458321750164032 0.1559838056564331
-0.2555035352706909 -0.2441011518239975 -0.1379692107439041
-0.125117689371109 -0.11060810089111328 -0.13703356683254242
0.2651475965976715 0.4745926558971405 -0.06470421701669693
0.1363973170518875 -0.4347393214702606 0.0633893832564354
-0.2544509172439575 0.01461336575448513 0.15715466439723969
-0.2703935503959656 0.22061830759048462 0.03023466467857361
-0.26379165053367615 0.19723284244537354 0.15899710357189178
0.2926529049873352 0.22519327700138092 -0.12638670206069946
-0.09077991545200348 -0.1754864603281021 0.1698330193758011
0.28872305154800415 0.0887051597237587 -0.13537731766700745
-0.27542421221733093 -0.16187728941440582 0.14775344729423523
0.12757562100887299 -0.2530271112918854 -0.0572914183139801
0.05528131127357483 -0.24040335416793823 0.15652428567409515
-0.05113980546593666 -0.18018493056297302 0.16749389469623566
-0.2699870765209198 -0.011383364908397198 -0.12621119618415833
0.2593740224838257 0.5052981972694397 0.10224825143814087
-0.017965152859687805 -0.25111523270606995 0.14401111006736755
0.21647582948207855 0.23112666606903076 0.04733758792281151
0.1716095358133316 -0.24210183322429657 -0.13565553724765778
-0.2687318027019501 0.10155963152647018 0.012064607813954353
-0.2713475525379181 -0.22276465594768524 -0.12999385595321655
0.01847357116639614 0.09378351271152496 -0.1376383900642395
-0.2576647698879242 -0.25480028986930847 0.008002080023288727
-0.014244740828871727 -0.18613260984420776 0.16369380056858063
0.2861331105232239 -0.25122812390327454 -0.05641355365514755
-0.27186906337738037 -0.0878206193447113 0.14511731266975403
-0.259284108877182 -0.25210899114608765 -0.02793170139193535
0.23135846853256226 0.31872227787971497 0.0561244823038578
-0.2196274846792221 0.08809378743171692 0.16815119981765747
-0.2709461748600006 -0.02924613654613495 -0.12584181129932404
0.28265857696533203 0.3895763158798218 0.1264791339635849
-0.270497590303421 -0.09804742783308029 -0.13504420220851898
-0.15024112164974213 -0.23798060417175293 -0.13591627776622772
0.29629242420196533 0.11822833120822906 0.15120829641819
-0.0409853532910347 0.15251538157463074 0.17002448439598083
0.294557124376297 -0.24362657964229584 -0.07844820618629456
-0.2579854130744934 -0.022983551025390625 -0.13437879085540771
0.16912463307380676 -0.20204751193523407 0.15352976322174072
0.1724318563938141 -0.3774588108062744 -0.06221185624599457
0.2269345074892044 0.3419339954853058 0.11057937890291214
-0.2707998752593994 0.19925245642662048 0.00045668333768844604
-0.21728955209255219 0.03019837662577629 0.16814081370830536
0.24948732554912567 0.14031988382339478 0.16040697693824768
-0.2701376676559448 0.1502881646156311 -0.13424651324748993
0.07610446959733963 0.1196068525314331 -0.13578587770462036
0.22724926471710205 -0.35141831636428833 -0.08655580878257751
0.22780762612819672 -0.44504883885383606 0.201976478099823
-0.2703585922718048 -0.07884489744901657 -0.1326885223388672
0.15726293623447418 0.1615278124809265 0.16609613597393036
-0.22533303499221802 -0.2547764778137207 -0.0632162019610405
-0.15666958689689636 -0.20285481214523315 0.15408261120319366
0.22266238927841187 -0.2474796324968338 -0.12481880933046341
0.24860119819641113 0.47357243299484253 0.10776301473379135
-0.2663860321044922 -0.37248751521110535 -0.09447233378887177
-0.04548637196421623 0.15019738674163818 -0.1379999816417694
0.2971864342689514 -0.034540630877017975 -0.12506088614463806
-0.0733778327703476 -0.20066948235034943 0.1531650871038437
0.26484155654907227 0.2246246486902237 -0.12433095276355743
0.1632409393787384 -0.25126779079437256 0.1505150943994522
-0.2710908353328705 -0.03642146289348602 0.13250970840454102
-0.09466961026191711 -0.25458115339279175 -0.0005252868868410587
0.3014194369316101 -0.15030944347381592 0.14843963086605072
-0.27224719524383545 0.11510953307151794 -0.1344631314277649
-0.08305387198925018 -0.24823534488677979 0.1473402976989746
-0.1802879273891449 0.04453369975090027 0.17007747292518616
-0.10995066910982132 0.17757150530815125 0.1530657708644867
0.08229395747184753 0.030921759083867073 -0.13769513368606567
-0.3409937918186188 -0.3906262218952179 0.026417043060064316
0.2470398247241974 0.012143617495894432 0.1604771465063095
-0.1606287658214569 0.4523783326148987 0.0768587663769722
0.29786914587020874 -0.1832314133644104 0.03687571361660957
0.19135405123233795 0.3536635637283325 -0.04681691154837608
0.19411464035511017 -0.44407200813293457 0.19412794709205627
0.26186367869377136 0.44278663396835327 -0.08130911737680435
-0.26305654644966125 0.1398993730545044 0.1576521247625351
0.2741003632545471 0.19954827427864075 -0.13836228847503662
-0.2885054051876068 -0.31652987003326416 0.04345491901040077
0.20577889680862427 -0.2482992708683014 0.1548531949520111
0.18530523777008057 0.21260592341423035 -0.13597923517227173
-0.27105212211608887 0.2176111787557602 0.040130019187927246
0.16843797266483307 -0.04693008214235306 -0.13606031239032745
0.289911687374115 -0.10927484929561615 0.15514740347862244
-0.2941685616970062 -0.3205537796020508 0.1764138787984848
0.29564112424850464 -0.24507422745227814 -0.0335003137588501
0.28863078355789185 -0.07096359133720398 -0.13505813479423523
0.2925408184528351 -0.25227758288383484 -0.08633174747228622
-0.309294193983078 -0.39826300740242004 -0.08093246817588806
-0.26266953349113464 -0.24327054619789124 -0.13478896021842957
0.29373741149902344 -0.02918645367026329 -0.1360025703907013
-0.24784070253372192 -0.25225207209587097 0.09968885779380798
0.2859363853931427 -0.370379239320755 0.10561449080705643
0.09123732894659042 0.22733205556869507 0.14735089242458344
0.2614560127258301 0.22614812850952148 -0.12776081264019012
0.2393016815185547 0.22704337537288666 -0.08679898083209991
0.27610814571380615 -0.4461805820465088 0.15205973386764526
-0.15159684419631958 -0.2675180435180664 -0.004755353555083275
-0.26925161480903625 0.05182040482759476 -0.1350388079881668
-0.26423266530036926 0.22842618823051453 -0.029652558267116547
-0.2699548602104187 -0.04138960689306259 0.15245398879051208
0.29846683144569397 -0.07388382405042648 -0.024882283061742783
0.2983523905277252 0.20129823684692383 -0.1261008232831955
0.28277498483657837 0.224532812833786 -0.04700187221169472
-0.26459062099456787 -0.07777803391218185 -0.13677947223186493
0.2483363151550293 -0.16311636567115784 0.15791861712932587
-0.27039435505867004 -0.12099434435367584 -0.12665000557899475
0.21705317497253418 0.22424782812595367 -0.1324804276227951
-0.2534705698490143 0.48365625739097595 0.06842031329870224
-0.24169418215751648 -0.24540390074253082 0.1537552773952484
0.23763298988342285 -0.16333317756652832 0.17098544538021088
-0.26738712191581726 0.22351059317588806 -0.03751374036073685
0.2233210802078247 0.4732060134410858 0.10370507836341858
-0.27055585384368896 0.21854951977729797 0.047318585216999054
0.3001940846443176 -0.04805050045251846 0.14754915237426758
-0.16510100662708282 0.4711097776889801 0.020611688494682312
-0.26101091504096985 0.19159996509552002 0.15746888518333435
-0.3272092938423157 -0.3353016972541809 0.18472298979759216
-0.20780259370803833 -0.16559229791164398 0.1696913093328476
0.055102065205574036 0.2187599539756775 -0.13511145114898682
0.3019741475582123 -0.05833582580089569 -0.12611259520053864
-0.24649885296821594 0.35078343749046326 -0.05590054392814636
0.18341562151908875 0.45331698656082153 0.0641908049583435
0.18167747557163239 0.39950117468833923 0.10354429483413696
0.18699435889720917 -0.43125176429748535 -0.07217752933502197
-0.21910321712493896 0.08651832491159439 0.1678277850151062
-0.17352348566055298 -0.24894562363624573 -0.12683391571044922
0.29701152443885803 0.12533706426620483 -0.022203348577022552
-0.2717816233634949 -0.12717506289482117 -0.1334283947944641
0.26373839378356934 0.2211756408214569 0.1561867743730545
-0.27192920446395874 0.0404864177107811 -0.13147929310798645
-0.2713669538497925 0.08934783190488815 -0.1347636878490448
-0.12281015515327454 -0.23900160193443298 0.15631142258644104
0.17989769577980042 -0.17397871613502502 0.17196539044380188
0.06715003401041031 0.2246667742729187 -0.135282501578331
0.057201728224754333 0.18389900028705597 -0.13863494992256165
0.10397982597351074 0.20248645544052124 -0.13348443806171417
0.24727393686771393 0.020330047234892845 0.15977175533771515
-0.2500004172325134 -0.2494031935930252 -0.13063007593154907
0.29876598715782166 -0.24107937514781952 0.06306007504463196
-0.2707601487636566 -0.07266174256801605 -0.12486140429973602
-0.2175034135580063 0.0620015487074852 0.16865718364715576
-0.2564071714878082 -0.1853685826063156 -0.1359289288520813
-0.2838895320892334 -0.3495274782180786 0.19817504286766052
0.03794122859835625 0.15705513954162598 -0.21686811745166779
0.11314545571804047 0.14774800837039948 0.16838625073432922
-0.27179837226867676 0.11095032095909119 -0.13221639394760132
0.1390758901834488 -0.36529555916786194 0.04362546280026436
0.29076719284057617 -0.2006472796201706 0.154511958360672
0.28647857904434204 0.14229096472263336 -0.13725002110004425
0.2783236503601074 0.22777307033538818 0.14210230112075806
-0.050268951803445816 0.13549315929412842 -0.13748998939990997
-0.24160510301589966 -0.21049347519874573 -0.1347201019525528
-0.2324979156255722 -0.3368377685546875 -0.08738327026367188
0.294619619846344 0.4468701183795929 0.1195833832025528
0.29764798283576965 -0.06676393002271652 -0.12400177121162415
-0.2624413073062897 0.4440118372440338 0.10865692794322968
-0.27041080594062805 -0.06357011198997498 -0.13214577734470367
-0.24143289029598236 0.4291514456272125 -0.0701787993311882
0.2214640974998474 0.34786176681518555 -0.06946762651205063
0.1921815276145935 0.3419777750968933 -0.03447698801755905
-0.03918115049600601 0.22718815505504608 -0.12011415511369705
-0.1339169144630432 -0.19001305103302002 0.16052711009979248
-0.2700987160205841 -0.032559849321842194 -0.1323264241218567
0.29743462800979614 -0.18019849061965942 -0.12632721662521362
-0.06951931118965149 0.228831946849823 -0.08549045771360397
0.2883749008178711 -0.43478089570999146 0.025114309042692184
0.15857034921646118 0.15953968465328217 0.16567915678024292
0.2945134937763214 -0.0029089762829244137 0.15456004440784454
-0.22607478499412537 -0.2477591633796692 -0.12729690968990326
-0.2715834975242615 0.05667399615049362 -0.1349974274635315
0.2524886727333069 0.012951917946338654 0.1545911431312561
-0.15273207426071167 0.224347323179245 -0.1367846578359604
0.2848741114139557 -0.09907238185405731 0.15438827872276306
0.2698523700237274 -0.3728497624397278 0.16844332218170166
-0.2691831588745117 -0.1417393982410431 0.15250416100025177
0.09494264423847198 -0.25157102942466736 0.14187206327915192
-0.1435932219028473 0.22914068400859833 0.05994877591729164
-0.2583528757095337 -0.24833576381206512 0.14878936111927032
-0.2119816541671753 0.08098283410072327 0.17054732143878937
-0.23317350447177887 -0.2857902944087982 -0.060689978301525116
0.28665992617607117 -0.10114715993404388 0.15467464923858643
0.08548187464475632 -0.24546517431735992 -0.13312888145446777
-0.2686901390552521 -0.14821891486644745 -0.13532577455043793
0.21240201592445374 -0.2524730861186981 0.07861284911632538
-0.2689686417579651 -0.13136114180088043 -0.13717405498027802
-0.2542966306209564 0.23640850186347961 -0.004911087453365326
-0.03248351439833641 0.11353543400764465 -0.1369819939136505
0.29912254214286804 -0.1341651976108551 -0.11656509339809418
0.2233963906764984 -0.2746703028678894 0.073663130402565
-0.03252885490655899 0.1196713000535965 -0.1335962563753128
-0.2700514793395996 -0.17914791405200958 -0.1274169534444809
0.2649577558040619 0.21683980524539948 -0.1359986811876297
0.27650266885757446 -0.3938406705856323 0.18474984169006348
0.28792211413383484 0.11427632719278336 0.1566232591867447
-0.2533842921257019 -0.2540856599807739 -0.007994014769792557
0.26027095317840576 -0.2004997730255127 0.15363559126853943
-0.272811621427536 0.18919737637043 -0.13578449189662933
-0.26999902725219727 -0.24491964280605316 -0.1315063089132309
-0.27042049169540405 0.013987937942147255 -0.1335235983133316
-0.2655547261238098 -0.2450801581144333 -0.13728289306163788
0.29781121015548706 -0.192983016371727 0.14839616417884827
-0.22840449213981628 0.3364536166191101 -0.04480690881609917
0.2530478537082672 0.30112406611442566 0.04617633298039436
0.29520559310913086 0.09691649675369263 0.15431228280067444
0.24117562174797058 0.3120523989200592 -0.03084884211421013
-0.2691500782966614 -0.025953620672225952 0.1481938362121582
-0.2085333913564682 -0.17385613918304443 0.17051833868026733
0.22574009001255035 -0.25181305408477783 -0.0492992103099823
-0.2610747516155243 0.2265758216381073 -0.10504064708948135
0.29568877816200256 0.06796646118164062 -0.13553589582443237
0.2964808940887451 0.08864637464284897 -0.1265619844198227
-0.1220986545085907 0.10701884329319 0.17055927217006683
-0.3332744836807251 -0.3722206652164459 0.10837120562791824
0.24186435341835022 -0.14749889075756073 0.16938187181949615
-0.1665269434452057 0.34415873885154724 -0.013033770024776459
0.2965400218963623 -0.24086880683898926 0.056022629141807556
-0.2923879325389862 -0.31668663024902344 0.159234419465065
0.2859029173851013 -0.24168989062309265 -0.13547536730766296
0.23065322637557983 -0.16266927123069763 0.17033542692661285
-0.26783207058906555 -0.017580870538949966 -0.13606582581996918
-0.040641188621520996 -0.25297439098358154 0.012234105728566647
0.29480090737342834 0.22856713831424713 0.0020288657397031784
-0.23996500670909882 0.40981325507164 -0.07316043972969055
-0.026234220713377 0.17779918015003204 -0.21291016042232513
0.26286178827285767 -0.37648358941078186 -0.07688749581575394
-0.2767079770565033 -0.3161981701850891 0.1419249027967453
0.29472115635871887 0.22462444007396698 -0.06935764104127884
0.13927161693572998 -0.43995675444602966 0.04409540072083473
0.14853894710540771 -0.44222742319107056 0.008739580400288105
0.22866353392601013 -0.2034376710653305 0.15420912206172943
0.2917710542678833 0.18381580710411072 -0.13419976830482483
0.2873667776584625 0.1916363388299942 -0.13750801980495453
0.2753196954727173 -0.445410817861557 0.10693398118019104
0.292069673538208 0.1904296875 -0.136919304728508
0.1970832496881485 -0.2768259644508362 -0.04990579932928085
0.2948606014251709 -0.23879440128803253 -0.12030603736639023
0.18589872121810913 -0.19977818429470062 0.15294866263866425
-0.2735923230648041 0.05363791808485985 0.055343855172395706
-0.33537575602531433 -0.37083783745765686 0.05021475628018379
-0.2744421064853668 -0.146281898021698 -0.13062605261802673
0.2637326717376709 -0.3197973072528839 0.10035566985607147
0.29772743582725525 -0.17324446141719818 -0.13559222221374512
-0.22539374232292175 -0.09943902492523193 -0.1364210546016693
0.298681378364563 -0.23898997902870178 -0.05181828513741493
-0.2585338056087494 0.39983856678009033 0.11362119019031525
0.0217495858669281 0.08804976940155029 -0.13701742887496948
-0.24514725804328918 -0.3014831840991974 0.09761344641447067
0.13551461696624756 -0.42839139699935913 0.08208180963993073
0.28160610795021057 -0.03359357267618179 0.15515996515750885
0.023868784308433533 0.10144113004207611 -0.13707414269447327
0.29223236441612244 0.3921087980270386 0.11613057553768158
-0.15618275105953217 0.22246688604354858 -0.13397076725959778
0.2487390637397766 0.026085715740919113 0.15800370275974274
0.07117382436990738 0.13742470741271973 -0.1367669552564621
0.2034834325313568 0.22851362824440002 0.03301838040351868
-0.2613975405693054 -0.29121720790863037 0.02229585312306881
-0.26892995834350586 -0.14424778521060944 -0.13622041046619415
0.2789780795574188 0.22922736406326294 0.047136519104242325
0.19437724351882935 0.37175750732421875 0.1059301570057869
-0.19889339804649353 0.22511598467826843 -0.12639069557189941
0.2546146512031555 -0.2758684456348419 0.05999871715903282
0.11327075958251953 -0.2483084797859192 0.1427536904811859
0.26023322343826294 0.13640840351581573 0.153651624917984
-0.24741044640541077 0.3734072744846344 0.11423428356647491
0.29830867052078247 -0.24606555700302124 0.08325260877609253
0.0004691490903496742 0.18892717361450195 -0.13846535980701447
-0.022487826645374298 0.16105316579341888 0.16657690703868866
-0.21204784512519836 -0.3360075056552887 -0.07570299506187439
0.2866087853908539 -0.4345884323120117 0.0032070381566882133
0.03781468793749809 0.12991863489151 -0.13579164445400238
0.28349414467811584 0.1758696585893631 -0.1370004415512085
0.28670039772987366 -0.24989382922649384 0.13153518736362457
-0.22099825739860535 -0.46921542286872864 0.03238667547702789
0.28173524141311646 -0.42931073904037476 -0.0366852842271328
-0.16602744162082672 -0.2398163080215454 -0.1373208463191986
-0.07312817871570587 -0.24731197953224182 -0.13340550661087036
0.06944699585437775 0.10775916278362274 -0.13640064001083374
-0.2722562253475189 0.18792158365249634 0.0756986066699028
-0.2653024196624756 -0.16576533019542694 -0.1365845948457718
-0.0006321771070361137 0.18046049773693085 0.15436586737632751
0.10145919024944305 0.22787480056285858 0.04820771887898445
-0.27998724579811096 -0.3068360686302185 0.10560145974159241
0.29342177510261536 0.009474478662014008 -0.13645519316196442
0.20966912806034088 0.22703006863594055 0.04559323936700821
-0.07173711806535721 -0.20040616393089294 0.15129680931568146
-0.3282528519630432 -0.3532964289188385 0.18600501120090485
-0.2657167315483093 0.2264995574951172 -0.0910341739654541
0.20953495800495148 -0.4444922208786011 0.19355782866477966
-0.22156384587287903 0.2288871705532074 -0.13140985369682312
0.2975095808506012 -0.08480876684188843 0.14406485855579376
-0.2705952525138855 -0.08612749725580215 -0.13453562557697296
0.29320842027664185 0.15997542440891266 -0.13559967279434204
-0.18017809092998505 -0.2484971582889557 -0.13530825078487396
-0.2708278000354767 -0.12326931208372116 -0.1342475563287735
0.23661428689956665 -0.17316195368766785 0.17059965431690216
-0.27076297998428345 -0.2060382217168808 -0.1329505741596222
-0.2703242003917694 0.1882866472005844 -0.1343955099582672
-0.26963862776756287 0.18064481019973755 0.1578689068555832
0.2642531394958496 -0.24378812313079834 -0.13488918542861938
0.22087910771369934 -0.1653650999069214 0.17051666975021362
-0.09103794395923615 -0.025100428611040115 0.16942936182022095
0.17211568355560303 -0.4291454255580902 -0.058549270033836365
0.21710103750228882 0.17721045017242432 0.15321967005729675
-0.264419287443161 -0.0275113508105278 -0.13163478672504425
-0.21150195598602295 0.5012417435646057 0.0037791840732097626
0.28779545426368713 -0.43227335810661316 0.10872967541217804
-0.2881712019443512 -0.005168363451957703 -0.23799686133861542
-0.11303839832544327 -0.20113351941108704 0.15329748392105103
-0.2709168791770935 -0.2195998579263687 0.14176520705223083
0.2903324067592621 0.22679367661476135 -0.0646803230047226
0.2371443212032318 -0.18364381790161133 0.1643810272216797
0.2221725732088089 -0.18646836280822754 0.1631954312324524
0.2921213209629059 -0.15517407655715942 0.153824120759964
0.0913965255022049 0.1988348662853241 -0.13678131997585297
-0.27005651593208313 0.009651880711317062 -0.1328064501285553
0.28938859701156616 0.13847696781158447 0.1559821367263794
-0.16245022416114807 0.41514071822166443 0.10178007185459137
