0.10864667594432831 -0.008226722478866577 -0.13690483570098877
-0.27039164304733276 0.11096043884754181 -0.13430020213127136
0.19748486578464508 -0.445431113243103 -0.06491296738386154
0.2409987449645996 0.04646381363272667 0.1673310250043869
0.06621897220611572 -0.24797555804252625 -0.12372182309627533
0.29448238015174866 -0.11086209863424301 0.15605445206165314
-0.19732116162776947 -0.28240329027175903 0.07455172389745712
-0.2689419090747833 0.10027317702770233 -0.1365688443183899
-0.26311179995536804 -0.16942603886127472 0.15740539133548737
-0.24000805616378784 0.40210235118865967 0.10372292995452881
-0.1991288959980011 0.172951802611351 0.15552711486816406
-0.3184894919395447 -0.37763985991477966 0.13991579413414001
-0.14942887425422668 0.17574156820774078 0.15542665123939514
-0.21862202882766724 -0.0343778133392334 0.16868314146995544
0.0007376279681921005 0.2238306850194931 -0.13616187870502472
-0.23250417411327362 0.44410011172294617 -0.07321719080209732
0.25930652022361755 -0.025445809587836266 0.15448331832885742
-0.11758425831794739 -0.1969577670097351 0.15279126167297363
-0.28532305359840393 -0.31450989842414856 0.11181378364562988
-0.014812597073614597 0.18271712958812714 -0.144508495926857
-0.28513064980506897 -0.03847811743617058 -0.29210904240608215
-0.18531706929206848 -0.3526031970977783 0.07569603621959686
0.29632213711738586 -0.17520950734615326 -0.08914729207754135
0.04003952816128731 0.22672250866889954 -0.12509635090827942
0.27258995175361633 0.23535262048244476 0.012225629761815071
0.29251596331596375 0.2246396839618683 0.14906837046146393
-0.23909418284893036 0.23893380165100098 -0.024573005735874176
-0.26016804575920105 -0.24919849634170532 -0.10751783102750778
0.29276731610298157 0.4199722409248352 0.1279035359621048
0.057452909648418427 0.18594609200954437 -0.1693255603313446
0.24765212833881378 -0.24798588454723358 0.12080291658639908
-0.09105545282363892 0.22539280354976654 0.15589773654937744
0.19324654340744019 -0.15470123291015625 0.16938570141792297
0.24445714056491852 -0.4059940576553345 -0.09228713810443878
-0.2906486988067627 -0.4504237174987793 -0.08429111540317535
-0.014910979196429253 0.18212571740150452 -0.14159634709358215
-0.012837430462241173 0.09970474988222122 -0.13627934455871582
0.048966117203235626 0.17913906276226044 -0.1361922174692154
0.032874129712581635 0.10027621686458588 -0.13462835550308228
-0.212021604180336 0.1645919680595398 0.16217127442359924
-0.2323748618364334 -0.33267679810523987 -0.08412492275238037
0.29771122336387634 0.011780746281147003 0.013648591935634613
-0.24886365234851837 0.22727395594120026 0.14303933084011078
0.20406411588191986 0.2318112701177597 0.04054921865463257
0.1278248280286789 0.22735156118869781 0.14359748363494873
0.2451407015323639 -0.4107958674430847 -0.09271633625030518
-0.11981673538684845 0.2279847413301468 0.005919639021158218
-0.24048243463039398 0.38336217403411865 -0.07390449196100235
-0.2323857992887497 -0.404572069644928 0.19414012134075165
0.2602434754371643 -0.3475736081600189 0.12756286561489105
-0.270620733499527 -0.10471625626087189 -0.11204831302165985
0.09680968523025513 0.22620199620723724 -0.1354079246520996
0.3003067076206207 -0.13177640736103058 -0.02423378825187683
0.21905376017093658 -0.2480640411376953 0.14558227360248566
-0.19560904800891876 0.2491343468427658 0.037196677178144455
-0.27001288533210754 -0.24303379654884338 -0.037818871438503265
-0.023441335186362267 -0.25349903106689453 -0.08898240327835083
0.19943714141845703 0.377668559551239 0.11707518994808197
-0.16526946425437927 -0.24893996119499207 -0.12532147765159607
-0.04982203245162964 0.058768510818481445 -0.13767275214195251
0.23046669363975525 -0.30669039487838745 -0.07762688398361206
-0.20869137346744537 0.22901847958564758 0.09587827324867249
-0.243911474943161 0.22259005904197693 -0.1340547353029251
-0.33800262212753296 -0.37402740120887756 0.04368869960308075
0.14120513200759888 -0.36936601996421814 0.02593217045068741
0.032170653343200684 0.22669842839241028 -0.1318080723285675
-0.27835747599601746 -0.4713594615459442 -0.056228213012218475
-0.2188340723514557 -0.1348099261522293 0.1674901694059372
-0.272847443819046 -0.12887752056121826 -0.0017694737762212753
-0.2696564197540283 0.22519437968730927 0.03927553445100784
-0.04094132035970688 0.1499561369419098 -0.13630780577659607
0.022265473380684853 0.18412469327449799 -0.13678205013275146
-0.2875663936138153 -0.4032878577709198 -0.09447242319583893
0.2317509800195694 0.22829684615135193 0.14993691444396973
-0.24387644231319427 -0.3900168240070343 0.19669729471206665
-0.10892518609762192 0.22616921365261078 -0.1245245635509491
-0.1662726253271103 0.3428727984428406 0.016343966126441956
-0.2711793780326843 0.1037336140871048 -0.13324418663978577
-0.26465243101119995 0.22751662135124207 0.11039585620164871
0.21991455554962158 -0.4425642490386963 -0.07937981188297272
-0.26758843660354614 -0.25087323784828186 -0.0024243369698524475
0.011146401055157185 -0.17272527515888214 0.17022192478179932
0.28380286693573 -0.2507488429546356 -0.009294427931308746
0.053439393639564514 0.1648089587688446 -0.13625644147396088
-0.04568915814161301 -0.04664469510316849 -0.13647355139255524
0.24790306389331818 -0.38814130425453186 -0.0885659009218216
-0.23303833603858948 -0.15759038925170898 0.15373656153678894
0.29679998755455017 0.08465199172496796 0.1523413360118866
-0.21131959557533264 -0.24806851148605347 -0.12712308764457703
-0.21328723430633545 -0.3785518407821655 -0.07319088280200958
-0.026667818427085876 0.23001308739185333 -0.12540864944458008
0.2574389576911926 0.4918423593044281 0.12702924013137817
0.05178557336330414 0.17476390302181244 -0.13719867169857025
-0.08271114528179169 0.15630565583705902 0.16825896501541138
-0.26793670654296875 -0.16977715492248535 -0.1295819878578186
0.2929902672767639 -0.12701600790023804 -0.13633820414543152
-0.25387272238731384 0.2250984162092209 0.032087404280900955
0.2958178222179413 0.21915695071220398 -0.13552062213420868
-0.24898238480091095 0.22606691718101501 -0.13568070530891418
0.2248619943857193 -0.24253199994564056 0.15383002161979675
0.19374682009220123 -0.44489237666130066 -0.06898375600576401
0.09478163719177246 0.021300263702869415 0.16902993619441986
-0.24371689558029175 -0.33869579434394836 -0.08407307416200638
-0.3272607922554016 -0.3552127480506897 0.17842409014701843
0.11259725689888 0.21586745977401733 0.15749019384384155
-0.015662573277950287 0.1816577911376953 -0.2273988276720047
-0.09307174384593964 0.17457422614097595 0.1538907289505005
-0.16591838002204895 -0.26672399044036865 -0.03749383985996246
0.2970006763935089 0.21938945353031158 -0.1355329304933548
-0.14434152841567993 -0.23968903720378876 -0.1340676248073578
-0.1879918873310089 0.25415557622909546 -0.008211946114897728
0.25611212849617004 -0.31655585765838623 -0.06861599534749985
-0.23624221980571747 -0.4684692919254303 0.060022782534360886
0.27188166975975037 0.3370240032672882 -0.05416043475270271
0.20015136897563934 0.23158752918243408 0.01673792116343975
0.25618550181388855 -0.16945601999759674 0.15240773558616638
0.08739660680294037 -0.2391476184129715 0.15634505450725555
0.23349779844284058 0.17980509996414185 0.15382888913154602
-0.20436808466911316 0.33265694975852966 0.054283760488033295
0.039015255868434906 0.22206293046474457 0.15590983629226685
-0.10284046828746796 -0.24829035997390747 -0.12841102480888367
0.21703071892261505 -0.24963659048080444 -0.05926245450973511
-0.14992883801460266 0.21573741734027863 0.1572510302066803
-0.003962622489780188 -0.2394147664308548 0.157487690448761
-0.2708447575569153 0.12436698377132416 -0.13330501317977905
-0.3145653307437897 -0.36229732632637024 0.19238121807575226
-0.0026675760746002197 0.10196861624717712 -0.1361522525548935
-0.2716675400733948 0.22240912914276123 0.018520765006542206
-0.0217991191893816 0.17786361277103424 -0.1361074298620224
0.2736961841583252 0.34855470061302185 0.10556771606206894
0.3008723258972168 -0.012034475803375244 -0.13031668961048126
0.07137686759233475 -0.24477502703666687 -0.13419610261917114
0.13643057644367218 -0.43777981400489807 0.07768216729164124
-0.10439340025186539 -0.01120045781135559 -0.13346093893051147
-0.2559271454811096 0.1667589694261551 0.15808148682117462
-0.20362821221351624 -0.24896027147769928 0.1445237249135971
0.02708185836672783 0.2254180759191513 0.07854881882667542
-0.2724616527557373 0.2212093472480774 -0.1348237544298172
0.19419795274734497 0.21823397278785706 -0.1367696076631546
-0.2553952932357788 0.42643341422080994 0.11781808733940125
-0.04611743986606598 0.1310747265815735 -0.1389562487602234
-0.0487540066242218 0.2280791848897934 -0.1261100471019745
0.2581060528755188 0.22992131114006042 -0.0324733704328537
-0.3188098073005676 -0.355308473110199 0.197784423828125
0.041738901287317276 0.17391453683376312 0.15212084352970123
-0.16387371718883514 -0.19884084165096283 0.15390783548355103
0.23777706921100616 -0.1335248053073883 0.1694832593202591
-0.015620808117091656 0.20041629672050476 -0.1349768340587616
-0.2196742594242096 -0.12197218835353851 0.16650713980197906
0.2667824327945709 -0.35241636633872986 -0.07096947729587555
-0.2704010307788849 0.036512989550828934 0.12443788349628448
0.13629277050495148 -0.42920607328414917 0.03986159712076187
0.03890974819660187 0.10484850406646729 -0.13357768952846527
-0.21794824302196503 -0.25392624735832214 -0.06122270226478577
0.20681163668632507 0.2301332950592041 0.046297814697027206
-0.09382577240467072 0.1700565218925476 0.16061556339263916
0.18396922945976257 -0.25155019760131836 0.06604072451591492
0.25136998295783997 0.013236915692687035 0.15767210721969604
-0.24483202397823334 -0.028555547818541527 -0.2759297490119934
-0.021061908453702927 -0.250418484210968 0.1360017955303192
0.24636682868003845 0.10945003479719162 0.16350480914115906
0.2863463759422302 -0.017430990934371948 -0.13519182801246643
0.2663920521736145 -0.4421765208244324 -0.04303944855928421
0.23814047873020172 0.3687291145324707 -0.08763867616653442
-0.20391374826431274 -0.42101284861564636 0.1353853940963745
-0.09873317182064056 -0.24996580183506012 -0.12189430743455887
-0.2509496510028839 0.005657481960952282 -0.24569936096668243
0.137424036860466 -0.4373108744621277 0.04386155307292938
-0.11931785941123962 0.05435970053076744 -0.1345931589603424
-0.13710075616836548 -0.08115428686141968 0.17069770395755768
-0.29142895340919495 0.06093480437994003 -0.2763946056365967
0.2925417423248291 0.1686667799949646 0.15617895126342773
-0.24556280672550201 -0.47886401414871216 -0.006689545698463917
-0.3338939845561981 -0.35472652316093445 0.16600455343723297
-0.20599408447742462 -0.2412455976009369 -0.13446813821792603
0.0474119707942009 0.17580008506774902 0.15517933666706085
0.183632493019104 -0.1384902149438858 -0.13612651824951172
-0.22985638678073883 -0.4576674699783325 0.1137487143278122
0.025586985051631927 0.09651532769203186 -0.13562022149562836
0.2910661995410919 0.22023460268974304 -0.13736680150032043
0.0538630336523056 0.1630084216594696 -0.13687966763973236
0.297468900680542 0.2174186259508133 0.12077587097883224
0.004087578505277634 0.09778695553541183 -0.13606950640678406
-0.210635244846344 -0.24672313034534454 -0.13395598530769348
0.03762773051857948 0.2173994779586792 0.1583019196987152
0.020693663507699966 0.0947461947798729 -0.13697199523448944
-0.27056288719177246 -0.07701999694108963 -0.015541207045316696
0.27430081367492676 0.2370976209640503 0.011022740975022316
-0.01621145009994507 -0.25157836079597473 0.14138469099998474
-0.22189100086688995 0.08231338113546371 0.168502539396286
-0.012074621394276619 -0.1931760460138321 0.15222197771072388
-0.02937999553978443 0.11399918049573898 -0.13706114888191223
-0.1903325617313385 -0.3950327932834625 0.09796855598688126
0.2783684730529785 0.22791941463947296 -0.12256017327308655
-0.28277918696403503 -0.012945730239152908 -0.30438587069511414
0.2947513461112976 -0.006127644330263138 0.15153713524341583
-0.25480154156684875 0.46237432956695557 0.11093220114707947
0.24986575543880463 -0.2635476589202881 0.046141959726810455
0.1571335643529892 0.22619709372520447 -0.1340562105178833
0.04481968656182289 0.21766617894172668 -0.13875606656074524
-0.27108338475227356 0.011127999983727932 -0.1301112025976181
0.2867797017097473 -0.23037463426589966 0.15486612915992737
0.25409385561943054 -0.03473643213510513 0.15317192673683167
-0.2625693678855896 -0.1526930332183838 -0.13382971286773682
0.1480574905872345 0.21477635204792023 -0.13694682717323303
0.26114702224731445 0.22982878983020782 -0.08066025376319885
0.2653982937335968 -0.2525998055934906 0.014832435175776482
0.19495460391044617 -0.1977323740720749 0.15616434812545776
0.2990751564502716 -0.10375873744487762 0.09698095172643661
-0.2368951290845871 -0.3356568515300751 -0.0844300389289856
0.24321898818016052 0.16313394904136658 0.16183866560459137
-0.34060198068618774 -0.39695417881011963 -0.006016237661242485
-0.17241474986076355 0.22825421392917633 0.015528046526014805
0.2971612513065338 0.13776487112045288 0.12711471319198608
-0.06394406408071518 -0.2386651486158371 -0.13388466835021973
-0.22874575853347778 -0.4404466450214386 0.15662908554077148
-0.14575110375881195 -0.25436094403266907 -0.02285265363752842
0.2908044755458832 0.21203376352787018 0.15698359906673431
-0.2676701545715332 0.2237313985824585 -0.1332937479019165
-0.2702239453792572 0.09263541549444199 -0.13323967158794403
0.2941058278083801 0.21078121662139893 0.14180558919906616
-0.19427889585494995 -0.17655594646930695 0.1708100438117981
-0.20687824487686157 0.4358130395412445 0.08669339120388031
-0.22573313117027283 -0.3107793927192688 0.0984727293252945
0.2869386076927185 0.44329795241355896 0.12927818298339844
0.29184216260910034 0.115623839199543 -0.1363789588212967
0.2118799388408661 -0.3959895372390747 0.18988454341888428
0.2950748801231384 0.21910184621810913 -0.13518798351287842
0.25600314140319824 0.18224090337753296 0.1532668024301529
-0.20375221967697144 0.3894813656806946 -0.08086934685707092
-0.2205679714679718 0.2318791151046753 -0.03444555401802063
0.018366673961281776 0.2229781299829483 -0.13672137260437012
-0.27001169323921204 -0.1240379586815834 0.1516440510749817
0.29788562655448914 -0.20551156997680664 0.14961197972297668
-0.22405964136123657 -0.4700416326522827 0.03812995180487633
-0.22163298726081848 0.4987296760082245 -0.01658668741583824
-0.26898667216300964 -0.00459324149414897 0.15552866458892822
-0.24461540579795837 0.2298317402601242 -0.03473224490880966
-0.1404072344303131 -0.2554658055305481 0.012944730930030346
-0.26979321241378784 -0.16433283686637878 -0.12857586145401
-0.28368136286735535 -0.3098231852054596 0.1110507994890213
-0.2705448865890503 0.17127563059329987 0.1533314734697342
0.2713993191719055 0.3767341673374176 0.12916919589042664
-0.3089323341846466 -0.3978040814399719 -0.07998473942279816
0.05705372989177704 0.22798669338226318 -0.13386696577072144
0.1859087347984314 0.3391267955303192 0.0019643292762339115
0.18955692648887634 0.4065336287021637 0.11437669396400452
-0.21783447265625 0.1382279098033905 0.16794447600841522
0.20593437552452087 0.22941096127033234 0.027042344212532043
0.04563268646597862 -0.187394380569458 0.15897488594055176
0.2969941198825836 0.21085543930530548 -0.04594425484538078
-0.27114203572273254 0.024569379165768623 0.04630649834871292
-0.21262389421463013 -0.054504722356796265 0.17048536241054535
-0.2721981704235077 0.21653348207473755 0.04070816561579704
-0.27130213379859924 -0.23970869183540344 0.056367531418800354
-0.21884551644325256 0.2334216833114624 0.05259089916944504
0.2839917838573456 -0.4425366222858429 0.1555359959602356
0.28369322419166565 -0.036395758390426636 0.1555435061454773
-0.24477985501289368 0.3355455696582794 0.03912246599793434
-0.18464575707912445 0.4752129316329956 0.10656104981899261
0.29403793811798096 0.21859297156333923 -0.13442590832710266
0.17443940043449402 0.3483230471611023 0.01081855222582817
0.20188210904598236 -0.27881351113319397 -0.054835155606269836
0.26006102561950684 -0.25092363357543945 0.04234052076935768
0.2623715400695801 0.42319634556770325 0.1077214702963829
-0.12686754763126373 0.21895253658294678 -0.1338067501783371
0.22670064866542816 0.173482745885849 0.1535101681947708
-0.08415576815605164 0.23233811557292938 -0.13048405945301056
0.036261435598134995 0.11432164907455444 -0.13270631432533264
-0.08179168403148651 -0.00017981231212615967 -0.13651446998119354
0.2991582751274109 -0.06828981637954712 -0.015408862382173538
-0.02451840043067932 0.1611739993095398 -0.21301642060279846
0.26999402046203613 0.3266063630580902 0.05682753026485443
-0.2708646357059479 0.13025757670402527 0.12795569002628326
0.11728700995445251 0.22598227858543396 0.14439591765403748
0.15030092000961304 -0.3681865930557251 0.1136632114648819
0.25992149114608765 0.5095102190971375 0.09093336015939713
0.05996107682585716 0.1343538612127304 -0.1346588432788849
-0.2632739841938019 0.22751997411251068 0.08894206583499908
0.21957246959209442 0.3037242889404297 -0.01738661155104637
0.29538798332214355 0.2170005887746811 -0.1347607523202896
0.29829707741737366 0.05087423324584961 -0.12139326333999634
0.03890645503997803 -0.24086546897888184 -0.13515469431877136
-0.2718835771083832 -0.10575038194656372 0.04924212768673897
-0.28880277276039124 -0.31429699063301086 0.11714103817939758
0.24206611514091492 -0.07149017602205276 0.16915297508239746
0.24971552193164825 -0.13318997621536255 0.1639130413532257
0.04200534150004387 0.11436548084020615 -0.1363610178232193
0.2156141847372055 0.4952021539211273 -0.04840131103992462
0.14686721563339233 -0.25095415115356445 -0.08765849471092224
-0.2189469039440155 -0.060022126883268356 0.1658293753862381
0.2934284806251526 -0.42867594957351685 0.1427638828754425
0.26591354608535767 0.22943076491355896 -0.03237432986497879
0.30049726366996765 0.0862550139427185 -0.1193474531173706
-0.33625295758247375 -0.36594298481941223 0.05873880535364151
-0.008834724314510822 0.2204894721508026 0.1575486660003662
0.23174522817134857 -0.2437680959701538 -0.12542098760604858
0.2932874858379364 -0.22914810478687286 -0.13455036282539368
0.15978547930717468 -0.24902620911598206 0.02909131720662117
-0.012323351576924324 0.2263796478509903 -0.13278837502002716
-0.2692631483078003 -0.02049095183610916 -0.13454850018024445
0.17092473804950714 -0.04428998380899429 -0.13533268868923187
0.2872059643268585 -0.21078133583068848 -0.1355058252811432
0.27170416712760925 0.23716814815998077 0.025844596326351166
-0.26885780692100525 -0.1860503852367401 -0.13248416781425476
0.29692575335502625 -0.01835477352142334 0.14465898275375366
0.25829780101776123 0.053038209676742554 0.1509551703929901
-0.2402002215385437 -0.2899441123008728 -0.05920059233903885
-0.2701377868652344 0.04553569108247757 0.15308816730976105
0.25609415769577026 -0.05025468021631241 -0.13715669512748718
0.20353232324123383 0.22758615016937256 0.1417202353477478
-0.2702092230319977 -0.12328527122735977 -0.13068383932113647
0.29570257663726807 0.03167533501982689 0.1526522934436798
0.2998003661632538 0.21482813358306885 0.13088828325271606
0.24749235808849335 -0.11806239187717438 0.16345985233783722
0.29711559414863586 0.128587543964386 -0.1349518597126007
0.2498069405555725 -0.03257731348276138 -0.13625159859657288
0.15417353808879852 -0.3554641604423523 0.09522972255945206
0.2973215878009796 -0.24215465784072876 0.093640998005867
0.18747802078723907 0.33345624804496765 0.007720739580690861
0.08617688715457916 0.1725585013628006 0.15254676342010498
0.04614756256341934 0.1136036366224289 -0.1333509385585785
0.0008845608681440353 0.2893904745578766 -0.24122187495231628
0.2954932749271393 0.10023635625839233 0.15538284182548523
-0.29064539074897766 -0.37991222739219666 0.20516033470630646
0.29743692278862 -0.1135697215795517 -0.0712747648358345
0.27711617946624756 -0.44463497400283813 0.17032073438167572
0.25756406784057617 -0.15518559515476227 0.15446573495864868
-0.22278361022472382 -0.08486814051866531 0.16258671879768372
-0.22711478173732758 0.3346869945526123 -0.041628073900938034
0.0435803160071373 0.11528312414884567 -0.13779586553573608
-0.05562884360551834 -0.18118524551391602 0.165985569357872
0.2617855668067932 -0.4432027041912079 -0.04282093420624733
0.029923731461167336 0.22450374066829681 0.1496972143650055
0.04798538237810135 0.23173989355564117 -0.026737645268440247
0.2918030917644501 0.22120462357997894 0.15248635411262512
0.21395564079284668 0.05768975615501404 0.16967180371284485
0.2903282642364502 -0.25250372290611267 -0.05563843250274658
-0.0239618718624115 0.3030712902545929 -0.2555885314941406
-0.0024126041680574417 0.1415659785270691 0.16948336362838745
0.12418302893638611 -0.173679381608963 0.17143407464027405
0.28818777203559875 0.22112233936786652 -0.13542550802230835
0.297676682472229 0.08772433549165726 0.14850398898124695
-0.32061558961868286 -0.3529522120952606 0.02765199914574623
-0.26804888248443604 -0.009593000635504723 0.15634408593177795
0.28470751643180847 -0.049290914088487625 0.15520009398460388
0.042988892644643784 0.11042071878910065 -0.13541044294834137
0.29492807388305664 -0.02612348645925522 -0.13452789187431335
0.23173938691616058 0.1730382889509201 0.15267053246498108
-0.21367597579956055 -0.11646978557109833 0.17217324674129486
0.2929246127605438 0.22880128026008606 -0.0029304511845111847
-0.21031835675239563 0.22530274093151093 -0.11938640475273132
-0.27038630843162537 0.0660010352730751 -0.13589511811733246
0.13787221908569336 -0.436954140663147 0.048376262187957764
0.297504723072052 -0.15559037029743195 0.15077340602874756
0.2904551327228546 -0.2133113294839859 -0.13536688685417175
-0.25906041264533997 -0.0705266147851944 -0.13388028740882874
-0.16887374222278595 0.4812973141670227 0.0167271438986063
-0.17260389029979706 0.22790655493736267 -0.013211619108915329
-0.2147199809551239 -0.3067801594734192 -0.06885810196399689
-0.2711521089076996 -0.03389352187514305 -0.010197938419878483
-0.2446826696395874 -0.33319035172462463 0.13633732497692108
0.005975731648504734 0.18092526495456696 -0.13700798153877258
0.0001243890728801489 0.22887109220027924 0.04023251682519913
-0.019851164892315865 0.25713855028152466 -0.2206459939479828
-0.2129909098148346 -0.057921748608350754 0.1704414337873459
-0.22225986421108246 -0.14503122866153717 0.16162781417369843
-0.20777346193790436 0.5043466687202454 0.004444627091288567
-0.25053372979164124 -0.3400132954120636 -0.08517338335514069
-0.23879843950271606 0.22204826772212982 -0.13452863693237305
0.29293566942214966 -0.039219245314598083 0.1560431718826294
0.02809792570769787 0.10500315576791763 -0.13652412593364716
-0.1588200032711029 -0.28077608346939087 0.03728116676211357
-0.27035877108573914 0.06000380218029022 -0.1333387941122055
0.23467391729354858 -0.4211270213127136 0.20473362505435944
-0.1957470327615738 0.1734461635351181 0.15458689630031586
-0.0704738199710846 0.11759326606988907 -0.137288436293602
0.1094384640455246 0.21604695916175842 -0.1366254687309265
0.27372822165489197 0.31436479091644287 -0.012467858381569386
0.2953251302242279 -0.056007031351327896 0.1538790762424469
-0.24607807397842407 -0.28131458163261414 0.04007940739393234
0.25706303119659424 0.16724084317684174 0.15145298838615417
0.25911253690719604 0.3255768120288849 0.07258909940719604
-0.024860423058271408 0.11218743026256561 -0.13897791504859924
0.25600308179855347 0.24269713461399078 -0.022884424775838852
-0.23819564282894135 -0.3505299687385559 -0.08833266794681549
-0.033724211156368256 0.1735965758562088 -0.13754674792289734
-0.2653467655181885 -0.21257437765598297 0.15843449532985687
-0.23896121978759766 -0.26460105180740356 0.006224859040230513
-0.269299179315567 -0.06348393112421036 0.14765790104866028
0.29785123467445374 0.0831480547785759 0.009037792682647705
0.16932794451713562 -0.25173789262771606 -0.002415945753455162
-0.2724197208881378 0.14547966420650482 0.15422317385673523
-0.22478671371936798 0.11565805971622467 0.16192369163036346
0.15233831107616425 0.17700573801994324 0.1541372388601303
0.28681981563568115 -0.23622289299964905 -0.1352328509092331
-0.22255955636501312 0.03993174433708191 0.16505973041057587
-0.2934482991695404 -0.45889246463775635 -0.06383903324604034
-0.25445160269737244 0.34963372349739075 -0.037706661969423294
-0.27045026421546936 -0.2104242444038391 -0.13076551258563995
0.08141401410102844 -0.24719487130641937 -0.13153210282325745
0.3004859983921051 0.11114835739135742 -0.02904566377401352
-0.21656228601932526 -0.25141283869743347 -0.11495770514011383
-0.02563447318971157 -0.04065361246466637 0.17041467130184174
0.07016126811504364 0.2267577201128006 -0.13357000052928925
-0.1527843177318573 -0.25820741057395935 0.03595748171210289
-0.01824662834405899 -0.2509635090827942 0.1002744734287262
0.13158099353313446 0.22632627189159393 -0.1349477469921112
0.2877158224582672 -0.25000324845314026 -0.010445035994052887
0.29450124502182007 0.2185930609703064 -0.13361483812332153
0.07403136789798737 0.2252027988433838 -0.13215702772140503
0.2852028012275696 0.12292212247848511 -0.13796085119247437
0.21493728458881378 0.33924439549446106 -0.0560426265001297
0.2967081367969513 0.18647195398807526 0.11272671818733215
0.1593765765428543 -0.36962902545928955 0.1300065815448761
-0.23515747487545013 -0.4807741045951843 0.004389455076307058
0.29629582166671753 0.17229001224040985 0.15286995470523834
-0.215274840593338 -0.1784062683582306 0.16797445714473724
-0.031226329505443573 0.22634471952915192 -0.12754061818122864
0.2224537879228592 -0.20092329382896423 0.15374994277954102
0.18890075385570526 0.4918110966682434 0.01811208762228489
0.24457967281341553 0.03650280088186264 0.16733546555042267
-0.2042747288942337 -0.1771809160709381 0.16799700260162354
0.27973413467407227 0.22598206996917725 0.14240387082099915
-0.28707996010780334 -0.375563383102417 -0.08660773187875748
-0.23162195086479187 -0.15102799236774445 0.15371063351631165
-0.09616963565349579 0.019642814993858337 -0.13838009536266327
0.15208059549331665 -0.18868063390254974 0.16107290983200073
0.11959352344274521 -0.19568602740764618 0.1544606238603592
-0.2013750970363617 -0.24332472681999207 -0.13536681234836578
-0.21985366940498352 0.22532503306865692 -0.13327829539775848
-0.06143619492650032 0.226836159825325 -0.127666175365448
-0.018206380307674408 -0.24714213609695435 -0.12881335616111755
-0.2705659866333008 0.05867444723844528 -0.13443145155906677
0.20694589614868164 0.32029232382774353 -0.018938612192869186
-0.026669802144169807 0.10559509694576263 -0.13577833771705627
-0.21316269040107727 0.35382169485092163 -0.0720110535621643
0.2144935578107834 -0.24845179915428162 0.14452558755874634
-0.013839427381753922 -0.18766357004642487 0.159164160490036
0.03024587593972683 0.18144258856773376 -0.13630664348602295
-0.26929014921188354 -0.21031340956687927 -0.13202980160713196
-0.21246150135993958 0.23029105365276337 -0.03734331950545311
0.28804463148117065 0.0140525558963418 0.1558307707309723
-0.07653781771659851 0.21254312992095947 0.15768027305603027
-0.33244508504867554 -0.413936972618103 -0.04317110404372215
0.16618140041828156 -0.4335153102874756 -0.04796631261706352
-0.2641521394252777 -0.2517246603965759 0.10587557405233383
-0.20805154740810394 0.3883301615715027 -0.08230353891849518
0.25481274724006653 0.5075964331626892 -0.027812767773866653
0.2656342089176178 -0.25044095516204834 -0.006918776780366898
0.07878602296113968 -0.2495039999485016 0.14165133237838745
-0.041446298360824585 0.22831173241138458 0.14795202016830444
-0.08698132634162903 -0.19928330183029175 0.15406714379787445
0.2160891443490982 0.2308795303106308 0.04721738398075104
-0.2097654789686203 0.24543356895446777 0.0460166335105896
0.06002109497785568 0.1418459713459015 -0.1352110356092453
0.2830764651298523 0.3753560185432434 -0.06847314536571503
0.11092856526374817 0.2277047038078308 -0.13181127607822418
0.2793359160423279 -0.4458996653556824 0.0412093885242939
0.29426801204681396 -0.0023385901004076004 0.15389683842658997
0.1972324550151825 -0.44272682070732117 -0.0650295615196228
0.03773493319749832 -0.2542862594127655 0.1431904435157776
-0.29050686955451965 -0.013662599958479404 -0.24972471594810486
0.27335086464881897 0.22867996990680695 0.041852958500385284
-0.10934054851531982 -0.23785598576068878 0.1555493026971817
0.16013461351394653 -0.24820338189601898 -0.019855612888932228
-0.2707282304763794 -0.2495921105146408 0.09760035574436188
-0.2516844570636749 -0.24875052273273468 0.12246470153331757
0.26438793540000916 -0.3507229685783386 0.13251502811908722
-0.21419471502304077 0.03187095746397972 0.1693015992641449
-0.22182054817676544 -0.2960450351238251 -0.06933104991912842
0.29674217104911804 -0.016079358756542206 0.1455060988664627
0.1720719337463379 -0.24015173316001892 0.155831977725029
-0.24684832990169525 0.2317773550748825 0.031913287937641144
-0.14037014544010162 0.1384323537349701 0.1716434806585312
-0.26569417119026184 0.42098763585090637 -0.004424006678164005
-0.27058494091033936 0.10713950544595718 -0.1354503631591797
0.2902313768863678 0.229793980717659 -0.09250055253505707
0.27709972858428955 0.23455514013767242 0.003329027444124222
-0.2705548107624054 0.11585645377635956 -0.1286948323249817
0.2959195673465729 -0.13531805574893951 -0.005331903696060181
0.29029226303100586 -0.15860968828201294 -0.13392673432826996
0.04477594792842865 -0.1969204694032669 0.15475381910800934
0.1960754692554474 0.49989795684814453 0.073554128408432
-0.25282347202301025 -0.4683842062950134 -0.05395817756652832
0.2941519618034363 -0.010722547769546509 -0.13420186936855316
-0.2499086707830429 0.04016352444887161 -0.2675476372241974
0.26793980598449707 -0.3223811984062195 0.09329535067081451
-0.2683650553226471 -0.229911670088768 0.15125426650047302
0.059349190443754196 0.14239755272865295 -0.13460049033164978
-0.25583216547966003 -0.43602117896080017 0.11911020427942276
0.2750195264816284 -0.25079774856567383 -0.017392423003911972
0.1564500480890274 -0.25087234377861023 -0.07411067187786102
0.29087555408477783 -0.24339871108531952 0.13579615950584412
-0.2157127410173416 0.16787634789943695 -0.13531537353992462
-0.2616073191165924 0.12458980083465576 -0.1360408067703247
0.2916937470436096 0.15693098306655884 0.1556333303451538
0.21478630602359772 -0.24945783615112305 0.08162541687488556
-0.2700803577899933 -0.03917854651808739 0.15102942287921906
0.15391449630260468 0.14662455022335052 0.16894148290157318
-0.2215641736984253 0.1407405138015747 0.16222694516181946
0.05725861340761185 0.1372780203819275 -0.1367727816104889
-0.2691652476787567 -0.047523826360702515 -0.13442310690879822
-0.2716977000236511 -0.20232722163200378 0.14144718647003174
-0.2698078155517578 -0.15537631511688232 0.14460887014865875
0.20069719851016998 0.22804024815559387 0.03056398592889309
0.2750436067581177 -0.445319265127182 0.16894866526126862
-0.19666974246501923 -0.16692084074020386 -0.1348821222782135
-0.04773437976837158 -0.2507537603378296 -0.022957254201173782
0.29383814334869385 0.2201431691646576 -0.12535737454891205
0.018970664590597153 0.09596613794565201 -0.1345144659280777
-0.042038850486278534 -0.24722565710544586 0.15351372957229614
-0.24460643529891968 0.23280031979084015 -0.020219318568706512
0.23471425473690033 -0.44193580746650696 -0.08547551184892654
0.05102928727865219 0.11061622202396393 -0.13739284873008728
-0.1885242462158203 0.32162803411483765 -0.017562923952937126
-0.2678053379058838 -0.237471342086792 -0.1326846182346344
0.2540566921234131 0.08237713575363159 0.15469114482402802
0.20048467814922333 0.22831259667873383 0.02814851701259613
0.2872234582901001 -0.22846923768520355 0.15612436830997467
0.2091536521911621 0.21863292157649994 -0.13645151257514954
0.2222999632358551 0.228998064994812 -0.06754475831985474
0.09564930200576782 -0.2473021298646927 0.14273644983768463
-0.22046856582164764 -0.4501199424266815 0.12917354702949524
-0.2199414074420929 -0.0747823715209961 0.1657962203025818
0.2654721438884735 -0.25066184997558594 0.00868864543735981
-0.2686762809753418 -0.03932291269302368 -0.022010747343301773
-0.07036300748586655 0.22738991677761078 -0.1300569325685501
0.24344411492347717 -0.11104129999876022 0.16810393333435059
-0.27483469247817993 -0.305934339761734 0.06472265720367432
0.2677607834339142 0.2299075424671173 0.15228807926177979
-0.33407020568847656 -0.39721256494522095 0.014210809022188187
0.25453105568885803 -0.1573592722415924 0.15461626648902893
-0.08178283274173737 0.22616887092590332 -0.1308550387620926
-0.11061269789934158 -0.24995294213294983 -0.1224704161286354
0.2726840078830719 0.23296765983104706 -0.01978948339819908
0.039300769567489624 0.23103204369544983 -0.2429143637418747
0.2963535189628601 -0.10521234571933746 0.03919440880417824
-0.24276980757713318 0.3263912796974182 -0.019838448613882065
-0.19326338171958923 0.34362494945526123 -0.0515054315328598
-0.2758452892303467 -0.44006049633026123 0.05069734901189804
0.16177193820476532 -0.19423866271972656 0.15274390578269958
-0.1796426922082901 -0.2571312189102173 -0.05107288807630539
0.2883746922016144 -0.24162977933883667 0.15023526549339294
0.03518081456422806 -0.0502694733440876 -0.1369566172361374
-0.03747136890888214 -0.24911706149578094 -0.12807713449001312
0.2816295325756073 -0.42033931612968445 -0.03833116218447685
0.1612584888935089 -0.39676329493522644 0.17549972236156464
0.2977970540523529 0.21366746723651886 0.0031447634100914
0.28995975852012634 0.18065758049488068 -0.13665442168712616
0.28238311409950256 0.34356561303138733 -0.05039490386843681
-0.26153457164764404 -0.2509220242500305 0.06944476813077927
-0.2721582353115082 0.1765294373035431 0.08559486269950867
0.2882038354873657 -0.41681969165802 0.18085861206054688
-0.00914012175053358 -0.19611351191997528 0.15193308889865875
-0.25935694575309753 -0.40616217255592346 0.20541498064994812
0.23217134177684784 -0.2890808880329132 0.08596660196781158
0.11495403945446014 0.228327214717865 -0.12607644498348236
0.2954268455505371 -0.438618540763855 0.06728571653366089
0.016432978212833405 0.2565351724624634 -0.2636696398258209
0.04987090826034546 0.22215940058231354 -0.206748366355896
-0.2688053250312805 0.22029516100883484 0.07909385859966278
0.2949896454811096 0.21831835806369781 -0.13559870421886444
0.1798330396413803 0.38495180010795593 0.1019362211227417
-0.24743212759494781 0.4259807765483856 -0.06683281064033508
-0.019194308668375015 0.05144525319337845 -0.1370530128479004
0.278574675321579 -0.356770396232605 0.12188400328159332
0.26389315724372864 0.3938866853713989 -0.08887377381324768
-0.24251849949359894 -0.42728209495544434 0.18709206581115723
-0.185815691947937 0.23195980489253998 0.04279375448822975
0.24144738912582397 0.129079669713974 0.16807155311107635
0.2477661371231079 0.09264642745256424 -0.13638652861118317
0.29747968912124634 0.06743858009576797 -0.00042042508721351624
0.15755592286586761 -0.19541318714618683 0.1515108346939087
-0.2150591015815735 -0.030576489865779877 -0.13563686609268188
0.06019271910190582 0.1735335886478424 0.15508627891540527
0.15477755665779114 -0.4465300440788269 -0.029554996639490128
0.29597896337509155 0.2182757705450058 -0.05742574483156204
-0.2677108347415924 0.22380349040031433 -0.025328418239951134
-0.32847699522972107 -0.33881133794784546 0.17536360025405884
-0.011501138098537922 -0.248127281665802 -0.061166685074567795
0.2712305784225464 0.2302267849445343 0.044897980988025665
-0.2587165832519531 -0.23715999722480774 -0.13349272310733795
0.2966291904449463 0.22597940266132355 -0.0430990494787693
0.30039140582084656 -0.21181318163871765 -0.09984780848026276
0.28794944286346436 0.44783255457878113 0.12731148302555084
-0.26270541548728943 -0.25466492772102356 0.07156061381101608
-0.03388552740216255 0.22797034680843353 -0.12451460212469101
0.24822764098644257 -0.0013334080576896667 0.1634858399629593
-0.3317306935787201 -0.4087771773338318 -0.014001861214637756
0.29470473527908325 0.191059872508049 0.08244094252586365
-0.32374900579452515 -0.43271443247795105 -0.06631962209939957
0.24625882506370544 0.22123177349567413 0.1564769148826599
-0.2671041190624237 -0.24746116995811462 -0.037364501506090164
0.21824997663497925 0.17312152683734894 0.1515522599220276
0.28082796931266785 0.4001201093196869 -0.07244007289409637
-0.16405855119228363 -0.2317710816860199 -0.13427132368087769
0.18898457288742065 -0.1945675164461136 0.15324705839157104
0.2149752825498581 0.35835981369018555 -0.07862037420272827
0.25604477524757385 -0.2478129267692566 -0.1266518384218216
-0.23928600549697876 0.25124913454055786 -0.01585599035024643
0.22836172580718994 -0.4096589982509613 0.20188859105110168
-0.23000824451446533 -0.023376669734716415 0.1550639569759369
-0.27015846967697144 0.06938903033733368 -0.13469906151294708
-0.19335635006427765 0.454840749502182 -0.06309627741575241
-0.20115074515342712 0.43254417181015015 -0.07847809046506882
-0.14498716592788696 0.22669103741645813 -0.12104272842407227
0.2925140857696533 -0.250730961561203 -0.11441576480865479
0.26468971371650696 -0.37092670798301697 -0.0763712003827095
0.05007778853178024 0.22911182045936584 0.03947116807103157
0.1285458207130432 0.2276833951473236 0.005790114402770996
-0.2715163230895996 0.13377243280410767 0.14468884468078613
0.20685675740242004 -0.42923614382743835 0.20558854937553406
0.29730600118637085 -0.13634808361530304 -0.1344449669122696
0.26711931824684143 -0.44411876797676086 -0.04478316009044647
-0.3052102327346802 -0.3230273127555847 0.17745725810527802
-0.27032339572906494 -0.1293325424194336 -0.12771832942962646
0.29416975378990173 0.22459754347801208 -0.006870754063129425
-0.07382391393184662 0.22802473604679108 0.08659158647060394
0.2693856358528137 0.22726070880889893 -0.09789106249809265
-0.2310296893119812 -0.27476561069488525 -0.0513271726667881
0.2958506643772125 0.21894393861293793 -0.13465695083141327
-0.27107951045036316 0.17185078561306 -0.1324201226234436
0.2563866078853607 -0.3049354553222656 -0.06640586256980896
-0.1085871160030365 -0.17633549869060516 0.16788484156131744
-0.18453657627105713 0.3342563807964325 0.04574769735336304
-0.25832468271255493 -0.2478935569524765 0.07817241549491882
0.033143769949674606 0.1696389764547348 0.15225490927696228
-0.22276630997657776 0.11226847767829895 0.1634824275970459
0.29830068349838257 0.010533563792705536 -0.0926704853773117
0.20346549153327942 0.3320571482181549 0.05427499860525131
-0.26946842670440674 0.042714495211839676 -0.13372991979122162
-0.03643900528550148 0.21787704527378082 -0.13471508026123047
-0.26990461349487305 0.07160595059394836 -0.13357166945934296
0.29128238558769226 0.4370845854282379 0.12073095142841339
0.02404407598078251 0.22613275051116943 -0.12918339669704437
-0.2706187963485718 -0.19297762215137482 -0.12037225067615509
0.12040172517299652 0.22533448040485382 0.15303808450698853
-0.2698400616645813 -0.20009669661521912 -0.1309524029493332
0.2990773022174835 -0.23649993538856506 0.060301896184682846
-0.2690863609313965 -0.12894408404827118 -0.13389155268669128
0.29361942410469055 -0.015723319724202156 0.15567348897457123
-0.23911085724830627 -0.24120600521564484 -0.13522054255008698
-0.23230428993701935 0.22635330259799957 -0.1335339993238449
-0.1819395273923874 -0.11257447302341461 -0.13483232259750366
-0.20994943380355835 -0.43545934557914734 0.13954584300518036
-0.2722768783569336 -0.37873196601867676 -0.09222756326198578
-0.19690081477165222 0.04079163074493408 -0.13608300685882568
0.26035499572753906 -0.3618190586566925 0.155597984790802
-0.2425975501537323 0.23159220814704895 -0.023805592209100723
0.07144823670387268 -0.07931680977344513 -0.13606242835521698
0.001632492057979107 0.22369384765625 -0.1371987909078598
-0.08530989289283752 0.13151457905769348 -0.13719826936721802
0.2774001359939575 0.3457157015800476 -0.059838201850652695
0.28878459334373474 -0.0612492561340332 -0.13681891560554504
0.2983362674713135 -0.2538916766643524 -0.04800792783498764
-0.035231541842222214 0.1591700166463852 -0.13790307939052582
0.10524164140224457 -0.2508712112903595 -0.12509547173976898
0.2896154224872589 -0.399509996175766 0.16922064125537872
0.044456884264945984 0.1698768138885498 -0.13429705798625946
0.05070861428976059 0.12757325172424316 -0.1380864679813385
-0.26408064365386963 -0.04506254196166992 -0.1345243901014328
0.2747044861316681 0.34299856424331665 -0.0602751299738884
-0.1724955439567566 -0.26964980363845825 0.05929693579673767
0.20144429802894592 -0.44552940130233765 -0.06653492152690887
-0.2701031267642975 0.1338461935520172 -0.13438786566257477
-0.2688555419445038 -0.19655758142471313 -0.13211828470230103
-0.24267055094242096 0.4258984327316284 -0.07194411009550095
0.16344350576400757 -0.25148338079452515 0.05575073882937431
-0.21183308959007263 0.14614614844322205 0.1702878475189209
-0.11204473674297333 0.2264968901872635 -0.1298469454050064
0.2779339551925659 -0.4456990957260132 0.16205653548240662
0.28614145517349243 -0.4297359883785248 0.008903433568775654
-0.2575177252292633 -0.24836036562919617 -0.12181542813777924
-0.2640674114227295 0.19932185113430023 -0.13505899906158447
0.14123274385929108 0.2271091192960739 0.14702513813972473
0.28452157974243164 0.22893750667572021 -0.05056966841220856
0.21416334807872772 -0.23863878846168518 0.15533830225467682
0.2778995633125305 0.482467383146286 0.12343992292881012
0.28539636731147766 -0.0772828459739685 0.15542422235012054
-0.2105480134487152 -0.4261512756347656 0.1541648805141449
-0.2691883444786072 -0.09484700858592987 -0.1328456997871399
-0.23044249415397644 -0.4794969856739044 0.010984864085912704
-0.2914165258407593 0.04067978262901306 -0.2664410173892975
0.2745029330253601 0.2352222353219986 0.027223214507102966
-0.27190765738487244 -0.1578630954027176 0.14712129533290863
-0.27069395780563354 -0.2422497719526291 0.1082880049943924
0.19789601862430573 -0.25079530477523804 -0.052811942994594574
0.291566401720047 0.22273561358451843 -0.13666130602359772
-0.26633885502815247 0.03589842468500137 -0.1335805505514145
0.22220733761787415 0.503766655921936 0.11567220091819763
0.2974347174167633 -0.234271839261055 0.1378968060016632
-0.27931666374206543 -0.018554748967289925 -0.3054061233997345
0.2742072641849518 0.23443196713924408 0.016113772988319397
-0.3329513669013977 -0.36545684933662415 0.12988479435443878
-0.016227200627326965 0.16982126235961914 0.15278860926628113
0.29614078998565674 0.21630850434303284 -0.13566583395004272
-0.2719651758670807 0.21731455624103546 0.030496027320623398
-0.21574357151985168 0.22546643018722534 -0.13272102177143097
-0.31825709342956543 -0.36073482036590576 0.18563160300254822
-0.21622790396213531 -0.2466592937707901 -0.13620668649673462
-0.22309952974319458 0.03167090564966202 0.16099798679351807
0.05926454812288284 0.13904479146003723 -0.13535362482070923
0.05441392585635185 0.19660019874572754 -0.20286956429481506
0.2974531650543213 -0.21045005321502686 -0.12355086952447891
-0.21161852777004242 0.22764445841312408 -0.1193370372056961
0.2768443524837494 -0.43939828872680664 0.0842321589589119
-0.007865279912948608 0.17659544944763184 -0.1338513046503067
-0.2024870216846466 0.34419140219688416 -0.05744118243455887
-0.22592204809188843 0.1621638834476471 0.15891173481941223
-0.19317834079265594 -0.16567228734493256 -0.13452671468257904
-0.08970746397972107 0.23175591230392456 0.1458648294210434
0.29810893535614014 -0.23855818808078766 -0.016455866396427155
-0.23923863470554352 -0.25297731161117554 0.07417021691799164
0.29215896129608154 -0.4339533746242523 0.08716202527284622
0.3009791374206543 -0.13050399720668793 0.14696857333183289
-0.25253766775131226 0.3581351637840271 -0.04751620069146156
0.258442759513855 0.15750858187675476 0.15133756399154663
-0.33723583817481995 -0.36951571702957153 0.049369364976882935
0.29404696822166443 0.21978440880775452 -0.13559959828853607
0.2245640754699707 -0.4235859811306 0.20439566671848297
-0.019689884036779404 0.17151525616645813 0.15270055830478668
-0.2652599513530731 -0.21707463264465332 -0.13329339027404785
-0.13719794154167175 0.15473970770835876 0.16949941217899323
-0.17380990087985992 0.17193737626075745 0.15438292920589447
0.2912297248840332 -0.010670425370335579 0.15544988214969635
0.01664838008582592 -0.25155508518218994 0.01118825189769268
0.27258390188217163 -0.37239766120910645 0.1575401872396469
0.25581568479537964 0.16757230460643768 0.152293398976326
-0.2692832946777344 -0.39699551463127136 0.2047988772392273
-0.2124858796596527 -0.2460714727640152 -0.1358547806739807
0.27108654379844666 0.24239137768745422 0.016371356323361397
0.19537459313869476 0.4926510453224182 0.1001177504658699
-0.023559901863336563 0.29904645681381226 -0.2452491819858551
0.2766152322292328 0.22787319123744965 -0.03629261627793312
-0.20628505945205688 -0.4226410388946533 -0.04075511544942856
0.2992677390575409 0.20412123203277588 0.145481675863266
0.05890629440546036 0.19282056391239166 -0.17266947031021118
0.24162793159484863 -0.35874396562576294 -0.08855009078979492
-0.12092725932598114 0.10074502229690552 0.16928836703300476
-0.11480862647294998 -0.24747750163078308 0.15137919783592224
-0.2553170621395111 0.3481704592704773 0.0531594343483448
-0.21626485884189606 -0.2429337203502655 0.15610580146312714
0.2969795763492584 -0.07504507154226303 0.15444418787956238
0.22770071029663086 0.3186638653278351 0.058821991086006165
0.28758078813552856 -0.05988163501024246 -0.13458748161792755
-0.15964093804359436 0.22924165427684784 -0.06882354617118835
-0.17332951724529266 0.35273289680480957 -0.04686848819255829
-0.21941766142845154 -0.08747613430023193 0.166020005941391
-0.06643661856651306 0.22546160221099854 0.15645402669906616
0.196425199508667 -0.2351108342409134 0.15443339943885803
0.2960056960582733 -0.04229462519288063 0.10553492605686188
-0.2682790160179138 -0.40455731749534607 0.18632572889328003
0.20394891500473022 0.3333323001861572 0.05612567067146301
-0.32883888483047485 -0.35721296072006226 0.1716422140598297
-0.2113029956817627 -0.0010720458813011646 0.17027314007282257
-0.2732250690460205 0.12143686413764954 0.06752987205982208
-0.25172072649002075 0.43973618745803833 0.11604951322078705
-0.22062495350837708 0.22483476996421814 -0.1337089091539383
-0.08010280132293701 -0.2526841461658478 0.005168107338249683
0.1934099793434143 -0.2574108839035034 0.05958452448248863
-0.25173842906951904 -0.3093835413455963 -0.06481175869703293
-0.1386679857969284 -0.18052799999713898 0.16663673520088196
0.03776556998491287 -0.24547570943832397 -0.13462236523628235
-0.039239563047885895 0.16112792491912842 0.1654796451330185
-0.02103867381811142 -0.2377433329820633 0.15591055154800415
-0.027619007974863052 -0.2501928210258484 -0.11452274024486542
-0.2688971757888794 -0.24365994334220886 -0.1235184445977211
-0.19006460905075073 -0.24308086931705475 0.1567803919315338
-0.14928920567035675 -0.25432509183883667 0.028277669101953506
-0.12371059507131577 0.21961799263954163 -0.13381919264793396
0.18597988784313202 -0.19380001723766327 0.15187837183475494
-0.27017277479171753 0.22294288873672485 0.10857775807380676
-0.22384628653526306 -0.03910628706216812 0.16112829744815826
-0.271330326795578 0.21093963086605072 0.09409134835004807
0.2843584716320038 -0.4421021640300751 0.14982926845550537
0.2516597509384155 -0.042326442897319794 -0.13624639809131622
0.294791579246521 -0.2508181631565094 0.008968070149421692
-0.2683541476726532 -0.22701650857925415 -0.13359646499156952
-0.24082358181476593 0.3492390513420105 0.09546466171741486
0.20214152336120605 -0.44685879349708557 0.19406598806381226
0.01725757122039795 -0.1887189745903015 0.15733414888381958
-0.2705068290233612 0.08990591019392014 -0.136155366897583
0.28388383984565735 -0.44371360540390015 0.12635520100593567
0.292600154876709 0.05280371755361557 -0.13786007463932037
-0.22032640874385834 0.032014865428209305 0.16620057821273804
-0.23498141765594482 -0.4011085033416748 0.19391857087612152
-0.17374254763126373 0.23022235929965973 0.03632652014493942
-0.3236788213253021 -0.43097367882728577 -0.06260177493095398
-0.1752186119556427 0.36501842737197876 0.10177293419837952
