0.27753758430480957 -0.21198958158493042 0.1588650643825531
0.2825417220592499 -0.05906623229384422 -0.13660304248332977
-0.32328709959983826 -0.34700340032577515 0.061115678399801254
0.1827857494354248 -0.09817232936620712 -0.14121666550636292
0.2971153259277344 0.051412854343652725 -0.07799194008111954
0.200327530503273 0.4998122453689575 0.06459898501634598
-0.2753629982471466 0.17692168056964874 -0.0478946752846241
-0.27077287435531616 0.10993597656488419 0.01981373503804207
0.29804351925849915 -0.034938082098960876 -0.11393263936042786
-0.03366243466734886 -0.2500366270542145 0.042115505784749985
0.25120511651039124 0.3991619646549225 -0.09105540066957474
0.1835387498140335 -0.30927741527557373 -0.05264581739902496
0.29611000418663025 -0.021961025893688202 -0.10481031239032745
-0.2723793685436249 -0.01871267519891262 -0.058238670229911804
0.20409686863422394 0.22808218002319336 0.1369611918926239
0.2843211889266968 0.3908461034297943 -0.06553710252046585
0.18838070333003998 -0.45043841004371643 0.09387075155973434
0.2962217628955841 -0.1471765786409378 0.07431800663471222
0.2985765337944031 -0.06436308473348618 0.05171698331832886
0.13642799854278564 -0.41949206590652466 0.046583324670791626
-0.12568582594394684 0.0726165771484375 0.16873621940612793
0.11134780943393707 -0.22538673877716064 -0.13364337384700775
-0.1675894856452942 -0.2742743194103241 -0.03377198055386543
-0.24904242157936096 0.4440678060054779 -0.04729344695806503
0.29780542850494385 0.3868649899959564 0.07742229849100113
0.29670822620391846 0.039259545505046844 0.12848635017871857
0.024897443130612373 0.13976994156837463 -0.20911143720149994
0.29450973868370056 0.16636435687541962 -0.07828066498041153
-0.13725066184997559 -0.24939924478530884 -0.001530056120827794
-0.01464943028986454 0.1271335482597351 -0.13287551701068878
0.28144359588623047 -0.09264707565307617 -0.13538415729999542
-0.2722031772136688 0.14366649091243744 0.0392710417509079
-0.1967930644750595 -0.4334580600261688 0.07392939925193787
0.07877597212791443 -0.20710067451000214 -0.13636013865470886
-0.03451702743768692 -0.10934300720691681 0.17331638932228088
0.002926201093941927 0.18436001241207123 0.1560996174812317
0.1952897161245346 -0.09979011118412018 0.1681145429611206
-0.13342173397541046 0.05570986121892929 -0.13559137284755707
-0.2730158567428589 0.031130725517868996 0.12013368308544159
0.038261376321315765 0.22750993072986603 0.033261582255363464
-0.25272026658058167 0.48938772082328796 0.020609835162758827
-0.2691548466682434 -0.19622796773910522 0.03669946640729904
-0.15597917139530182 0.4006596505641937 -0.012659285217523575
-0.1862480193376541 -0.09895972162485123 0.16802668571472168
0.07651427388191223 -0.20120270550251007 -0.13529552519321442
-0.2718157172203064 -0.2276792675256729 -0.017872771248221397
0.06480085849761963 0.1694280505180359 -0.1719161868095398
0.041894786059856415 0.22777584195137024 0.019988132640719414
0.29705923795700073 -0.12542925775051117 0.11079148948192596
0.2946324944496155 -0.04476454481482506 0.02587984874844551
-0.1863008588552475 -0.41152051091194153 0.058967240154743195
-0.27210453152656555 0.15512272715568542 0.009987786412239075
0.11618999391794205 -0.24991056323051453 0.04378701373934746
0.13739414513111115 0.06374017894268036 -0.13343511521816254
0.043117158114910126 -0.15972211956977844 -0.1356053501367569
0.21069805324077606 0.10261339694261551 0.167324498295784
0.2893364131450653 0.4598085582256317 -0.023169271647930145
0.28998392820358276 0.42233625054359436 -0.024114685133099556
-0.059628088027238846 -0.2492648959159851 0.11223763972520828
0.303788959980011 0.39569956064224243 0.0108030391857028
-0.08436063677072525 0.06179798021912575 0.16610588133335114
-0.2751331925392151 -0.20318743586540222 0.01013519149273634
0.29694607853889465 -0.041469283401966095 -0.09528976678848267
0.29557710886001587 0.0508614145219326 0.0665445551276207
0.274233341217041 0.45464587211608887 -0.06550062447786331
-0.23475314676761627 -0.22322523593902588 -0.13581696152687073
0.18003010749816895 0.35413113236427307 -0.0006731817265972495
0.14856623113155365 0.23005035519599915 -0.026232430711388588
0.2942579984664917 0.05108371004462242 -0.09098993241786957
-0.2714267671108246 -0.06403973698616028 0.020049285143613815
0.29630619287490845 0.13398848474025726 -0.008883707225322723
0.17786148190498352 0.46864214539527893 0.03642662987112999
0.2992260754108429 -0.020415829494595528 -0.015228415839374065
-0.2802523970603943 -0.39930403232574463 0.1737787276506424
-0.05754144862294197 0.09610240161418915 -0.13715337216854095
0.18140974640846252 0.4475649297237396 0.00036490376805886626
0.001958959735929966 0.10134908556938171 -0.1559104472398758
0.1686224639415741 0.225990429520607 -0.1131625846028328
0.18164557218551636 -0.4417172372341156 0.012403026223182678
0.17423994839191437 -0.28314465284347534 0.04582281410694122
-0.31421783566474915 -0.4019554555416107 0.06241295859217644
0.17618632316589355 0.41576334834098816 0.06773325055837631
0.24438896775245667 -0.050487447530031204 -0.13500814139842987
0.2677798569202423 -0.30645084381103516 0.010222330689430237
0.012621277011930943 -0.18641619384288788 -0.13749633729457855
0.10663465410470963 -0.13638870418071747 0.17096558213233948
0.033712320029735565 0.2250683605670929 0.09269940853118896
-0.2754517197608948 -0.301699161529541 0.03833331540226936
-0.1756623387336731 0.1388069987297058 0.1687963753938675
-0.2895145118236542 -0.4320307672023773 0.04891559109091759
0.09587933868169785 -0.2498190850019455 0.04728899151086807
0.17639008164405823 0.3934534788131714 0.06470227241516113
-0.26474639773368835 -0.2895042896270752 0.0454142801463604
0.05047217011451721 -0.14369919896125793 -0.1355522722005844
-0.03128647059202194 -0.25005143880844116 -0.030215639621019363
0.13312748074531555 -0.2525765299797058 0.096501424908638
-0.25284698605537415 0.04237860068678856 -0.2905067503452301
-1.1181255104020238e-06 0.22760380804538727 -0.0281277596950531
0.2977043092250824 -0.10164840519428253 0.025192517787218094
0.29498934745788574 -0.06059228628873825 -0.008614453487098217
0.2975991368293762 0.1296001672744751 0.08685304969549179
-0.12636126577854156 -0.1827671378850937 -0.1358858346939087
0.26775068044662476 -0.3502941429615021 -0.06535966694355011
-0.17863890528678894 -0.15671183168888092 -0.13555733859539032
0.01115575060248375 -0.006848826073110104 -0.1372477412223816
0.13577690720558167 0.05215241014957428 -0.1327590048313141
-0.2325679063796997 -0.34966355562210083 0.13968990743160248
0.264159232378006 -0.2920764982700348 -0.021517787128686905
-0.2482624053955078 0.014687096700072289 -0.28871726989746094
0.05217115208506584 -0.19948488473892212 -0.13728369772434235
-0.2551461160182953 0.410677969455719 -0.05167873203754425
-0.18752630054950714 -0.08010353147983551 -0.1365756094455719
0.20016855001449585 0.3223530948162079 -0.011594859883189201
-0.0873393714427948 -0.08266010880470276 0.167537659406662
0.27442920207977295 0.22651508450508118 -0.11887532472610474
0.011098016053438187 -0.24878425896167755 -0.07329408824443817
-0.22436803579330444 0.2289360761642456 0.12875553965568542
0.24595774710178375 0.41302502155303955 0.1043253019452095
0.2976650595664978 0.13196569681167603 -0.07554535567760468
-0.2043449580669403 -0.1278727948665619 0.16874368488788605
-0.0825808048248291 0.22480957210063934 -0.1173207014799118
0.21890006959438324 0.22763341665267944 0.06371016800403595
-0.27299559116363525 -0.08293280750513077 -0.08104084432125092
-0.263155072927475 0.36708372831344604 0.039329491555690765
-0.2268950343132019 0.23133468627929688 -0.10078124701976776
-0.26882097125053406 0.0700097307562828 -0.01236382033675909
0.2965255379676819 -0.01294037513434887 0.08005789667367935
0.3003171980381012 0.1911170780658722 -0.11899104714393616
0.18364956974983215 -0.01730015128850937 -0.13513807952404022
0.13505952060222626 0.1349601447582245 -0.13823634386062622
0.2256624847650528 0.445915162563324 -0.08907143771648407
0.19728423655033112 -0.04278767108917236 0.1682196855545044
-0.19188077747821808 -0.11487692594528198 0.1683366298675537
0.2966572344303131 0.04561585560441017 0.12172779440879822
-0.014409452676773071 -0.0843895822763443 0.16918905079364777
-0.25271302461624146 -0.3517044186592102 0.17214404046535492
0.07610993832349777 0.22774092853069305 -0.019283965229988098
0.1763734519481659 -0.22896580398082733 -0.13840501010417938
-0.18711617588996887 -0.36291348934173584 0.07883630692958832
-0.07898400723934174 0.13681204617023468 -0.13588321208953857
-0.2149539738893509 -0.3833214342594147 0.1499236822128296
0.15169253945350647 0.09723613411188126 0.16770614683628082
0.1734122782945633 0.017529776319861412 -0.1352534294128418
-0.039911527186632156 -0.24948981404304504 0.11267177760601044
-0.19440746307373047 0.22474102675914764 -0.07222053408622742
0.27839425206184387 0.4524286687374115 -0.056919388473033905
-0.21947604417800903 -0.3813435435295105 0.16312004625797272
-0.2024017870426178 -0.2533498704433441 -0.08246553689241409
-0.2529936730861664 0.23066113889217377 0.07921548932790756
-0.09156827628612518 0.22499559819698334 -0.062246669083833694
0.13170450925827026 0.22790931165218353 0.09349983930587769
-0.2721792757511139 0.1425180733203888 0.10173686593770981
-0.09299378097057343 -0.04853888973593712 0.16758699715137482
0.01615743897855282 -0.1372116506099701 0.16824685037136078
-0.0027165382634848356 0.23103390634059906 0.012044123373925686
-0.27210021018981934 0.06383498758077621 0.05011780187487602
0.29813337326049805 -0.126987025141716 0.06972147524356842
-0.021611539646983147 0.1569707840681076 -0.13785216212272644
0.2970430254936218 -0.12551051378250122 0.11793457716703415
-0.22867505252361298 -0.1521565020084381 -0.13431133329868317
0.1304863840341568 0.20679205656051636 -0.13646338880062103
0.2867392897605896 0.056197140365839005 -0.1353026032447815
0.28934401273727417 0.4677801728248596 0.11012790352106094
-0.25334590673446655 0.47251319885253906 0.007154489867389202
-0.07023235410451889 0.030148200690746307 -0.139397993683815
-0.19510787725448608 0.06486417353153229 -0.13663984835147858
0.1511949598789215 -0.3850809335708618 0.13464336097240448
-0.03367329016327858 -0.2510509788990021 -0.049272481352090836
-0.2531188726425171 0.1132575124502182 0.15648487210273743
-0.2909618318080902 -0.4510476291179657 -0.025042584165930748
0.29543840885162354 0.08635319769382477 0.12985366582870483
-0.16199633479118347 0.2279917150735855 -0.08992949873209
-0.24774199724197388 0.010715578682720661 -0.26242873072624207
-0.3189364969730377 -0.3297309875488281 0.14533820748329163
0.23139555752277374 -0.16410629451274872 -0.13406313955783844
0.08412667363882065 -0.2502264082431793 -0.0855928286910057
0.06607372313737869 0.22626455128192902 -0.01844080165028572
0.16501672565937042 -0.3628236651420593 0.12775863707065582
-0.13449658453464508 -0.14014142751693726 0.1685144603252411
-0.000505456468090415 -0.25297480821609497 0.13291791081428528
0.2958413064479828 0.09572432190179825 0.015167729929089546
0.29629841446876526 -0.20861539244651794 -0.059441328048706055
-0.26944053173065186 -0.209689199924469 0.00313661340624094
0.07370802015066147 0.09527383744716644 0.1683497577905655
0.01963847689330578 -0.03828068822622299 -0.1330311894416809
0.2979785203933716 -0.034113332629203796 -0.10848919302225113
-0.03978987783193588 -0.25414377450942993 -0.11926504969596863
0.14566545188426971 0.047223471105098724 0.16831037402153015
0.2741509974002838 -0.11129079014062881 0.15661664307117462
0.29723984003067017 -0.024054231122136116 -0.059609077870845795
0.00457736337557435 0.18172650039196014 -0.22584456205368042
0.03832283616065979 -0.24971581995487213 -0.05631611868739128
0.2594425678253174 -0.20818522572517395 -0.13806979358196259
0.2965226173400879 -0.17861151695251465 0.10431158542633057
-0.2615322172641754 -0.46402856707572937 0.011820442974567413
0.21954458951950073 -0.10309454053640366 -0.13490012288093567
-0.11302117258310318 0.005555105861276388 0.16865891218185425
0.1647050678730011 -0.31415507197380066 -0.033007193356752396
-0.1531824767589569 0.39528515934944153 0.0015022853622213006
-0.2719290852546692 -0.19871662557125092 -0.06480604410171509
-0.20050978660583496 -0.43487390875816345 -0.018105581402778625
-0.03460628539323807 -0.014721952378749847 -0.13539813458919525
0.13187183439731598 -0.25155332684516907 0.004469841718673706
0.033483099192380905 -0.2514718472957611 -0.11505788564682007
0.3015672266483307 0.06539235264062881 -0.11842796206474304
0.26673534512519836 -0.032985009253025055 -0.13506098091602325
-0.17952655255794525 -0.13933038711547852 0.16587939858436584
-0.2735626995563507 -0.05564529076218605 -0.12517376244068146
0.28724968433380127 -0.39651021361351013 0.016587909311056137
-0.009837794117629528 0.14287498593330383 -0.13633207976818085
0.258319616317749 0.4588238596916199 0.10763777047395706
-0.008035825565457344 -0.12219594419002533 -0.13662125170230865
0.035483650863170624 0.07722596079111099 0.16832225024700165
-0.21558460593223572 -0.46387624740600586 0.030569618567824364
-0.16498126089572906 -0.3407221734523773 -0.009594408795237541
-0.2721206843852997 0.09795372933149338 0.04999563470482826
0.29836493730545044 -0.11705350875854492 -0.10590902715921402
-0.271518737077713 -0.07128079235553741 -0.012459495104849339
0.29580268263816833 0.019318992272019386 -0.026054009795188904
0.2848471701145172 -0.1719474494457245 -0.13609004020690918
-0.07066340744495392 -0.1706228256225586 -0.1369924247264862
0.17698067426681519 0.4074297249317169 -0.0035847690887749195
0.14780324697494507 -0.08773298561573029 -0.13497117161750793
-0.2662530839443207 0.40964770317077637 0.06720416992902756
0.2681977152824402 -0.049559589475393295 -0.13519039750099182
0.1926838755607605 0.3381723165512085 -0.02868698537349701
0.20886030793190002 -0.25099411606788635 -0.08915580064058304
0.03263489156961441 -0.01434799563139677 -0.1339132934808731
-0.27080878615379333 0.16583219170570374 -0.12339969724416733
0.028709053993225098 0.19627167284488678 0.1588124930858612
-0.2759737968444824 -0.4099997580051422 0.14533443748950958
-0.2540568709373474 0.47940558195114136 0.05921380966901779
-0.2872302234172821 -0.35799288749694824 -0.07438518851995468
0.011973120272159576 -0.17481891810894012 -0.1362050473690033
-0.2618059515953064 -0.42427313327789307 0.13830804824829102
-0.08482600003480911 0.20745354890823364 0.16222046315670013
-0.18825161457061768 -0.3809559941291809 -0.051741454750299454
-0.20993542671203613 -0.45506906509399414 0.012704582884907722
-0.15635380148887634 -0.16151785850524902 -0.1340433955192566
0.06254122406244278 -0.0992426723241806 0.16876226663589478
0.2479971945285797 -0.2230912148952484 -0.13637007772922516
0.03409275412559509 -0.24970915913581848 -0.0510939285159111
0.29655149579048157 0.21092009544372559 -0.11050210893154144
0.0945027768611908 -0.25201424956321716 0.07181215286254883
-0.021592898294329643 0.14324386417865753 -0.13885411620140076
-0.16636642813682556 0.0797719657421112 -0.13678361475467682
0.2979543209075928 0.1576973795890808 -0.11107778549194336
0.007936942391097546 0.20370620489120483 -0.15678264200687408
0.18267180025577545 0.47312697768211365 0.051250629127025604
-0.25155189633369446 0.4781897962093353 0.013547789305448532
0.21656879782676697 0.039425112307071686 -0.13319182395935059
0.29926350712776184 -0.12643593549728394 -0.11269263923168182
0.2124720811843872 -0.011231261305510998 0.1716693788766861
0.19584406912326813 -0.4467460811138153 0.0515640564262867
0.1584363430738449 -0.0650651603937149 0.1687038242816925
0.02940964326262474 0.1895962953567505 -0.22666941583156586
-0.10185760259628296 -0.06256096810102463 0.16922837495803833
0.2901584506034851 -0.4139040410518646 0.17061764001846313
-0.2712944746017456 -0.15958568453788757 0.02397688664495945
0.10789190977811813 -0.2157294750213623 0.15555161237716675
-0.2754819989204407 0.1861889511346817 -0.10566027462482452
0.16704601049423218 0.15382026135921478 -0.1328086405992508
0.29787206649780273 -0.18202276527881622 0.11208633333444595
0.11623837798833847 0.22830204665660858 -0.005300972610712051
0.1989208161830902 -0.2204791009426117 0.15648001432418823
0.18587087094783783 -0.34204229712486267 0.11563823372125626
0.017482129856944084 -0.03477488085627556 0.16789031028747559
-0.24533933401107788 -0.0251142717897892 0.15624944865703583
-0.2722712457180023 -0.23324276506900787 -0.061079949140548706
-0.1814246028661728 0.4606579542160034 -0.05045665055513382
-0.08378531038761139 0.18360954523086548 -0.13461564481258392
0.021047284826636314 0.17463965713977814 -0.1358845829963684
0.04687047004699707 0.04170861840248108 0.16700682044029236
-0.14203192293643951 -0.01801609992980957 0.16888456046581268
0.18282291293144226 0.04274273291230202 -0.13609901070594788
-0.044086482375860214 0.05966062471270561 -0.13772588968276978
0.08336684107780457 0.22913476824760437 -0.0001508216664660722
0.16720296442508698 0.014484948478639126 -0.135249063372612
0.18909859657287598 0.22705097496509552 0.011139782145619392
0.10275111347436905 -0.20381870865821838 -0.13563980162143707
-0.07645398378372192 -0.25616082549095154 -0.08198276162147522
0.1600068360567093 0.06948376446962357 0.1684376299381256
-0.1761871874332428 0.053047358989715576 -0.13707152009010315
-0.2670316696166992 0.09479048103094101 -0.0897848904132843
-0.15092270076274872 0.4210328757762909 0.03790571168065071
0.07457130402326584 0.1919868141412735 -0.1358669400215149
0.1770487278699875 -0.2501124441623688 0.07170291244983673
0.10596538335084915 -0.08983537554740906 -0.1370604932308197
-0.2878677248954773 -0.32766199111938477 0.011902221478521824
0.28227707743644714 -0.35340267419815063 0.001657472224906087
-0.16240979731082916 0.3612164258956909 0.05992140248417854
0.14305926859378815 -0.2500896155834198 -0.0012587070232257247
-0.2715036869049072 -0.05953492224216461 0.01152802724391222
0.2040536105632782 -0.3518676459789276 -0.08432690054178238
-0.24449026584625244 -0.10920006036758423 0.15768373012542725
0.023206941783428192 0.22906985878944397 0.0002077402314171195
0.1334022432565689 -0.017008448019623756 0.16746094822883606
-0.1451374739408493 -0.25169840455055237 -0.03795633465051651
0.2994426488876343 0.026197517290711403 0.11838609725236893
0.18754753470420837 0.2270869016647339 -0.008673588745296001
-0.3295157551765442 -0.3715953528881073 0.012964912690222263
0.09834367036819458 -0.25004857778549194 0.07981012016534805
-0.1741756796836853 -0.3827999532222748 0.023170825093984604
0.17645570635795593 0.09350641816854477 0.16858404874801636
0.2551873028278351 -0.4459201991558075 0.05064680054783821
-0.11071471869945526 -0.15412533283233643 -0.13381147384643555
0.2554810047149658 -0.17862354218959808 -0.13872721791267395
0.2009718418121338 -0.25121983885765076 0.11771360784769058
-0.08015194535255432 -0.2500457167625427 -0.0647188350558281
0.2851297855377197 0.35875216126441956 -0.051858142018318176
0.2186201959848404 0.008409612812101841 -0.13346730172634125
0.025955211371183395 -0.19967415928840637 -0.1351935863494873
0.29685455560684204 -0.06336064636707306 0.14118146896362305
0.2843567430973053 0.3302910327911377 0.039668358862400055
-0.272215873003006 0.14249473810195923 0.12254469096660614
-0.25790756940841675 0.46732276678085327 0.010703419335186481
0.14810486137866974 0.04496822506189346 0.16899459064006805
0.2994329333305359 0.38671910762786865 0.043795887380838394
-0.21044056117534637 0.33972877264022827 -0.05487232655286789
0.1764257401227951 0.3778614103794098 0.043434567749500275
0.2581695020198822 0.5143029689788818 0.05421052128076553
-0.10703812539577484 0.17191846668720245 -0.13723787665367126
-0.04917020723223686 0.1113891527056694 -0.13414829969406128
-0.29489102959632874 -0.4392012357711792 -0.007687735836952925
-0.24480605125427246 0.1550290286540985 -0.13640311360359192
0.14858710765838623 -0.12909680604934692 -0.1348804533481598
0.1412833333015442 -0.06647483259439468 0.17029303312301636
-0.270431786775589 0.019578048959374428 -0.10037851333618164
0.296347051858902 0.15593744814395905 0.09163765609264374
0.2754402160644531 -0.25124508142471313 -0.030931193381547928
-0.2737281322479248 0.07428506016731262 -0.091441810131073
-0.2719886600971222 -0.03461810201406479 -0.08677250146865845
-0.1695229560136795 0.363027423620224 -0.031521689146757126
-0.02604091353714466 0.018070844933390617 0.1680002361536026
0.0750715360045433 0.2285718321800232 0.026722019538283348
-0.13228733837604523 -0.04793220013380051 0.16862009465694427
-0.2063177525997162 -0.33441928029060364 0.09735807776451111
-0.08815418928861618 -0.06679286807775497 -0.13558989763259888
0.19028116762638092 0.11061017960309982 -0.13242368400096893
0.20592182874679565 0.2283076047897339 0.09637343138456345
0.22669470310211182 -0.12206371128559113 0.16938506066799164
-0.19162499904632568 -0.41660693287849426 0.08756184577941895
0.177193745970726 -0.24610823392868042 -0.09279876202344894
-0.2703978717327118 0.171330064535141 0.0499553382396698
-0.2913828492164612 -0.3391072452068329 -0.033589668571949005
-0.26166290044784546 -0.45009201765060425 -0.07199983298778534
0.29809874296188354 0.15350618958473206 -0.10824081301689148
-0.2763628661632538 0.16316905617713928 -0.11295891553163528
-0.2709401547908783 0.024321002885699272 -0.08414650708436966
0.21654677391052246 0.2028008997440338 -0.13518325984477997
0.023601284250617027 -0.08936170488595963 0.16873927414417267
0.2674384117126465 -0.3244692087173462 0.09139268845319748
-0.2634967267513275 0.454915314912796 0.024945558980107307
-0.10522859543561935 0.08443744480609894 -0.13728801906108856
-0.24504567682743073 0.3817158043384552 -0.06778064370155334
0.2714037597179413 0.17820332944393158 -0.13455671072006226
0.2970221936702728 0.20756369829177856 -0.03022053837776184
-0.26699501276016235 -0.021065255627036095 -0.0088043799623847
0.06816348433494568 -0.2501901090145111 -0.026425646618008614
-0.21710139513015747 -0.460754930973053 0.0015093369875103235
-0.02549390122294426 0.22840994596481323 0.0694335475564003
-0.015332372859120369 0.0270099975168705 0.1703687459230423
0.2965660095214844 -0.06677795946598053 -0.005523987114429474
-0.25756052136421204 -0.008157594129443169 -0.13666534423828125
-0.1660207360982895 0.2282620519399643 0.06345092505216599
-0.26375633478164673 0.44395866990089417 0.008773347362875938
0.08504278212785721 -0.24963198602199554 -0.030041828751564026
0.0001939954236149788 -0.2509079575538635 0.13743025064468384
0.1874658614397049 -0.3331772983074188 -0.06319797784090042
-0.14160475134849548 -0.24832089245319366 0.08519115298986435
0.2937548756599426 -0.08386947214603424 -0.016337737441062927
0.20208261907100677 0.2282085120677948 0.0031422085594385862
-0.020674483850598335 -0.15200857818126678 -0.13548387587070465
0.30050715804100037 0.1401197761297226 -0.0951724648475647
0.2839462161064148 -0.34425973892211914 0.031184930354356766
0.2544595003128052 0.5152665972709656 0.05604454502463341
0.2966773509979248 0.18893130123615265 0.001585007761605084
-0.19025768339633942 -0.09243132919073105 0.1684262901544571
0.29543158411979675 -0.12721000611782074 0.010756484232842922
0.13880378007888794 -0.41815146803855896 0.127740278840065
0.00037913164123892784 -0.25287550687789917 -0.09587296098470688
0.10830507427453995 -0.09749958664178848 0.16865798830986023
-0.13831277191638947 0.2289448082447052 0.009288026951253414
0.14975780248641968 0.22390024363994598 -0.025615505874156952
0.13352805376052856 0.22480757534503937 0.07546308636665344
-0.271785706281662 -0.012526591308414936 -0.0005353586748242378
-0.15836291015148163 0.4450913667678833 0.03539283201098442
-0.20198954641819 0.0428495928645134 -0.1332108974456787
0.22275976836681366 -0.32721787691116333 0.11788791418075562
0.15990883111953735 -0.22200152277946472 0.15268702805042267
-0.2722626030445099 -0.22703997790813446 0.08763600885868073
0.16888034343719482 0.2299126535654068 0.030558660626411438
0.2152220755815506 0.12434472143650055 0.16742049157619476
0.15647678077220917 -0.37411418557167053 -0.030593886971473694
0.29973018169403076 0.3899095058441162 0.05984429270029068
-0.21574896574020386 -0.34576359391212463 0.10506515949964523
-0.14823493361473083 0.12714724242687225 -0.13504089415073395
-0.09015893191099167 0.10660936683416367 -0.1375332772731781
0.22158101201057434 0.036139070987701416 -0.13832567632198334
0.16090252995491028 -0.4459715783596039 0.07998628169298172
0.11199206113815308 0.20046250522136688 -0.13525764644145966
-0.27015429735183716 -0.15659388899803162 -0.01954720914363861
-0.22522178292274475 -0.3081897795200348 0.09479182213544846
0.29708024859428406 -0.19545689225196838 -0.05573640018701553
-0.07400175929069519 -0.25053808093070984 -0.06584703922271729
0.29435110092163086 -0.09590163826942444 0.06826953589916229
-0.0655931755900383 0.16966940462589264 -0.1388692408800125
-0.15503334999084473 0.4361360967159271 0.016881244257092476
0.15825341641902924 -0.3344586193561554 0.0687999352812767
-0.27011701464653015 0.20283693075180054 0.0012402688153088093
0.19403448700904846 -0.21482209861278534 -0.13691304624080658
0.16427619755268097 0.030339716002345085 -0.1355459988117218
0.018166080117225647 -0.11796020716428757 -0.13355132937431335
-0.20315678417682648 -0.22644750773906708 -0.13364440202713013
0.30132123827934265 0.032995160669088364 -0.1131221130490303
-0.03179711848497391 0.23048409819602966 0.1266728788614273
0.292192280292511 -0.2329195737838745 -0.04762865975499153
0.2957726716995239 -0.21579737961292267 -0.11481071263551712
0.2866819500923157 0.47744321823120117 0.08508390188217163
0.13339029252529144 0.11975513398647308 -0.13543538749217987
-0.2503998577594757 0.2298123985528946 -0.05233434960246086
0.13696499168872833 -0.13941118121147156 0.16484051942825317
0.2040081024169922 0.02547772228717804 0.17036117613315582
0.04909951239824295 0.1345120370388031 -0.1380338966846466
-0.27515217661857605 -0.31814244389533997 -0.03364904224872589
0.10327212512493134 0.13528841733932495 0.16732171177864075
-0.3127165734767914 -0.34849703311920166 0.01112087070941925
0.1166989728808403 0.0655568540096283 -0.13533133268356323
0.2981012463569641 0.01664736680686474 -0.08452864736318588
0.2917390763759613 0.4780244529247284 0.06386572122573853
-0.3202104866504669 -0.3819565773010254 0.1171356588602066
-0.3123420178890228 -0.382384717464447 0.13490508496761322
0.22597068548202515 0.03128766641020775 -0.1341031938791275
-0.18181952834129333 0.48255354166030884 -0.007191664073616266
0.21031326055526733 -0.4466172754764557 0.17284449934959412
-0.09017937630414963 -0.24669133126735687 -0.009699201211333275
0.18744632601737976 -0.32690751552581787 -0.06314828246831894
0.21471138298511505 -0.4461173117160797 0.1025712862610817
-0.1465214192867279 -0.24975451827049255 0.11874045431613922
-0.039739057421684265 0.2279951423406601 0.02695966511964798
-0.31477558612823486 -0.3652082681655884 -0.019612710922956467
0.26004907488822937 0.15170687437057495 -0.13296131789684296
-0.2696560323238373 -0.4335135519504547 0.08945842832326889
0.010127625428140163 0.15515382587909698 -0.1377386897802353
-0.2712891399860382 -0.12085313349962234 0.06610991060733795
-0.2722085416316986 -0.13963592052459717 -0.0940348282456398
-0.27324631810188293 0.09592597931623459 0.08737432211637497
0.18335920572280884 -0.44538578391075134 0.13278762996196747
-0.003573112189769745 0.22716404497623444 -0.05531108379364014
-0.2932402491569519 -0.36561620235443115 -0.07358860969543457
-0.18465091288089752 -0.4151191711425781 0.017227882519364357
0.29655349254608154 0.038119301199913025 0.05990195274353027
0.29661640524864197 0.10524392873048782 0.004874493461102247
0.3004434406757355 -0.1832074522972107 0.08261340856552124
0.03597389906644821 0.22698503732681274 -0.07011789828538895
-0.07524331659078598 0.08449793606996536 -0.13439497351646423
0.019852057099342346 0.22809971868991852 0.019760286435484886
-0.25669270753860474 0.02245267666876316 0.15889179706573486
-0.19360165297985077 0.05717546492815018 0.16862870752811432
0.2453780174255371 0.07904540747404099 -0.13610541820526123
-0.17504586279392242 -0.07551021128892899 0.16848337650299072
0.15770713984966278 0.22788836061954498 0.04382706061005592
0.2724170386791229 -0.2508600950241089 0.10356687754392624
-0.25297632813453674 -0.2276609241962433 -0.13632367551326752
0.17734414339065552 -0.2510305345058441 0.10373885184526443
-0.17922554910182953 0.46547868847846985 -0.04231619834899902
-0.10578662157058716 -0.252193808555603 -0.10194884240627289
0.2974358797073364 -0.21994851529598236 -0.11170820146799088
-0.08837754279375076 -0.24752335250377655 0.08556827902793884
-0.2708878815174103 -0.1725836992263794 -0.11064495891332626
0.19177034497261047 -0.09235163033008575 0.1690962165594101
0.26190418004989624 -0.18008768558502197 -0.13864628970623016
0.11413891613483429 0.2028503566980362 0.15697073936462402
0.1083621010184288 -0.24772149324417114 0.031144166365265846
0.05183405056595802 0.2277645617723465 0.0037182732485234737
-0.2605242133140564 0.37238648533821106 -0.03493632376194
-0.19679836928844452 -0.25110194087028503 0.12816616892814636
0.0005350058199837804 0.18719986081123352 -0.2269458919763565
-0.23650002479553223 -0.13462099432945251 -0.13561582565307617
-0.10117319226264954 0.05768369510769844 -0.13527774810791016
-0.08300447463989258 -0.12938721477985382 -0.1354670375585556
0.22662805020809174 0.22898143529891968 -0.055459000170230865
0.20988771319389343 0.2284955531358719 -0.0654536709189415
0.1841244399547577 0.37396347522735596 0.0910656750202179
-0.04647185280919075 -0.10463500022888184 -0.135879784822464
0.2966441512107849 0.026604969054460526 -0.11958148330450058
-0.32248345017433167 -0.4028136730194092 0.04559049382805824
-0.2768872380256653 -0.3343394696712494 0.17500700056552887
-0.21333397924900055 -0.3874751031398773 0.1546088010072708
-0.2739464342594147 0.1666475534439087 -0.05868537351489067
0.003587467363104224 0.1422993689775467 -0.2138860523700714
0.2966465353965759 -0.038171976804733276 0.015577184036374092
0.022145848721265793 0.054450374096632004 -0.1355442851781845
0.2959241271018982 0.40086108446121216 -0.03282415121793747
0.2876279950141907 0.46357572078704834 -0.026335127651691437
-0.06843385845422745 -0.0748235359787941 -0.13544954359531403
0.297262966632843 0.1496700793504715 -0.08407207578420639
-0.032954391092061996 -0.13157299160957336 0.1686284840106964
-0.26106858253479004 0.46384450793266296 0.08070255070924759
0.03766123950481415 -0.23242615163326263 -0.1356687843799591
-0.014250731095671654 -0.004594092722982168 -0.13498543202877045
-0.15797565877437592 0.16560402512550354 -0.13691021502017975
-0.007708701305091381 -0.24945901334285736 0.08253277838230133
-0.19082312285900116 -0.4295435845851898 0.012998109683394432
0.0645732656121254 0.20250976085662842 0.15688152611255646
-0.25215068459510803 0.3799518942832947 -0.05731716379523277
-0.23719842731952667 -0.2496415227651596 -0.1206982359290123
-0.01333933137357235 -0.19198502600193024 -0.13575005531311035
-0.3017144501209259 -0.40875667333602905 0.0778314471244812
0.05871110036969185 0.22754134237766266 -0.033785052597522736
-0.26762229204177856 -0.32503387331962585 -0.06733042001724243
-0.029858775436878204 -0.09494008123874664 -0.13555370271205902
-0.2519298791885376 -0.11341636627912521 -0.13576149940490723
-0.1199946403503418 0.14944027364253998 0.17049433290958405
0.29797330498695374 -0.06570660322904587 0.13502946496009827
-0.24555927515029907 -0.1485740840435028 0.15635330975055695
0.06494493782520294 0.19031932950019836 0.15695257484912872
-0.23231668770313263 0.018923824653029442 -0.13438184559345245
-0.27058419585227966 0.04487190395593643 0.08393466472625732
0.20628800988197327 -0.21748346090316772 -0.13489781320095062
0.0100672896951437 -0.22617082297801971 -0.13349932432174683
-0.27019020915031433 -0.0791686549782753 0.011341484263539314
-0.254087895154953 0.36758190393447876 -0.04770967736840248
0.2945973873138428 0.3611171841621399 -0.003180333413183689
0.2288273423910141 -0.028798842802643776 -0.13617271184921265
-0.3155607283115387 -0.3856714367866516 0.113496333360672
0.29771772027015686 0.17518150806427002 -0.10383711755275726
-0.11871062964200974 0.2280254364013672 0.044447917491197586
0.14685852825641632 -0.3940854072570801 -0.0015826792223379016
-0.2319917380809784 -0.18389751017093658 -0.14111582934856415
-0.28036922216415405 -0.30597490072250366 0.03551077842712402
0.30165615677833557 0.4116344451904297 0.04795851185917854
-0.13409997522830963 0.11251796036958694 -0.1392146497964859
-0.27820855379104614 -0.4470377564430237 0.02296530082821846
-0.2717258632183075 -0.202386274933815 0.0894419401884079
0.24894794821739197 -0.4487322270870209 0.1251552402973175
0.021861819550395012 -0.2474520355463028 -0.04491390287876129
-0.27162083983421326 -0.06746074557304382 -0.055102236568927765
-0.24989943206310272 0.09631161391735077 -0.1373460292816162
0.04619965702295303 0.2299795001745224 0.12398269772529602
0.19416861236095428 0.22868719696998596 0.05502762645483017
0.12601666152477264 0.031651757657527924 -0.1367436945438385
0.18845772743225098 0.4078993499279022 -0.05342711880803108
-0.26919758319854736 -0.4503808915615082 0.038100168108940125
-0.27179428935050964 -0.02251325361430645 0.045906152576208115
0.2671146094799042 -0.12627451121807098 -0.13869301974773407
0.16710345447063446 -0.32135048508644104 -0.03843935579061508
0.025346960872411728 -0.09430205821990967 0.16784211993217468
-0.19447386264801025 -0.08266174048185349 -0.13534389436244965
0.3013737201690674 0.40893787145614624 0.042027391493320465
-0.28242096304893494 -0.3213927149772644 0.16151969134807587
0.21292798221111298 0.49246418476104736 -0.03794783726334572
0.1826225221157074 0.46233391761779785 0.09318011999130249
0.050869327038526535 -0.2496350109577179 -0.04951845481991768
0.03918886184692383 -0.21950192749500275 0.15772028267383575
-0.16631345450878143 0.34499484300613403 -0.010112343356013298
0.10515560209751129 -0.18191075325012207 -0.13510145246982574
-0.14771094918251038 -0.2502789795398712 0.1327345222234726
0.175851508975029 -0.2878049612045288 0.05778131261467934
0.20602722465991974 -0.2547174394130707 -0.09390179067850113
-0.2720974385738373 0.1499710977077484 -0.031422924250364304
-0.0770760327577591 -0.24706342816352844 0.04948853701353073
0.09384973347187042 0.22679635882377625 -0.1225486770272255
0.22303712368011475 0.2286396026611328 -0.09592030942440033
0.2988700270652771 -0.160960391163826 -0.015987124294042587
-0.026782119646668434 -0.24810832738876343 -0.08463771641254425
0.2745382785797119 -0.2543337047100067 0.10177087038755417
-0.144507497549057 0.19337858259677887 0.15442661941051483
-0.10738183557987213 -0.2471238225698471 0.1288815587759018
-0.1803237944841385 -0.21922382712364197 0.1561134159564972
0.29665619134902954 -0.1967589408159256 -0.07638684660196304
0.22876900434494019 0.47402167320251465 -0.07370448857545853
0.009509746916592121 0.22439274191856384 0.09571030735969543
-0.2702482044696808 0.14752547442913055 -0.08601619303226471
-0.03620878979563713 0.06500296294689178 0.1670340746641159
0.13037383556365967 -0.21440963447093964 0.15324294567108154
-0.1219010055065155 0.08791889250278473 0.16870248317718506
-0.3022044599056244 -0.4162352383136749 0.05422409623861313
-0.04079130291938782 0.12578575313091278 0.170655757188797
0.06573209166526794 0.13631713390350342 -0.15932558476924896
0.05502404272556305 0.027550900354981422 -0.13549552857875824
0.23707064986228943 -0.4481440484523773 0.13221339881420135
-0.1786520928144455 0.19245171546936035 -0.13366127014160156
-0.07645579427480698 -0.25198906660079956 -0.00849465187638998
-0.24959605932235718 -0.43431201577186584 0.14472399652004242
0.04851328581571579 0.2292412519454956 -0.038269221782684326
-0.29503145813941956 0.041238099336624146 -0.291143000125885
-0.2507917881011963 -0.28027987480163574 0.0008668939117342234
0.20911885797977448 0.22641849517822266 -0.06223965436220169
0.21888938546180725 0.47123414278030396 -0.06586270779371262
-0.2718151807785034 0.20651055872440338 0.07545548677444458
0.2320133000612259 0.3336484432220459 0.08624043315649033
0.2597872018814087 -0.19871485233306885 -0.1353653371334076
-0.06668016314506531 0.016860492527484894 0.1648816168308258
0.17934216558933258 0.3686678409576416 0.06134342774748802
-0.0894816517829895 0.12753687798976898 -0.13580322265625
-0.27424293756484985 0.010191335342824459 0.014240742661058903
0.2860121726989746 0.41803765296936035 -0.062039412558078766
0.05473604053258896 0.03278902918100357 -0.1369110643863678
0.2965875267982483 0.13681484758853912 -0.0863129124045372
-0.25737935304641724 0.35288339853286743 0.07083788514137268
0.28909382224082947 -0.06317073851823807 -0.13745126128196716
-0.24910645186901093 0.48681357502937317 0.030198125168681145
-0.05698215961456299 -0.13516511023044586 -0.13547150790691376
0.29593712091445923 -0.007404274307191372 0.045751798897981644
-0.24168269336223602 -0.22423583269119263 -0.1362796127796173
-0.24815373122692108 -0.15815934538841248 -0.13569584488868713
0.2958502769470215 -0.0991203561425209 0.13720330595970154
0.29762524366378784 0.13829994201660156 -0.10479458421468735
0.15885736048221588 -0.25108423829078674 -0.11454827338457108
0.23315748572349548 -0.25130754709243774 0.12862437963485718
-0.23757213354110718 -0.046017035841941833 -0.1366952359676361
-0.26141926646232605 0.34779906272888184 -0.00018249358981847763
0.17839841544628143 -0.2546735405921936 0.1319749653339386
0.2991061210632324 -0.08863387256860733 0.03006894700229168
0.23754261434078217 0.10815991461277008 -0.13614226877689362
-0.11864954233169556 -0.25065574049949646 0.08657685667276382
-0.03235442936420441 0.050113871693611145 -0.13565684854984283
-0.15196028351783752 0.14159564673900604 -0.13793040812015533
0.2677950859069824 -0.1560405194759369 -0.134710431098938
0.2966102063655853 0.1344543844461441 0.10805653780698776
0.16536998748779297 0.08816931396722794 -0.13512106239795685
-0.27290934324264526 -0.14831402897834778 -0.11371418833732605
-0.26569581031799316 0.4370330572128296 0.04081976041197777
-0.162615567445755 -0.07483169436454773 -0.13533195853233337
0.1914069950580597 0.41106417775154114 -0.05453161895275116
-0.3228873908519745 -0.42487290501594543 -0.040876902639865875
-0.08806027472019196 -0.11714183539152145 0.16857166588306427
0.2920472025871277 0.36854660511016846 0.09298849105834961
-0.18585097789764404 -0.0099909957498312 0.1685703545808792
0.21897219121456146 -0.301266074180603 0.09746778011322021
-0.15038524568080902 -0.3035591244697571 0.013836073689162731
-0.02282649464905262 0.052689045667648315 0.16833476722240448
-0.31333306431770325 -0.3985792398452759 0.08606860786676407
-0.02865181863307953 -0.2512165606021881 -0.024096008390188217
0.2093474119901657 0.09828566759824753 0.16962440311908722
-0.24670840799808502 -0.024599159136414528 -0.25657787919044495
0.027595525607466698 0.06281957775354385 -0.13711948692798615
-0.2661135792732239 0.37188735604286194 0.04715892672538757
-0.2922026216983795 -0.32698220014572144 0.008928616531193256
-0.1800626963376999 -0.25173133611679077 0.13255341351032257
-0.16080819070339203 -0.25628793239593506 -0.08206119388341904
-0.16413120925426483 -0.2970852851867676 0.04404189810156822
0.2965771555900574 0.15457794070243835 -0.041517242789268494
-0.0927930399775505 0.055916499346494675 0.16825324296951294
-0.16257864236831665 -0.3056069612503052 -0.029143525287508965
0.2967185080051422 -0.017506686970591545 0.10890373587608337
0.24673247337341309 0.04184069484472275 -0.13357886672019958
0.2620067894458771 -0.22331082820892334 -0.137616366147995
0.1963953971862793 -0.1562216579914093 0.1692410558462143
-0.2024749517440796 -0.3978811502456665 0.12427688390016556
0.1828894019126892 0.44198372960090637 -0.03111215867102146
0.22504891455173492 0.1900889277458191 0.1562754362821579
0.23795188963413239 0.1213066428899765 -0.13745777308940887
-0.2718426585197449 -0.20096278190612793 0.08117908239364624
0.29587480425834656 0.015222623012959957 0.1021077111363411
0.2963253855705261 -0.13943740725517273 -0.03715973347425461
0.08169662207365036 -0.14088104665279388 -0.1352752149105072
0.2978784739971161 -0.1420336663722992 0.037051279097795486
-0.1553075909614563 -0.29541710019111633 0.02340712770819664
0.21052826941013336 -0.20246921479701996 -0.13250528275966644
-0.06781125068664551 -0.10060785710811615 0.16886523365974426
0.20249930024147034 -0.28999996185302734 0.08092751353979111
0.18595802783966064 0.4152398407459259 -0.04372739419341087
0.024233143776655197 0.1571016162633896 -0.2189653217792511
0.1448764055967331 0.051832687109708786 0.168306365609169
0.0044257137924432755 0.23000416159629822 0.0043845949694514275
-0.10824240744113922 -0.019871292635798454 -0.13550041615962982
-0.04636332765221596 -0.2537904381752014 -0.10194864124059677
-0.24200539290905 0.18649892508983612 0.153864786028862
-0.1806592345237732 -0.34379205107688904 0.06729444116353989
-0.06421558558940887 0.22954756021499634 0.024955814704298973
-0.08353124558925629 -0.25280752778053284 0.0563305988907814
0.3002943694591522 0.3781547546386719 0.051633771508932114
-0.2726956903934479 -0.16115207970142365 -0.11645832657814026
0.29915937781333923 -0.14193230867385864 -0.01326877623796463
0.08986128866672516 -0.1579725593328476 -0.1352260857820511
-0.27294921875 0.13357535004615784 0.028534632176160812
-0.16475915908813477 0.3785383105278015 0.08610855787992477
0.2612262964248657 0.19179284572601318 0.15456293523311615
0.21314051747322083 -0.2914755046367645 0.08742263168096542
0.1445266455411911 -0.2525462806224823 -0.040971994400024414
-0.29249221086502075 -0.0388958603143692 -0.2679956257343292
0.19563451409339905 0.22712327539920807 -0.10336862504482269
-0.14762601256370544 0.059739504009485245 -0.13559266924858093
0.1969468891620636 -0.22451123595237732 0.15650850534439087
-0.09119528532028198 -0.09847795218229294 0.1707640141248703
-0.06095239147543907 -0.05700814723968506 0.16732722520828247
-0.19565851986408234 -0.3981897234916687 0.11418943852186203
-0.11255913972854614 -0.21758711338043213 -0.13602794706821442
-0.27216020226478577 -0.12251509726047516 0.028920965269207954
0.2966509461402893 -0.07474201172590256 -0.0776892676949501
-0.16527968645095825 0.048076286911964417 0.1714804321527481
-0.26941779255867004 0.03126989305019379 -0.11334867030382156
0.29901066422462463 -0.08819307386875153 -0.11912771314382553
0.06386201083660126 0.15372775495052338 -0.15524153411388397
-0.24438317120075226 -0.06020000949501991 -0.1332947462797165
-0.05284450948238373 -0.02891944721341133 0.16860361397266388
-0.31232917308807373 -0.35653647780418396 -0.011639456264674664
-0.1305696666240692 0.16024957597255707 -0.1321280151605606
-0.32610273361206055 -0.3849267363548279 0.08358202129602432
0.296490341424942 -0.16584058105945587 0.12607529759407043
0.2223566174507141 -0.06011078506708145 0.16933949291706085
0.0318823866546154 -0.24970100820064545 0.04039129242300987
-0.005042446777224541 -0.047358572483062744 -0.1359918713569641
0.29388538002967834 0.3841842710971832 -0.042794372886419296
-0.018313534557819366 -0.24744273722171783 -0.06229521334171295
0.2711131274700165 -0.14212271571159363 -0.13543443381786346
-0.05155256763100624 0.22712410986423492 -0.12055297940969467
0.21527127921581268 0.07933203130960464 0.16886089742183685
-0.20969927310943604 -0.2510077953338623 0.10620734840631485
0.27016276121139526 -0.10602481663227081 -0.1352439969778061
-0.2716846764087677 -0.20553149282932281 0.033790525048971176
0.14100518822669983 -0.35254693031311035 0.020515117794275284
-0.22474472224712372 0.22920788824558258 0.0844074934720993
0.18230333924293518 -0.12582816183567047 -0.13199155032634735
0.29671746492385864 -0.04860040172934532 -0.04874829202890396
-0.23853345215320587 -0.22078797221183777 -0.1364510953426361
-0.2717397212982178 -0.23562748730182648 0.017627334222197533
-0.15791860222816467 0.2297625094652176 0.04335826262831688
0.04063081368803978 -0.25203970074653625 -0.10390248149633408
-0.2717045247554779 -0.03853262960910797 0.06564729660749435
-0.32655346393585205 -0.38775885105133057 0.07255198061466217
-0.2579331398010254 -0.2917845547199249 0.0012777220690622926
-0.026169637218117714 0.2321562021970749 0.076045460999012
0.12381578981876373 0.031832076609134674 -0.13717368245124817
0.027421370148658752 0.22771544754505157 -0.045186277478933334
-0.272088885307312 -0.22451859712600708 0.07127254456281662
0.14883577823638916 0.22725419700145721 -0.11186670511960983
-0.18820536136627197 0.34007173776626587 0.07699421793222427
0.18109264969825745 0.41538548469543457 -0.03496059775352478
-0.32425427436828613 -0.3839087188243866 -0.037057045847177505
-0.2535681426525116 0.04121018946170807 0.1561184972524643
0.29637598991394043 -0.14039461314678192 0.0026684177573770285
0.2937726378440857 0.44529643654823303 0.08669595420360565
-0.1858993023633957 0.05979044735431671 0.16635511815547943
-0.27216994762420654 0.06479884684085846 -0.00782105978578329
-0.271249920129776 -0.1498005986213684 0.0685422420501709
0.11362007260322571 -0.13335178792476654 -0.13539187610149384
0.2869252860546112 -0.3744235634803772 0.042554982006549835
-0.18295326828956604 -0.3824562132358551 0.07365623861551285
0.012248286977410316 -0.18431468307971954 -0.1357397586107254
0.28433239459991455 0.48820388317108154 0.00607412401586771
0.16359558701515198 -0.44608625769615173 0.0652005672454834
0.2987073063850403 0.4229455590248108 0.0053558810614049435
0.2981075644493103 0.07997021079063416 0.00817384198307991
0.0063868057914078236 0.07412195950746536 -0.13596850633621216
-0.2714700400829315 0.002044416032731533 0.09322576969861984
-0.2703229486942291 -0.005917578004300594 -0.11087971180677414
0.2821683883666992 0.49277180433273315 0.07936051487922668
-0.058649420738220215 0.13390827178955078 0.1706116646528244
0.22841216623783112 -0.38263753056526184 0.17966307699680328
0.1550382524728775 0.22708070278167725 0.0763343945145607
-0.2595743238925934 -0.08674464374780655 -0.13609199225902557
-0.09743773937225342 0.2298971563577652 0.13353991508483887
0.11926530301570892 0.2291051745414734 0.012815738096833229
0.2149098515510559 -0.1399833709001541 -0.1366129070520401
0.2642177641391754 -0.34035220742225647 -0.0651157796382904
-0.272429883480072 -0.1584666520357132 0.06921587139368057
-0.18902918696403503 -0.002813230501487851 -0.13743522763252258
-0.27169713377952576 -0.17965106666088104 -0.11399799585342407
-0.04168779402971268 0.2252645492553711 0.10126310586929321
0.08789148181676865 -0.2510274648666382 0.05871262028813362
-0.10538420081138611 -0.13696908950805664 -0.1386009007692337
-0.295864999294281 0.04358702525496483 -0.28417259454727173
0.22407308220863342 0.16588488221168518 -0.13491946458816528
0.022164059802889824 -0.15125636756420135 -0.13937091827392578
0.15884430706501007 -0.3567337691783905 0.10360599309206009
0.2557329833507538 0.18912842869758606 0.1554792821407318
-0.1571473479270935 0.43677636981010437 0.030661148950457573
0.21659240126609802 -0.13903963565826416 -0.13491381704807281
0.2892836332321167 -0.40533703565597534 0.05255630612373352
-0.08844543993473053 0.13259127736091614 0.165074422955513
0.2572721838951111 -0.25124871730804443 -0.08808283507823944
0.23356691002845764 0.015931429341435432 -0.13627418875694275
-0.18953265249729156 -0.40228670835494995 -0.034812189638614655
0.17854273319244385 0.19170472025871277 0.15906119346618652
-0.2734481692314148 0.13236671686172485 0.0037512527778744698
-0.27207186818122864 -0.01680789515376091 -0.0926918238401413
-0.2415584921836853 0.4877970516681671 -0.006846730597317219
-0.27311816811561584 -0.03790431469678879 -0.015750378370285034
0.25673148036003113 -0.2508254647254944 -0.10363240540027618
0.2965559959411621 -0.003420925699174404 0.039245229214429855
0.30216968059539795 0.4065810739994049 0.013567552901804447
0.2975938320159912 -0.1467774659395218 -0.07165218889713287
0.1382295936346054 0.13622893393039703 -0.13500186800956726
-0.30062389373779297 -0.4325551688671112 0.012147272005677223
