-0.2935599684715271 0.02705526165664196 -0.2578325867652893
-0.17539817094802856 0.4900789260864258 0.030513277277350426
-0.27048537135124207 -0.16190361976623535 -0.0391036793589592
0.2656779885292053 -0.3069625496864319 -0.05263090506196022
0.2328720986843109 -0.1727299988269806 -0.13078415393829346
-0.19598574936389923 -0.3330055773258209 0.08472989499568939
-0.2808910310268402 -0.31806594133377075 0.01977243460714817
0.13390812277793884 -0.21398919820785522 0.1542246788740158
-0.013436567038297653 0.2292139232158661 0.02877376414835453
-0.05980879068374634 -0.03207455202937126 -0.1372123658657074
-0.26920828223228455 -0.05978980287909508 0.058580152690410614
0.18936048448085785 -0.18377716839313507 -0.13324739038944244
0.039717063307762146 -0.07864972203969955 0.17124466598033905
-0.2686688303947449 0.06118961423635483 -0.09252442419528961
-0.1839613914489746 -0.31468379497528076 -0.052942413836717606
0.16970783472061157 0.059465423226356506 0.1681286096572876
-0.2630529999732971 0.38906538486480713 0.045144304633140564
0.24420562386512756 0.18440794944763184 -0.13215696811676025
-0.001910187304019928 -0.11650741845369339 -0.13632602989673615
-0.12768502533435822 0.11801064759492874 -0.1358059048652649
0.10226448625326157 -0.2546071708202362 -0.10050785541534424
0.1695953607559204 0.01652088575065136 0.1683836430311203
0.031717438250780106 -0.2500830292701721 -0.010675384663045406
0.2978338599205017 -0.057352274656295776 -0.0831063985824585
0.036811940371990204 -0.1623121052980423 0.1686330884695053
-0.010172014124691486 0.22706037759780884 0.05053490400314331
0.29514533281326294 -0.1758495420217514 0.02011623978614807
0.15064068138599396 -0.0852576345205307 0.16803045570850372
-0.2611752152442932 -0.29219579696655273 0.012226463295519352
0.2026904672384262 0.32075175642967224 -0.015876779332756996
0.2478570193052292 0.33463558554649353 0.09498611092567444
0.2749837338924408 -0.2535143196582794 -0.011426616460084915
-0.2661205232143402 0.11899985373020172 -0.0844537615776062
0.18565605580806732 0.12796977162361145 -0.1353262960910797
0.2221277952194214 -0.03956931456923485 0.16940368711948395
-0.08861836791038513 -0.23496869206428528 0.1599556803703308
0.24728339910507202 -0.18046003580093384 -0.13359031081199646
-0.16231849789619446 -0.33397600054740906 -0.0005591076915152371
0.15242522954940796 -0.24828281998634338 0.06668295711278915
-0.17973749339580536 -0.32712888717651367 -0.04533083736896515
0.014925038442015648 0.2260877788066864 -0.0027729040011763573
0.17638267576694489 -0.3352619707584381 -0.05343436449766159
-0.16367235779762268 -0.25375545024871826 -0.09416820853948593
0.20024965703487396 0.3477902114391327 0.09393500536680222
-0.08926992118358612 -0.2505657374858856 -0.06790438294410706
-0.01522505097091198 -0.255251407623291 -0.0891834944486618
0.0683458223938942 0.22550798952579498 -0.0969780758023262
-0.10596950352191925 0.22741346061229706 0.11336027830839157
-0.26894327998161316 -0.19942867755889893 0.02342219091951847
0.2532033920288086 -0.44638893008232117 0.1214914321899414
-0.039907410740852356 -0.12212825566530228 -0.13291266560554504
0.2834737002849579 -0.36421477794647217 -0.026412155479192734
0.29709917306900024 0.03972058370709419 -0.08214865624904633
-0.03946825861930847 -0.04139678180217743 0.16896483302116394
0.28266409039497375 -0.3355906009674072 0.009388437494635582
0.1434316337108612 -0.15731820464134216 0.16888441145420074
0.15915723145008087 0.19452375173568726 -0.1337633579969406
-0.09423515200614929 -0.2507261037826538 0.039589088410139084
0.1165434867143631 0.17851971089839935 -0.13438741862773895
-0.2706517279148102 -0.02986402064561844 0.1392914205789566
-0.2074747383594513 -0.44643348455429077 0.08878730237483978
0.2959423363208771 0.3506070673465729 -0.022582853212952614
0.2991292476654053 0.19763894379138947 0.12354107201099396
0.17910422384738922 -0.30170172452926636 -0.042729754000902176
-0.27177873253822327 -0.22450250387191772 -0.07653636485338211
-0.1832471638917923 -0.2995409071445465 -0.04936431348323822
0.2464810460805893 0.3302486836910248 0.08088888972997665
-0.27056586742401123 -0.17435522377490997 -0.05765598267316818
0.22126656770706177 -0.44581136107444763 -0.045169830322265625
0.16299906373023987 -0.35933029651641846 0.11535708606243134
0.2946263551712036 0.20274177193641663 -0.09353969991207123
-0.07287134975194931 -0.25542524456977844 -0.08214076608419418
-0.27477630972862244 0.14637763798236847 -0.10218754410743713
-0.19306978583335876 0.013922985643148422 -0.13572204113006592
-0.20715343952178955 -0.32157331705093384 -0.07081244140863419
0.170098677277565 -0.25223758816719055 -0.09642833471298218
0.19554899632930756 0.015608609654009342 0.1678830236196518
-0.09063301980495453 0.14751926064491272 -0.13489577174186707
0.29670098423957825 -0.2120952159166336 -0.0733526274561882
-0.27392587065696716 -0.11834171414375305 0.103106789290905
-0.25608959794044495 -0.2921130955219269 -0.028923776000738144
-0.2314634770154953 0.18230335414409637 0.15295211970806122
-0.20281416177749634 -0.37773820757865906 0.11955652385950089
-0.19079427421092987 -0.2520216703414917 -0.09394898265600204
-0.16217610239982605 0.0348871573805809 -0.13301751017570496
-0.27077698707580566 -0.0571620836853981 -0.05627176910638809
-0.25331002473831177 0.04313976317644119 0.15625491738319397
-0.007292745169252157 -0.05763242766261101 -0.13286221027374268
-0.04459892213344574 0.018073057755827904 0.17003019154071808
-0.03488340973854065 -0.02243194356560707 -0.133186474442482
-0.09806407988071442 0.22689473628997803 -0.08343019336462021
0.09094205498695374 -0.1282765418291092 0.16797375679016113
-0.26794499158859253 0.09983494132757187 0.0023101717233657837
-0.3292545974254608 -0.35160237550735474 0.07400091737508774
-0.12179342657327652 0.10259291529655457 -0.13705657422542572
0.2872631549835205 -0.38216087222099304 0.10061580687761307
0.29660749435424805 -0.04934147745370865 0.02255111187696457
-0.0493677519261837 0.05610712245106697 -0.13376741111278534
-0.15337267518043518 -0.0019998354837298393 -0.13562822341918945
-0.031283650547266006 0.2011028379201889 -0.1355101317167282
0.2890985906124115 -0.40510231256484985 0.051748719066381454
-0.2158462256193161 -0.2331405133008957 0.15997160971164703
-0.27040690183639526 -0.1376320719718933 -0.04583773389458656
-0.09555362910032272 0.22653457522392273 0.08990748226642609
0.006013762671500444 -0.0452498160302639 0.16657114028930664
-0.1197270080447197 0.057853057980537415 0.16896723210811615
0.09646584838628769 -0.17463135719299316 -0.13353541493415833
0.18211153149604797 0.36252561211586 0.07639775425195694
-0.2134878784418106 0.14812859892845154 -0.133065328001976
-0.27074480056762695 0.023162586614489555 -0.006245117634534836
0.0012801180128008127 -0.06060357019305229 -0.13371439278125763
0.2984514534473419 -0.21362575888633728 -0.08262122422456741
-0.023397136479616165 0.03374470770359039 0.16676312685012817
-0.16170571744441986 -0.27280393242836 -0.024468911811709404
0.26519814133644104 -0.25379642844200134 -0.03762160614132881
-0.14480310678482056 0.09093410521745682 0.16686008870601654
0.29105624556541443 0.4527375400066376 -0.007668209262192249
-0.17632104456424713 0.49038565158843994 0.03385382145643234
-0.28773221373558044 -0.3110139071941376 0.08031909167766571
0.19226066768169403 0.3904266357421875 -0.05712807923555374
-0.09554289281368256 0.12634821236133575 0.1693388819694519
0.21712803840637207 0.514329731464386 0.03858523443341255
-0.2560581862926483 -0.28760093450546265 -0.010309995152056217
-0.19745664298534393 -0.030548444017767906 0.1706380397081375
-0.23801513016223907 -0.3631383180618286 0.16308234632015228
-0.2401331216096878 -0.011516758240759373 -0.13220341503620148
-0.10467186570167542 0.22773699462413788 0.03789369389414787
-0.2554686963558197 0.4413002133369446 -0.03852460905909538
0.005411243531852961 0.2230425328016281 0.004627125803381205
0.27798524498939514 -0.22045274078845978 -0.1327718198299408
0.2769288718700409 -0.1775948852300644 -0.13477887213230133
0.27481576800346375 -0.34040752053260803 -0.043337125331163406
-0.2680566608905792 0.03957812860608101 0.09207477420568466
-0.25895756483078003 -0.47327694296836853 -0.01489321794360876
-0.2676343619823456 -0.18128430843353271 0.0645170733332634
0.05304942652583122 -0.2496582716703415 0.015490120276808739
-0.08884665369987488 -0.08128157258033752 -0.13299895823001862
0.10365138202905655 -0.11341171711683273 -0.1335122287273407
0.08789576590061188 0.02277827262878418 -0.13324518501758575
0.2242649346590042 -0.35406628251075745 0.14874263107776642
-0.2527744472026825 -0.44840413331985474 0.07818011939525604
0.29983192682266235 0.05070372670888901 -0.09284047037363052
0.27455946803092957 0.46689146757125854 -0.0584387332201004
0.1626756489276886 -0.44868943095207214 0.14797280728816986
-0.2693150043487549 0.0062819067388772964 0.127531960606575
0.16035179793834686 -0.1985308825969696 -0.13633517920970917
-0.14589595794677734 0.2264469712972641 -0.03758460283279419
-0.1487307846546173 -0.20660029351711273 -0.13742993772029877
-0.17112642526626587 -0.321231484413147 0.052323244512081146
0.19879719614982605 -0.44900980591773987 0.11595077812671661
0.0849292203783989 -0.2487333118915558 0.11882562190294266
-0.09070125222206116 -0.25333550572395325 0.11318100988864899
-0.2701661288738251 -0.1317029595375061 0.020757567137479782
-0.09291601181030273 0.10143281519412994 -0.13528227806091309
-0.24566540122032166 0.09129886329174042 0.1559159904718399
-0.27025651931762695 0.007131946738809347 0.12276168912649155
-0.2075195014476776 -0.24933014810085297 0.10977272689342499
-0.019137496128678322 -0.23399099707603455 -0.13310667872428894
-0.13161027431488037 -0.2511279582977295 0.07216044515371323
-0.10373596101999283 -0.25062295794487 -0.02674013376235962
-0.25676605105400085 -0.4549475312232971 0.07671362906694412
0.2985759973526001 -0.10457196831703186 -0.023019250482320786
-0.30833056569099426 -0.41650110483169556 -0.08458545058965683
0.29753726720809937 0.11116264015436172 -0.028680725023150444
0.2252010703086853 -0.44403794407844543 -0.05278902128338814
-0.14630676805973053 0.2250847965478897 0.09124184399843216
-0.13682329654693604 -0.07529619336128235 -0.12942107021808624
-0.16613826155662537 0.22766070067882538 -0.02255229279398918
0.03741813451051712 0.22813570499420166 0.04680828005075455
-0.1952075958251953 -0.1517445296049118 -0.1329883337020874
0.20253697037696838 0.45900198817253113 -0.06395133584737778
0.04279163479804993 0.05641483515501022 -0.12990450859069824
-0.269150972366333 0.18138116598129272 -0.07775137573480606
0.2922375202178955 0.3460628390312195 -0.0167442187666893
-0.29750412702560425 -0.007839321158826351 -0.26838821172714233
-0.11029045283794403 -0.09904457628726959 -0.1339147984981537
0.27739107608795166 0.22688394784927368 -0.071526899933815
0.27565088868141174 -0.39869362115859985 -0.05434771999716759
0.2652967572212219 0.22482137382030487 0.13769079744815826
0.2752969264984131 0.01129545271396637 0.15709897875785828
0.1890627145767212 -0.3125068247318268 0.08887358009815216
-0.09405500441789627 0.10300776362419128 0.1701561063528061
0.2957714796066284 -0.2117934674024582 0.05300414562225342
0.17319372296333313 -0.17016102373600006 0.16884185373783112
-0.29832395911216736 -0.4009592533111572 -0.08851812034845352
-0.1776471734046936 -0.1351185292005539 -0.13293546438217163
-0.008054363541305065 0.03816642984747887 -0.13470199704170227
0.18639549612998962 -0.052640460431575775 -0.1334208846092224
-0.2352820783853531 0.2270267754793167 0.132048562169075
0.30129754543304443 0.00417280662804842 -0.0958324745297432
-0.2690854072570801 0.1116180494427681 -0.0014969073235988617
0.2989256978034973 -0.10718823969364166 0.12118243426084518
0.2588815987110138 -0.44656723737716675 0.12344001233577728
0.141323521733284 0.22699151933193207 -0.03452911227941513
0.29962819814682007 -0.20471635460853577 -0.11707359552383423
-0.2726667821407318 0.029431063681840897 0.05846802890300751
-0.2733951807022095 0.17158980667591095 0.020865270867943764
0.14549127221107483 0.1332462877035141 0.168700709939003
-0.3233921229839325 -0.33621281385421753 0.12288626283407211
0.1758929044008255 0.22530926764011383 0.023508785292506218
-0.13705943524837494 0.22641140222549438 -0.03397796303033829
-0.1673068255186081 0.22715820372104645 0.08295633643865585
0.11425767838954926 -0.25116637349128723 -0.06643009185791016
-0.22501705586910248 -0.36864691972732544 0.14762760698795319
0.18545423448085785 0.46484804153442383 0.08926460146903992
0.2946057915687561 0.1578231006860733 0.0400165356695652
0.2951938509941101 -0.15332049131393433 -0.05466846376657486
0.18769051134586334 -0.25094011425971985 0.10876867175102234
-0.2729955017566681 -0.15869997441768646 -0.09020097553730011
0.17289623618125916 0.09831637889146805 -0.13648146390914917
-0.11500146239995956 -0.14250677824020386 -0.13435067236423492
0.2960454821586609 -0.07266443222761154 -0.07735598832368851
-0.15695813298225403 0.43051666021347046 0.015058041550219059
-0.08533237874507904 0.22883927822113037 0.08128941804170609
-0.27073556184768677 -0.07376204431056976 -0.08781923353672028
0.23616251349449158 0.19275245070457458 0.1550181657075882
-0.2633923888206482 -0.33795681595802307 0.1701560765504837
-0.2703763246536255 -0.19825133681297302 -0.02039409428834915
0.22038450837135315 -0.07066519558429718 -0.1331939846277237
-0.14186720550060272 0.22710029780864716 0.08571680635213852
0.13171179592609406 -0.4109548032283783 0.08105023205280304
-0.27137401700019836 0.06501808017492294 0.07119925320148468
-0.2701171040534973 0.14063742756843567 0.011149995028972626
-0.23437750339508057 0.1300174444913864 -0.13583612442016602
-0.18141593039035797 0.03927091136574745 0.16886596381664276
0.03518887236714363 -0.25176963210105896 -0.07283005863428116
-0.12891744077205658 -0.17759251594543457 -0.13276231288909912
0.22649112343788147 -0.0014976148959249258 0.16870422661304474
0.29613742232322693 0.05978876352310181 0.019179480150341988
0.2082473486661911 0.3381943106651306 0.08712520450353622
0.29775479435920715 0.4221135675907135 -0.01637791097164154
0.13860401511192322 -0.3920820951461792 0.09416581690311432
-0.2468309849500656 -0.32593074440956116 0.12926067411899567
0.21701347827911377 -0.3957176208496094 -0.0904795229434967
0.03182622790336609 0.12135794758796692 -0.13478685915470123
0.28609558939933777 -0.39767560362815857 0.015421267598867416
-0.0444905050098896 0.2295498102903366 0.11339935660362244
0.027940180152654648 -0.07401847839355469 0.1689353883266449
-0.24475225806236267 -0.20879808068275452 0.15829890966415405
0.1772232949733734 -0.11232089251279831 -0.13326270878314972
0.15766248106956482 -0.07269531488418579 0.16896773874759674
-0.2562851309776306 -0.457235723733902 0.05329883098602295
-0.2711339294910431 0.07852605730295181 0.12962189316749573
0.17906597256660461 0.46772703528404236 0.04726995900273323
-0.27520614862442017 -0.08791831880807877 -0.08491546660661697
-0.25270742177963257 -0.47653698921203613 0.011316490359604359
0.18727004528045654 -0.445604145526886 0.008238209411501884
0.199952632188797 0.43847793340682983 -0.06867168098688126
0.2983075678348541 -0.06790401041507721 -0.1130266785621643
0.2801806926727295 0.13135644793510437 -0.1356167197227478
-0.2520463168621063 -0.1875786930322647 -0.1337176412343979
-0.27079641819000244 0.1439903825521469 0.09102538228034973
-0.04913849011063576 0.10518486797809601 -0.13508638739585876
-0.11817217618227005 0.2275620996952057 0.03128654509782791
-0.18697503209114075 -0.3661814033985138 -0.048094671219587326
-0.03912530094385147 -0.0887649804353714 0.16826960444450378
-0.27413409948349 -0.1585153043270111 0.14041510224342346
-0.1981145590543747 -0.05974161997437477 -0.13185472786426544
0.17883148789405823 -0.4469943642616272 0.18119609355926514
0.1844056397676468 0.22969257831573486 -0.05184668302536011
0.09472637623548508 -0.11028298735618591 0.16920429468154907
0.29848864674568176 0.0741572231054306 -0.07136064022779465
-0.27127909660339355 -0.09677709639072418 -0.08827322721481323
0.28455352783203125 0.4324142336845398 -0.05333256721496582
-0.26504412293434143 0.3523304760456085 0.025154700502753258
0.26348695158958435 -0.25102901458740234 0.09829668700695038
0.20791643857955933 -0.016777748242020607 -0.13207684457302094
0.10095759481191635 0.22616520524024963 0.06874518096446991
-0.18908506631851196 -0.4184994399547577 0.04621955379843712
-0.021534252911806107 0.1434561014175415 -0.2097454071044922
-0.19046051800251007 -0.013260084204375744 -0.13091912865638733
0.29679611325263977 -0.002640418242663145 0.10278891026973724
0.2613007426261902 -0.2567262351512909 -0.09428299963474274
0.1766480654478073 0.4067334830760956 -0.007394795771688223
0.296534925699234 -0.08401664346456528 0.036129094660282135
-0.26915767788887024 0.11534228175878525 -0.013281302526593208
0.15686622262001038 -0.3124866783618927 0.03799469396471977
-0.003952961415052414 -0.06237411126494408 -0.13441456854343414
-0.18586589395999908 -0.3433479964733124 0.07310128957033157
0.10719121247529984 0.22643080353736877 -0.05441926419734955
-0.10869204998016357 -0.011274568736553192 -0.13400790095329285
-0.2777954936027527 -0.42142969369888306 0.12416766583919525
-0.2553456425666809 -0.007420802488923073 -0.13422322273254395
0.2970905005931854 -0.16226767003536224 0.06320144236087799
0.29791179299354553 -0.19949787855148315 -0.05485900491476059
0.09065089374780655 -0.02403632551431656 -0.1323646456003189
0.020846424624323845 0.22559894621372223 -0.08616248518228531
-0.26803693175315857 -0.008089901879429817 -0.08805008232593536
0.17064635455608368 -0.29801011085510254 0.05699528381228447
-0.19289299845695496 -0.3631810247898102 -0.05575906112790108
0.18326807022094727 -0.38600507378578186 -0.06564303487539291
-0.2692606747150421 -0.23031602799892426 0.02950124256312847
-0.030878707766532898 0.22610214352607727 -0.05458325892686844
0.006393189076334238 -0.25053608417510986 -0.05764072388410568
0.05972844362258911 0.2292013317346573 0.0587189756333828
-0.26974010467529297 0.19069646298885345 -0.03536703437566757
-0.2705879211425781 0.148827463388443 0.07327774167060852
-0.26267915964126587 0.40766486525535583 0.09846822917461395
0.12227663397789001 0.2232884019613266 -0.06260733306407928
0.18133744597434998 -0.2515176832675934 -0.07166214287281036
-0.17550145089626312 -0.3252599239349365 -0.038114868104457855
0.14123493432998657 -0.36997032165527344 0.028542660176753998
0.29782626032829285 0.20351551473140717 0.10313469916582108
0.2297831028699875 -0.14560051262378693 -0.13449616730213165
-0.1059957891702652 0.045785658061504364 0.16513437032699585
-0.2656676471233368 0.39925140142440796 0.05907432734966278
0.23613499104976654 0.08761434257030487 -0.13247595727443695
0.17602790892124176 0.41741231083869934 -0.0014271283289417624
0.136484295129776 0.22749818861484528 -0.0018723128596320748
-0.16629385948181152 0.1907060742378235 0.15711526572704315
0.02404363639652729 -0.2569800317287445 -0.1067143902182579
0.09079448878765106 -0.1621699333190918 -0.1334872543811798
-0.21875834465026855 -0.3815368115901947 0.1646309345960617
0.142442986369133 -0.36592918634414673 0.06069210544228554
-0.11888591200113297 0.22747302055358887 0.03750821202993393
0.13630780577659607 -0.4069114327430725 0.07364630699157715
-0.25892120599746704 0.34453442692756653 -0.006693519186228514
0.17828941345214844 0.40652596950531006 -0.01544616837054491
0.04833507910370827 0.08313800394535065 -0.1292661875486374
-0.21749378740787506 -0.14545056223869324 -0.1334550380706787
-0.2719874978065491 0.11319686472415924 -0.0970996618270874
-0.2689434289932251 0.14037320017814636 0.10238830000162125
-0.15941765904426575 -0.30812180042266846 -0.010298163630068302
0.17051872611045837 0.22683413326740265 0.11910714209079742
0.1979990303516388 0.22497950494289398 0.09123610705137253
-0.2673336863517761 -0.17700211703777313 0.004528781399130821
-0.11831222474575043 0.12050358951091766 -0.13648125529289246
-0.037940964102745056 0.04513448476791382 0.1687285602092743
0.1427534967660904 -0.3855381906032562 0.009016643278300762
-0.16528964042663574 -0.17629602551460266 -0.132842555642128
0.0030398599337786436 0.11905822902917862 0.16951709985733032
-0.2705977261066437 -0.1701788455247879 0.057031359523534775
0.17405487596988678 0.10071536153554916 0.16488787531852722
0.18980325758457184 -0.23639416694641113 -0.13328079879283905
0.2698907256126404 -0.44656285643577576 0.1406860202550888
-0.2723701298236847 0.17875534296035767 0.0619831457734108
0.17919965088367462 0.42929545044898987 0.08849924802780151
-0.16139370203018188 0.468625009059906 0.023659024387598038
-0.21522687375545502 -0.3632298707962036 0.12100311368703842
0.29202020168304443 -0.42047926783561707 0.04519743472337723
0.047692421823740005 0.11926116794347763 -0.1327992081642151
0.24476243555545807 0.18517203629016876 -0.13343892991542816
-0.26880356669425964 -0.0331764817237854 -0.06284620612859726
-0.2453448325395584 -0.3663541376590729 0.17864233255386353
0.2994159460067749 0.07065822184085846 -0.08684392273426056
0.2624449133872986 -0.44576409459114075 -0.015125760808587074
-0.297010600566864 -0.38641786575317383 0.17305386066436768
0.30258873105049133 0.10134338587522507 -0.1104947179555893
-0.15593594312667847 -0.25302359461784363 -0.11009015142917633
-0.0032326490618288517 -0.181746244430542 -0.13205353915691376
0.20603899657726288 0.18462078273296356 0.15611432492733002
0.21205586194992065 0.035210199654102325 -0.13132576644420624
0.29475221037864685 -0.08337103575468063 -0.0014446787536144257
-0.25302866101264954 -0.24862271547317505 0.10496435314416885
-0.12273726612329483 -0.24738939106464386 0.12119247764348984
-0.028341827914118767 -0.21442438662052155 -0.13077305257320404
-0.29331377148628235 -0.33444637060165405 -0.017172925174236298
-0.19825993478298187 -0.2503620982170105 -0.09355495125055313
-0.08813396096229553 -0.25023677945137024 -0.04913988709449768
0.16485631465911865 -0.31774237751960754 0.06790592521429062
0.20204946398735046 -0.25225868821144104 0.09952419251203537
0.30011555552482605 -0.23530831933021545 -0.06147577613592148
-0.1713755875825882 0.019439663738012314 -0.13258062303066254
0.28713560104370117 -0.019849441945552826 -0.1331753134727478
-0.20269522070884705 -0.31723085045814514 -0.06537462025880814
-0.31912413239479065 -0.3424129784107208 0.07705586403608322
0.298888623714447 0.06462986767292023 -0.09122999012470245
0.2330872118473053 -0.2226991355419159 0.15610137581825256
-0.11444567888975143 -0.2514317035675049 0.1320885717868805
0.28349632024765015 -0.36095207929611206 0.0007189859170466661
-0.26282984018325806 0.4007454514503479 0.09702286124229431
0.15083304047584534 0.07882258296012878 -0.1346445530653
0.12256429344415665 -0.16483046114444733 0.17316332459449768
-0.2540999948978424 0.47586801648139954 0.06601995974779129
0.22619575262069702 -0.20450641214847565 -0.13423174619674683
-0.04125073179602623 0.22582636773586273 -0.06299351155757904
0.2966729402542114 0.35714808106422424 0.04804520308971405
-0.04824135825037956 -0.21342721581459045 0.1586998701095581
-0.2592466473579407 0.4109553098678589 -0.04532107338309288
0.27579185366630554 -0.2512277364730835 0.05612679943442345
0.1906527429819107 0.22585554420948029 0.011413977481424809
0.29493448138237 -0.23195426166057587 0.020397430285811424
-0.19468596577644348 -0.39748093485832214 0.09952979534864426
-0.28513121604919434 -0.39488986134529114 0.17978206276893616
-0.252966046333313 -0.04330460727214813 -0.13139252364635468
-0.12980858981609344 0.22474341094493866 -0.10564679652452469
-0.1586814969778061 -0.25173428654670715 -0.08791801333427429
0.2970890402793884 0.14402513206005096 -0.08436770737171173
-0.2005520761013031 -0.4426308572292328 0.010025634430348873
0.17963002622127533 0.4505820870399475 0.04357580095529556
0.0006663698004558682 0.22700223326683044 -0.03164854645729065
0.2634180784225464 0.022473134100437164 -0.13324452936649323
-0.2704737186431885 -0.09900078177452087 -0.08815087378025055
-0.16382750868797302 0.22505147755146027 -0.11082229018211365
-0.25428086519241333 -0.24995847046375275 -0.10195507854223251
-0.27034056186676025 -0.2128293365240097 -0.01721016690135002
-0.2737906575202942 -0.09338104724884033 -0.0633721575140953
-0.1958044469356537 0.16916155815124512 -0.13390961289405823
-0.3087659776210785 -0.3804025948047638 -0.06456798315048218
-0.2243483066558838 0.22933796048164368 0.09034629166126251
-0.2459067553281784 -0.14127406477928162 -0.13346336781978607
0.09477420151233673 -0.24898432195186615 0.08270177245140076
0.22387893497943878 0.03148134797811508 -0.1366311013698578
-0.2715582251548767 0.014544621109962463 -0.04371774196624756
0.08076828718185425 -0.25106218457221985 0.11735881119966507
-0.12600761651992798 -0.249454528093338 0.10941441357135773
0.22410711646080017 -0.3076591491699219 0.10210105776786804
-0.1987610161304474 0.0923728346824646 0.16882771253585815
-0.24185402691364288 -0.1591464728116989 -0.13235358893871307
0.2833285629749298 -0.338239461183548 0.028247343376278877
-0.2706155776977539 -0.31572315096855164 -0.04744569584727287
-0.23604142665863037 -0.45030951499938965 -0.049139343202114105
0.15152111649513245 0.03901073709130287 -0.1338350921869278
0.18479640781879425 0.15007732808589935 -0.13435108959674835
0.07534396648406982 0.22741414606571198 -0.06793859601020813
0.2669602930545807 -0.19369681179523468 -0.13405631482601166
0.29860439896583557 -0.09353292733430862 -0.08585857599973679
0.17732198536396027 -0.3963366746902466 0.18693196773529053
0.04534919559955597 0.22788147628307343 0.06058218702673912
-0.2742306590080261 0.0847223550081253 -0.09410980343818665
-0.25044816732406616 -0.2884123623371124 -0.03182651102542877
0.2955668866634369 0.46369627118110657 0.0658147931098938
0.035599689930677414 0.2291284203529358 0.1207045316696167
-0.32588517665863037 -0.4195769131183624 -0.03235786408185959
0.26717180013656616 0.2273378223180771 0.06355666369199753
0.28767821192741394 -0.377759724855423 0.004318044520914555
0.21800269186496735 -0.1934070885181427 -0.1330593079328537
-0.3227140009403229 -0.36735546588897705 0.14594916999340057
0.13822953402996063 0.22693681716918945 -0.12255215644836426
-0.17985835671424866 0.3940984010696411 -0.06591258198022842
-0.2504362463951111 -0.32458609342575073 0.13560917973518372
0.16034097969532013 0.22579129040241241 -0.11337647587060928
0.06736702471971512 -0.08079066127538681 0.16708306968212128
-0.02839866280555725 0.15724368393421173 -0.13211451470851898
-0.2512195110321045 0.47767263650894165 0.0008996019023470581
0.16066576540470123 -0.3797047436237335 -0.04054794833064079
0.29301878809928894 0.45529237389564514 -0.004324377980083227
0.1733746975660324 0.39269253611564636 0.0566677451133728
0.052032582461833954 -0.046350304037332535 -0.13610436022281647
-0.17974086105823517 -0.22330553829669952 0.1563587337732315
0.16040855646133423 -0.22141888737678528 0.15677274763584137
0.2847972512245178 -0.3754442632198334 0.12249436229467392
-0.20624561607837677 -0.3442015051841736 -0.06616967916488647
-0.2702695429325104 -0.16523602604866028 0.017966412007808685
0.13842827081680298 0.061970021575689316 0.1704413890838623
0.2261500358581543 0.5140760540962219 0.0806652307510376
-0.25051671266555786 0.11998976767063141 0.15611572563648224
-0.26779046654701233 0.06288650631904602 -0.08926498889923096
-0.19211246073246002 -0.23229853808879852 0.15802589058876038
0.29853320121765137 0.06036384776234627 -0.019991803914308548
-0.20344427227973938 -0.040231913328170776 -0.13360847532749176
-0.002167271915823221 -0.08817052096128464 -0.1336660087108612
0.2153049260377884 -0.4471549987792969 0.09644509106874466
0.12949861586093903 0.20734551548957825 -0.13465937972068787
0.07176949828863144 -0.2548885941505432 -0.1058867946267128
0.13610196113586426 -0.3993918299674988 0.08025049418210983
0.18223091959953308 0.12339948862791061 -0.13596594333648682
0.23863080143928528 0.22653187811374664 -0.12198098003864288
-0.08871227502822876 -0.08272705972194672 -0.134357288479805
-0.05750694498419762 -0.14294809103012085 -0.13288938999176025
0.27714067697525024 0.49249982833862305 0.09027574956417084
0.19450558722019196 0.39996829628944397 -0.06465838849544525
-0.2719854712486267 0.09663199633359909 -0.09617792814970016
0.1998092234134674 -0.0551413856446743 0.16729149222373962
-0.2682105004787445 -0.2301192283630371 0.04307285696268082
0.25939545035362244 0.5137840509414673 0.06845874339342117
0.25902166962623596 -0.44582733511924744 0.14199060201644897
0.29036945104599 0.004387069959193468 -0.12917454540729523
-0.2713332772254944 -0.18325571715831757 -0.001227518543601036
-0.2720271944999695 -0.052788279950618744 -0.09418411552906036
-0.008604085072875023 -0.14751453697681427 0.16906030476093292
0.296028733253479 0.018066491931676865 -0.04895370453596115
-0.04812534525990486 0.015809493139386177 -0.13347089290618896
0.1750514805316925 0.4608114957809448 0.04981337487697601
0.19420179724693298 0.3997345566749573 -0.06587021797895432
-0.12570981681346893 0.05809737369418144 -0.1310541033744812
0.2969673275947571 0.04461921378970146 -0.05200020223855972
0.17308394610881805 0.22528424859046936 -0.004360061604529619
0.2738082706928253 0.46792110800743103 -0.05839670076966286
0.15088267624378204 0.19585834443569183 0.15752728283405304
-0.27117761969566345 -0.337432861328125 0.17662964761257172
0.01704893447458744 0.1558888554573059 -0.1360945701599121
0.0027269525453448296 0.009498685598373413 0.17150746285915375
-0.1677427738904953 -0.2547202706336975 0.12456002086400986
-0.24034437537193298 -0.3448629677295685 0.14712132513523102
-0.15612024068832397 0.4232693612575531 0.07425658404827118
0.2961468994617462 -0.106380395591259 0.0025947242975234985
-0.08018386363983154 -0.2506410479545593 -0.04068915545940399
-0.14236299693584442 0.06472620368003845 0.16770577430725098
-0.11452574282884598 -0.09442675113677979 0.16914400458335876
0.07570624351501465 0.10499845445156097 -0.13333748281002045
-0.2050347626209259 -0.3966263234615326 -0.062045443803071976
0.04988512396812439 -0.1483028680086136 -0.13388091325759888
-0.2710392475128174 -0.22812974452972412 0.08529120683670044
0.08583922684192657 0.22828227281570435 0.00749391783028841
0.1305818259716034 0.19189678132534027 0.15723690390586853
-0.27168509364128113 0.08792166411876678 -0.010623062029480934
0.05278116464614868 -0.13458691537380219 -0.13300324976444244
0.19806832075119019 0.09674099832773209 0.1695510447025299
-0.27060559391975403 -0.2318415641784668 -0.06928401440382004
0.2550587058067322 -0.45001012086868286 0.09194526076316833
0.2957686185836792 -0.18637320399284363 -0.013124731369316578
0.12047065794467926 0.22567705810070038 -0.08697698265314102
0.010789056308567524 0.09839121252298355 -0.15364688634872437
-0.18849888443946838 0.5009546875953674 0.0360991545021534
-0.2698591649532318 0.09791108220815659 -0.004689887166023254
-0.23764407634735107 -0.057486213743686676 -0.13369452953338623
0.19813542068004608 -0.27668076753616333 0.07422269880771637
-0.150106742978096 0.41865745186805725 0.05588967725634575
0.2970404326915741 0.4286828935146332 0.06528348475694656
0.18945743143558502 0.22733886539936066 -0.03547941893339157
-0.019278401508927345 -0.2165517657995224 0.1594613790512085
0.006161836441606283 0.12335609644651413 -0.13908751308918
-0.3171083331108093 -0.3707045316696167 0.14975522458553314
-0.27030882239341736 0.14393293857574463 0.04003661125898361
0.22209426760673523 0.3728503882884979 -0.08189176023006439
-0.15618737041950226 -0.2994225025177002 0.002144891070201993
0.0002838936634361744 -0.21049517393112183 0.15744364261627197
-0.13060587644577026 -0.1754208505153656 -0.13006259500980377
-0.27302664518356323 -0.08058587461709976 -0.08576800674200058
-0.10305140912532806 -0.24852237105369568 -0.018672287464141846
-0.241005077958107 -0.3658972680568695 0.1784520000219345
0.17996858060359955 0.3662157952785492 0.06530436128377914
0.15968066453933716 0.2270454466342926 -0.03759615495800972
0.015918444842100143 -0.2236310988664627 0.1580502837896347
-0.2705141007900238 0.17956595122814178 0.052713148295879364
-0.042971786111593246 -0.06089198589324951 -0.13281908631324768
-0.13679443299770355 -0.25359565019607544 0.0305964145809412
0.1851450353860855 -0.005337371025234461 0.17316627502441406
0.06365402787923813 -0.24000205099582672 -0.13339824974536896
0.2945535182952881 -0.11919868737459183 0.0892435610294342
0.2942301630973816 0.08021675795316696 -0.036911122500896454
-0.31761789321899414 -0.34556320309638977 0.04346900433301926
0.2271321713924408 -0.44567275047302246 -0.04841134324669838
-0.27229824662208557 -0.08720188587903976 0.11941469460725784
-0.2775123715400696 -0.46095457673072815 -0.015592442825436592
0.2991798520088196 0.115841343998909 0.1180318146944046
0.1641109138727188 -0.4466221034526825 0.112629733979702
0.24828912317752838 0.5155283212661743 0.07060085237026215
-0.15233451128005981 0.1926673948764801 0.15954014658927917
0.0818834975361824 -0.1469784528017044 -0.13399972021579742
-0.2726840376853943 -0.02635784260928631 -0.0867667868733406
-0.2536833882331848 0.3897523283958435 -0.05289359390735626
-0.26657411456108093 0.1397814005613327 0.12574879825115204
-0.10703445225954056 -0.20284682512283325 -0.13208232820034027
0.2413731813430786 -0.3657066524028778 0.16656902432441711
0.29587411880493164 -0.2015671581029892 0.10837011784315109
0.15610411763191223 -0.31180745363235474 0.00232871575281024
0.1759292185306549 0.3869130611419678 0.00707481661811471
0.022623620927333832 -0.07814965397119522 -0.1331966668367386
-0.27252501249313354 0.12857823073863983 0.031770601868629456
-0.1977117657661438 -0.17294633388519287 -0.13150690495967865
0.145260289311409 -0.36605897545814514 0.0026723169721663
-0.049493663012981415 0.021920649334788322 -0.1363147646188736
0.12692110240459442 0.1397934854030609 0.1715540736913681
0.2673247158527374 -0.25183412432670593 -0.07204554229974747
0.18881605565547943 0.10848132520914078 0.16708695888519287
-0.17106354236602783 -0.25480207800865173 -0.10744824260473251
-0.2683022618293762 0.16151665151119232 -0.10050729662179947
-0.16502682864665985 0.4003646969795227 -0.04219767451286316
-0.0503668412566185 -0.2538685202598572 -0.05942752957344055
-0.07865676283836365 -0.13181640207767487 -0.1328461766242981
-0.19369933009147644 -0.01775626465678215 -0.13328750431537628
-0.06296029686927795 -0.25433191657066345 0.053069595247507095
-0.27754679322242737 -0.3299381732940674 0.17227259278297424
-0.12418866157531738 0.07961873710155487 0.1688947230577469
0.1454874575138092 -0.40516209602355957 -0.008956070989370346
-0.06573551893234253 0.18698859214782715 -0.13532978296279907
0.14889365434646606 -0.34338709712028503 0.005916884634643793
-0.11094140261411667 -0.250439316034317 0.043483342975378036
-0.18396246433258057 0.498494952917099 0.04590414837002754
-0.18842105567455292 -0.39668017625808716 0.08518847078084946
-0.21390677988529205 -0.19377782940864563 -0.13321657478809357
-0.14990533888339996 -0.16570700705051422 -0.13192050158977509
0.13786421716213226 0.13798725605010986 0.16787560284137726
0.16126231849193573 -0.44474515318870544 0.1203438863158226
0.15835466980934143 0.09172526001930237 0.16936622560024261
0.004871568642556667 0.18837329745292664 0.15332327783107758
-0.2483900934457779 -0.2521098256111145 0.0814448818564415
0.19347119331359863 0.21016427874565125 -0.13107681274414062
-0.29691800475120544 -0.3139331042766571 0.12032373249530792
0.20959945023059845 -0.008378656581044197 -0.13338515162467957
-0.2024892270565033 -0.42283567786216736 -0.0354560911655426
0.04848500341176987 0.2254142165184021 -0.0885186716914177
0.17048637568950653 -0.32820484042167664 -0.04109495133161545
-0.24714145064353943 0.40257009863853455 -0.06764744222164154
0.2689937651157379 -0.04644966125488281 -0.13403864204883575
-0.2092050313949585 -0.39794591069221497 0.1487099975347519
0.02344563975930214 0.029634764418005943 -0.13358376920223236
0.1650201678276062 0.013853463344275951 0.16852456331253052
-0.2390776127576828 -0.3354784846305847 0.13490496575832367
0.013761418871581554 0.10085433721542358 -0.1671411693096161
0.15747863054275513 0.22691577672958374 0.030416214838624
0.2313997745513916 -0.06111467629671097 -0.13411015272140503
-0.2751338481903076 -0.30477800965309143 0.0710398480296135
-0.20159302651882172 0.1398981511592865 0.16934412717819214
-0.1224285140633583 0.22806024551391602 -0.019270770251750946
0.2060880810022354 -0.160885289311409 -0.13612529635429382
-0.0952100157737732 0.05054476857185364 -0.13784274458885193
-0.07001174241304398 -0.09339327365159988 -0.13006868958473206
0.037636175751686096 -0.11076574772596359 0.16910718381404877
0.15775354206562042 -0.3229754567146301 0.0544009655714035
0.23811505734920502 -0.44653668999671936 -0.00604549515992403
-0.059268150478601456 -0.2524676024913788 -0.08577293902635574
0.07550209760665894 -0.057554855942726135 -0.1334059089422226
0.007926496677100658 0.130339577794075 0.16733790934085846
0.1942472606897354 -0.018485505133867264 0.16617105901241302
0.29623764753341675 0.06549326330423355 -0.0802433043718338
-0.04821280762553215 0.22663083672523499 0.13209868967533112
0.0196034237742424 0.09607305377721786 0.16872073709964752
0.0724034383893013 -0.1467219740152359 -0.13424305617809296
0.16845189034938812 -0.447006493806839 0.1482168585062027
-0.09156743437051773 -0.24858498573303223 0.007226000539958477
0.2962769865989685 -0.06577619165182114 0.016230421140789986
0.232000470161438 0.0012596729211509228 0.16800281405448914
0.2970905303955078 0.052840620279312134 -0.06211710348725319
0.297854483127594 0.1292329728603363 0.08547446131706238
-0.23882323503494263 -0.24996565282344818 0.08064641803503036
0.1985432505607605 0.2241610586643219 0.025423746556043625
0.12780030071735382 0.13397786021232605 0.16978719830513
0.29980090260505676 0.04100174456834793 0.06369838863611221
-0.17422792315483093 0.01693117246031761 0.17220962047576904
0.2823604345321655 -0.39098870754241943 -0.028338078409433365
0.29581373929977417 -0.19689789414405823 0.004124904051423073
-0.26848310232162476 -0.40574488043785095 0.18244527280330658
-0.27174293994903564 0.04854004830121994 0.11560817807912827
0.09161283820867538 0.22909529507160187 0.011307408101856709
0.07571422308683395 0.2251865714788437 -0.11738380044698715
-0.2720261216163635 0.1361495405435562 0.011409644037485123
-0.3223913311958313 -0.3481846749782562 0.06100497394800186
-0.27177247405052185 -0.18542541563510895 0.03205924481153488
-0.27351313829421997 -0.12331760674715042 -0.1028418019413948
-0.004295453429222107 -0.24878719449043274 0.1232338547706604
-0.22859835624694824 0.19705376029014587 -0.13530319929122925
0.05300973355770111 0.19099296629428864 0.1574794203042984
-0.21656015515327454 -0.21384364366531372 -0.1332537978887558
-0.2720184028148651 0.160139262676239 0.043314378708601
-0.19310329854488373 -0.43544870615005493 0.020191000774502754
0.22106124460697174 0.10727855563163757 0.16820280253887177
0.01747412048280239 -0.0704209953546524 0.16894954442977905
0.2961196005344391 -0.20184855163097382 -0.050325993448495865
-0.1671704351902008 0.10478594899177551 0.16768702864646912
0.12763439118862152 -0.1310976892709732 -0.13614436984062195
-0.09259259700775146 -0.1614907681941986 -0.1341368705034256
0.1726979911327362 -0.4457893669605255 0.15466757118701935
-0.2649933993816376 -0.309160977602005 -0.04744283854961395
0.17090588808059692 -0.36317238211631775 0.13253317773342133
-0.2620916962623596 -0.35022619366645813 0.18552879989147186
-0.09313485026359558 -0.24856653809547424 0.0920783206820488
0.1522369235754013 -0.3392783999443054 -0.010920446366071701
0.19386927783489227 -0.0952114686369896 0.16820991039276123
-0.2710963487625122 0.16946101188659668 -0.04526953771710396
0.11673688888549805 0.22674867510795593 0.10539159923791885
-0.04940322786569595 -0.0375082902610302 -0.13015931844711304
0.29507261514663696 0.08479169011116028 0.12272906303405762
0.06787844747304916 -0.09467057883739471 -0.13242806494235992
-0.05157367140054703 0.1698746681213379 -0.13619905710220337
0.20784235000610352 -0.4489542841911316 0.18533827364444733
-0.05806834250688553 -0.11092875897884369 -0.13298927247524261
-0.0967392772436142 0.22516174614429474 -0.10009613633155823
0.17221882939338684 -0.2503166198730469 0.12856219708919525
-0.06370799243450165 0.09376835078001022 -0.1312478482723236
0.2191062718629837 0.3333050012588501 0.06598924100399017
-0.09374856948852539 0.22809991240501404 0.027562472969293594
0.15916630625724792 -0.2574106454849243 -0.09286217391490936
-0.21283404529094696 0.16067536175251007 -0.13487176597118378
0.27422165870666504 -0.33453869819641113 -0.04163762927055359
0.2449638396501541 -0.010029837489128113 -0.13650943338871002
-0.12334994971752167 0.07719305157661438 0.16830892860889435
0.0792374536395073 -0.0346495546400547 0.1687265932559967
0.05823554843664169 0.005335527006536722 -0.1369623839855194
0.0993388220667839 0.08844577521085739 -0.13432888686656952
-0.2715718150138855 -0.0819442868232727 -0.045106440782547
0.25362446904182434 -0.4455944299697876 -0.03757880628108978
0.03763330727815628 0.22215865552425385 -0.056590400636196136
0.10643325001001358 -0.11795167624950409 0.16773229837417603
-0.32962048053741455 -0.34992560744285583 0.0596129447221756
-0.27622896432876587 -0.2109684944152832 0.0836082398891449
0.18116387724876404 0.3599194288253784 -0.025723982602357864
-0.24248623847961426 -0.45269086956977844 0.1071052998304367
0.21986563503742218 -0.0337444543838501 0.16872592270374298
0.13649606704711914 -0.029320547357201576 -0.13105015456676483
0.2948816120624542 0.1854378879070282 -0.06911714375019073
0.19580237567424774 0.11248907446861267 0.16986383497714996
-0.2736544907093048 0.06378994882106781 -0.10830305516719818
-0.2681519091129303 -0.15099355578422546 -0.0008766017854213715
-0.3221445679664612 -0.37539198994636536 0.13175004720687866
-0.21995779871940613 -0.08800691366195679 -0.1341238021850586
-0.18678505718708038 -0.31960952281951904 -0.05019018426537514
-0.27209213376045227 -0.125252366065979 0.09859907627105713
-0.2687062919139862 -0.19268585741519928 -0.043525420129299164
0.04453562945127487 -0.25394630432128906 -0.07361414283514023
-0.32154566049575806 -0.33490535616874695 0.12043843418359756
0.06354476511478424 0.08680423349142075 0.1657669097185135
0.09790851175785065 0.2267933487892151 0.0691586434841156
-0.10968395322561264 -0.2540469169616699 -0.10941732674837112
-0.24377454817295074 0.22800999879837036 -0.06772789359092712
-0.27211105823516846 0.07908441871404648 0.10398223251104355
-0.24350093305110931 -0.3490588366985321 0.1594545692205429
-0.11939156800508499 -0.009148530662059784 -0.1349153071641922
0.2957251965999603 0.04573963209986687 0.006486574187874794
0.22391222417354584 0.23025858402252197 0.09977535903453827
0.18403232097625732 0.45471009612083435 -0.027891959995031357
0.1457807570695877 0.13866929709911346 -0.13421721756458282
0.21232369542121887 -0.37405121326446533 0.17056210339069366
0.26445215940475464 -0.2974577248096466 0.06290897727012634
-0.2121545970439911 0.33996179699897766 0.07920128852128983
0.29896605014801025 -0.0346522331237793 -0.013131698593497276
0.03711763396859169 0.22483886778354645 -0.0551442950963974
0.2955026626586914 -0.16847635805606842 -0.023824866861104965
-0.2667408585548401 0.37284308671951294 0.0014377487823367119
0.16340291500091553 0.06495983153581619 -0.13305941224098206
0.10084839165210724 -0.25257471203804016 0.07406187057495117
0.2988223433494568 -0.1608046293258667 -0.0812629759311676
0.08333384245634079 0.01358005404472351 0.16839829087257385
-0.2955210208892822 -0.3264365494251251 0.034230154007673264
0.07068803161382675 -0.023403655737638474 0.17057780921459198
-0.06709626317024231 0.14448755979537964 -0.13479624688625336
0.22044846415519714 0.19481830298900604 0.154286727309227
0.13213911652565002 -0.13801932334899902 0.1684570610523224
-0.27343475818634033 -0.22944846749305725 -0.09929772466421127
-0.2543380558490753 -0.020852673798799515 -0.1328689455986023
-0.2738463878631592 0.0923832431435585 -0.09754815697669983
0.15681636333465576 -0.44684019684791565 0.14841794967651367
-0.19913774728775024 -0.44408780336380005 0.051623936742544174
0.15647782385349274 -0.331602543592453 0.06569580733776093
0.1273871809244156 -0.016142643988132477 0.16875505447387695
0.005319923162460327 0.2301318645477295 0.004856474231928587
-0.23200774192810059 0.23108980059623718 0.13146163523197174
0.1732771396636963 0.3815425932407379 0.03883403539657593
-0.17703485488891602 -0.1688281148672104 -0.1323838233947754
0.27440500259399414 0.13917188346385956 0.15756039321422577
-0.2544344365596771 -0.4383126497268677 0.1333790123462677
-0.1400993913412094 0.19390997290611267 -0.1352701634168625
0.2359398901462555 -0.44704461097717285 -0.008962408639490604
-0.1207088977098465 0.22764311730861664 0.018307557329535484
0.2760362923145294 -0.25448596477508545 -0.09546904265880585
-0.2704976499080658 0.1696617305278778 0.0708036720752716
-0.017970010638237 -0.12856586277484894 -0.13292226195335388
0.2977699935436249 0.3507693409919739 0.060916971415281296
0.29630550742149353 0.042806226760149 0.11004536598920822
-0.3127187490463257 -0.3405836224555969 0.052505508065223694
-0.06839315593242645 -0.07821469753980637 -0.1330753117799759
-0.2842266857624054 -0.3158946633338928 0.006313657388091087
0.09924903512001038 -0.10689553618431091 0.16918373107910156
0.29667094349861145 0.08772853016853333 0.011773508042097092
0.24532583355903625 0.22829459607601166 -0.11341655254364014
0.2984659969806671 0.4114185869693756 0.08847784250974655
0.07215552031993866 -0.013907908461987972 0.1685379445552826
-0.30298152565956116 -0.40616267919540405 0.09556358307600021
0.2652888000011444 -0.23827895522117615 -0.13286541402339935
-0.07223206758499146 -0.24964269995689392 0.06704888492822647
-0.2446737438440323 -0.4475772976875305 -0.06246545538306236
-0.08307429403066635 -0.25288382172584534 0.05907902866601944
0.2809315621852875 -0.349230021238327 -0.008762374520301819
-0.3086390793323517 -0.3375563621520996 0.055302903056144714
-0.22742709517478943 0.4490344822406769 0.09385835379362106
-0.2690274119377136 -0.30133411288261414 0.08091569691896439
-0.20810605585575104 -0.0061277770437300205 -0.13384152948856354
-0.2228412926197052 -0.37882548570632935 -0.08312038332223892
-0.2717810869216919 -0.19086576998233795 -0.02547740936279297
-0.001963996794074774 -0.25144752860069275 0.1071753203868866
-0.1926439106464386 -0.1804097443819046 -0.13333773612976074
0.2981612980365753 0.20459948480129242 0.02542424015700817
0.2506490647792816 0.039171747863292694 -0.13619360327720642
-0.14619147777557373 -0.2215023934841156 -0.132314071059227
-0.039821408689022064 -0.14110086858272552 -0.13380901515483856
0.2607538402080536 -0.2520833909511566 -0.07457204908132553
-0.21237096190452576 0.1086132675409317 -0.1369493305683136
0.02902458980679512 -0.009547311812639236 -0.1333446353673935
0.07620120793581009 0.10621412843465805 -0.1337350457906723
0.11885187774896622 0.22531649470329285 -0.07763582468032837
-0.27089419960975647 0.20355112850666046 -0.11617117375135422
0.1846858710050583 -0.3427395224571228 0.1173621341586113
0.29747968912124634 -0.21451835334300995 -0.08977536857128143
0.19069118797779083 0.20115074515342712 -0.13440832495689392
-0.1989739090204239 -0.3451198637485504 0.09420930594205856
-0.18739314377307892 -0.4212721288204193 0.013087522238492966
-0.10706055164337158 -0.25020670890808105 0.09153027087450027
0.08251948654651642 -0.2279573529958725 -0.13088373839855194
0.2958897650241852 -0.12576687335968018 0.037337373942136765
0.1446526199579239 -0.24998700618743896 -0.00209686323069036
0.23414552211761475 -0.012096824124455452 -0.13329564034938812
-0.25298187136650085 0.13885563611984253 -0.13254117965698242
0.11892566829919815 0.038206104189157486 -0.13323469460010529
0.01850004494190216 0.1574774980545044 -0.1330452412366867
-0.18549908697605133 0.22783750295639038 -0.04836837947368622
