-0.21756376326084137 -0.4607198238372803 0.047408752143383026
0.18038992583751678 -0.254690021276474 0.05054738372564316
0.2439125031232834 -0.30050644278526306 -0.06933921575546265
-0.17185397446155548 0.4383131265640259 0.09956492483615875
-0.21066854894161224 0.06577473133802414 0.16889145970344543
-0.2684954106807709 -0.3843502104282379 -0.09573226422071457
0.05469423159956932 0.17509645223617554 0.15445178747177124
-0.27393731474876404 0.09526883065700531 -0.0498499870300293
-0.272366464138031 -0.12986443936824799 0.11337053775787354
0.25733187794685364 0.4967213273048401 -0.04470416158437729
0.2933017313480377 -0.08027447760105133 0.15561461448669434
0.24119123816490173 0.5175085067749023 0.06077797710895538
-0.04176001995801926 0.16275383532047272 0.16149944067001343
0.060440123081207275 0.221852645277977 -0.13407815992832184
0.29238569736480713 0.16907899081707 -0.13853423297405243
0.03349142521619797 0.1087963655591011 -0.13580994307994843
0.2958364486694336 0.11014696955680847 0.1420869529247284
-0.2695830464363098 -0.20297029614448547 -0.12980236113071442
-0.2703017294406891 -0.2208891212940216 0.13846777379512787
0.034653473645448685 -0.25025248527526855 4.765903577208519e-05
-0.11955717206001282 0.23096561431884766 0.14143994450569153
0.08919505774974823 0.15995292365550995 0.1664503961801529
-0.08991925418376923 -0.25246191024780273 -0.04175533354282379
-0.32651928067207336 -0.33473896980285645 0.13021095097064972
-0.15981045365333557 -0.253298819065094 0.05777621641755104
-0.21198956668376923 -0.4582180380821228 0.0511646531522274
0.2452353537082672 -0.0009758463129401207 0.16533654928207397
-0.2641957700252533 0.03986019641160965 -0.13610005378723145
-0.042205601930618286 0.16028070449829102 0.16703467071056366
0.2370692789554596 0.0463094487786293 0.17030684649944305
-0.26343804597854614 0.10765869915485382 0.15546676516532898
-0.18432629108428955 0.2639079988002777 0.005517525598406792
0.25116705894470215 0.14597319066524506 0.157276913523674
-0.13096587359905243 0.2214440256357193 -0.1354115903377533
0.2952851951122284 0.168488010764122 0.155655175447464
-0.18420252203941345 0.35901322960853577 0.09424269199371338
0.24395304918289185 0.048688407987356186 0.16382281482219696
0.29516085982322693 -0.11146324127912521 -0.1337803155183792
-0.033035654574632645 -0.1764509379863739 0.16630226373672485
-0.03258185461163521 0.13350114226341248 0.16942042112350464
-0.2690177857875824 -0.1331784874200821 -0.13313359022140503
-0.2690610885620117 -0.13712115585803986 -0.1346897929906845
0.20563417673110962 0.22665166854858398 -0.020178480073809624
0.29637768864631653 -0.05843805521726608 0.14114201068878174
0.2745336592197418 0.3788444697856903 -0.07801365852355957
-0.271529883146286 -0.11263471096754074 0.1475740373134613
-0.24902157485485077 0.44782155752182007 -0.056021496653556824
0.2932499349117279 0.17833203077316284 0.15783058106899261
0.11917807906866074 0.21949729323387146 -0.13464349508285522
0.17879043519496918 0.34288278222084045 0.005263452418148518
-0.21915000677108765 -0.24403609335422516 0.1525755673646927
-0.2648855447769165 0.12922345101833344 -0.1344790756702423
0.1846158355474472 -0.2438242882490158 0.15704497694969177
0.29704391956329346 0.09178219735622406 0.14204734563827515
0.2920892834663391 -0.4064665734767914 0.10392019152641296
-0.2957165539264679 -0.36989399790763855 0.20280395448207855
0.27925676107406616 -0.3210085928440094 0.04731322452425957
0.008924365974962711 0.160282701253891 -0.13811731338500977
0.23618197441101074 0.23004457354545593 -0.11945934593677521
-0.2728498876094818 0.13270878791809082 -0.133291557431221
0.27901190519332886 -0.24091991782188416 -0.13611428439617157
0.22851553559303284 0.22129838168621063 0.1563328057527542
-0.26033344864845276 -0.014824876561760902 0.1551511138677597
-0.19818150997161865 0.23039454221725464 0.08423343300819397
0.262477844953537 -0.41850441694259644 0.20009034872055054
0.2423776090145111 -0.17546340823173523 0.16622331738471985
-0.05774596706032753 0.23053842782974243 0.019731201231479645
0.22006277740001678 0.2286580353975296 -0.03448323532938957
-0.08500933647155762 0.22937047481536865 0.14254100620746613
0.29659372568130493 0.03697808086872101 0.14117832481861115
0.2719387114048004 -0.44437119364738464 0.18253257870674133
-0.29629093408584595 -0.3715171217918396 0.2042311578989029
-0.2713979184627533 0.03658128157258034 -0.12560483813285828
0.003979986067861319 0.17215564846992493 0.1523156315088272
-0.273333877325058 -0.03335519880056381 0.13027140498161316
0.275396466255188 -0.4421676695346832 0.03583850339055061
0.23157501220703125 0.23086228966712952 0.14088597893714905
-0.2709597945213318 -0.13498659431934357 -0.12709486484527588
-0.2590608298778534 -0.20963454246520996 -0.13910111784934998
-0.2750695049762726 -0.38985592126846313 0.2049584835767746
0.2947292625904083 0.22893311083316803 -0.08538517355918884
0.2896771728992462 -0.4308292865753174 0.14576488733291626
-0.22931168973445892 -0.07906752824783325 0.15208977460861206
0.02747032791376114 0.2139178365468979 -0.13507366180419922
-0.26136282086372375 0.45100101828575134 -0.014984102919697762
0.25812870264053345 0.4853988289833069 -0.05860088765621185
0.0612102709710598 0.16946063935756683 -0.2051352858543396
-0.05888582766056061 -0.25084617733955383 -0.11937829107046127
-0.21005535125732422 -0.1293593794107437 0.16865341365337372
-0.0051950737833976746 -0.06928334385156631 0.16838347911834717
0.11174572259187698 0.22915953397750854 0.13871589303016663
0.23840072751045227 -0.391664981842041 -0.08840139210224152
-0.20338721573352814 -0.056284673511981964 0.16991344094276428
-0.27086740732192993 -0.16846860945224762 -0.13477776944637299
-0.0928335189819336 0.2306058406829834 -0.07759518176317215
-0.18478085100650787 0.21411347389221191 -0.13411349058151245
0.2897637188434601 0.15848052501678467 -0.1342126876115799
0.1650603711605072 -0.36927419900894165 0.13413245975971222
0.07584947347640991 -0.24875909090042114 0.154298797249794
0.2935488224029541 0.22914186120033264 -0.07947482168674469
0.18339432775974274 0.42689675092697144 0.11020894348621368
0.24007585644721985 -0.44701087474823 0.19642823934555054
-0.2099790871143341 0.2279472053050995 0.14044968783855438
-0.24434415996074677 -0.29002273082733154 -0.042485080659389496
0.04549983888864517 0.15731561183929443 0.16602469980716705
0.2717092037200928 0.20657727122306824 -0.13471649587154388
0.07324860990047455 -0.2473534792661667 0.15449213981628418
0.23914678394794464 0.08370834589004517 0.17015042901039124
0.2939684987068176 0.22912129759788513 -0.0001937374472618103
0.2867735028266907 0.042655013501644135 -0.13840188086032867
0.29152363538742065 -0.2037314921617508 -0.1347368359565735
0.27091529965400696 0.292834609746933 0.01618190109729767
0.29011765122413635 0.2202579528093338 -0.1337529867887497
0.17036350071430206 -0.24581997096538544 0.1579117625951767
0.20696264505386353 -0.20824207365512848 -0.13679219782352448
0.2460273802280426 0.22969432175159454 -0.06602735817432404
-0.1742279827594757 0.3457113802433014 -0.034268856048583984
-0.25092995166778564 -0.3269244432449341 -0.08307433128356934
-0.27060380578041077 0.21623191237449646 -0.12533733248710632
-0.2178948074579239 -0.4465123414993286 0.11199891567230225
-0.05330708622932434 0.22615231573581696 -0.12834662199020386
-0.3409850597381592 -0.39559945464134216 0.009309343993663788
0.23172038793563843 -0.44058507680892944 -0.08200680464506149
0.23813563585281372 -0.08598382771015167 0.1687067151069641
0.2466718852519989 -0.08719366788864136 0.15899717807769775
0.025918684899806976 0.12055265158414841 -0.20958729088306427
-0.11482022702693939 0.22391477227210999 0.1542816460132599
-0.2706393599510193 -0.08278300613164902 -0.13451994955539703
0.03000270202755928 0.230205699801445 -0.12335999310016632
-0.2553366422653198 0.06835407763719559 -0.2981683313846588
0.2179003357887268 -0.2530207633972168 0.06736072897911072
-0.25421980023384094 -0.25073760747909546 -0.022937525063753128
0.28037315607070923 -0.42868414521217346 -0.01824168488383293
-0.268657922744751 0.06273153424263 0.15369334816932678
-0.031385719776153564 0.10436291992664337 -0.13587751984596252
-0.12906214594841003 0.10428568720817566 0.1690697968006134
-0.15400947630405426 -0.28556719422340393 -0.009554148651659489
-0.23970213532447815 0.23693782091140747 -0.029368437826633453
-0.20470982789993286 0.25495171546936035 -0.025537658482789993
-0.2968217134475708 -0.3787991404533386 0.19529497623443604
-0.0533335842192173 0.2263854444026947 0.15144100785255432
0.05622555688023567 -0.184666246175766 0.16379988193511963
0.25825828313827515 -0.08301283419132233 0.15566322207450867
0.2892896234989166 -0.17598499357700348 -0.13444724678993225
-0.02661345899105072 -0.20434600114822388 0.15461838245391846
0.010790378786623478 0.17449644207954407 0.154533252120018
0.2843667268753052 -0.04668629914522171 0.15645413100719452
-0.21886733174324036 -0.2533007860183716 0.11217473447322845
-0.12353715300559998 0.22489801049232483 0.15333494544029236
-0.23825965821743011 -0.24656926095485687 -0.12849383056163788
0.14605851471424103 0.21980500221252441 0.1553577333688736
-0.1845160871744156 -0.02416890673339367 0.16825580596923828
-0.26101675629615784 0.22863130271434784 -0.1093844473361969
0.015004802495241165 0.10042370110750198 -0.1360369771718979
0.2969026267528534 -0.03590627759695053 -0.13384109735488892
-0.25551837682724 -0.19737949967384338 -0.13799209892749786
-0.09580983221530914 0.2280234396457672 0.14142727851867676
-0.2691878080368042 0.07671093940734863 -0.13441668450832367
-0.26629316806793213 0.09426235407590866 -0.13545766472816467
0.28882017731666565 0.45992523431777954 0.12117698788642883
0.2597784698009491 -0.13692405819892883 0.15702638030052185
0.22776997089385986 0.33076179027557373 0.07804182171821594
-0.17858122289180756 0.4646698832511902 0.1043047308921814
-0.27118855714797974 -0.13945521414279938 -0.12436540424823761
0.021104663610458374 0.09914055466651917 -0.13566012680530548
-0.2700205445289612 -0.35557377338409424 -0.08561684191226959
0.051458388566970825 -0.2465844303369522 0.15124359726905823
0.13845321536064148 -0.4363904893398285 0.04994984716176987
0.24115334451198578 -0.44563862681388855 -0.005975179374217987
0.25138190388679504 -0.42353999614715576 0.20218846201896667
0.06865651160478592 0.1268072873353958 -0.13564029335975647
-0.1816575825214386 -0.19872212409973145 0.15422433614730835
0.2414703369140625 -0.1649056077003479 0.16733583807945251
0.2909899055957794 -0.23226435482501984 -0.1354297548532486
-0.2739558219909668 -0.13917340338230133 -0.12727831304073334
0.2371264100074768 -0.31301334500312805 0.10455027222633362
0.21232075989246368 -0.38181984424591064 0.17937342822551727
-0.1774255931377411 0.47081974148750305 -0.027269834652543068
0.16169221699237823 0.023371312767267227 0.16851329803466797
-0.2647763192653656 0.006439049728214741 -0.13595639169216156
0.29675033688545227 -0.0013254380319267511 0.14695678651332855
0.29681119322776794 0.08860685676336288 0.14284747838974
-0.04323215037584305 0.11622659862041473 -0.13564777374267578
0.2046506702899933 0.3137662708759308 -0.004032988101243973
-0.11774996668100357 0.00014101667329669 0.16821371018886566
-0.24858897924423218 0.24009309709072113 0.004920452833175659
0.2954619526863098 0.22140374779701233 -0.1342574656009674
0.05003529414534569 -0.17235803604125977 0.1686200499534607
-0.24524034559726715 -0.43087953329086304 0.16784456372261047
-0.13209958374500275 -0.25589680671691895 -0.015915147960186005
0.2645862400531769 -0.25704559683799744 -0.011758986860513687
-0.27399060130119324 -0.34257999062538147 0.19275623559951782
0.2058887481689453 0.14614611864089966 0.17229025065898895
0.21410700678825378 0.45412978529930115 -0.07728618383407593
0.26928195357322693 -0.2510644197463989 -0.036592576652765274
0.2954987585544586 -0.15422892570495605 0.04035640507936478
0.1265091747045517 0.12168031930923462 -0.13641652464866638
-0.24857275187969208 -0.3606701195240021 -0.09397463500499725
0.009993568994104862 -0.17225202918052673 0.16756825149059296
-0.27079832553863525 -0.08382080495357513 -0.12956753373146057
-0.2713559567928314 0.10775257647037506 -0.13365036249160767
0.046902239322662354 0.05754627659916878 0.16984409093856812
0.18138715624809265 -0.2428584098815918 -0.13734005391597748
0.2863873839378357 0.34678152203559875 0.05995677039027214
0.23587775230407715 -0.3180503249168396 -0.07649470120668411
0.29575878381729126 -0.14051803946495056 0.1436476856470108
-0.26025399565696716 0.04019121080636978 -0.1368114948272705
0.1873718500137329 0.3528348505496979 0.05017015337944031
0.27443045377731323 -0.4448319971561432 0.0810651034116745
0.25948914885520935 -0.014130409806966782 0.1567135900259018
0.30029189586639404 0.21499866247177124 0.05193692818284035
-0.19478550553321838 0.4985242784023285 0.08133462071418762
-0.2174273133277893 -0.4654783606529236 0.05172151327133179
-0.2701719403266907 -0.10919852554798126 -0.13930994272232056
-0.32613667845726013 -0.4054147005081177 -0.05711688473820686
-0.2168358564376831 0.2541722059249878 -0.029071882367134094
0.29087188839912415 0.22824734449386597 -0.13392195105552673
0.2942667007446289 0.2186155617237091 -0.1333542764186859
-0.06892302632331848 -0.250618577003479 0.1396026313304901
0.22163894772529602 -0.2517138421535492 0.13199345767498016
-0.22969630360603333 0.12985533475875854 0.15178358554840088
0.29663199186325073 -0.1522286981344223 0.14498862624168396
0.260793000459671 0.501582145690918 0.11747437715530396
-0.27138298749923706 -0.2020898461341858 -0.13597989082336426
0.28942298889160156 -0.0720241591334343 0.15670894086360931
-0.27055492997169495 0.07416259497404099 0.15234750509262085
0.16038574278354645 0.15245434641838074 0.1682666838169098
0.2983652949333191 -0.15573260188102722 0.1457536518573761
0.29273730516433716 0.2291727215051651 -0.06741258502006531
0.2894272208213806 -0.23818781971931458 -0.1360509991645813
-0.2585497498512268 0.3527078330516815 0.06652829051017761
0.2541945278644562 0.1346277892589569 0.1550242304801941
-0.24423052370548248 -0.46465855836868286 -0.044869888573884964
-0.2639467120170593 -0.2521723508834839 -0.027543578296899796
-0.17685095965862274 -0.17844104766845703 0.16570666432380676
0.29726701974868774 -0.24538475275039673 0.0006100870668888092
-0.22785887122154236 -0.45228278636932373 0.13166555762290955
0.28996914625167847 -0.11913500726222992 -0.13579504191875458
-0.27403366565704346 -0.24769043922424316 -0.011070314794778824
-0.01629408448934555 0.2982405126094818 -0.2483934760093689
0.2073860913515091 0.2255748212337494 -0.02778422087430954
-0.195539191365242 0.49163544178009033 -0.030464619398117065
0.24536165595054626 -0.1584237813949585 0.16313903033733368
0.28548839688301086 -0.24773091077804565 0.1528131663799286
0.032465044409036636 0.25367581844329834 -0.25838354229927063
0.2642095983028412 -0.32729804515838623 -0.05953192710876465
0.2949718236923218 0.06138234585523605 -0.13409769535064697
0.2879782021045685 0.4126032292842865 -0.062234509736299515
-0.27045938372612 -0.16341352462768555 -0.1246400699019432
-0.29082295298576355 -0.3736411929130554 0.20375551283359528
-0.26648658514022827 0.11056239902973175 0.1545933485031128
-0.28554224967956543 0.0669504702091217 -0.31640443205833435
0.22961461544036865 -0.36743485927581787 0.16554473340511322
-0.24860629439353943 -0.25061163306236267 -0.12288414686918259
0.01902070827782154 0.15711259841918945 0.16617226600646973
0.04941682517528534 0.0031495471484959126 0.16796207427978516
-0.23263533413410187 0.22017328441143036 -0.13338612020015717
-0.21543563902378082 -0.44802790880203247 0.12287802994251251
0.14271754026412964 0.22933842241764069 -0.12278970330953598
-0.11278054118156433 -0.25284960865974426 -0.019148554652929306
-0.2680908143520355 -0.2103196680545807 -0.12954382598400116
-0.11903133988380432 0.15348270535469055 0.17009055614471436
-0.2702043652534485 -0.043072473257780075 -0.12364085018634796
0.26955240964889526 0.4423026740550995 -0.07705269753932953
-0.27027201652526855 -0.24260704219341278 0.04877927899360657
-0.2713092863559723 0.21145862340927124 -0.12946197390556335
-0.16613824665546417 0.4743274450302124 0.08180702477693558
0.29275479912757874 0.016885552555322647 0.15051424503326416
0.2836337983608246 0.07697169482707977 0.15623736381530762
-0.12085703760385513 -0.24136224389076233 0.1571398675441742
0.297372430562973 -0.23325055837631226 -0.12020713090896606
0.26045385003089905 -0.027432261034846306 0.1564227193593979
-0.07265113294124603 0.17375048995018005 0.1525028944015503
-0.26323890686035156 0.012654796242713928 -0.13583748042583466
0.24225513637065887 -0.32030025124549866 -0.0772644653916359
0.2972857356071472 0.22235116362571716 0.11396126449108124
0.2460884153842926 -0.18403039872646332 0.16142702102661133
0.28552550077438354 -0.045832760632038116 -0.13671094179153442
-0.05026426166296005 0.22654150426387787 -0.13205966353416443
0.2793598175048828 0.44500449299812317 0.12077502906322479
0.20426812767982483 0.23037290573120117 -0.0039823660627007484
-0.08164916187524796 0.2203516960144043 0.15545979142189026
0.28289973735809326 -0.020824648439884186 -0.13588522374629974
0.057082705199718475 0.2168918401002884 0.15585532784461975
0.20031599700450897 0.21927553415298462 -0.1342127025127411
0.22869403660297394 0.23038017749786377 0.14960002899169922
0.19946616888046265 -0.25341641902923584 0.07524263858795166
-0.21466164290905 -0.4497358798980713 0.09364341199398041
-0.22843457758426666 -0.4761604368686676 0.03341711312532425
0.18206919729709625 0.35664916038513184 0.06644196063280106
0.1503252387046814 -0.44336599111557007 0.011009634472429752
-0.28256574273109436 -0.44761398434638977 -0.08224416524171829
-0.2412244826555252 -0.33631613850593567 -0.08971557766199112
-0.2661174535751343 0.0956549420952797 -0.13401071727275848
0.23599939048290253 -0.2910042107105255 -0.06648169457912445
0.2897665202617645 -0.059425219893455505 0.15655887126922607
-0.21489228308200836 -0.25731146335601807 -0.055174343287944794
-0.2675531208515167 -0.2089797854423523 -0.13272805511951447
-0.26615533232688904 0.35094088315963745 0.0362827330827713
0.2964998781681061 0.1259506344795227 0.08239328861236572
-0.25970759987831116 -0.11484863609075546 -0.13793906569480896
-0.2167312055826187 -0.034935541450977325 0.165077343583107
-0.2668288052082062 0.0340462289750576 -0.1343996822834015
0.29017001390457153 -0.20165200531482697 -0.1360158622264862
-0.2714706361293793 0.14841288328170776 0.14634941518306732
-0.22953222692012787 -0.10623530298471451 0.15342339873313904
0.2138785868883133 -0.16885694861412048 0.16880027949810028
0.26143157482147217 0.502457857131958 0.11020208895206451
-0.08152925968170166 0.01828434318304062 0.1688634604215622
-0.2696298360824585 0.07237455993890762 0.14995992183685303
-0.15634647011756897 -0.2538067698478699 -0.030570313334465027
-0.2581835091114044 -0.46397656202316284 -0.06128755211830139
-0.22675573825836182 0.17154860496520996 0.1515144556760788
0.2939831018447876 0.2029704749584198 0.15693867206573486
-0.2674313187599182 -0.20987579226493835 -0.13084149360656738
0.263489305973053 -0.3191377520561218 -0.05933559313416481
0.25369951128959656 0.22755025327205658 -0.0587090440094471
0.29689836502075195 -0.03348374739289284 0.1410943865776062
-0.20642252266407013 0.21801413595676422 0.1549939066171646
0.2851871848106384 -0.3758297860622406 0.13790251314640045
0.2883418798446655 0.10548827797174454 0.1565832495689392
0.2975906729698181 0.12797895073890686 0.14172911643981934
0.2923179268836975 -0.24901601672172546 -0.02660175785422325
-0.18342265486717224 -0.2663176655769348 0.06324861943721771
-0.26452648639678955 0.42068585753440857 0.10493122041225433
0.2767805755138397 0.413078635931015 -0.07520189136266708
0.2761242687702179 -0.4452032148838043 0.031090479344129562
-0.26297256350517273 0.018191657960414886 -0.1367330104112625
0.2000904530286789 -0.24832172691822052 0.14496396481990814
-0.2878572344779968 0.0853937566280365 -0.2716835141181946
-0.2397344559431076 0.2793239951133728 0.019808128476142883
0.29338857531547546 -0.17891722917556763 0.15661612153053284
0.2915413975715637 -0.24021053314208984 0.15540507435798645
0.1623864471912384 0.2281004935503006 -0.1225677952170372
0.25741010904312134 0.5008528828620911 -0.03390120342373848
0.2904166281223297 0.2271062135696411 -0.12514477968215942
-0.26626813411712646 0.06783595681190491 -0.13582372665405273
0.24066700041294098 0.09032316505908966 0.169257253408432
-0.26579412817955017 -0.009288506582379341 -0.13501198589801788
-0.27016326785087585 -0.07660206407308578 -0.13453099131584167
0.21121826767921448 0.4550801217556 -0.07450679689645767
0.20037910342216492 0.15546514093875885 0.16710007190704346
0.2976616322994232 0.19187429547309875 0.00508948415517807
0.2971009910106659 0.22028180956840515 -0.12788528203964233
0.2890775203704834 0.22931256890296936 -0.06749194860458374
0.29197782278060913 0.4788171648979187 0.053173746913671494
0.2940713167190552 -0.25077760219573975 -0.013096656650304794
-0.049010008573532104 0.2297774702310562 -0.07108578085899353
0.29206934571266174 -0.09075387567281723 0.15547612309455872
-0.011247318238019943 0.1004323735833168 -0.13486486673355103
0.025862351059913635 0.22133800387382507 -0.1344171166419983
0.07568265497684479 0.12467256188392639 -0.1368056982755661
0.18842899799346924 -0.05238249897956848 -0.13627730309963226
-0.18934088945388794 -0.24470776319503784 -0.1237693652510643
0.2146257758140564 -0.25369757413864136 -0.05223175138235092
-0.24941197037696838 0.21735519170761108 -0.13472506403923035
-0.07464887201786041 -0.008380993269383907 0.16793982684612274
0.23205316066741943 0.03251829743385315 -0.13523687422275543
-0.2621530294418335 -0.3629534840583801 -0.0927429348230362
-0.10671748965978622 0.15160444378852844 0.1696445494890213
-0.26967960596084595 -0.18997320532798767 -0.1292828619480133
-0.2114560306072235 0.029152702540159225 0.16719098389148712
0.18308991193771362 0.44808441400527954 0.10384437441825867
0.29678311944007874 0.11948194354772568 0.14902761578559875
0.26872795820236206 0.5020743608474731 0.10348030179738998
-0.001482948660850525 0.1956554800271988 -0.13549840450286865
0.29657092690467834 -0.01327753346413374 0.15050439536571503
-0.26229172945022583 -0.08560700714588165 0.1556866466999054
0.022876190021634102 -0.18106500804424286 0.16440483927726746
-0.13845878839492798 -0.2542570233345032 0.14105339348316193
-0.16605506837368011 0.2279224991798401 0.14640364050865173
0.18758542835712433 0.34004533290863037 0.05104870721697807
0.27362746000289917 0.22176244854927063 -0.13518564403057098
-0.309734970331192 -0.40022242069244385 -0.08576484024524689
-0.30858156085014343 -0.3315674066543579 0.07392597198486328
0.06645773351192474 0.15758951008319855 0.1653202623128891
-0.03568761795759201 -0.24973233044147491 0.11612102389335632
-0.044105809181928635 0.2177763432264328 -0.13448868691921234
0.2426663041114807 -0.16307218372821808 0.16858436167240143
0.08468593657016754 0.15953126549720764 0.16487327218055725
0.09410750865936279 0.04881446063518524 -0.1370059847831726
-0.24456900358200073 -0.39399829506874084 0.1987377554178238
0.17849884927272797 0.3776150643825531 0.09027303755283356
0.29393139481544495 0.21619102358818054 0.15530145168304443
0.2507820427417755 0.15530744194984436 0.16015584766864777
0.24442064762115479 -0.44642943143844604 0.19343352317810059
-0.2720124423503876 0.21649691462516785 -0.12027154862880707
-0.2673441767692566 -0.09735255688428879 0.15315330028533936
-0.26760488748550415 -0.0030108378268778324 -0.1366109400987625
0.28429946303367615 -0.36936599016189575 0.13668325543403625
0.2855484187602997 0.38030341267585754 0.12272348254919052
0.2259083390235901 -0.4286663234233856 -0.0902966558933258
-0.2571049630641937 -0.018183542415499687 -0.13586153090000153
0.2944634258747101 0.10699092596769333 0.14749395847320557
0.2704349160194397 0.3456358313560486 -0.06832355260848999
-0.10109834372997284 -0.23906336724758148 0.15690387785434723
-0.2585592269897461 0.00841612834483385 -0.13646836578845978
-0.27411317825317383 -0.022961637005209923 -0.044251155108213425
0.18720868229866028 -0.25352901220321655 0.05314289778470993
0.21989387273788452 -0.2523079514503479 -0.06204964965581894
0.2983473539352417 -0.23927386105060577 0.13949529826641083
0.25418877601623535 -0.17296987771987915 0.1536955088376999
0.1045042872428894 0.1528060883283615 0.17018748819828033
-0.26896002888679504 0.2212800234556198 0.1500832587480545
-0.33859124779701233 -0.39259546995162964 0.026033181697130203
0.2764483690261841 -0.4095081686973572 -0.05053844675421715
-0.06631560623645782 0.15900251269340515 0.1650206297636032
0.26633957028388977 0.5094776749610901 0.08558563888072968
-0.2292977273464203 -0.046134695410728455 0.15178118646144867
-0.04442145675420761 0.10974492132663727 -0.13461056351661682
-0.270562082529068 -0.14386746287345886 -0.13315236568450928
-0.24133211374282837 -0.4768825173377991 0.006293447222560644
0.21737493574619293 0.4809604287147522 -0.05918499454855919
-0.2688794434070587 0.21431821584701538 0.15233395993709564
-0.26184237003326416 -0.030233437195420265 -0.1358378827571869
-0.19846050441265106 0.5006670951843262 0.08898572623729706
0.2928190529346466 -0.22896242141723633 -0.13566945493221283
0.2926464080810547 -0.19653980433940887 -0.13563506305217743
0.29719045758247375 -0.06715686619281769 0.1478898972272873
-0.22615401446819305 -0.2550451457500458 -0.037993382662534714
-0.15271057188510895 0.22856108844280243 0.14875389635562897
0.2853546142578125 -0.15750981867313385 -0.13682888448238373
-0.002719202544540167 0.2147245705127716 0.1554131805896759
0.18213297426700592 0.219289630651474 -0.1359553337097168
0.29892271757125854 0.18277381360530853 -0.10014526546001434
-0.2710784375667572 -0.09786036610603333 -0.12286888062953949
-0.273397833108902 -0.13630324602127075 0.14068710803985596
-0.26599228382110596 -0.4624142646789551 -0.06451725959777832
0.2787306308746338 -0.44155430793762207 0.1117127388715744
-0.3099542558193207 -0.36522048711776733 0.19525328278541565
0.18444430828094482 0.2180050164461136 -0.13340498507022858
0.1869029700756073 0.026769669726490974 -0.1362895518541336
0.10856568068265915 -0.17201215028762817 0.16855467855930328
0.2062404304742813 0.23194749653339386 -0.005758814513683319
0.23483522236347198 -0.2550458610057831 -0.09214851260185242
-0.20778925716876984 -0.05622854828834534 0.16753989458084106
0.2939786911010742 0.0876314789056778 0.15409839153289795
0.20032763481140137 0.2307496815919876 0.01147133857011795
0.24762430787086487 -0.2843869626522064 0.07621823251247406
0.25233975052833557 -0.04055343568325043 0.15261323750019073
-0.05054125189781189 0.1585046499967575 0.16539230942726135
-0.03205862641334534 0.15057384967803955 0.1692986637353897
0.2756806015968323 0.2315676212310791 -0.024341516196727753
-0.2682061791419983 -0.15844711661338806 -0.1271466314792633
0.040946926921606064 0.10086416453123093 -0.135670468211174
0.2872532308101654 -0.16793465614318848 0.15672865509986877
0.2336280196905136 0.1455329954624176 0.16879205405712128
0.04138001427054405 0.22708582878112793 0.1471392959356308
0.27335771918296814 -0.44214555621147156 -0.028343336656689644
0.2510629892349243 -0.0744067057967186 0.15334653854370117
-0.2854936420917511 0.04485086724162102 -0.2446102797985077
0.2887389063835144 -0.2507840692996979 -0.11740091443061829
0.28927740454673767 0.06155237555503845 0.1553051918745041
0.2702436149120331 -0.3493366837501526 0.12899592518806458
-0.17262676358222961 0.4598139524459839 0.10360472649335861
-0.265828013420105 0.0998992919921875 -0.13406823575496674
-0.10867369920015335 -0.2521519660949707 -0.10502791404724121
0.2971930503845215 -0.10424228012561798 -0.12581785023212433
-0.24182043969631195 0.32971441745758057 -0.021048668771982193
-0.182663694024086 -0.3372117877006531 -0.054533958435058594
-0.20851001143455505 -0.2578061819076538 0.08776143938302994
0.2377670854330063 -0.07556842267513275 0.16980405151844025
-0.17316310107707977 0.2283845692873001 0.14220529794692993
0.16066205501556396 -0.3976059556007385 0.16439977288246155
-0.2720412015914917 -0.19986701011657715 0.03721983730792999
0.21439698338508606 -0.20304347574710846 -0.13712914288043976
-0.11256816238164902 0.22982588410377502 0.1493089199066162
0.2893716096878052 -0.054930735379457474 -0.1369892656803131
-0.0691896378993988 0.22842276096343994 0.1429625153541565
-0.27492427825927734 0.22215129435062408 -0.026119684800505638
-0.25530678033828735 0.47685572504997253 0.09474696218967438
0.12217013537883759 0.1519477367401123 0.17034120857715607
0.28736457228660583 0.08479660004377365 -0.13546444475650787
-0.2699180245399475 -0.1375441998243332 0.15554878115653992
-0.2699756324291229 -0.17680424451828003 -0.13589145243167877
0.29421642422676086 0.15257611870765686 -0.1365635246038437
-0.24771565198898315 -0.4668474793434143 -0.04968361556529999
0.20310434699058533 0.22765551507472992 -0.012231220491230488
0.2789115011692047 -0.3174024820327759 0.06785757839679718
-0.23140057921409607 -0.2613333761692047 0.04674414545297623
-0.27058547735214233 0.1886332482099533 0.04875713214278221
0.28193721175193787 -0.2518194913864136 0.0907750129699707
0.022708710283041 0.09873715043067932 -0.13551054894924164
-0.07103720307350159 -0.24821685254573822 0.14614060521125793
-0.2058066576719284 -0.41589656472206116 0.13815034925937653
0.2965799868106842 -0.23633220791816711 -0.04961301013827324
0.15130919218063354 -0.411586731672287 -0.033062420785427094
-0.2573598027229309 -0.1154063418507576 -0.13732968270778656
-0.27015459537506104 -0.10254095494747162 -0.12257007509469986
-0.23299270868301392 -0.4739903211593628 -0.020238369703292847
-0.2560199201107025 0.2313411384820938 -0.11417495459318161
0.21573707461357117 -0.24801070988178253 0.14952470362186432
-0.24992476403713226 -0.25252866744995117 0.04868283122777939
0.003443978726863861 -0.046645477414131165 -0.13648280501365662
0.13770751655101776 -0.4273463487625122 0.12382730841636658
0.17673522233963013 -0.25315138697624207 0.03133733198046684
-0.15441080927848816 -0.28003937005996704 0.027027510106563568
0.29652756452560425 -0.06064834073185921 -0.13372376561164856
0.23154443502426147 0.36030900478363037 -0.08668158948421478
-0.16601747274398804 0.22986213862895966 0.1456102430820465
0.23693761229515076 0.2325569987297058 -0.03713487833738327
0.2447325438261032 -0.40215834975242615 -0.09044384956359863
0.18689745664596558 -0.24494290351867676 -0.1363280713558197
-0.26581671833992004 -0.1306508332490921 0.15498706698417664
-0.1736610233783722 -0.32731810212135315 -0.03984959423542023
0.2777082324028015 -0.23145082592964172 -0.13754194974899292
0.21985530853271484 -0.2635790705680847 -0.05278931185603142
-0.3201276361942291 -0.4112655520439148 -0.07550106942653656
0.11864340305328369 -0.24523620307445526 0.15409192442893982
-0.26631322503089905 -0.023916061967611313 -0.13565149903297424
0.18844538927078247 -0.19085966050624847 0.15747757256031036
-0.2702156603336334 -0.0884840339422226 -0.13610023260116577
-0.2760572135448456 -0.38683202862739563 -0.09492997080087662
-0.13424985110759735 0.2282647043466568 0.04639153927564621
-0.21518467366695404 -0.14658580720424652 0.16466163098812103
-0.08085504919290543 0.21861030161380768 -0.1341128796339035
-0.2006007432937622 0.32950088381767273 0.05311240255832672
0.2667950987815857 -0.4392388164997101 -0.047543399035930634
0.2596452534198761 0.39563387632369995 0.11106359958648682
0.2971717417240143 -0.13044697046279907 -0.1355573832988739
-0.26599955558776855 0.0013625528663396835 -0.13519446551799774
0.17086908221244812 -0.2562241852283478 0.0017082788981497288
0.2772957980632782 -0.44240236282348633 0.09426846355199814
0.23458941280841827 -0.14603352546691895 0.1684177815914154
0.007290676236152649 -0.24358011782169342 -0.133223757147789
-0.22635531425476074 -0.24433641135692596 -0.1321777105331421
-0.17140783369541168 0.4557458460330963 0.10225149244070053
0.09426921606063843 -0.2403542548418045 0.1567477434873581
0.028691213577985764 0.16323798894882202 0.15947823226451874
0.2981339991092682 -0.04331044480204582 -0.12234736233949661
0.19267301261425018 0.38278910517692566 0.1092846691608429
0.29169249534606934 0.0038315337151288986 0.15460078418254852
0.2951178252696991 -0.07999055087566376 0.15612885355949402
0.2079145610332489 0.2969454824924469 0.017927659675478935
0.20261222124099731 0.31730470061302185 -0.005020027048885822
-0.2719595432281494 0.14312729239463806 0.121108777821064
0.2534155249595642 -0.0893692597746849 0.15558215975761414
-0.2701677680015564 0.10398903489112854 -0.12686127424240112
0.2175721377134323 0.15875452756881714 -0.13568644225597382
-0.0021020479034632444 0.09920409321784973 -0.1362476497888565
0.17279131710529327 -0.2614227533340454 -0.010020178742706776
0.29156234860420227 0.14800074696540833 -0.13589724898338318
-0.3002527356147766 -0.3307320177555084 0.1864476501941681
-0.14949347078800201 0.22755706310272217 0.13972139358520508
0.29695621132850647 0.21983575820922852 -0.10175272822380066
-0.009720624424517155 0.13904735445976257 0.16977044939994812
-0.26514101028442383 0.05727315694093704 -0.1351514458656311
0.21943509578704834 -0.24998310208320618 0.14143341779708862
-0.20273153483867645 -0.24681232869625092 -0.13144457340240479
-0.2743799090385437 0.03522247448563576 0.14460793137550354
0.19325822591781616 0.3881480395793915 0.1117706298828125
0.29023557901382446 -0.4403638243675232 0.14066734910011292
-0.2696640193462372 0.004870598204433918 0.15194787085056305
-0.07726849615573883 0.2327774614095688 -0.12636509537696838
0.1490437537431717 0.226949080824852 0.14957524836063385
0.25936460494995117 0.018939919769763947 0.15595003962516785
0.05069122835993767 0.11429750919342041 -0.13486020267009735
-0.2675197422504425 -0.182352676987648 -0.13172197341918945
0.267479807138443 -0.24134185910224915 0.15765199065208435
-0.2309664636850357 -0.01045349519699812 0.15013304352760315
-0.057222701609134674 0.22995580732822418 -0.016252832487225533
-0.06613731384277344 0.16212308406829834 0.16303536295890808
-0.3360719382762909 -0.4092274606227875 -0.025800546631217003
0.29216277599334717 0.4267844557762146 0.12476082891225815
-0.26662105321884155 0.05671903118491173 -0.13669762015342712
0.002453555352985859 0.1509900689125061 0.16925714910030365
0.03437824547290802 -0.05940898507833481 -0.13853846490383148
-0.2634164094924927 -0.02934517338871956 -0.1340094357728958
0.16152982413768768 -0.2516047954559326 -0.10760648548603058
-0.007443543523550034 0.10460275411605835 -0.1350182741880417
0.06272809207439423 -0.1313919723033905 0.16780124604701996
0.25129997730255127 0.012066042050719261 0.15447251498699188
-0.2595602869987488 0.3579252362251282 0.07391446828842163
0.29111433029174805 -0.41907235980033875 0.04945003241300583
0.2977088689804077 0.1427716314792633 0.15337276458740234
0.29719117283821106 -0.23826995491981506 0.15140025317668915
0.24385729432106018 -0.18586182594299316 0.1609629988670349
0.2971923351287842 0.07641954720020294 -0.016638804227113724
-0.004040190018713474 0.1805339753627777 -0.1371077001094818
0.15627866983413696 -0.18546393513679504 0.16268272697925568
-0.22242283821105957 -0.4251706898212433 0.17527681589126587
-0.23167096078395844 -0.3376912772655487 -0.0851733610033989
-0.23154416680335999 0.48588302731513977 -0.03574904054403305
0.025813614949584007 0.22879907488822937 0.14467819035053253
0.2795245051383972 -0.2453729212284088 -0.1348092406988144
0.27277839183807373 0.31898000836372375 0.042704492807388306
-0.2733781039714813 -0.44790172576904297 0.015363777056336403
-0.2535339295864105 0.46046337485313416 0.11556467413902283
0.2919255197048187 -0.24742677807807922 -0.05469918251037598
-0.2647765576839447 0.17858076095581055 0.1538129597902298
-0.14971226453781128 -0.2576868534088135 0.016675297170877457
0.15019279718399048 -0.4415341019630432 0.020330261439085007
-0.2850111424922943 -0.41051462292671204 -0.09373665601015091
-0.10488151013851166 -0.24651965498924255 -0.12140320241451263
0.2018871009349823 -0.25234559178352356 0.0674290582537651
0.2717859148979187 0.4657999575138092 0.12198716402053833
-0.20476968586444855 0.2265070676803589 -0.1336456835269928
-0.06577615439891815 -0.18624407052993774 0.15794120728969574
0.25840041041374207 0.09747520089149475 0.1554296463727951
-0.13146542012691498 0.23127160966396332 0.046679358929395676
0.23913785815238953 0.10801714658737183 -0.13598740100860596
-0.32819584012031555 -0.3391034007072449 0.17674697935581207
-0.2264617532491684 -0.45689719915390015 0.10671845823526382
-0.2680559754371643 0.048884980380535126 -0.13452580571174622
0.2602458894252777 -0.34920844435691833 0.13380828499794006
-0.2346322238445282 -0.2618168592453003 0.03703968971967697
0.16245098412036896 -0.2806897461414337 0.022329917177557945
0.2930438220500946 -0.08873073756694794 -0.13449427485466003
-0.22446008026599884 -0.45532330870628357 0.11629920452833176
-0.20120084285736084 0.23009410500526428 -0.12779411673545837
0.2939969003200531 0.17589309811592102 0.15744158625602722
-0.2716318666934967 0.15695473551750183 -0.12847693264484406
0.025472279638051987 0.2539805769920349 -0.2069522738456726
-0.27211347222328186 -0.130202978849411 0.14029423892498016
-0.2185339629650116 -0.46321117877960205 0.06162652373313904
-0.1212134063243866 0.23140235245227814 -0.12993477284908295
-0.2511264979839325 0.36528199911117554 0.10278214514255524
-0.1796138882637024 -0.24629923701286316 -0.12416748702526093
-0.1424788534641266 0.22693833708763123 0.15071216225624084
-0.1676378846168518 0.39292004704475403 0.09705221652984619
0.06277308613061905 0.11394748091697693 -0.13512903451919556
0.20956531167030334 0.45159557461738586 -0.07491263747215271
0.2375381886959076 -0.26889047026634216 0.07280345261096954
-0.2507321238517761 -0.2509533762931824 0.11482663452625275
0.2613668441772461 0.44151175022125244 -0.08599695563316345
0.2674335539340973 -0.2947372794151306 -0.017897453159093857
0.2477739453315735 -0.19544968008995056 0.15334749221801758
0.295348197221756 -0.176671102643013 0.1571331024169922
0.10053044557571411 -0.19719471037387848 0.15248042345046997
-0.047009699046611786 0.15574324131011963 0.16756969690322876
-0.25053733587265015 0.34678465127944946 -0.053716517984867096
0.21540950238704681 0.4905596673488617 -0.03234638273715973
0.14388343691825867 -0.44214335083961487 0.10584680736064911
-0.22728581726551056 -0.2385241538286209 0.15616700053215027
0.1987193077802658 0.4050244092941284 0.10799768567085266
-0.2747083306312561 0.22645270824432373 -0.05957496166229248
0.21633833646774292 -0.2487606406211853 -0.13175296783447266
0.2960904538631439 0.023562408983707428 0.14844298362731934
0.250415563583374 -0.1218859925866127 0.15535372495651245
-0.23628102242946625 -0.4678027033805847 0.05952344089746475
0.2883835732936859 -0.4331459403038025 0.023809190839529037
-0.19666939973831177 0.14451338350772858 0.1680687665939331
0.2921113669872284 -0.11804874241352081 0.15618516504764557
-0.26635655760765076 0.19339215755462646 0.15390244126319885
0.049207162111997604 -0.19958898425102234 0.15396259725093842
-0.20328372716903687 0.2300250083208084 -0.13561294972896576
-0.23171599209308624 0.23579759895801544 -0.031000277027487755
0.29611870646476746 0.22910064458847046 -0.1255585253238678
0.2204313725233078 0.49854251742362976 0.11731614172458649
0.037357866764068604 -0.24479298293590546 -0.13590335845947266
0.06025175005197525 0.10557930171489716 -0.13680262863636017
0.2818954586982727 -0.21281038224697113 -0.13606999814510345
0.23828113079071045 0.22534529864788055 0.15240037441253662
0.005983104929327965 -0.24967877566814423 0.13619117438793182
0.1720198690891266 -0.24195748567581177 -0.13289861381053925
-0.3043137788772583 -0.32779568433761597 0.18209195137023926
0.1571727991104126 -0.2951851487159729 0.024141579866409302
0.17102129757404327 -0.2756248712539673 -0.02349533885717392
0.03231113776564598 0.21449826657772064 0.1557241678237915
0.29730507731437683 -0.24079914391040802 0.10695566236972809
-0.07651620358228683 0.15165093541145325 0.17007015645503998
-0.1735159307718277 -0.17284724116325378 -0.13678745925426483
0.04325181990861893 0.14595279097557068 0.1712520271539688
0.2001798301935196 -0.4481423795223236 0.18820849061012268
0.008699513040482998 -0.2397877424955368 0.15700623393058777
-0.2351621836423874 0.18201754987239838 0.15243199467658997
-0.16651877760887146 0.035162728279829025 0.16996842622756958
-0.17689873278141022 0.3680831491947174 0.09395246207714081
-0.2693116068840027 -0.18541917204856873 -0.13271048665046692
-0.22298206388950348 -0.4517437815666199 0.12243977189064026
-0.17648345232009888 0.4660658538341522 0.1036779060959816
-0.2443619966506958 -0.007154233753681183 -0.25171348452568054
0.2959142029285431 0.08441631495952606 -0.13470298051834106
0.04124699532985687 0.16553106904029846 -0.22055619955062866
-0.2556222379207611 0.11339368671178818 -0.13413426280021667
0.15325023233890533 0.17427431046962738 -0.13560877740383148
0.2369556725025177 -0.10589531064033508 0.16863009333610535
-0.23486565053462982 -0.39998549222946167 0.1926441490650177
-0.16119074821472168 0.22191838920116425 0.15388217568397522
-0.052845485508441925 0.22137147188186646 0.1556292325258255
0.1737760752439499 -0.34796905517578125 0.10975378006696701
-0.20818933844566345 -0.4257783889770508 0.13026076555252075
-0.25241056084632874 0.3445168137550354 -0.04969476908445358
-0.2666473388671875 -0.05934476852416992 -0.1363988071680069
-0.27211055159568787 0.19883319735527039 0.10777083784341812
0.28845182061195374 0.03995067626237869 -0.13467276096343994
-0.09119024127721786 0.05502597987651825 0.17027801275253296
-0.03536556661128998 0.2160765677690506 0.1555020660161972
0.2531737983226776 -0.0008572209626436234 0.15454420447349548
-0.2191784679889679 -0.4364006817340851 0.1482972651720047
0.2481321543455124 -0.40767884254455566 -0.08711890131235123
0.24604134261608124 -0.059052228927612305 0.16374391317367554
0.02517833188176155 0.2368392050266266 -0.25476714968681335
-0.24997511506080627 0.36682847142219543 0.11007527261972427
0.2849307954311371 0.05152561515569687 -0.1349039226770401
0.2399880588054657 -0.2494276612997055 0.14509645104408264
0.2967565655708313 -0.1349017322063446 -0.008682187646627426
0.275430291891098 -0.35774683952331543 0.12199315428733826
-0.27418699860572815 0.22086860239505768 -0.11120803654193878
-0.3312912583351135 -0.42044597864151 -0.06125546991825104
-0.334269255399704 -0.3465809226036072 0.14009535312652588
-0.26994478702545166 -0.21085253357887268 -0.1301548033952713
-0.2716386914253235 0.2219805121421814 -0.07102744281291962
-0.11748887598514557 -0.022866610437631607 0.16808047890663147
-0.17874740064144135 0.16398876905441284 0.16031257808208466
-0.26220986247062683 0.1089409589767456 -0.13750600814819336
-0.258232980966568 0.22903375327587128 0.04953950271010399
0.1668557971715927 -0.25158417224884033 0.01601930521428585
-0.32249680161476135 -0.4064333736896515 -0.06926262378692627
-0.2723351716995239 0.2239811271429062 0.06992906332015991
-0.21975423395633698 -0.05233089253306389 -0.13706336915493011
-0.23595860600471497 -0.32743600010871887 -0.08686055988073349
0.24027597904205322 -0.32798853516578674 -0.08107714354991913
-0.19310277700424194 0.01206823531538248 0.17021232843399048
-0.26406270265579224 -0.0203754473477602 0.15509051084518433
-0.2720410227775574 -0.22677667438983917 0.09181123971939087
-0.27167677879333496 0.18528112769126892 0.13908961415290833
-0.26330339908599854 -0.29935649037361145 0.07436550408601761
-0.22718596458435059 -0.47516852617263794 0.017050232738256454
0.24654756486415863 -0.2475295513868332 -0.1362537443637848
0.1417182981967926 0.227122962474823 -0.1185360699892044
0.2391991913318634 -0.0902792364358902 0.16847911477088928
-0.09758910536766052 0.22810152173042297 0.15111331641674042
0.029579518362879753 0.22751788794994354 -0.13418060541152954
-0.2621547281742096 -0.24764853715896606 -0.11654295027256012
0.29502779245376587 0.22414115071296692 -0.13439306616783142
0.19353951513767242 0.16201426088809967 0.16275818645954132
0.25443321466445923 -0.17100290954113007 0.15584491193294525
-0.2682327926158905 -0.023551812395453453 -0.13391567766666412
0.25187841057777405 -0.15078365802764893 0.1540748029947281
0.22997385263442993 -0.11651571840047836 0.168267160654068
0.1927698254585266 -0.250033974647522 0.13761335611343384
0.22921369969844818 -0.2974504232406616 0.09477655589580536
0.06882590800523758 -0.0963543951511383 0.16817337274551392
-0.03157104551792145 -0.250270277261734 -0.11844776570796967
-0.2239653319120407 -0.45151960849761963 0.12894631922245026
0.2947143614292145 -0.24824224412441254 -0.04985871911048889
-0.18198949098587036 0.161177396774292 0.16499720513820648
-0.14964529871940613 0.2223980873823166 -0.13448560237884521
0.2948315143585205 -0.03365882858633995 -0.13311895728111267
0.04242505878210068 -0.24627506732940674 -0.1182578057050705
0.29698801040649414 -0.2172902524471283 -0.12460897117853165
-0.24730226397514343 0.4133167862892151 0.11054478585720062
0.25159016251564026 -0.034022629261016846 0.15406671166419983
0.041874729096889496 0.17650744318962097 -0.13627572357654572
-0.24386028945446014 0.2469223439693451 -0.005136433988809586
0.2977193593978882 0.22186744213104248 -0.06029149144887924
-0.26543936133384705 0.052626773715019226 -0.1347668170928955
0.07392076402902603 -0.2458006590604782 0.14844150841236115
-0.28856077790260315 -0.3811064660549164 -0.08679793030023575
0.20600686967372894 0.30347591638565063 0.003363516181707382
0.051357366144657135 0.21670949459075928 0.15612098574638367
0.2830294668674469 -0.25001150369644165 0.1523798406124115
-0.2145400494337082 -0.05324656516313553 0.16687536239624023
-0.11205580830574036 0.2280568778514862 0.15040156245231628
-0.051459331065416336 -0.25113239884376526 -0.11953910440206528
0.23525580763816833 0.3798149526119232 -0.09331716597080231
0.29524028301239014 0.12601543962955475 0.15439081192016602
-0.2568467855453491 -0.37641438841819763 -0.09499053657054901
-0.020231274887919426 0.21825073659420013 -0.1352398544549942
0.08191811293363571 0.1544725000858307 0.1689075231552124
0.06649354100227356 0.1536664068698883 0.16993653774261475
-0.2315565049648285 -0.4560922384262085 0.10060939192771912
0.23801974952220917 -0.4445182681083679 -0.0595528781414032
0.1966605931520462 0.4935138523578644 0.012156514450907707
0.24686013162136078 0.11930738389492035 0.1620698869228363
-0.2716742753982544 -0.08547805994749069 0.1408679485321045
-0.20246019959449768 0.23031817376613617 -0.06454282253980637
0.12635275721549988 0.2178947478532791 -0.1345680058002472
0.29741281270980835 -0.17802748084068298 0.1468256115913391
0.10525082051753998 -0.25024163722991943 0.14950183033943176
0.2858981490135193 -0.25167837738990784 -0.1186036616563797
0.12914851307868958 0.056665677577257156 0.16993068158626556
-0.20441822707653046 0.33669114112854004 0.05667055770754814
0.04229063540697098 0.17543460428714752 0.1548466682434082
0.24513567984104156 -0.24493557214736938 0.15294978022575378
-0.03559760004281998 0.23255082964897156 -0.1233067512512207
0.04267798364162445 0.18162238597869873 -0.13737685978412628
-0.10123705863952637 -0.2464752346277237 -0.13113103806972504
0.26370009779930115 0.42299365997314453 0.10856499522924423
-0.2675226330757141 -0.22981059551239014 -0.13226008415222168
0.05749465525150299 0.15896888077259064 -0.20699280500411987
-0.265045166015625 0.23024886846542358 -0.11761748045682907
0.2845781147480011 -0.0355512909591198 0.15656301379203796
-0.309992253780365 -0.3613501787185669 0.19928863644599915
-0.0329553596675396 -0.011024147272109985 0.16863195598125458
0.19268149137496948 0.22991569340229034 -0.10833398997783661
-0.2683994472026825 -0.21129977703094482 -0.13084401190280914
0.29100698232650757 0.04208970069885254 0.1552322506904602
0.17987221479415894 -0.44186466932296753 -0.052439916878938675
0.13724969327449799 0.217331662774086 -0.13367760181427002
