-0.007654400542378426 -0.24724823236465454 -0.10940437018871307
0.2955108880996704 -0.09045515954494476 0.12025675177574158
-0.29776591062545776 -0.3279506266117096 0.03396349027752876
-0.2764260470867157 -0.4533444941043854 0.002903752028942108
0.19717013835906982 0.15832778811454773 0.1658809781074524
-0.2658374011516571 0.3808995485305786 0.01870095543563366
0.14222010970115662 -0.02446143515408039 -0.1366300880908966
0.2973654270172119 0.08072827011346817 0.1351395547389984
-0.2744351923465729 -0.15281176567077637 -0.1336037516593933
0.2536694407463074 -0.24903316795825958 -0.12403376400470734
0.2953125834465027 -0.2156381905078888 -0.13611744344234467
-0.14687266945838928 -0.2209712713956833 0.15749843418598175
0.1966094970703125 -0.24972063302993774 0.09895844757556915
-0.2912287414073944 -0.44261303544044495 -0.0065704998560249805
0.22142940759658813 0.17757047712802887 0.15477007627487183
-0.1668117642402649 -0.2366701066493988 -0.13364417850971222
-0.24024727940559387 -0.4523766338825226 0.09308243542909622
-0.193008154630661 -0.40116843581199646 -0.0413672998547554
0.2782592177391052 -0.18887123465538025 -0.1358649879693985
-0.2528645694255829 0.22477085888385773 -0.07042453438043594
0.2103385627269745 0.45268937945365906 -0.07392184436321259
0.29987213015556335 -0.05676896125078201 0.09952522069215775
0.2999163568019867 -0.21792064607143402 0.047349557280540466
0.2974546551704407 0.20358121395111084 -0.07129192352294922
-0.160750612616539 -0.3267427384853363 -0.003167605260387063
-0.045988354831933975 -0.2506832480430603 0.05692297965288162
-0.2051452249288559 -0.11160368472337723 0.16617834568023682
0.29351678490638733 0.10204598307609558 -0.13500317931175232
-0.27200043201446533 -0.050343357026576996 -0.13854378461837769
-0.08035382628440857 0.19350723922252655 -0.13912464678287506
-0.0545932799577713 -0.25133493542671204 0.02052997425198555
0.19973520934581757 0.3782677948474884 -0.06785370409488678
0.2710378170013428 0.5038818120956421 0.01082146167755127
-0.27009689807891846 -0.20014958083629608 0.08733078837394714
-0.26901912689208984 -0.24881292879581451 0.019078826531767845
0.22683922946453094 0.4671202600002289 -0.07876070588827133
-0.04569380730390549 -0.25044140219688416 0.11387492716312408
0.12398059666156769 -0.24242731928825378 -0.13540120422840118
0.26850202679634094 0.4970897138118744 -0.020018039271235466
0.2927171289920807 0.20218756794929504 0.132804274559021
-0.03634509816765785 0.21052110195159912 -0.13391049206256866
0.3013964891433716 0.3991781771183014 0.06399410963058472
-0.26995083689689636 -0.38948389887809753 -0.09570164978504181
-0.0831189751625061 -0.22331947088241577 -0.13618101179599762
0.29868021607398987 -0.08690066635608673 0.08477208018302917
0.2972612977027893 -0.10584604740142822 -0.10660122334957123
-0.2334379255771637 -0.38319188356399536 0.18471433222293854
-0.3189098536968231 -0.3735569417476654 -0.03163464367389679
-0.16153427958488464 0.455313116312027 -0.012942829169332981
0.2634912133216858 -0.3791733384132385 0.17482227087020874
-0.26874861121177673 0.21845267713069916 0.04157373681664467
0.1023007407784462 0.19145430624485016 -0.13542050123214722
0.2972385883331299 0.14619551599025726 0.14061374962329865
-0.06807801872491837 0.22580941021442413 0.1001317948102951
-0.15773357450962067 -0.23976175487041473 -0.13573549687862396
0.289986789226532 -0.22889164090156555 -0.13591016829013824
0.2962786853313446 -0.00939914956688881 0.13040152192115784
0.07477401196956635 0.18953417241573334 -0.13786335289478302
0.25344935059547424 -0.3508419394493103 0.13885480165481567
-0.18226376175880432 0.1564139574766159 -0.1371026486158371
-0.15646466612815857 -0.24777668714523315 0.11027286946773529
0.23789170384407043 -0.1870468556880951 0.16196131706237793
-0.08653012663125992 0.22792638838291168 0.09991898387670517
0.3002780079841614 0.04518257454037666 -0.13364620506763458
-0.2715712785720825 -0.23630931973457336 -0.10441163182258606
0.2992763817310333 0.049756888300180435 0.1369713991880417
0.10920964926481247 0.2285642772912979 0.12516853213310242
-0.27128031849861145 -0.19793181121349335 -0.1351906955242157
0.0033498320262879133 0.13711071014404297 -0.21325644850730896
0.1096062883734703 -0.24560323357582092 -0.1355184018611908
-0.21432940661907196 -0.3889942765235901 0.166212260723114
-0.1789303570985794 -0.23451915383338928 -0.1346656233072281
0.22526197135448456 -0.2477361410856247 0.10224589705467224
-0.11791374534368515 -0.24011650681495667 -0.13615365326404572
0.1532985121011734 -0.24598264694213867 -0.12793973088264465
0.1922968626022339 0.4602651596069336 -0.04350724071264267
0.05265561491250992 -0.2504861652851105 -0.04440224915742874
0.2553771138191223 -0.17651566863059998 0.16014879941940308
-0.1637233942747116 0.46305009722709656 -0.028891615569591522
0.28130507469177246 -0.22148099541664124 0.1562412679195404
0.2722705900669098 -0.4395137131214142 -0.028886010870337486
0.23733755946159363 -0.18910104036331177 0.16926269233226776
0.2938787043094635 0.3445108234882355 0.03565652668476105
-0.0861431360244751 -0.25370675325393677 0.12735460698604584
0.23080943524837494 0.516759991645813 0.012059359811246395
0.2963946759700775 0.218448206782341 -0.016475249081850052
-0.1549122929573059 -0.22803564369678497 0.15742599964141846
-0.26555347442626953 -0.29478323459625244 0.048094429075717926
-0.1883254498243332 -0.15944716334342957 0.16452565789222717
0.1733308732509613 -0.24621646106243134 -0.13382969796657562
0.28281259536743164 -0.4443991482257843 0.1478528380393982
0.2743494212627411 -0.3830507695674896 -0.0699903815984726
0.29677438735961914 0.0674862414598465 0.1291848123073578
-0.1798984706401825 -0.3858448565006256 0.07500777393579483
0.2971132695674896 0.16415773332118988 0.14158467948436737
-0.25981104373931885 -0.1705096960067749 -0.13696697354316711
0.16542954742908478 -0.38364291191101074 -0.05189337581396103
0.3031672239303589 0.41101035475730896 0.04652849957346916
-0.04534635320305824 0.22719880938529968 -0.12039030343294144
0.19346635043621063 -0.332984060049057 -0.06535884737968445
0.0028872964903712273 0.2583017945289612 -0.20802348852157593
0.2597784996032715 0.09242812544107437 0.16251838207244873
-0.268453985452652 0.020899957045912743 0.11042296886444092
0.14511175453662872 -0.38915547728538513 -0.007369477301836014
0.29724374413490295 0.1808311939239502 0.1398601233959198
0.26849430799484253 -0.28782352805137634 0.0036777514033019543
-0.2743368446826935 -0.05596521496772766 -0.019022636115550995
0.06989342719316483 0.05021556466817856 -0.1362031102180481
-0.269748717546463 -0.05678928270936012 -0.13789860904216766
0.2537722885608673 0.22920656204223633 -0.12062148004770279
0.23415017127990723 -0.13379119336605072 -0.1357479691505432
-0.1891053020954132 0.2287774235010147 0.11738404631614685
-0.09339523315429688 0.2067095786333084 -0.13831330835819244
-0.293052077293396 -0.3742986023426056 -0.07822267711162567
0.2992052137851715 0.14893096685409546 0.13736021518707275
-0.25594592094421387 0.22755654156208038 -0.07332134991884232
0.28248944878578186 0.20350433886051178 -0.13310810923576355
0.22165369987487793 0.22558638453483582 -0.11886446923017502
-0.244374081492424 -0.05668714642524719 -0.265524685382843
-0.24326829612255096 -0.25441211462020874 0.10574042052030563
-0.25996875762939453 0.11123594641685486 -0.13570146262645721
-0.1741284430027008 0.2297123819589615 -0.03482627496123314
0.03500864654779434 -0.24657678604125977 -0.13742198050022125
0.29583868384361267 -0.42792659997940063 0.08352480083703995
0.29889121651649475 -0.17527318000793457 -0.13616590201854706
0.07875800877809525 -0.2472168207168579 -0.13446344435214996
0.29950037598609924 -0.13521885871887207 0.09957440942525864
0.029579253867268562 0.1704258918762207 0.15390770137310028
0.22957608103752136 -0.2474062293767929 -0.1352415233850479
-0.27069246768951416 0.15033653378486633 0.13641363382339478
0.29955828189849854 0.22054338455200195 0.07274554669857025
-0.2637958228588104 0.4391840398311615 0.05517273023724556
0.30032262206077576 -0.04920283704996109 0.12171681225299835
0.2602442502975464 -0.16482412815093994 0.16055577993392944
0.24806265532970428 -0.17109379172325134 -0.1363917589187622
0.29476073384284973 0.3932691514492035 0.08675424754619598
0.2111009657382965 0.15865057706832886 0.16036424040794373
0.1766790896654129 0.41061627864837646 0.06467855721712112
0.2083202600479126 -0.44643348455429077 0.12169047445058823
0.11876095086336136 -0.24836809933185577 -0.13357949256896973
0.021600062027573586 0.18315881490707397 -0.2290567010641098
-0.23496995866298676 -0.2502869665622711 0.11148667335510254
0.29794520139694214 -0.09424120932817459 -0.1361786276102066
0.1895856410264969 0.21833519637584686 -0.13384711742401123
0.2198835015296936 -0.1930215060710907 0.1604287326335907
-0.27216294407844543 -0.13175129890441895 -0.13457858562469482
-0.2488408386707306 0.11198437213897705 -0.13680605590343475
0.17773495614528656 0.43805205821990967 0.05959606543183327
0.2532239556312561 -0.2543109357357025 -0.13895857334136963
0.29837656021118164 0.0357992984354496 0.1347593069076538
0.29534560441970825 -0.09375680238008499 0.11419424414634705
0.2846220135688782 -0.11076752841472626 -0.13513901829719543
0.1920975297689438 0.230354443192482 0.10507281869649887
0.16303007304668427 -0.24543216824531555 -0.1374388188123703
-0.20616227388381958 -0.45135363936424255 0.0853637158870697
0.28941673040390015 0.44211751222610474 -0.039017725735902786
0.08518023788928986 -0.2490706443786621 -0.1333395093679428
-0.16988053917884827 0.2262846678495407 -0.12061363458633423
-0.2087705284357071 0.09686479717493057 0.16747187077999115
0.04672873020172119 -0.24391788244247437 -0.13494935631752014
0.011006642132997513 0.1171419769525528 -0.13355161249637604
-0.06618372350931168 0.16664443910121918 0.15431970357894897
-0.0784655436873436 -0.17139354348182678 0.16738764941692352
0.29821333289146423 -0.08502716571092606 0.1291825920343399
0.2984858453273773 0.07533902674913406 -0.08193735033273697
0.30009111762046814 -0.20943564176559448 -0.00047871842980384827
-0.2656455934047699 -0.24482902884483337 -0.014538764953613281
-0.1540912389755249 0.40513771772384644 0.02363954298198223
0.24455972015857697 0.22738875448703766 0.07467404007911682
-0.0070111691020429134 0.14031879603862762 -0.13624118268489838
0.12442392855882645 -0.18588250875473022 -0.13660375773906708
0.12222141027450562 -0.19412149488925934 0.15354810655117035
-0.26774337887763977 -0.25087660551071167 -0.11848924309015274
-0.1372978240251541 0.21359014511108398 -0.13493189215660095
0.3014068007469177 -0.08676488697528839 -0.1355689913034439
0.04653353989124298 0.22923661768436432 0.0883699581027031
0.2597578465938568 -0.2907397150993347 0.07206062227487564
-0.17656753957271576 0.2001258283853531 0.15654443204402924
0.2850240468978882 -0.24321314692497253 -0.1335020214319229
0.29363569617271423 0.4528941512107849 -0.02569001168012619
-0.15710261464118958 0.3745426833629608 0.0025336702819913626
-0.1888582855463028 -0.2844997048377991 -0.05225720256567001
0.2917097210884094 0.18918795883655548 -0.13455422222614288
0.1013210341334343 -0.2514646351337433 0.1497340351343155
0.25530827045440674 0.2293950319290161 0.13798809051513672
-0.2715919315814972 -0.015076296404004097 -0.1393800675868988
0.05909961089491844 0.06284698843955994 -0.134645015001297
0.14425919950008392 0.15370222926139832 0.1610076129436493
0.14361390471458435 -0.1969740241765976 0.153950497508049
-0.07199955731630325 -0.24135681986808777 -0.1350240707397461
0.190171018242836 -0.19852392375469208 -0.13368342816829681
-0.2999478280544281 -0.4208260178565979 0.03614236041903496
0.2420038878917694 -0.10084386169910431 0.16507071256637573
0.12126891314983368 -0.2482401430606842 0.07612839341163635
0.10877609252929688 -0.2506175935268402 -0.010845014825463295
-0.014295614324510098 0.1907116323709488 0.1541757732629776
0.29979342222213745 0.22181576490402222 0.11099883168935776
-0.2716534733772278 0.10331270098686218 -0.13264697790145874
0.298215389251709 0.22207945585250854 0.05260235816240311
0.057452596724033356 0.22526487708091736 -0.11848299205303192
-0.05200975388288498 0.1528678983449936 0.16443713009357452
0.09186781942844391 0.06933407485485077 -0.13744767010211945
-0.26820090413093567 -0.23927554488182068 -0.06712039560079575
0.14285200834274292 -0.24862180650234222 0.14817845821380615
-0.11303115636110306 -0.21725885570049286 0.15927113592624664
0.145009845495224 0.16187578439712524 0.15851660072803497
0.29627200961112976 -0.20149391889572144 -0.1334134340286255
0.15800823271274567 -0.2461228370666504 -0.13140447437763214
0.17918452620506287 0.17634260654449463 0.1545717567205429
-0.14680618047714233 0.22861452400684357 0.1275583654642105
0.2926441431045532 0.17389151453971863 -0.13399629294872284
0.1974085569381714 0.3185410499572754 0.009693118743598461
0.2389865219593048 0.01561933197081089 0.16761314868927002
0.14690527319908142 -0.2482185810804367 0.1509195864200592
0.29435616731643677 -0.050168782472610474 -0.1412362903356552
0.026808973401784897 0.2239689975976944 -0.11720854789018631
-0.1852741688489914 -0.3311479687690735 -0.047821566462516785
0.05563893914222717 -0.24377372860908508 -0.13945984840393066
0.2749319076538086 -0.2317807376384735 -0.13456150889396667
0.2266230583190918 -0.24861302971839905 -0.12368813902139664
-0.13720396161079407 -0.25302252173423767 0.025850674137473106
-0.20165510475635529 -0.43128153681755066 -0.024630751460790634
0.19558003544807434 -0.4470991790294647 0.025673801079392433
0.2545311152935028 -0.35939255356788635 -0.08050251007080078
0.2853408753871918 0.47423845529556274 -0.02682073414325714
0.05085297301411629 0.1416347473859787 -0.20595526695251465
-0.0937308594584465 0.0009017607662826777 -0.13808444142341614
0.2714610993862152 -0.38666820526123047 -0.06387968361377716
0.16918064653873444 0.18170830607414246 0.15070204436779022
-0.07298263907432556 -0.2405547797679901 -0.13634097576141357
0.24108104407787323 0.06137672811746597 0.16502133011817932
0.060562267899513245 0.05687452107667923 -0.13507002592086792
0.2813136875629425 -0.3484007716178894 -0.0034488211385905743
-0.25932973623275757 0.41133564710617065 -0.04517816752195358
0.28243589401245117 -0.36160555481910706 0.021579673513770103
-0.079309843480587 -0.24824269115924835 0.13325649499893188
0.017806781455874443 0.22615548968315125 -0.11527593433856964
-0.16729521751403809 0.3649238049983978 -0.03738351911306381
-0.19103315472602844 0.4492182731628418 -0.07069026678800583
0.2434220314025879 -0.015417122282087803 0.1700376719236374
0.24026651680469513 -0.17962892353534698 0.16797323524951935
0.19103769958019257 0.34974661469459534 -0.04279889538884163
-0.12563811242580414 0.13750368356704712 -0.13845746219158173
0.18818938732147217 -0.27027732133865356 0.04480784386396408
-0.09988199174404144 0.20848533511161804 -0.1351197212934494
-0.0038218775298446417 0.17791756987571716 -0.13623031973838806
-0.2735092341899872 -0.042646512389183044 -0.13568758964538574
-0.16933229565620422 0.22779996693134308 -0.03633691370487213
-0.31771811842918396 -0.38833048939704895 -0.057740889489650726
0.1736201047897339 0.14934690296649933 0.1674896776676178
0.21481886506080627 -0.2841640114784241 -0.06172285974025726
0.16900286078453064 -0.3116578757762909 0.06201178953051567
0.2625337839126587 -0.2122478038072586 -0.13594773411750793
0.25845131278038025 -0.2775397002696991 -0.03220924735069275
0.3004388213157654 0.04928753525018692 -0.13275083899497986
0.1073460578918457 -0.2493797242641449 -0.11941257864236832
0.20514705777168274 -0.2815741300582886 -0.05259029567241669
-0.25819131731987 -0.38457542657852173 -0.09494171291589737
-0.1288232058286667 0.22611775994300842 -0.12245254963636398
-0.1636849343776703 -0.27309682965278625 -0.033143870532512665
-0.016882168129086494 0.22579798102378845 -0.11946144700050354
-0.2680319547653198 -0.24737009406089783 -0.13574233651161194
-0.1914878487586975 -0.34353235363960266 0.08408091217279434
-0.134129598736763 0.22704094648361206 0.09902472794055939
0.2913482189178467 -0.027339980006217957 -0.13664458692073822
0.07144344598054886 0.17160263657569885 0.15330354869365692
-0.23566780984401703 -0.38586023449897766 -0.08769393712282181
0.25106239318847656 0.22861452400684357 0.11236409097909927
-0.27365437150001526 0.07561872154474258 -0.08671733736991882
0.2970502972602844 0.19607551395893097 0.13369344174861908
0.2801627516746521 0.10051412880420685 -0.13754203915596008
-0.2693313956260681 0.21493715047836304 0.08426021784543991
0.07281021773815155 -0.2490600049495697 -0.13604342937469482
-0.04962305352091789 0.22845639288425446 -0.12023557722568512
0.2909858226776123 -0.15400822460651398 -0.13671980798244476
0.2986048758029938 0.21770122647285461 0.06870834529399872
-0.27252572774887085 0.08314544707536697 -0.13714544475078583
-0.27083688974380493 0.19611187279224396 -0.04797186702489853
0.2998911142349243 -0.04972398281097412 0.12480118870735168
-0.019987182691693306 -0.2477216273546219 -0.07552418112754822
-0.016801785677671432 -0.17585405707359314 0.16977791488170624
-0.06073954701423645 -0.24593284726142883 -0.1356881558895111
0.29990047216415405 0.37240469455718994 0.014246274717152119
0.2121276706457138 -0.44410598278045654 0.17597800493240356
0.002166592050343752 0.21284887194633484 -0.16528068482875824
-0.2739432156085968 -0.004052233882248402 0.024274494498968124
-0.2527308166027069 0.22880879044532776 0.09557509422302246
0.27683308720588684 -0.10262928158044815 0.1560792773962021
0.26833122968673706 -0.3022012412548065 0.05702069401741028
0.21651336550712585 -0.22253231704235077 0.15581917762756348
-0.29873478412628174 -0.36602872610092163 -0.057136788964271545
0.17647403478622437 -0.448666512966156 0.0060697151347994804
-0.2614384889602661 0.43908053636550903 -0.015597550198435783
0.20189020037651062 0.2294400930404663 -0.12646184861660004
-0.263910710811615 0.36710670590400696 0.0007081382791511714
0.0638783648610115 -0.24982987344264984 0.02094603143632412
-0.2738801836967468 -0.22522848844528198 -0.09608213603496552
-0.2466716170310974 -0.2501607835292816 0.12950566411018372
-0.02528921328485012 0.22711649537086487 -0.11918802559375763
0.20944169163703918 0.4653128385543823 -0.06266024708747864
-0.26970043778419495 0.15704859793186188 -0.13739565014839172
0.2975044250488281 0.21641089022159576 -0.017255093902349472
0.28776633739471436 -0.07774937152862549 0.153988778591156
-0.16968289017677307 0.2254856675863266 -0.11921292543411255
-0.2048909217119217 -0.4430197477340698 0.10922786593437195
-0.2690875232219696 0.15491648018360138 -0.1372840255498886
-0.006168288178741932 0.0837169960141182 -0.13685116171836853
-0.2631560266017914 0.38923296332359314 0.08855409920215607
-0.141726553440094 0.15152111649513245 0.1671423465013504
-0.0698356032371521 0.22650569677352905 -0.12016838788986206
0.29513442516326904 0.007539704442024231 0.12953142821788788
-0.27161985635757446 -0.015501007437705994 -0.13910216093063354
-0.2706870138645172 0.048980824649333954 -0.14002881944179535
0.21277497708797455 0.22691240906715393 -0.11989028006792068
0.27493035793304443 -0.447043240070343 0.14831796288490295
-0.25348708033561707 -0.11535986512899399 -0.13530504703521729
0.2883356809616089 -0.44300031661987305 0.10346490889787674
-0.19964148104190826 0.22619841992855072 0.09884894639253616
0.29589152336120605 0.2211240530014038 0.09259476512670517
0.2662075459957123 -0.30522483587265015 -0.04964405298233032
0.29467445611953735 0.379205584526062 0.09125056117773056
0.2302350252866745 -0.24503406882286072 0.1318749636411667
-0.20131747424602509 -0.39922264218330383 0.14432695508003235
-0.20771165192127228 0.5032185912132263 0.038437243551015854
0.29625895619392395 0.07956475019454956 -0.13424445688724518
-0.17848728597164154 0.46219608187675476 -0.05077118054032326
0.29832667112350464 0.38864678144454956 0.09595581144094467
-0.2372554987668991 -0.44908562302589417 0.10037437081336975
0.08543556928634644 0.16062793135643005 0.16169966757297516
-0.2705099880695343 0.19737355411052704 -0.1361633837223053
0.27517926692962646 0.216470867395401 -0.13833869993686676
-0.26034557819366455 0.40993815660476685 0.09890710562467575
-0.19030962884426117 -0.3929022550582886 0.11421797424554825
0.2500796914100647 -0.24508485198020935 -0.13674195110797882
-0.19392485916614532 0.20782148838043213 -0.13994614779949188
-0.09632457047700882 0.22574195265769958 -0.12444695830345154
-0.16145339608192444 0.35231974720954895 -0.00583075312897563
-0.18511368334293365 0.22629521787166595 -0.12173283100128174
0.22333136200904846 0.1794382631778717 0.15490329265594482
0.3038666844367981 0.4128338098526001 0.011546671390533447
0.2725941836833954 -0.2355160415172577 -0.13486947119235992
-0.05477847158908844 -0.24493995308876038 -0.1359904706478119
0.2288815826177597 -0.22278070449829102 0.15494473278522491
-0.270449697971344 0.07612670958042145 -0.13940097391605377
0.009940050542354584 0.1554618775844574 -0.2235676795244217
0.20915909111499786 0.22596557438373566 -0.12267909944057465
0.11428439617156982 -0.18741539120674133 0.15808330476284027
-0.23745346069335938 0.4869203567504883 -0.025482282042503357
0.03846525773406029 0.07398867607116699 -0.13611988723278046
0.2975918650627136 0.15555758774280548 0.13262058794498444
0.2976274788379669 0.19613584876060486 0.1345139741897583
0.05415135622024536 0.1435951441526413 0.17075178027153015
0.29781702160835266 -0.03578014671802521 -0.1354677528142929
0.2982785403728485 -0.22574938833713531 0.11820346862077713
0.2466132789850235 -0.41578418016433716 -0.09363989531993866
0.2862895131111145 0.07007502764463425 0.15537571907043457
-0.20162928104400635 0.06280575692653656 0.16719239950180054
0.19422410428524017 0.4504294991493225 -0.059579845517873764
0.17494472861289978 -0.24695301055908203 -0.13662900030612946
0.2871426045894623 0.20775963366031647 -0.13548468053340912
-0.16861307621002197 0.33998700976371765 -0.012563788332045078
0.14890052378177643 -0.24959783256053925 0.11483868956565857
0.17145806550979614 -0.24912121891975403 -0.11173081398010254
0.12058289349079132 -0.1405610293149948 -0.1328781098127365
0.09994574636220932 0.16855955123901367 0.15682895481586456
-0.2726771831512451 -0.09773120284080505 0.026046350598335266
-0.09310393780469894 0.22563646733760834 -0.12193575501441956
0.06232563778758049 0.22674156725406647 0.0031270161271095276
0.29838207364082336 -0.23049527406692505 0.12668350338935852
-0.2988819181919098 -0.38993188738822937 0.1432158201932907
-0.27104273438453674 -0.04442603513598442 -0.13814736902713776
0.30003413558006287 0.15210328996181488 0.0739278793334961
0.29276007413864136 -0.4428585171699524 0.04180242866277695
-0.15951484441757202 0.36287426948547363 -0.018179327249526978
-0.1753137856721878 -0.09146775305271149 0.16737818717956543
-0.26676926016807556 0.41998395323753357 0.015328135341405869
-0.25949808955192566 0.34656214714050293 -0.013361379504203796
0.2531357407569885 -0.2521824240684509 0.0961722731590271
-0.23098553717136383 -0.2276524305343628 0.1586698293685913
-0.3139045238494873 -0.33140629529953003 0.09910415858030319
0.2702171504497528 -0.2501051127910614 -0.10916480422019958
-0.238956481218338 -0.24971437454223633 -0.07957896590232849
0.22853276133537292 0.17754116654396057 0.1533626914024353
-0.062059566378593445 0.2053528130054474 0.1571219563484192
0.1894797384738922 -0.38974931836128235 -0.072611965239048
-0.11204387247562408 -0.24821226298809052 -0.07483810186386108
0.1478787511587143 0.22630760073661804 -0.11578048765659332
0.2167203724384308 -0.42083775997161865 -0.092345230281353
-0.27342814207077026 -0.09228676557540894 0.12588679790496826
-0.15706270933151245 0.22833271324634552 -0.12763965129852295
0.20597240328788757 0.5094994306564331 0.039538539946079254
0.29917025566101074 0.22165198624134064 0.10007723420858383
0.2917085886001587 -0.38309332728385925 0.07471305876970291
-0.06542238593101501 -0.24721641838550568 -0.12710300087928772
0.2242429554462433 -0.04188915342092514 -0.13609579205513
-0.2474961131811142 -0.3401583135128021 0.15157438814640045
0.14463764429092407 -0.3855340778827667 0.11335413157939911
-0.08675733208656311 0.22821542620658875 0.09682120382785797
0.02511412650346756 -0.1542704701423645 -0.13439704477787018
0.2650989592075348 -0.28278398513793945 -0.008213075809180737
-0.28960537910461426 -0.31270599365234375 0.09134156256914139
0.18665623664855957 0.45269158482551575 -0.0379604771733284
0.28743016719818115 0.2014894187450409 -0.13444478809833527
-0.2720645070075989 0.21617716550827026 0.09506102651357651
0.036702632904052734 0.05385589972138405 -0.14007611572742462
-0.2680194079875946 0.03403271734714508 0.1444038599729538
0.29763263463974 0.10680815577507019 -0.13482163846492767
0.2709020674228668 -0.2530025839805603 0.049172550439834595
-0.11804234236478806 -0.2524629533290863 -0.038056835532188416
-0.044424138963222504 0.22998151183128357 0.12323080748319626
0.2686306834220886 -0.1377268135547638 0.16131414473056793
0.2908162474632263 -0.39648905396461487 0.1352391391992569
0.2995843291282654 -0.08732016384601593 0.07311733067035675
-0.18890312314033508 -0.25178179144859314 0.12266233563423157
0.2982185482978821 -0.010699274018406868 0.11989384889602661
0.29129189252853394 0.1859813630580902 -0.1365116983652115
0.29730117321014404 0.1492556631565094 0.13952945172786713
0.06797772645950317 -0.24323883652687073 -0.1390572339296341
0.15720093250274658 0.1339813470840454 -0.13438402116298676
-0.273709237575531 -0.15242773294448853 -0.13350218534469604
0.2670360207557678 0.4702979028224945 -0.06084997579455376
0.24070440232753754 -0.3769264221191406 0.17552213370800018
0.2235790193080902 -0.18348388373851776 0.16742779314517975
-0.26924294233322144 0.14671418070793152 -0.13819731771945953
0.02201085537672043 0.19734513759613037 -0.23368829488754272
0.18109352886676788 0.3779081404209137 -0.020264986902475357
0.2775968909263611 0.47779715061187744 -0.041857585310935974
-0.2707631587982178 -0.14571215212345123 -0.13495153188705444
-0.2708098888397217 -0.23494550585746765 -0.10498755425214767
-0.32520967721939087 -0.3681522011756897 0.15467606484889984
0.2514260709285736 -0.32887381315231323 0.11765297502279282
0.21696728467941284 -0.2538314461708069 -0.11524195969104767
0.28741031885147095 -0.2150859236717224 -0.1365984082221985
0.04214533790946007 0.09005572646856308 -0.13622863590717316
0.2676467001438141 -0.043544474989175797 0.15652979910373688
0.17663973569869995 0.41580018401145935 0.0651659369468689
-0.2707592844963074 -0.12704992294311523 -0.13216142356395721
0.21390436589717865 -0.2505705952644348 0.08542105555534363
0.1380542665719986 -0.24787631630897522 -0.13547644019126892
-0.030940400436520576 -0.25156211853027344 0.12160217016935349
0.2180480808019638 -0.15353640913963318 0.16671568155288696
-0.2735931873321533 -0.06498827040195465 -0.13723048567771912
0.2428387999534607 0.10189619660377502 0.16716355085372925
0.1749195009469986 0.4091295599937439 0.008791978470981121
0.01598285511136055 0.25802338123321533 -0.2078702747821808
-0.2729833722114563 0.19862106442451477 -0.09830042719841003
0.14698156714439392 -0.24837756156921387 -0.1348525732755661
0.2738058865070343 -0.2482108771800995 -0.12334610521793365
-0.1728106141090393 0.16641372442245483 0.1565222293138504
0.18401682376861572 -0.4465998709201813 0.1504516452550888
-0.17702145874500275 -0.01723387837409973 -0.1393800973892212
0.2989541292190552 0.08153901994228363 -0.1151547059416771
0.28331026434898376 0.1305256187915802 -0.13565468788146973
0.219035804271698 -0.24508100748062134 -0.13615384697914124
0.2981254458427429 0.21767432987689972 -0.0014818385243415833
0.29740941524505615 0.21396911144256592 0.13915278017520905
-0.22857309877872467 -0.27946776151657104 -0.05706752464175224
-0.1810062825679779 -0.251387357711792 0.10204387456178665
-0.1262330263853073 0.18297773599624634 -0.14061975479125977
0.16179928183555603 0.22674442827701569 0.12338169664144516
-0.2541704773902893 0.03411155939102173 0.15533435344696045
-0.26983317732810974 -0.14046691358089447 -0.1329517513513565
-0.1734510213136673 -0.2497531771659851 -0.09664522856473923
-0.10377909988164902 -0.2511425316333771 0.13911202549934387
-0.2727500796318054 0.15498089790344238 -0.13987348973751068
0.25224095582962036 -0.3999961316585541 0.1957717388868332
-0.17738719284534454 -0.25219905376434326 0.1390378475189209
-0.18182016909122467 -0.3904223144054413 0.07496217638254166
0.29781147837638855 0.21844297647476196 0.042646460235118866
-0.20231688022613525 0.0681549534201622 0.16699226200580597
-0.2718396484851837 -0.15067948400974274 -0.13104654848575592
-0.14144188165664673 -0.2487397938966751 -0.12598885595798492
0.26946136355400085 0.11669372022151947 -0.13654249906539917
0.2956090569496155 0.2176908552646637 0.13643920421600342
-0.2348644733428955 0.19152045249938965 -0.1338139921426773
0.300514817237854 0.05375814065337181 0.055313840508461
-0.2696405053138733 -0.22114065289497375 -0.1373317837715149
0.06662780046463013 -0.24897454679012299 -0.12808696925640106
0.21077340841293335 -0.3136621415615082 -0.0772053599357605
0.17570768296718597 -0.45038455724716187 0.005133439786732197
-0.2629527151584625 0.3815031945705414 0.07945723831653595
0.2461083084344864 0.05979715287685394 0.1654757559299469
-0.19169621169567108 -0.4306323230266571 0.06763339042663574
-0.04657398909330368 0.22655420005321503 0.12206599861383438
0.2690308094024658 0.22731690108776093 0.08223120123147964
0.017284195870161057 0.16871534287929535 -0.13606368005275726
-0.16103677451610565 0.45481133460998535 0.01923849992454052
-0.004143379628658295 -0.2448667734861374 -0.13439573347568512
0.26205557584762573 -0.35356175899505615 0.14116239547729492
0.29799512028694153 0.2097393274307251 -0.02500603348016739
0.29462337493896484 -0.22183343768119812 -0.1338355541229248
-0.07016602903604507 -0.24822483956813812 -0.09651858359575272
-0.2697650194168091 -0.21354909241199493 -0.13624802231788635
-0.20713183283805847 -0.1210680603981018 -0.13668811321258545
0.2769239544868469 -0.4413546621799469 0.17847248911857605
-0.15220266580581665 0.4215379059314728 0.04865742102265358
-0.2642623484134674 -0.041186295449733734 -0.13547615706920624
0.048925962299108505 -0.18191930651664734 0.16016308963298798
0.2558712065219879 -0.33210065960884094 -0.07603462040424347
0.2781361937522888 -0.1539269983768463 0.15473836660385132
-0.17861708998680115 -0.3740323781967163 0.07125698775053024
0.06689721345901489 -0.24592724442481995 -0.13477639853954315
0.2813592851161957 -0.24787664413452148 -0.11851713806390762
-0.2169664353132248 0.22641190886497498 -0.12620656192302704
0.2564748525619507 -0.34147384762763977 -0.07519352436065674
0.16634602844715118 -0.3166424334049225 -0.0384436771273613
-0.27149680256843567 0.16855110228061676 -0.13711771368980408
0.17226749658584595 -0.24992965161800385 -0.10304075479507446
-0.26999932527542114 -0.1791037768125534 -0.13629817962646484
-0.2700064182281494 0.16178807616233826 -0.13834145665168762
0.12738828361034393 -0.254022479057312 -0.05882924795150757
-0.07459983229637146 -0.2507038712501526 -0.1292501986026764
0.271941602230072 -0.22905996441841125 0.15900172293186188
-0.23270639777183533 0.23229871690273285 0.12652048468589783
0.29615432024002075 0.3995489776134491 -0.021066369488835335
0.18857663869857788 0.43279320001602173 -0.05306551605463028
0.29437917470932007 0.37610024213790894 0.10302820056676865
-0.2720962464809418 0.08103933185338974 -0.1350308656692505
0.08951490372419357 -0.25198477506637573 0.06723333895206451
0.14620836079120636 0.20018023252487183 -0.13551369309425354
0.17134785652160645 0.22429345548152924 -0.12133245170116425
-0.2678450644016266 0.08528001606464386 -0.138923779129982
-0.2594321072101593 0.46045008301734924 -0.001235448056831956
0.12862586975097656 -0.2488076388835907 -0.11352773755788803
0.2258191853761673 -0.25456303358078003 0.08601575344800949
-0.2705165147781372 -0.03748265281319618 0.13216261565685272
-0.24023139476776123 0.26313498616218567 0.01916513219475746
0.18623045086860657 -0.24446013569831848 -0.1330832988023758
-0.12962578237056732 -0.2135312855243683 -0.13466931879520416
-0.27245602011680603 0.17836053669452667 0.051926299929618835
-0.15965406596660614 0.017987322062253952 -0.14040443301200867
-0.26248419284820557 0.1025647446513176 -0.1353916972875595
0.23734703660011292 -0.19780641794204712 0.1584210991859436
0.2896173298358917 0.10462753474712372 -0.13364984095096588
0.046921201050281525 -0.07165392488241196 0.17017315328121185
0.2991481125354767 0.041312556713819504 -0.13371530175209045
0.2768745720386505 -0.15075087547302246 0.1568814367055893
-0.05187705531716347 0.19685159623622894 -0.1355012208223343
-0.29267045855522156 -0.3139244019985199 0.08762656152248383
0.22298644483089447 -0.250777006149292 -0.12128876149654388
-0.2047802060842514 -0.45690059661865234 0.015119754709303379
-0.035354580730199814 -0.25280478596687317 0.0017871027812361717
0.10757891088724136 -0.19805152714252472 0.15327981114387512
-0.2665955722332001 -0.0067808181047439575 -0.13454841077327728
-0.29779353737831116 -0.3813643753528595 -0.08500415086746216
-0.17958004772663116 -0.35716551542282104 0.06561310589313507
0.29066652059555054 -0.17701444029808044 -0.1339316964149475
-0.17235638201236725 -0.18323568999767303 0.1626676321029663
-0.02078736014664173 0.22486580908298492 0.10339511930942535
-0.2722293436527252 -0.18078750371932983 -0.09765896946191788
0.051019951701164246 -0.25051528215408325 -0.09934988617897034
0.2723032832145691 0.4944518506526947 -0.021279338747262955
0.23245638608932495 0.22533094882965088 0.1305849403142929
-0.2665849030017853 -0.10359041392803192 -0.13768334686756134
0.283768892288208 -0.44455990195274353 0.10900191962718964
0.2679945230484009 -0.28383392095565796 -0.007910745218396187
0.19920554757118225 -0.30745404958724976 -0.06683368980884552
0.027815552428364754 -0.25147053599357605 -0.08195465058088303
0.23648521304130554 -0.35883304476737976 0.15399937331676483
-0.13114072382450104 -0.2501649856567383 -0.0637083351612091
0.2978873550891876 0.21616363525390625 0.11735078692436218
-0.23365242779254913 0.5013498067855835 0.03772220388054848
-0.13794907927513123 -0.2520020008087158 -0.01956121437251568
-0.006103893276304007 0.22567248344421387 -0.12132570147514343
0.27548661828041077 0.4731481373310089 -0.04537748545408249
0.2220551073551178 -0.19280067086219788 0.16176030039787292
-0.016544926911592484 -0.18727001547813416 0.16170065104961395
-0.2645524740219116 0.38935136795043945 0.06218217313289642
0.29761263728141785 -0.22284840047359467 0.0034136977046728134
0.2977009117603302 -0.2281387895345688 0.08403651416301727
0.29753604531288147 0.21842947602272034 0.10427159816026688
-0.24670889973640442 -0.20327523350715637 -0.13768640160560608
-0.1110539436340332 -0.252408504486084 -0.003062570933252573
0.2643202543258667 -0.12648046016693115 0.1543479561805725
-0.2710838317871094 0.15683519840240479 -0.12471581250429153
0.2932663559913635 -0.21325281262397766 -0.1379421502351761
0.2546338737010956 -0.24573467671871185 -0.1349201202392578
0.06136671453714371 0.22625209391117096 -0.11988285183906555
0.014000858180224895 -0.17286339402198792 0.16942696273326874
-0.26969683170318604 -0.24362899363040924 0.013996243476867676
0.2995302081108093 0.12505142390727997 0.1393590122461319
0.2230566143989563 -0.2531941533088684 0.12754963338375092
0.24208758771419525 0.2278328537940979 -0.11235156655311584
0.15316106379032135 -0.2526249885559082 0.10787886381149292
-0.23083464801311493 -0.2805483043193817 -0.05631048604846001
0.06572666764259338 -0.15492066740989685 -0.13669778406620026
0.2931501865386963 0.2132570743560791 -0.004417203366756439
-0.32218945026397705 -0.4174719750881195 -0.028544701635837555
-0.21349705755710602 -0.349276065826416 -0.0743618831038475
-0.28634217381477356 -0.055003128945827484 -0.25401613116264343
-0.2679407000541687 -0.07887399941682816 0.13617385923862457
0.2051057517528534 -0.20696762204170227 -0.1361592411994934
-0.07312473654747009 0.22674110531806946 -0.12302348762750626
0.2896726727485657 -0.3903466463088989 0.1272304654121399
-0.09816379845142365 0.22785872220993042 0.09582501649856567
0.0004170247120782733 0.22863957285881042 -0.1250503659248352
0.014345410279929638 0.21112611889839172 -0.15939883887767792
-0.2041574865579605 -0.37563419342041016 0.12889783084392548
-0.16625851392745972 -0.08571341633796692 0.17062674462795258
-0.20187343657016754 -0.10365059971809387 0.16756722331047058
0.188150554895401 -0.22985589504241943 -0.13614819943904877
-0.014285849407315254 0.22717097401618958 -0.1237681582570076
0.2787568271160126 0.3234831392765045 -0.00806179828941822
-0.04901286959648132 -0.2517295777797699 0.050093382596969604
0.29853537678718567 -0.16353698074817657 0.10766604542732239
0.27987924218177795 -0.3406120240688324 0.0670069232583046
0.00521197309717536 0.20237742364406586 -0.23332245647907257
-0.2701130211353302 -0.20325013995170593 -0.13706526160240173
0.17594601213932037 -0.25011521577835083 -0.13705146312713623
-0.2732568085193634 0.19330094754695892 -0.12144380807876587
0.27020686864852905 -0.07326074689626694 -0.13235671818256378
0.04459930956363678 -0.06846992671489716 0.1713247150182724
0.15892371535301208 -0.34542128443717957 -0.04072638601064682
0.10709641873836517 0.06381359696388245 -0.13414548337459564
-0.26816222071647644 0.09607814252376556 -0.1380068063735962
0.18507426977157593 -0.24579034745693207 -0.13490113615989685
0.13991519808769226 0.22548598051071167 -0.12318094074726105
-0.2742583453655243 0.0891135111451149 -0.0001850724220275879
0.22241035103797913 -0.24542373418807983 -0.13656136393547058
0.0587906539440155 -0.24989204108715057 -0.12947440147399902
0.11766773462295532 0.20168247818946838 -0.13770440220832825
-0.2337854653596878 -0.22648818790912628 -0.13893663883209229
0.23346686363220215 -0.24448329210281372 -0.1349385529756546
-0.2717408537864685 -0.15206307172775269 -0.13317672908306122
0.26116153597831726 0.16810990869998932 0.15561076998710632
-0.10694082826375961 -0.17135407030582428 0.16788633167743683
0.20698495209217072 -0.24919414520263672 0.1129918023943901
0.12854348123073578 -0.24676513671875 -0.13463322818279266
0.004929013550281525 -0.19813407957553864 0.14764855802059174
0.11417584866285324 0.20328612625598907 -0.13495880365371704
0.1756339967250824 0.4438686668872833 0.020687762647867203
0.2792026698589325 0.1682172268629074 -0.1352461874485016
0.29946190118789673 -0.1350564807653427 -0.1198689416050911
0.29922035336494446 0.22159777581691742 0.08581464737653732
-0.10563061386346817 -0.25173166394233704 0.09760366380214691
0.24603986740112305 -0.22895166277885437 -0.1373385787010193
0.24744634330272675 -0.21441058814525604 0.15189503133296967
0.16925857961177826 -0.2536698281764984 -0.08856117725372314
-0.1248897835612297 0.21275469660758972 -0.13738112151622772
-0.17495019733905792 -0.25177282094955444 0.11448998749256134
0.2732486426830292 0.14666280150413513 0.15573281049728394
-0.002426063409075141 -0.249770849943161 0.04899114370346069
-0.27065086364746094 0.1005731001496315 -0.13886955380439758
0.20176880061626434 0.41267067193984985 0.10331286489963531
0.07163314521312714 0.09453638643026352 -0.13589894771575928
-0.26714783906936646 0.1839984506368637 -0.13567325472831726
-0.26896676421165466 -0.24720795452594757 0.012538720853626728
0.17611253261566162 0.18707388639450073 0.155194491147995
-0.06872795522212982 -0.25380411744117737 0.04751632362604141
-0.24570630490779877 0.21926194429397583 -0.13447919487953186
0.02652474120259285 -0.2503415048122406 0.14660055935382843
0.19982677698135376 0.22856633365154266 0.031745314598083496
0.13930127024650574 0.06213665008544922 -0.13414889574050903
0.18293240666389465 -0.24846294522285461 -0.1354764699935913
0.2913479506969452 -0.025462118908762932 -0.13179202377796173
0.3003409802913666 -0.10159783065319061 0.0719204768538475
0.18377630412578583 0.4512217342853546 -0.02072681486606598
0.29703840613365173 0.3683839440345764 0.07284121215343475
0.1371127814054489 -0.24859659373760223 -0.13647356629371643
0.18012326955795288 0.3600253164768219 -0.008574034087359905
0.17736783623695374 -0.24935659766197205 -0.036106012761592865
-0.11589578539133072 -0.24446861445903778 -0.13687963783740997
0.12674885988235474 0.16906175017356873 0.15467172861099243
-0.014198055490851402 -0.25098833441734314 -0.0712818130850792
-0.27665209770202637 0.17235317826271057 0.12094217538833618
0.2900167405605316 0.3332905173301697 0.033680509775877
-0.18304845690727234 0.49072447419166565 -0.0012490440858528018
-0.14154160022735596 0.22564725577831268 -0.12234747409820557
-0.19378787279129028 -0.34016019105911255 -0.06274133175611496
0.26657649874687195 -0.15950965881347656 0.15461672842502594
0.036386363208293915 0.22449202835559845 -0.125234916806221
0.2949284613132477 -0.19950614869594574 -0.13656391203403473
0.05901893973350525 -0.09872575849294662 -0.13752123713493347
0.1501043438911438 0.224976047873497 -0.12171988189220428
-0.15810993313789368 -0.3270014822483063 0.015762805938720703
0.14416666328907013 -0.2473575472831726 -0.13735324144363403
-0.2657548189163208 0.36125457286834717 0.0316879078745842
0.2909928858280182 0.19673126935958862 -0.13493867218494415
-0.021513070911169052 -0.05792153254151344 -0.13703012466430664
0.29781100153923035 0.18475088477134705 0.1289352923631668
-0.030944742262363434 0.13219600915908813 0.16094829142093658
0.1459716111421585 -0.3808823525905609 -0.0063799419440329075
0.148805171251297 0.17624132335186005 0.1537419855594635
0.19071750342845917 0.19731591641902924 0.1555251181125641
-0.21761572360992432 -0.43459224700927734 -0.05086629092693329
0.28208526968955994 -0.08547956496477127 0.15717780590057373
0.06840766221284866 -0.25085869431495667 0.021502366289496422
0.29013392329216003 -0.08692929148674011 -0.13569967448711395
-0.2720681130886078 -0.45304641127586365 0.0009930189698934555
0.00770178809762001 -0.19433027505874634 0.15643928945064545
-0.15096557140350342 -0.28041988611221313 0.0053176614455878735
0.2458420991897583 0.090004101395607 0.1673034131526947
0.2277330607175827 0.20133432745933533 0.15319062769412994
-0.16349737346172333 0.2279966026544571 0.011930061504244804
-0.2315797507762909 -0.12918546795845032 -0.13680621981620789
0.2406800091266632 -0.12054586410522461 0.16349419951438904
-0.1576201617717743 0.15873593091964722 0.1571526974439621
-0.17511525750160217 0.17478778958320618 -0.13823527097702026
0.2943626344203949 0.21682222187519073 0.10831625759601593
0.018464578315615654 0.0816972628235817 -0.13826923072338104
0.1202852800488472 -0.24838203191757202 -0.13415993750095367
0.29724058508872986 0.19914500415325165 0.13412290811538696
0.12099357694387436 -0.24379268288612366 -0.13712304830551147
0.29860758781433105 -0.197430819272995 0.13804759085178375
0.2966937720775604 0.22161689400672913 0.02220558002591133
-0.09628766030073166 0.2233589142560959 -0.12407547235488892
0.30105820298194885 0.018946530297398567 0.13663630187511444
0.2091744989156723 -0.3548480272293091 0.14671865105628967
-0.13476188480854034 -0.21789807081222534 0.15757447481155396
0.2974109649658203 -0.2130676656961441 -0.1336958408355713
-0.27059993147850037 0.19123707711696625 -0.13614043593406677
-0.20182503759860992 -0.16721776127815247 0.16580674052238464
-0.22935587167739868 -0.249118372797966 -0.08086013793945312
0.1912386566400528 0.3241909444332123 0.005952111445367336
-0.31444886326789856 -0.4002635180950165 0.059238702058792114
-0.2710188627243042 0.10323683172464371 0.12911945581436157
0.013206109404563904 0.1583070009946823 -0.13612976670265198
-0.03828422725200653 -0.2523786425590515 -0.1008208692073822
-0.1956222802400589 -0.3767819404602051 -0.05303552746772766
-0.05914781987667084 0.22745615243911743 -0.1207868754863739
-0.25774961709976196 0.07933064550161362 -0.13563363254070282
0.2954106032848358 0.08522846549749374 -0.1315319836139679
0.30048805475234985 0.13329105079174042 0.0924030989408493
-0.249766007065773 -0.4202639162540436 0.17694857716560364
-0.24379147589206696 0.18908369541168213 0.15410833060741425
0.180966317653656 0.4547131359577179 0.03007747232913971
0.297060489654541 0.07312988489866257 0.13701888918876648
0.013628803193569183 -0.24552658200263977 -0.13635720312595367
0.1428612768650055 -0.41039007902145386 0.0018133893609046936
-0.24300624430179596 -0.18605174124240875 0.15647971630096436
-0.27013295888900757 -0.20433665812015533 0.12394016981124878
0.18011249601840973 0.22616717219352722 -0.12191025167703629
0.09168704599142075 -0.24921800196170807 0.06883541494607925
-0.04145536199212074 -0.25039437413215637 0.10190913826227188
0.22121869027614594 0.2283349186182022 0.11415926367044449
0.2397998571395874 -0.13141506910324097 0.16760475933551788
0.197576105594635 0.228306382894516 -0.023808229714632034
-0.17594240605831146 -0.29527756571769714 -0.04371562972664833
0.3001387417316437 -0.07435473799705505 -0.07491041719913483
-0.1542109251022339 0.38844189047813416 -0.005479468498378992
-0.1320539265871048 0.2282826155424118 0.09943138808012009
0.1950639933347702 -0.2482401579618454 -0.1250177025794983
0.26820725202560425 0.5069065093994141 0.02184438332915306
-0.07900646328926086 -0.18847787380218506 0.15721885859966278
-0.3341239094734192 -0.40004757046699524 0.033723387867212296
0.2990313172340393 -0.09480355679988861 -0.13712932169437408
-0.2672504186630249 -0.0693754106760025 -0.1345999389886856
-0.20798999071121216 0.5071547627449036 0.021107204258441925
0.018788572400808334 0.1290179044008255 -0.1375368982553482
0.15296627581119537 0.1526247262954712 0.17104493081569672
0.29472285509109497 0.3410095274448395 0.004208477679640055
0.247669517993927 0.1728132665157318 0.15746673941612244
-0.27174994349479675 0.21810594201087952 0.011059455573558807
-0.29049012064933777 -0.43195900321006775 -0.08670317381620407
-0.07111044228076935 0.19245871901512146 0.15667296946048737
-0.009323209524154663 0.08943542093038559 -0.13668470084667206
-0.20223605632781982 -0.39691582322120667 0.12843447923660278
0.2607990801334381 -0.2943817675113678 0.05310533568263054
0.2973734438419342 0.13130342960357666 0.1349777728319168
-0.2654116153717041 -0.03152253106236458 -0.13637675344944
0.27371513843536377 -0.328403115272522 -0.030293447896838188
-0.2700626254081726 0.21660566329956055 -0.0029362733475863934
-0.26753461360931396 -0.24214018881320953 -0.04824982210993767
0.003911440260708332 0.22755837440490723 -0.007261395454406738
0.18870222568511963 -0.2126207798719406 0.15536350011825562
0.29921722412109375 -0.0689765214920044 -0.13890855014324188
-0.1757945567369461 0.14458708465099335 0.16327154636383057
0.13336488604545593 -0.24704405665397644 -0.13750021159648895
0.29715338349342346 -0.13733887672424316 -0.11162973195314407
0.28659188747406006 -0.44328898191452026 0.03758691996335983
-0.24822242558002472 -0.21760450303554535 -0.1320153772830963
-0.23933637142181396 -0.443307101726532 -0.060978345572948456
-0.3114440441131592 -0.3688468337059021 0.18604464828968048
0.2953253984451294 0.38006752729415894 0.0867907777428627
-0.27922409772872925 -0.31968364119529724 -0.01416466198861599
-0.2721518576145172 -0.08811499923467636 -0.13255968689918518
0.2979186773300171 0.07660083472728729 0.13349774479866028
0.25210040807724 -0.355180025100708 -0.08436652272939682
0.08165805786848068 -0.24745196104049683 -0.13607412576675415
-0.22095759212970734 -0.3693178594112396 0.14896276593208313
0.15461403131484985 0.15152135491371155 0.16914516687393188
0.23187914490699768 -0.1495220959186554 -0.1341647207736969
0.3019644618034363 -0.18645168840885162 -0.051236823201179504
-0.2721571922302246 0.08038489520549774 -0.13582384586334229
-0.16128623485565186 -0.25150802731513977 0.08607490360736847
0.21908581256866455 -0.3083639144897461 -0.07471682131290436
0.04309771582484245 -0.2514362335205078 -0.02738969773054123
0.0826767235994339 -0.20743289589881897 0.1553213894367218
-0.2497013509273529 -0.458591103553772 0.041728343814611435
