-0.31856200098991394 -0.4352315068244934 -0.06863798201084137
-0.09503013640642166 -0.24825391173362732 -0.12886567413806915
-0.24734097719192505 -0.3175920844078064 0.11070555448532104
-0.20578739047050476 -0.2770858407020569 0.07302792370319366
-0.2350122034549713 -0.4682579040527344 0.055866606533527374
-0.024291904643177986 -0.2500695586204529 -0.11980193108320236
0.20058660209178925 0.3462241291999817 -0.048572443425655365
0.20314349234104156 0.3352231979370117 -0.0464804470539093
0.16925010085105896 -0.41143807768821716 0.18300803005695343
0.2993439733982086 -0.015456349588930607 0.142274409532547
0.14033088088035583 -0.18974266946315765 0.15590578317642212
0.2556062936782837 -0.25598660111427307 0.025288483127951622
0.25405630469322205 -0.254754900932312 -0.0002914669457823038
-0.21439231932163239 0.2326887547969818 -0.03433689475059509
-0.17918458580970764 0.16396315395832062 0.16085194051265717
0.29659026861190796 0.21473178267478943 0.1547500491142273
0.218989297747612 0.4950740933418274 0.1181802898645401
0.07086466997861862 0.21742403507232666 0.15662626922130585
0.04882478713989258 0.1724807173013687 0.15236586332321167
-0.16413086652755737 -0.18716339766979218 0.15462662279605865
-0.26033464074134827 0.08488348871469498 -0.13814294338226318
-0.2687271535396576 -0.030837222933769226 0.15084251761436462
-0.024648921564221382 -0.24965213239192963 -0.13269177079200745
-0.05054823309183121 0.22719888389110565 0.06597519665956497
-0.32048171758651733 -0.33444830775260925 0.1453579068183899
0.2494460940361023 0.03616843745112419 0.15914127230644226
-0.2139115333557129 -0.38669276237487793 0.1535736322402954
-0.32677581906318665 -0.35290220379829407 0.1807110607624054
0.2506485879421234 -0.44071996212005615 -0.08109983801841736
-0.08285724371671677 0.22491693496704102 -0.13233643770217896
0.29601767659187317 0.22422091662883759 -0.1181374192237854
-0.2497982680797577 -0.36290961503982544 -0.09531714767217636
0.2843964397907257 0.22788341343402863 -0.03871750831604004
-0.289660781621933 0.0817861407995224 -0.28040143847465515
-0.2270161509513855 0.05203685164451599 0.15150576829910278
0.23821698129177094 0.12222030758857727 0.17089352011680603
-0.04736744612455368 0.21815700829029083 0.1566396951675415
-0.06690585613250732 -0.186847984790802 0.1571786105632782
0.2515384256839752 -0.28091633319854736 0.07618489861488342
-0.21565310657024384 -0.025728002190589905 0.1661587506532669
0.24128524959087372 -0.3810160756111145 -0.09005308896303177
0.20946086943149567 0.43308696150779724 -0.07822325825691223
-0.26420772075653076 0.17226217687129974 -0.1361515372991562
0.19618743658065796 0.2290658950805664 0.018827473744750023
0.25759050250053406 -0.24900995194911957 0.013605703599750996
-0.21051843464374542 -0.44137096405029297 -0.03539044409990311
-0.26573124527931213 -0.24783258140087128 -0.00885172188282013
0.16829095780849457 -0.26458173990249634 -0.008541562594473362
-0.27084264159202576 0.16671384871006012 0.1451263576745987
-0.2149503380060196 0.5032162666320801 0.05844847112894058
0.15080006420612335 -0.08848834037780762 -0.13560833036899567
-0.25078141689300537 -0.24981364607810974 -0.007615387439727783
0.2516970634460449 -0.24237696826457977 -0.1358109414577484
-0.1446276158094406 -0.2556997537612915 -0.0017671717796474695
0.14024077355861664 -0.43770045042037964 0.09255199879407883
0.2763633131980896 0.19788317382335663 -0.13412153720855713
-0.2672599256038666 -0.10268671810626984 -0.13173772394657135
0.1107906922698021 0.2301972657442093 0.14342346787452698
-0.2635284662246704 -0.36166441440582275 0.196426659822464
0.2032935619354248 0.22884099185466766 0.0411263108253479
0.2747412323951721 -0.3697788715362549 0.15751652419567108
0.2854287028312683 0.15059685707092285 -0.13497382402420044
0.29862797260284424 -0.2435895800590515 -0.07538037747144699
0.15860983729362488 -0.40917155146598816 0.16956683993339539
-0.11531960964202881 0.2252274453639984 0.14669030904769897
-0.25865572690963745 -0.37282317876815796 -0.09686143696308136
-0.2638665735721588 0.20536142587661743 -0.13646002113819122
0.13112032413482666 -0.07128295302391052 -0.13458193838596344
-0.22630243003368378 -0.4724327027797699 0.0447411984205246
-0.2696296274662018 0.04688355326652527 0.031483352184295654
-0.16925446689128876 -0.19133295118808746 0.15741576254367828
-0.15315434336662292 0.22755995392799377 -0.13052023947238922
-0.2744080722332001 -0.3150677978992462 0.13168106973171234
0.16347752511501312 0.21464158594608307 -0.13510891795158386
0.2915785312652588 -0.1580599844455719 0.1554308384656906
0.29714393615722656 -0.19485218822956085 0.14973151683807373
-0.26931941509246826 0.020384354516863823 0.1509922444820404
0.3006402254104614 0.14535264670848846 0.06808361411094666
-0.09637139737606049 -0.04948307201266289 -0.13436844944953918
0.05772778391838074 0.22685159742832184 -0.12325005233287811
0.030030827969312668 0.09876289963722229 -0.138894721865654
-0.263593465089798 -0.06340962648391724 -0.13692046701908112
0.2994493842124939 -0.12089448422193527 0.15199731290340424
-0.06661447137594223 -0.24929353594779968 0.14470815658569336
0.1310529261827469 -0.24582989513874054 0.15376202762126923
0.21948972344398499 0.15512612462043762 0.16665029525756836
0.12369662523269653 -0.18741020560264587 0.1602022796869278
0.26024743914604187 0.45455873012542725 -0.08094070851802826
0.16543328762054443 0.22485923767089844 -0.13456586003303528
0.24123471975326538 -0.06409817934036255 0.16900362074375153
0.16785790026187897 -0.25445881485939026 0.022294797003269196
-0.19834357500076294 0.4483821988105774 -0.07322085648775101
-0.08739344775676727 -0.2498902976512909 0.14475515484809875
-0.08546693623065948 -0.24888263642787933 0.14081060886383057
0.28454098105430603 -0.24838703870773315 0.14787545800209045
-0.2924087345600128 -0.36699214577674866 0.20536434650421143
0.1858072280883789 0.1663527488708496 -0.13432669639587402
0.19719776511192322 0.23155508935451508 0.014912975020706654
0.276973694562912 -0.4440743327140808 0.02127731963992119
-0.2689972221851349 0.06631603837013245 0.07771678268909454
-0.2150661051273346 -0.0694899708032608 0.1654478907585144
-0.25568175315856934 0.22606244683265686 0.04262600839138031
0.2995467483997345 0.14782139658927917 0.14756140112876892
0.24726426601409912 -0.08155884593725204 0.16503921151161194
0.033264242112636566 0.10270348191261292 -0.13727101683616638
0.29131969809532166 0.2280709147453308 0.026936443522572517
-0.2725342810153961 -0.36119532585144043 0.1969524770975113
-0.22984829545021057 -0.2404690533876419 -0.133577361702919
0.28543704748153687 0.13859567046165466 -0.13508901000022888
-0.1500832736492157 -0.2780822813510895 0.019640708342194557
0.09832797944545746 0.21388846635818481 -0.13637474179267883
-0.03994254022836685 -0.2496311366558075 -0.13419049978256226
0.2628379762172699 0.30621904134750366 -0.018840257078409195
-0.3379811644554138 -0.37492111325263977 0.06912025809288025
0.17868179082870483 0.1648375540971756 -0.13469582796096802
0.19424757361412048 -0.44326603412628174 0.10048257559537888
-0.27124568819999695 0.03463081270456314 -0.12791648507118225
0.3000691533088684 -0.005797363817691803 0.0778590738773346
-0.24632391333580017 -0.2506309449672699 -0.03709489852190018
-0.2675962448120117 -0.044535670429468155 0.14846506714820862
-0.2166147381067276 0.3331374526023865 -0.04424407333135605
0.294710248708725 0.2156062126159668 -0.13488638401031494
0.2246512621641159 -0.44421032071113586 0.19768689572811127
0.2979732155799866 0.058501794934272766 -0.03499189391732216
0.29009488224983215 0.1836778074502945 -0.13451513648033142
-0.25980162620544434 0.12991181015968323 0.15385563671588898
-0.33489611744880676 -0.3847081959247589 -0.012217997573316097
0.2884179353713989 -0.07510450482368469 0.15407083928585052
0.1963644176721573 0.493021696805954 -0.00011610519140958786
-0.12950929999351501 0.15934991836547852 0.16344007849693298
-0.1664445698261261 0.22206997871398926 0.15502722561359406
0.2962489426136017 -0.15906615555286407 -0.05550411716103554
-0.25909045338630676 0.35554394125938416 0.07125484943389893
-0.26613396406173706 0.06330373138189316 -0.13354510068893433
-0.15046918392181396 -0.25606483221054077 -0.01392025500535965
-0.26877811551094055 0.10078337788581848 -0.12808869779109955
-0.2706958055496216 -0.03607739135622978 -0.12911508977413177
0.2982778251171112 -0.24424976110458374 -0.11678782850503922
-0.02458730712532997 0.17576877772808075 0.15292321145534515
-0.254305362701416 -0.37647873163223267 0.19679473340511322
0.2969946563243866 -0.17904715240001678 -0.12380372732877731
0.2260100245475769 -0.15200790762901306 0.16882699728012085
0.19935446977615356 0.2274409681558609 0.037239015102386475
-0.18794459104537964 -0.19482466578483582 0.15180380642414093
0.2952512800693512 -0.008154235780239105 -0.1324067860841751
-0.04193896800279617 -0.22335024178028107 -0.13601279258728027
-0.332712322473526 -0.3480207920074463 0.13560763001441956
-0.042209431529045105 0.2286173701286316 -0.02448318339884281
-0.1551317423582077 0.4287220239639282 0.09225757420063019
-0.3142869770526886 -0.393539160490036 0.08706969022750854
-0.2575215697288513 0.0319783091545105 0.15415309369564056
-0.2510654032230377 0.22847431898117065 -0.0009975656867027283
0.086997851729393 0.22276762127876282 -0.13288554549217224
0.29495587944984436 0.22545751929283142 -0.13443076610565186
0.25045880675315857 0.2355775535106659 -0.033399924635887146
-0.2573915719985962 -0.3235725164413452 -0.07407814264297485
-0.1448238343000412 0.15703606605529785 0.1662682294845581
-0.1975589543581009 -0.4111190736293793 0.14367538690567017
0.18888302147388458 0.4625976085662842 0.10703212022781372
-0.26617345213890076 0.08405301719903946 0.14791063964366913
-0.10388591140508652 -0.13346649706363678 0.167825847864151
-0.2330068051815033 -0.43128904700279236 0.17940202355384827
-0.2531048357486725 0.22608162462711334 0.057556748390197754
-0.24602331221103668 -0.30783358216285706 -0.06994304805994034
-0.22802627086639404 0.4839974343776703 -0.03988085687160492
0.027815070003271103 0.18829186260700226 -0.13734056055545807
-0.25814318656921387 0.176010861992836 0.15373949706554413
-0.0407181978225708 0.1763039529323578 0.15325060486793518
0.2882801592350006 -0.2363499402999878 -0.13523291051387787
0.27764225006103516 -0.244477778673172 -0.13504593074321747
0.29779261350631714 -0.11282867938280106 0.1559893786907196
0.2919981777667999 0.07648250460624695 -0.13534684479236603
0.288379430770874 0.39719945192337036 0.12911078333854675
-0.27006396651268005 0.21223962306976318 -0.0637412890791893
0.25016623735427856 0.013093458488583565 0.15836301445960999
0.29196423292160034 -0.4410823881626129 0.1313050538301468
0.2989157736301422 0.2184230387210846 0.001487763598561287
0.2628870904445648 -0.07907517999410629 0.1535685956478119
0.26055020093917847 -0.3601135015487671 -0.07764600217342377
-0.1235075443983078 0.2240147590637207 0.014610284008085728
0.21183976531028748 0.5030913949012756 0.10415606200695038
0.052492521703243256 0.16345874965190887 -0.13542793691158295
0.29272234439849854 -0.24866622686386108 -0.10573896765708923
0.14618295431137085 0.15570560097694397 0.16710101068019867
0.2542937099933624 0.22742417454719543 -0.040240801870822906
0.20113229751586914 0.3361610472202301 -0.05048755183815956
0.1653437614440918 -0.4029731750488281 -0.05379343032836914
0.2981870770454407 0.13666367530822754 0.0873497799038887
0.2959612309932709 -0.14615090191364288 -0.13338708877563477
-0.3153930902481079 -0.34614211320877075 0.19612868130207062
0.28786712884902954 -0.2304174304008484 -0.13477115333080292
-0.2142101675271988 -0.0649799183011055 0.16751794517040253
-0.2697910964488983 0.11049648374319077 -0.1343410164117813
-0.12373017519712448 0.227882981300354 -0.10163639485836029
-0.2669423818588257 -0.01848183013498783 -0.13481201231479645
-0.20052894949913025 0.09892039746046066 0.1691208928823471
0.27556514739990234 0.22760850191116333 -0.12727700173854828
-0.26960456371307373 0.12087811529636383 -0.1262972056865692
-0.265401691198349 -0.22666651010513306 -0.13513371348381042
0.24775256216526031 0.23133033514022827 0.05859546363353729
-0.17963621020317078 0.2240205705165863 -0.13462941348552704
-0.29597237706184387 -0.3728797733783722 0.19358870387077332
0.05902991443872452 -0.24938632547855377 0.14097483456134796
0.25904542207717896 -0.25100234150886536 -0.010925517417490482
-0.2665017545223236 0.22473980486392975 0.07458912581205368
-0.2863783836364746 -0.314203679561615 0.14090731739997864
-0.2677564024925232 -0.003952350467443466 -0.06847924739122391
-0.15929549932479858 -0.25331366062164307 0.04549867659807205
0.16942977905273438 -0.446060448884964 0.17718720436096191
0.1736249476671219 0.21538928151130676 -0.13655200600624084
-0.1742885410785675 0.46701592206954956 -0.0364452563226223
-0.19307637214660645 0.1669137179851532 0.15455318987369537
-0.19407039880752563 -0.10672472417354584 0.1686604917049408
-0.2406482696533203 -0.33653077483177185 -0.085938960313797
-0.33489280939102173 -0.39272382855415344 0.024516936391592026
-0.20517711341381073 -0.2532062828540802 -0.08177709579467773
0.29641449451446533 0.11610149592161179 -0.13218657672405243
0.07926349341869354 0.22739334404468536 -0.1200965940952301
0.2703985869884491 0.49576741456985474 0.11992081999778748
-0.01968151330947876 0.004216263070702553 0.16938722133636475
4.4811517000198364e-05 0.2279612272977829 0.03651902452111244
-0.2710440456867218 0.07266174256801605 -0.13354213535785675
-0.26988470554351807 0.10526703298091888 0.1410880982875824
0.28659680485725403 -0.04551799222826958 0.15478411316871643
-0.26937136054039 0.04705037921667099 0.05753736570477486
0.013022838160395622 0.22811207175254822 0.07279345393180847
0.26215964555740356 -0.36824461817741394 0.16588261723518372
0.2881554663181305 0.22723259031772614 -0.04121542349457741
-0.21022726595401764 -0.0624723806977272 0.16927862167358398
0.2862209677696228 0.22673746943473816 0.07383184134960175
-0.18170154094696045 -0.2504625618457794 0.07339434325695038
-0.25955864787101746 -0.20737987756729126 0.15467150509357452
0.29942554235458374 0.13299106061458588 0.11253541707992554
-0.22006180882453918 -0.2502274513244629 -0.12721134722232819
-0.2007487714290619 -0.17538757622241974 0.1681872010231018
-0.2349833995103836 -0.4204965829849243 0.18822896480560303
-0.26496830582618713 -0.31068089604377747 0.1127854585647583
-0.20335455238819122 0.15525217354297638 -0.1343556046485901
-0.15987098217010498 0.22767522931098938 0.018022233620285988
0.07646431028842926 -0.24913129210472107 -0.020090775564312935
-0.2315816879272461 0.49575138092041016 0.002874653786420822
-0.2634415626525879 -0.04219367355108261 -0.1354145109653473
-0.2654624283313751 -0.06753090769052505 -0.1346760392189026
0.2862434387207031 -0.2511556148529053 -0.10785561800003052
-0.1309710443019867 0.07079653441905975 0.1692996323108673
0.2433668076992035 -0.06647560745477676 0.16826505959033966
0.29338768124580383 0.22155936062335968 -0.13428689539432526
-0.30363330245018005 -0.32553863525390625 0.0837874785065651
-0.2690189778804779 -0.20994122326374054 -0.08727149665355682
0.176237091422081 -0.25360846519470215 -0.009840068407356739
0.2387433797121048 -0.4442065954208374 -0.0810048058629036
-0.21696488559246063 -0.13623115420341492 0.16566340625286102
-0.08598684519529343 -0.23673805594444275 0.15366709232330322
-0.022657424211502075 0.17190399765968323 -0.13433711230754852
0.2939094305038452 0.05600371211767197 -0.13398373126983643
-0.27106142044067383 -0.22972528636455536 -0.12050101161003113
0.2792462408542633 0.3217417001724243 -0.016787083819508553
-0.27362602949142456 -0.22635512053966522 -0.11019726097583771
-0.06777454912662506 0.22080740332603455 0.15550139546394348
0.2601313591003418 -0.05062588304281235 0.153663769364357
0.29752612113952637 0.011225643567740917 0.15449276566505432
-0.24803799390792847 -0.01002037338912487 -0.28816550970077515
-0.2646435499191284 0.21281465888023376 0.15189795196056366
-0.21073685586452484 -0.28312838077545166 0.07796512544155121
0.00730283185839653 0.22647657990455627 -0.12927082180976868
0.019916603341698647 -0.1989230364561081 0.15183033049106598
0.29279446601867676 0.20729058980941772 -0.13272398710250854
0.2978585660457611 0.1694774031639099 -0.12335589528083801
-0.2111721932888031 -0.46142861247062683 0.05714022368192673
-0.1252279281616211 0.2228184938430786 -0.13691236078739166
0.05214376002550125 0.1501498818397522 0.16952072083950043
0.26727816462516785 -0.42234423756599426 -0.07610556483268738
0.1221579760313034 -0.23366889357566833 -0.13682635128498077
0.23357036709785461 -0.27130118012428284 -0.05970337241888046
-0.27185583114624023 0.2137410193681717 -0.11111662536859512
-0.26896747946739197 -0.10001414269208908 -0.12581263482570648
0.2824134826660156 0.32744598388671875 -0.026393134146928787
-0.22014179825782776 -0.29213666915893555 0.08131682127714157
-0.05133897066116333 -0.24603374302387238 -0.13432161509990692
0.28974825143814087 -0.24985259771347046 -0.09271259605884552
-0.25970321893692017 0.09120924025774002 0.15403947234153748
-0.3190523684024811 -0.35142308473587036 0.19392797350883484
0.20545710623264313 0.23366107046604156 0.03251851350069046
0.23943844437599182 -0.41264376044273376 -0.08943019807338715
0.2897877097129822 -0.23196282982826233 -0.13683830201625824
-0.01694474183022976 0.2259029895067215 0.1489173024892807
0.259154736995697 -0.07007554173469543 0.15302397310733795
0.1938798725605011 0.33774644136428833 -0.035385612398386
0.2155160754919052 -0.24903832376003265 0.0812455490231514
-0.035223159939050674 0.1212795302271843 -0.13828931748867035
0.17497526109218597 0.4184158742427826 0.012329962104558945
-0.2699749767780304 0.007037844508886337 -0.1289069801568985
0.30048424005508423 -0.10215851664543152 0.09254749864339828
-0.26174840331077576 -0.3067946135997772 0.10413970053195953
-0.27158671617507935 -0.05738380178809166 -0.12755747139453888
-0.26016223430633545 -0.09662238508462906 0.1542152613401413
-0.27018147706985474 0.07860846817493439 -0.1322588324546814
0.19833509624004364 -0.245214581489563 0.1543440818786621
-0.05252619832754135 0.2247949093580246 0.15415918827056885
-0.2845521569252014 0.07424648106098175 -0.2644878923892975
-0.26799827814102173 0.0902184545993805 0.15353545546531677
0.28294190764427185 -0.4458533525466919 0.15832754969596863
0.11786149442195892 0.22958406805992126 0.12957659363746643
-0.2698914110660553 -0.12374986708164215 -0.016136081889271736
-0.2040625810623169 -0.24831357598304749 -0.13405510783195496
-0.26781541109085083 -0.06259036064147949 -0.1343804895877838
-0.14916521310806274 0.06847472488880157 -0.1382904052734375
-0.2612261176109314 0.17270536720752716 0.15394167602062225
0.17215341329574585 -0.2485104352235794 -0.13698701560497284
0.28490257263183594 0.230290949344635 0.010103777050971985
0.29786941409111023 0.16947731375694275 0.1477852761745453
0.29070189595222473 0.22666102647781372 -0.10377153754234314
0.14334319531917572 -0.07734797149896622 -0.13631141185760498
0.2101997435092926 -0.24735036492347717 0.14613614976406097
0.2941191792488098 -0.13319440186023712 0.15591856837272644
0.1776956021785736 0.21723875403404236 0.15601465106010437
0.1883798986673355 0.41664057970046997 0.11526911705732346
0.2979379892349243 0.22377806901931763 0.07216949015855789
-0.22134685516357422 -0.47344523668289185 0.02599884569644928
0.06608007848262787 0.15439029037952423 -0.14994557201862335
-0.03511842340230942 0.18014872074127197 -0.1357124000787735
-0.028022758662700653 0.14857801795005798 -0.135755255818367
-0.24813000857830048 0.2329871654510498 0.005489703267812729
-0.27064090967178345 -0.05649710074067116 0.034526921808719635
0.09165709465742111 0.17886143922805786 0.1550343930721283
-0.3324180543422699 -0.3788836896419525 0.07772139459848404
0.2777979373931885 -0.24846558272838593 -0.13664649426937103
0.027594292536377907 -0.24514517188072205 0.15291211009025574
0.2411154955625534 -0.35308271646499634 0.1482633501291275
-0.332529753446579 -0.3518353998661041 0.1053125187754631
-0.1583876609802246 0.4731372594833374 0.02291283756494522
-0.24274203181266785 0.3572132885456085 -0.06396903842687607
0.29776081442832947 0.227251335978508 -0.08208167552947998
0.21296250820159912 -0.3980463743209839 0.19092266261577606
0.258637398481369 -0.18476061522960663 0.1510491520166397
0.28757011890411377 -0.1897207796573639 -0.1352742314338684
0.29738521575927734 -0.24127671122550964 -0.060341447591781616
0.23225416243076324 -0.24978165328502655 -0.07415138185024261
-0.2349819391965866 0.4901861548423767 0.10752029716968536
-0.0019671651534736156 0.26515424251556396 -0.26711541414260864
0.29913294315338135 0.08437374234199524 0.14931628108024597
0.1690056473016739 -0.442771315574646 -0.039124175906181335
-0.04252701252698898 0.19439780712127686 -0.13663893938064575
0.1603606939315796 -0.3411952257156372 0.08665882050991058
-0.0027024876326322556 0.2962622046470642 -0.25083205103874207
0.2558600902557373 -0.04167129844427109 0.15010572969913483
-0.32959967851638794 -0.34707701206207275 0.11494898051023483
-0.2145771086215973 0.22253534197807312 -0.13504084944725037
0.24896545708179474 -0.13526897132396698 0.1624196618795395
-0.3273144066333771 -0.42361077666282654 -0.03708163648843765
0.2287624031305313 0.2193865031003952 -0.13562071323394775
-0.24596357345581055 -0.47838467359542847 -0.005290361121296883
0.2271001636981964 0.21805384755134583 -0.13450616598129272
-0.17724618315696716 0.23073545098304749 -0.014142795465886593
-0.2688042223453522 -0.13129909336566925 -0.12713907659053802
-0.27016204595565796 -0.1874721348285675 -0.12216970324516296
0.2072618305683136 -0.2938763201236725 -0.06528132408857346
-0.2666134238243103 -0.09687989205121994 -0.13208729028701782
0.2873825132846832 -0.23547109961509705 -0.13480781018733978
0.2932288348674774 0.22165226936340332 -0.13526876270771027
-0.27418845891952515 -0.3904489278793335 0.2025681734085083
0.293988972902298 0.224003404378891 -0.1318700909614563
-0.2924400269985199 0.03516330197453499 -0.2587535083293915
-0.32549625635147095 -0.3365248739719391 0.17283649742603302
0.29071056842803955 -0.4198785424232483 0.16988889873027802
-0.2335914969444275 -0.35482725501060486 0.14815577864646912
-0.24862155318260193 0.22598162293434143 -0.019589334726333618
0.19245915114879608 0.33287230134010315 0.05413929745554924
0.3001362383365631 0.004427630454301834 0.1497635543346405
-0.18647107481956482 -0.24769330024719238 -0.1303998827934265
0.15415774285793304 -0.019028417766094208 -0.13567613065242767
0.2090435028076172 0.3130617141723633 0.034493155777454376
0.2153160274028778 -0.44415774941444397 0.1917123794555664
0.0037519019097089767 0.18702799081802368 -0.13596469163894653
-0.08343692123889923 -0.08134515583515167 -0.1360631138086319
0.2868843674659729 -0.21576303243637085 -0.13607443869113922
-0.2671605348587036 -0.10242597758769989 -0.13330237567424774
0.13993699848651886 0.15258821845054626 0.16962827742099762
-0.27124589681625366 -0.2418820858001709 -0.11373887211084366
-0.27079761028289795 -0.050251979380846024 0.14604496955871582
0.01313113048672676 -0.2500876784324646 0.06203673407435417
0.2849714756011963 0.22809459269046783 0.07041514664888382
0.2981879711151123 0.22752662003040314 -0.07613526284694672
0.2989059090614319 -0.07201942056417465 -0.12318173050880432
0.2958180606365204 0.025951627641916275 -0.12115292251110077
-0.2195347547531128 0.49672582745552063 -0.012071854434907436
0.059290360659360886 0.06841789186000824 -0.13591447472572327
0.28085172176361084 -0.35119932889938354 0.014557922258973122
0.2652939260005951 -0.4459576904773712 0.19314028322696686
0.02249383181333542 0.1839885264635086 -0.22370153665542603
-0.3263576626777649 -0.3672313392162323 0.008740032091736794
-0.15447629988193512 -0.25586238503456116 -0.02522987127304077
0.2195473462343216 -0.2540348470211029 -0.0526624470949173
0.22898876667022705 -0.25022634863853455 -0.1209007054567337
0.2067004144191742 0.32518139481544495 0.049415990710258484
0.2979433536529541 0.05269230529665947 -0.1288149356842041
-0.2018270641565323 0.22770051658153534 -0.124113067984581
0.06553100794553757 0.1526816338300705 -0.13450583815574646
-0.26771286129951477 0.22487357258796692 0.0473908856511116
0.190231055021286 0.3887333273887634 0.10911120474338531
-0.2698287069797516 0.04133639112114906 0.14521603286266327
-0.26405206322669983 0.03900673985481262 0.15349513292312622
-0.2486645132303238 0.3486044406890869 -0.04622882604598999
-0.27285251021385193 -0.04000874608755112 -0.12842024862766266
0.2981104254722595 -0.11794551461935043 0.144098699092865
-0.07637744396924973 -0.042350366711616516 0.168268084526062
-0.23225410282611847 0.37748268246650696 -0.07717756181955338
-0.005218225531280041 -0.2368522584438324 0.15413282811641693
0.2976803481578827 0.34842634201049805 0.038852378726005554
-0.26984703540802 -0.14391717314720154 -0.12658213078975677
0.2791403532028198 0.3530866205692291 -0.06045355647802353
0.26003146171569824 -0.11395848542451859 0.15412825345993042
0.1739187240600586 -0.07279189676046371 0.1679127812385559
0.04017816483974457 -0.2415827065706253 -0.13629430532455444
-0.2643983066082001 -0.18092118203639984 -0.13884785771369934
0.24697411060333252 -0.27832934260368347 0.07948288321495056
0.26508837938308716 -0.41019561886787415 0.19626536965370178
0.23579883575439453 -0.3020137846469879 -0.0732366070151329
0.2918204665184021 0.22636906802654266 -0.12470406293869019
-0.002690613269805908 0.27619504928588867 -0.22516390681266785
0.2064853012561798 -0.4438942074775696 0.194142684340477
0.13428421318531036 -0.251218318939209 -0.1363377571105957
-0.22412936389446259 -0.4649186134338379 0.07544384896755219
-0.23156344890594482 -0.38897985219955444 0.18602341413497925
-0.17234806716442108 0.3290426731109619 0.0359041765332222
0.21301627159118652 0.23673897981643677 0.04333857446908951
0.26483598351478577 0.5087190270423889 0.015576709061861038
-0.2733849883079529 -0.46736612915992737 -0.0662250965833664
-0.26920896768569946 -0.011943291872739792 0.14729085564613342
-0.27080848813056946 -0.08974038064479828 -0.12598749995231628
0.2889721095561981 -0.16314047574996948 -0.13663136959075928
0.2877415716648102 -0.23059017956256866 -0.13463860750198364
-0.3290887773036957 -0.3471550941467285 0.13403940200805664
-0.046218812465667725 -0.19905686378479004 0.1528005450963974
-0.3352217972278595 -0.3936772346496582 0.017586810514330864
0.26563727855682373 0.2276756465435028 0.13435810804367065
0.2995007634162903 -0.17356179654598236 0.14241167902946472
-0.26215726137161255 0.22592341899871826 0.07032765448093414
0.24892054498195648 -0.30006125569343567 -0.06746354699134827
-0.3271998167037964 -0.370144248008728 0.1289098709821701
-0.20514370501041412 -0.41082754731178284 0.1562776118516922
0.2926279604434967 0.22112472355365753 -0.13519269227981567
0.22512364387512207 0.49276331067085266 -0.04671947658061981
-0.26622989773750305 0.11401235312223434 0.1518094390630722
0.20190978050231934 0.1590004563331604 0.16729404032230377
-0.25453776121139526 0.05045841634273529 -0.29779618978500366
-0.15975841879844666 0.44931578636169434 0.09380076080560684
-0.267480731010437 0.015998607501387596 -0.1324550062417984
-0.24231472611427307 0.4490232765674591 0.10318246483802795
0.01888272911310196 0.10588418692350388 -0.186568021774292
-0.2499007284641266 0.023894019424915314 -0.1333959698677063
-0.07216741889715195 0.21191059052944183 0.15624114871025085
-0.22456873953342438 -0.46147677302360535 -0.0378270149230957
-0.20302258431911469 -0.45012131333351135 0.012178597040474415
0.29799002408981323 0.030972424894571304 -0.12743975222110748
0.28616106510162354 0.3643351197242737 0.11091527342796326
-0.27456098794937134 -0.32586807012557983 -0.048214592039585114
-0.23777468502521515 0.4953463673591614 0.015706883743405342
0.1363488882780075 0.16391383111476898 0.16094422340393066
-0.3377380967140198 -0.39931946992874146 -0.013638353906571865
0.2247541844844818 0.29945260286331177 -0.02298012003302574
-0.27069246768951416 -0.30780550837516785 0.11389079689979553
0.2856273949146271 0.34583887457847595 -0.04460366815328598
-0.2611142098903656 -0.16607843339443207 0.15241454541683197
0.0375315397977829 0.21922166645526886 -0.13636977970600128
-0.26780036091804504 -0.1001734733581543 0.15238937735557556
0.2973768413066864 0.1739223450422287 -0.12809303402900696
-0.1677631139755249 0.22793550789356232 -0.02210691198706627
0.23608016967773438 0.23458218574523926 0.053057946264743805
-0.1995077133178711 -0.2821439802646637 -0.06446640938520432
-0.016323059797286987 -0.2517070174217224 -0.06265636533498764
-0.26980409026145935 -0.05870457738637924 0.14487671852111816
0.28506702184677124 -0.4335843026638031 -0.024366766214370728
0.0032396079041063786 -0.23816165328025818 -0.1360478401184082
0.2522187829017639 0.07353988289833069 0.15564166009426117
-0.2575151324272156 -0.024781089276075363 0.15439115464687347
-0.18315450847148895 -0.02630315162241459 0.16846224665641785
0.2976190447807312 -0.24847657978534698 0.09147753566503525
0.08274146914482117 -0.009911980479955673 0.16882765293121338
0.047517165541648865 0.21764600276947021 -0.13567045331001282
0.3004862368106842 0.21036826074123383 0.07438508421182632
-0.2716295123100281 0.21463236212730408 -0.10276094824075699
0.29884275794029236 0.04311520606279373 -0.0323977917432785
-0.0012300275266170502 0.23048588633537292 0.03672883287072182
0.2545141577720642 0.025963392108678818 0.15378405153751373
0.2056760936975479 0.3098926842212677 0.01232537254691124
-0.2472182959318161 -0.016564760357141495 -0.23710522055625916
0.29166343808174133 -0.2501440644264221 0.015221862122416496
0.29700031876564026 -0.24676959216594696 0.09738252311944962
0.19607198238372803 -0.2472141683101654 0.14796271920204163
-0.16007207334041595 0.4684872031211853 0.08675114810466766
-0.021197590976953506 0.18100133538246155 -0.13753321766853333
0.2021670937538147 -0.039024997502565384 0.17073382437229156
0.003763146698474884 -0.24712511897087097 -0.13502930104732513
0.2576945722103119 -0.4181049168109894 -0.08521761745214462
0.2609381079673767 -0.4200837314128876 -0.08254793286323547
0.2994028329849243 0.21922212839126587 0.13835284113883972
-0.07571137696504593 0.2254350185394287 0.15453915297985077
0.28599244356155396 -0.44313979148864746 0.11323584616184235
0.2982575297355652 0.21424758434295654 0.08312512934207916
0.13197043538093567 0.22082769870758057 -0.1346779614686966
0.29770413041114807 -0.1675814986228943 0.14349080622196198
0.20069986581802368 0.17418386042118073 0.15248796343803406
0.2712680697441101 -0.44693779945373535 0.1935930699110031
-0.13898098468780518 0.1557936668395996 0.16727975010871887
-0.18923577666282654 0.4979565143585205 0.089387446641922
0.13741479814052582 -0.3829735219478607 0.023845195770263672
0.2985415756702423 -0.13542644679546356 -0.12333305925130844
-0.1667494922876358 0.17243041098117828 0.15108448266983032
0.08150417357683182 0.23103350400924683 -0.12347257137298584
0.1990387737751007 0.21823294460773468 0.15683633089065552
-0.0008697749581187963 0.109857939183712 -0.1357423961162567
0.29804182052612305 -0.043055981397628784 -0.13172994554042816
-0.26170796155929565 0.22648966312408447 -0.08907271921634674
-0.15543651580810547 0.22645524144172668 -0.1281450241804123
0.23865927755832672 -0.16054758429527283 0.1697992980480194
-0.2578990161418915 -0.006482085213065147 0.15500976145267487
-0.12070684134960175 -0.05793363228440285 -0.13637647032737732
0.29935958981513977 -0.11152338981628418 0.00986848771572113
0.2281646579504013 0.23083224892616272 0.057247593998909
0.2994519770145416 -0.11030993610620499 0.1553601622581482
0.29894402623176575 -0.007085317745804787 0.01191253587603569
-0.2643997371196747 0.17306216061115265 -0.137044757604599
-0.23392747342586517 -0.24055127799510956 -0.13475076854228973
0.2966345548629761 0.07265518605709076 0.15527087450027466
0.29891300201416016 -0.1174091324210167 0.14635905623435974
-0.20705856382846832 0.16239860653877258 0.16114282608032227
0.2959013283252716 0.2260458767414093 0.1350105106830597
0.2993297278881073 -0.06910641491413116 -0.1315445452928543
-0.21311727166175842 -0.41328415274620056 -0.06657685339450836
-0.25639525055885315 -0.13333344459533691 -0.13576655089855194
-0.015922943130135536 0.27081483602523804 -0.2233147919178009
0.28279897570610046 0.32929155230522156 -0.019376292824745178
0.12276961654424667 -0.23691953718662262 -0.1338156908750534
-0.25070542097091675 -0.0739884003996849 -0.13647007942199707
0.251586377620697 -0.2528229057788849 -0.027185484766960144
-0.26840847730636597 -0.2443554550409317 -0.1340489238500595
-0.20614966750144958 -0.25097644329071045 0.0756554901599884
-0.2659873962402344 -0.10356487333774567 -0.1326695680618286
0.28181278705596924 -0.4429466128349304 0.04515734314918518
-0.22531327605247498 0.48189404606819153 -0.04556233808398247
0.02962140180170536 0.18250715732574463 -0.13500578701496124
0.17796871066093445 -0.1913873553276062 0.1574520617723465
-0.13184687495231628 -0.24478459358215332 0.15334457159042358
0.29876604676246643 -0.24524828791618347 0.10038876533508301
0.29272133111953735 -0.07224077731370926 -0.13516458868980408
0.19024698436260223 0.3415162265300751 0.06524559110403061
0.2815837264060974 0.35815805196762085 -0.06094618886709213
-0.2905762195587158 0.0626320168375969 -0.2695848047733307
-0.13642674684524536 -0.184011310338974 0.16086030006408691
0.2485918402671814 0.23103396594524384 0.058563925325870514
0.2566913962364197 -0.2558255195617676 -0.0015805828152224422
-0.012792264111340046 -0.1885334998369217 0.15623262524604797
-0.27072396874427795 -0.06271649897098541 0.1518833339214325
-0.009844932705163956 0.26906922459602356 -0.2732648551464081
-0.13514554500579834 -0.2529776692390442 -0.009489859454333782
-0.005575151182711124 -0.18302157521247864 0.1625511795282364
0.2674517333507538 -0.2509595453739166 0.1471063196659088
0.21427759528160095 0.4165554344654083 -0.08335752785205841
-0.21409925818443298 0.22541728615760803 0.06484514474868774
-0.12071023881435394 -0.23911580443382263 -0.13590942323207855
-0.26635780930519104 -0.3457977771759033 0.18914569914340973
0.051286373287439346 -0.19490894675254822 0.15398137271404266
0.16796527802944183 -0.2456703633069992 0.15425558388233185
0.19907128810882568 0.4170568883419037 0.10701529681682587
0.23875296115875244 -0.4445642828941345 0.11754542589187622
0.27274319529533386 -0.44964462518692017 0.19168655574321747
-0.049410585314035416 -0.24931247532367706 0.14236100018024445
0.2808425724506378 0.4500200152397156 0.12779998779296875
0.29928654432296753 0.006260355934500694 0.011373871937394142
0.17105743288993835 -0.2533303499221802 -0.003365706652402878
0.2946629822254181 0.44658738374710083 0.12313269078731537
0.28653281927108765 -0.249512180685997 0.13193364441394806
0.2888694107532501 -0.2408166080713272 -0.13424809277057648
0.13352106511592865 -0.21112726628780365 -0.13817931711673737
-0.2282993346452713 -0.48026415705680847 0.00843474455177784
0.21630702912807465 -0.26263633370399475 0.07022146880626678
0.2822507321834564 0.3929470479488373 0.13131830096244812
0.18443262577056885 0.22856399416923523 -0.03559790179133415
0.24618780612945557 -0.3292921483516693 0.12131679058074951
0.15913060307502747 -0.059220459312200546 -0.13511529564857483
-0.2697010934352875 0.10244221240282059 -0.13112695515155792
0.2952731251716614 0.0479954332113266 -0.13490284979343414
-0.2602185308933258 0.2252199500799179 -0.11505915224552155
-0.07809779047966003 -0.17099319398403168 0.1671554297208786
0.17959430813789368 0.3432196378707886 -0.011493509635329247
-0.2585834264755249 -0.007571073714643717 -0.13711115717887878
0.2909311056137085 0.2297372668981552 -0.00946088507771492
-0.24032652378082275 -0.25008800625801086 -0.13361458480358124
-0.053454384207725525 0.010694688186049461 0.16862747073173523
0.036647818982601166 -0.247759148478508 -0.11993579566478729
0.2787398099899292 0.4552513659000397 0.12656275928020477
-0.33421239256858826 -0.36833205819129944 0.048707932233810425
0.22430412471294403 -0.1544100046157837 -0.13677465915679932
0.2978130578994751 -0.014701243489980698 -0.130928635597229
0.1725398749113083 -0.24462679028511047 -0.13559938967227936
-0.21667689085006714 -0.25238409638404846 -0.05926847830414772
0.18035109341144562 0.44180813431739807 0.010762241668999195
0.07300436496734619 0.16018187999725342 0.16553469002246857
-0.17143836617469788 0.3601345717906952 -0.04735645651817322
-0.218299999833107 -0.05267144739627838 -0.1363292783498764
0.13922946155071259 -0.42628973722457886 0.008223475888371468
-0.11620265245437622 -0.24814127385616302 -0.1262853443622589
-0.2664216160774231 0.07617463916540146 -0.13422344624996185
0.1540827453136444 -0.24084638059139252 0.1540958434343338
0.025493118911981583 0.12675340473651886 -0.20939862728118896
0.2837539613246918 0.40186038613319397 -0.06786786764860153
-0.2699755132198334 0.10241085290908813 -0.13376043736934662
0.19942566752433777 0.2271442711353302 -0.12790608406066895
-0.2285994291305542 -0.07624299824237823 0.15114569664001465
-0.2899564504623413 -0.43434274196624756 -0.09195905923843384
0.18824157118797302 -0.25195804238319397 0.05650743842124939
0.28364482522010803 0.018068702891469002 -0.13492345809936523
0.19912806153297424 0.1516481339931488 0.16942858695983887
0.26922205090522766 -0.2453436553478241 -0.1348908245563507
-0.26600492000579834 0.04211434721946716 -0.13658876717090607
0.15214641392230988 -0.3725121021270752 0.12621095776557922
-0.15956567227840424 0.22409048676490784 0.15321184694766998
0.2996805012226105 0.18164750933647156 0.14618657529354095
0.20762819051742554 -0.24460090696811676 0.15500561892986298
-0.1743742674589157 0.2282957285642624 0.15010076761245728
0.28876644372940063 0.4075407087802887 -0.060944706201553345
0.13376817107200623 -0.2511664628982544 0.03269011527299881
-0.14573486149311066 0.08829467743635178 0.16860975325107574
0.29548099637031555 -0.1287589967250824 -0.13248088955879211
0.2942808270454407 -0.08186302334070206 -0.13573430478572845
0.0930434912443161 0.007026096805930138 0.16894468665122986
-0.2708747386932373 0.22249621152877808 0.06661111861467361
0.298930823802948 0.10995487868785858 0.14851287007331848
0.015201556496322155 0.18838563561439514 -0.13759464025497437
0.07849356532096863 0.06231245398521423 -0.13498106598854065
0.24076078832149506 0.22113153338432312 0.15560604631900787
0.26932811737060547 -0.398716539144516 -0.07528988271951675
-0.266478955745697 -0.13464047014713287 0.14396163821220398
-0.1958445906639099 -0.40285030007362366 -0.051562000066041946
-0.21818432211875916 0.4098674952983856 0.09121999144554138
-0.2659546434879303 -0.18177807331085205 -0.13414834439754486
0.20249295234680176 -0.26051491498947144 -0.047540049999952316
-0.23185843229293823 0.48415666818618774 -0.03550995513796806
-0.2705886960029602 0.04958571121096611 0.11013335734605789
-0.1687830090522766 -0.25200438499450684 -0.061339300125837326
-0.013745296746492386 0.015621321275830269 -0.1357339769601822
-0.2592806816101074 0.4288461208343506 0.11732891947031021
0.13996300101280212 -0.4327625632286072 0.04558621346950531
0.2965502142906189 0.21692754328250885 -0.021640043705701828
0.2451006919145584 0.3129543662071228 0.0554979145526886
0.13854214549064636 0.20970521867275238 0.15628682076931
-0.12099269777536392 0.21520276367664337 0.15673932433128357
-0.18900179862976074 0.17492620646953583 0.1523655652999878
-0.2716814875602722 0.04688176512718201 0.14340710639953613
0.2967195212841034 0.3839215934276581 0.11253640800714493
-0.26558995246887207 0.13256247341632843 -0.13585980236530304
-0.2514203190803528 -0.32836830615997314 -0.08125011622905731
-0.11763544380664825 0.17001764476299286 0.1524561494588852
-0.21043917536735535 -0.25204628705978394 -0.05874054878950119
0.2963164448738098 0.2273002564907074 0.04153328016400337
-0.2310173362493515 0.22443710267543793 0.0596022829413414
-0.028729921206831932 0.12322995811700821 -0.18729321658611298
-0.26947101950645447 0.2226404845714569 -0.09218664467334747
-0.2715475559234619 -0.30783262848854065 0.10936678946018219
-0.22207731008529663 0.4595312178134918 0.09508802741765976
0.28737983107566833 -0.24257399141788483 -0.13712775707244873
0.24447588622570038 -0.1306244432926178 0.16913479566574097
0.2865809500217438 0.2267342060804367 -0.04475715756416321
-0.1685086488723755 0.22743096947669983 -0.011725252494215965
0.29345548152923584 -0.20658224821090698 -0.13634827733039856
-0.18493115901947021 -0.24831870198249817 -0.13071952760219574
0.2990415692329407 -0.12281225621700287 0.1527908742427826
0.23730987310409546 -0.4435664415359497 -0.0698096975684166
-0.17038822174072266 -0.15149350464344025 0.1686803251504898
0.16899356245994568 -0.4457116723060608 -0.01960640214383602
0.21156367659568787 0.29670077562332153 0.030991610139608383
0.18553373217582703 -0.25386980175971985 0.04903298616409302
-0.3333245813846588 -0.37140557169914246 0.03222629055380821
0.2860085368156433 -0.25174441933631897 -0.06074570119380951
0.1263420730829239 0.2122618407011032 -0.13606788218021393
0.21256738901138306 0.41808703541755676 -0.08336912095546722
-0.26749083399772644 0.002807200886309147 -0.13509072363376617
-0.19986824691295624 0.41271790862083435 0.08777759224176407
-0.1986006498336792 0.49492740631103516 0.10135190188884735
-0.13971541821956635 0.1741848737001419 0.15276256203651428
0.24797400832176208 -0.25678545236587524 -0.03404584154486656
0.29679590463638306 -0.24092356860637665 0.10928996652364731
-0.27069756388664246 -0.2307867556810379 0.1365191787481308
0.12558898329734802 -0.24289733171463013 0.15327197313308716
0.29050227999687195 -0.24932581186294556 -0.08170498162508011
-0.19935142993927002 -0.049145087599754333 0.1686970740556717
-0.055969830602407455 0.22671553492546082 -0.13022685050964355
0.299924373626709 0.2211458384990692 0.07549005001783371
0.2676328122615814 -0.42115333676338196 -0.07542157918214798
0.28913962841033936 -0.12889482080936432 0.15401631593704224
-0.14924174547195435 -0.24973683059215546 -0.13481511175632477
-0.2281637191772461 -0.25158533453941345 -0.12666350603103638
-0.12388048321008682 -0.24046079814434052 0.15372321009635925
-0.2699231207370758 0.1493709534406662 -0.12595778703689575
-0.19138023257255554 -0.24545395374298096 0.15193994343280792
0.16598190367221832 -0.23438888788223267 -0.13489922881126404
-0.25726696848869324 -0.02658025361597538 0.15347683429718018
-0.09130913019180298 -0.24976173043251038 0.14236052334308624
0.29197773337364197 -0.08224083483219147 -0.1345233917236328
0.2925625741481781 0.04023277014493942 -0.13441608846187592
0.05567105486989021 0.11629018187522888 -0.13545018434524536
-0.1670437455177307 0.4440729022026062 -0.04149911180138588
-0.2633880078792572 -0.018923319876194 0.15299499034881592
-0.13308756053447723 -0.1336689293384552 -0.13680733740329742
-0.26510089635849 -0.22481361031532288 -0.13440921902656555
-0.25675883889198303 0.2241627722978592 -0.007410768419504166
-0.26657962799072266 -0.24677486717700958 -0.03904526308178902
0.2351406216621399 -0.24989144504070282 0.1259695589542389
-0.23474693298339844 -0.45942139625549316 0.09606654942035675
0.2794125974178314 0.33267930150032043 -0.04102766513824463
0.2152387946844101 0.5125609636306763 0.08069172501564026
-0.17512983083724976 0.43182939291000366 0.09153701364994049
0.21889205276966095 0.23578092455863953 0.04834562540054321
-0.264629065990448 -0.16171929240226746 0.15242347121238708
0.29459646344184875 0.12946495413780212 -0.13118527829647064
0.29502072930336 0.10269954800605774 0.15543301403522491
-0.28503280878067017 -0.38320356607437134 0.19845597445964813
0.2841377556324005 0.4351322650909424 -0.07022294402122498
-0.27123352885246277 -0.22565722465515137 0.14791879057884216
0.2521279454231262 0.05750660225749016 0.15703631937503815
0.25510749220848083 -0.029169583693146706 0.15313829481601715
0.14357849955558777 -0.2509401738643646 -0.10641811043024063
0.2934948205947876 -0.4350217878818512 0.07823260128498077
0.21719320118427277 0.3474898934364319 0.11023670434951782
-0.21125492453575134 0.2274467498064041 -0.12463543564081192
-0.2057580202817917 0.1679942011833191 0.15387967228889465
-0.20741507411003113 -0.2519219219684601 -0.05999559909105301
0.021502360701560974 -0.09562091529369354 -0.13833774626255035
-0.19755971431732178 -0.24896115064620972 -0.13555864989757538
0.14215736091136932 -0.35671600699424744 0.027440223842859268
-0.20958058536052704 0.06018364056944847 0.16843925416469574
0.23392131924629211 -0.25010553002357483 0.14515231549739838
-0.27031809091567993 -0.01401691883802414 -0.12888361513614655
0.21025843918323517 0.297385036945343 0.026390349492430687
0.27088049054145813 -0.34850671887397766 0.1307751089334488
0.03809092193841934 -0.25042930245399475 -0.11997387558221817
-0.27234509587287903 -0.3488580584526062 -0.07828107476234436
0.0034126415848731995 -0.08820804953575134 -0.1357797533273697
0.30099380016326904 -0.05150773376226425 -0.13251391053199768
0.16464915871620178 -0.3256685137748718 0.07857377082109451
0.1811434030532837 0.4600259065628052 0.03137166053056717
-0.25401654839515686 0.4617926776409149 0.11332134157419205
0.2984924018383026 0.386689156293869 0.08668334782123566
-0.21337389945983887 0.501629114151001 0.0006261672824621201
0.009438181295990944 0.08996325731277466 -0.1356145739555359
0.013270479626953602 -0.24954962730407715 -0.12516167759895325
-0.2857215702533722 -0.0395277664065361 -0.2876244783401489
-0.19802911579608917 -0.40541648864746094 0.13123445212841034
-0.3306172788143158 -0.3814229369163513 0.07614512741565704
-0.2678796052932739 -0.03306882083415985 -0.1329101175069809
-0.11529503762722015 0.16662317514419556 0.15650680661201477
0.1920677125453949 -0.16645929217338562 -0.13678129017353058
0.26128607988357544 -0.25018876791000366 0.02430487424135208
-0.027230337262153625 -0.24637822806835175 0.1506974697113037
0.02576456218957901 0.22418168187141418 -0.13284710049629211
-0.33364999294281006 -0.36113378405570984 0.06455184519290924
0.20095136761665344 0.22771136462688446 -0.018144261091947556
0.2876007556915283 -0.1687738597393036 -0.13459515571594238
-0.22868946194648743 -0.250362753868103 0.07427804172039032
0.15337133407592773 -0.2503133714199066 0.030178062617778778
-0.261214941740036 -0.12075690180063248 -0.13376477360725403
0.002802230417728424 -0.24712461233139038 -0.130199134349823
0.018265055492520332 -0.251850962638855 -0.11810401827096939
-0.2563730776309967 -0.07225415855646133 0.15389104187488556
0.06933385878801346 0.20479989051818848 -0.13507331907749176
0.28747135400772095 -0.4241527318954468 0.08076108247041702
-0.022867176681756973 0.21116401255130768 -0.16996540129184723
0.2947128117084503 -0.11660480499267578 0.1495259404182434
0.18396106362342834 0.42718344926834106 0.11002834141254425
-0.19933301210403442 -0.23986369371414185 -0.1351311355829239
-0.2695818543434143 0.22090211510658264 0.10965041816234589
0.254976361989975 -0.2512591779232025 -0.057723481208086014
0.0638909861445427 0.16887933015823364 -0.133747860789299
-0.24755840003490448 0.48470401763916016 0.09689630568027496
0.13951843976974487 -0.4264765977859497 0.14558789134025574
0.2866813838481903 -0.18110252916812897 0.15553082525730133
-0.27095523476600647 0.2222873568534851 -0.01903417333960533
0.2936646342277527 -0.05490937829017639 0.1554138958454132
-0.26790446043014526 -0.08362593501806259 0.1523340344429016
-0.2670086622238159 0.035941846668720245 -0.13596703112125397
0.06612946838140488 -0.23700518906116486 -0.13611137866973877
0.27977657318115234 0.441396564245224 -0.0735694169998169
0.2850663363933563 -0.41378769278526306 0.1857222020626068
-0.12151305377483368 0.22557878494262695 -0.12917879223823547
0.23770709335803986 0.4611494243144989 -0.08116359263658524
-0.270443320274353 -0.15060217678546906 -0.07100481539964676
0.24499808251857758 -0.026609163731336594 0.16700492799282074
0.29905539751052856 -0.117891326546669 0.1506824642419815
0.17627494037151337 0.174730584025383 0.15334193408489227
