0.2875756323337555 -0.12700624763965607 0.15598902106285095
-0.2677537202835083 -0.24260695278644562 0.14301972091197968
0.2488974630832672 0.30296456813812256 0.04869409278035164
-0.12956736981868744 0.14794237911701202 0.16995134949684143
0.2968817353248596 0.06849154829978943 -0.12989389896392822
-0.2675318717956543 0.1518244743347168 -0.13336223363876343
0.25979235768318176 0.4691973030567169 -0.07658778131008148
0.20861998200416565 0.44103318452835083 0.10058321058750153
-0.01949496939778328 -0.2337438315153122 -0.1345936506986618
-0.07544451951980591 -0.010100712068378925 -0.13719633221626282
0.29698213934898376 0.1858685165643692 0.080205038189888
0.19361227750778198 0.48530736565589905 0.08416908234357834
0.2977781891822815 0.21743956208229065 0.11024437844753265
0.22196733951568604 0.49539998173713684 -0.045643702149391174
0.25823521614074707 -0.2900901436805725 -0.05031360313296318
0.001958440989255905 0.06033269688487053 -0.13531041145324707
-0.17139846086502075 0.4505336880683899 0.10298655182123184
0.29460257291793823 0.22500699758529663 -0.12763486802577972
0.2980313301086426 -0.14484131336212158 0.1489376723766327
0.0022120997309684753 -0.18893536925315857 0.1573321521282196
0.2573840022087097 -0.06662261486053467 0.15218093991279602
-0.21830801665782928 -0.24060842394828796 -0.13538813591003418
-0.06855624169111252 0.22831080853939056 -0.13008159399032593
0.2884030044078827 -0.16836793720722198 -0.13359060883522034
-0.23365318775177002 -0.2523733377456665 0.06745535880327225
0.29427316784858704 -0.05848235636949539 0.15611812472343445
-0.2693822383880615 0.13643528521060944 -0.13493992388248444
-0.27021414041519165 -0.03503177687525749 -0.033826135098934174
-0.25428175926208496 0.2299751490354538 -0.02943788468837738
-0.2685008943080902 0.22101809084415436 0.1466660499572754
0.25785380601882935 0.16081613302230835 0.15033334493637085
-0.18365827202796936 0.22644345462322235 -0.1320333629846573
0.2888604700565338 -0.24994219839572906 -0.08542303740978241
-0.17374920845031738 0.3643019497394562 0.09435266256332397
-0.3214033544063568 -0.42816612124443054 -0.07753823697566986
0.2934541702270508 0.09039488434791565 -0.1341778039932251
-0.27244845032691956 -0.3467930257320404 -0.07904154062271118
0.07187606394290924 -0.246955007314682 -0.13305921852588654
-0.07324191927909851 -0.2544013559818268 0.1497168242931366
0.1973275989294052 0.48698127269744873 -0.025120165199041367
0.20175130665302277 0.2267632931470871 -0.016326265409588814
0.17595039308071136 0.3969075679779053 0.07497373223304749
0.28440818190574646 -0.4091987907886505 0.18646875023841858
0.037704721093177795 -0.23713833093643188 -0.13604022562503815
-0.2711108922958374 0.14008787274360657 0.01243133656680584
-0.020667798817157745 -0.17536038160324097 0.16819892823696136
-0.27069103717803955 -0.23136156797409058 0.02577260322868824
-0.1114358901977539 -0.17991234362125397 0.16770964860916138
0.00863027572631836 -0.17531143128871918 0.166673481464386
-0.01655498333275318 0.2787952721118927 -0.22796106338500977
0.23356711864471436 -0.29403647780418396 -0.07116452604532242
0.15010738372802734 -0.39831483364105225 0.16361510753631592
0.29859036207199097 -0.18719547986984253 0.1455920785665512
-0.24231258034706116 0.45440056920051575 -0.05817313492298126
-0.19264912605285645 0.253065288066864 0.040708329528570175
0.02334083989262581 0.16459929943084717 -0.13567204773426056
-0.14852014183998108 -0.2471071481704712 -0.12421707063913345
-0.21381241083145142 -0.2405625581741333 -0.13409429788589478
0.11675059795379639 -0.2394035905599594 0.15529578924179077
-0.009103275835514069 -0.19369283318519592 0.15489740669727325
0.017087984830141068 -0.17549124360084534 0.1687888503074646
-0.26120996475219727 -0.07913142442703247 -0.13505561649799347
-0.215846449136734 -0.08581794798374176 0.16537663340568542
-0.13682854175567627 0.22834303975105286 -0.1271841824054718
0.035353340208530426 0.22363030910491943 -0.13481111824512482
0.25417256355285645 -0.16146880388259888 0.15329021215438843
0.2937052249908447 -0.2491842806339264 0.08864441514015198
0.29659712314605713 0.05391738936305046 0.1475094109773636
0.286720871925354 -0.04726887494325638 0.15593162178993225
-0.06195227801799774 -0.2471604198217392 -0.13296400010585785
-0.2680075466632843 0.0793009102344513 -0.13377542793750763
0.2863530218601227 0.34560588002204895 -0.04059464484453201
0.19621074199676514 0.22828689217567444 -0.13289065659046173
-0.33334997296333313 -0.35563480854034424 0.09647384285926819
0.2977379262447357 -0.014078274369239807 -0.13098636269569397
-0.005029093474149704 -0.1861865073442459 0.1643083542585373
0.2158622443675995 -0.4449489712715149 -0.07671907544136047
0.28743550181388855 0.46002694964408875 0.12186557054519653
-0.05477827787399292 -0.17732612788677216 0.16500595211982727
-0.030088644474744797 0.18401619791984558 -0.1361435204744339
-0.2662038803100586 0.002118058502674103 -0.13448062539100647
0.2252938598394394 -0.2651160657405853 -0.0551285557448864
0.29625144600868225 0.21868596971035004 0.09467297792434692
0.29819926619529724 -0.20603688061237335 0.14961129426956177
0.2962869703769684 -0.11981749534606934 0.15619386732578278
0.14706666767597198 -0.2502021789550781 0.14923366904258728
-0.2651044428348541 -0.08538857102394104 -0.13636739552021027
0.21502643823623657 -0.2640194594860077 0.07386524230241776
-0.27230724692344666 -0.24138377606868744 0.03932799771428108
0.2982312738895416 0.1274963766336441 0.02635325863957405
0.049886465072631836 0.21579335629940033 0.15708287060260773
-0.31922948360443115 -0.33144623041152954 0.13249143958091736
0.23026345670223236 -0.358789324760437 -0.08846913278102875
-0.034086573868989944 0.11820781230926514 -0.1344556361436844
0.2942414879798889 0.2179211974143982 -0.1321018785238266
-0.26168984174728394 0.18702134490013123 0.1569385677576065
0.22661007940769196 -0.44447943568229675 -0.05064335837960243
-0.2664794623851776 0.032178208231925964 -0.13504427671432495
0.26011815667152405 -0.3508251905441284 0.14315387606620789
-0.25058266520500183 -0.4645121097564697 0.035681840032339096
0.2955986261367798 0.21666964888572693 -0.13269631564617157
-0.30075711011886597 -0.3739930987358093 0.20024147629737854
0.1939201056957245 0.3951464891433716 0.11470615863800049
-0.16943292319774628 0.22848831117153168 -0.011202494613826275
0.29478612542152405 0.2254181206226349 -0.12960955500602722
-0.29819756746292114 -0.3755738139152527 0.19936446845531464
-0.24440613389015198 -0.2133628875017166 0.15555673837661743
-0.25568562746047974 0.15739136934280396 -0.13716185092926025
-0.27067044377326965 0.148476243019104 0.14660608768463135
0.2990356683731079 0.20303167402744293 -0.13386653363704681
0.2780733108520508 0.2297564446926117 0.1439269483089447
-0.2505948841571808 0.4842829704284668 0.06585746258497238
0.28330671787261963 -0.37514710426330566 0.1410440057516098
-0.23325663805007935 -0.45860186219215393 0.09779056906700134
0.13889172673225403 -0.4405055046081543 0.04810379073023796
0.2945881485939026 0.19694700837135315 -0.12779603898525238
0.08243513107299805 -0.24791795015335083 -0.1269557774066925
-0.1717168241739273 0.43561169505119324 0.10317260026931763
0.2879813313484192 0.23077920079231262 0.01398831233382225
-0.2714744210243225 0.17660589516162872 0.14596883952617645
0.29355767369270325 0.07977521419525146 -0.13265670835971832
-0.21038544178009033 0.2486552596092224 -0.03192661702632904
0.22614318132400513 -0.2446596622467041 -0.1336544305086136
0.1376110315322876 -0.44188615679740906 0.08038940280675888
-0.1831928789615631 0.22525359690189362 0.14714664220809937
-0.3356511890888214 -0.3867160379886627 -0.011803291738033295
0.2891489565372467 0.06919427961111069 -0.1346852034330368
-0.2686693072319031 -0.2418985664844513 0.004119550809264183
-0.23764106631278992 0.30076029896736145 0.03139164298772812
0.2889859080314636 -0.04287131875753403 -0.135931596159935
-0.10444075614213943 0.1805722713470459 0.15510885417461395
-0.2536151111125946 -0.41110503673553467 0.19194567203521729
0.2573089003562927 -0.3534332513809204 0.14500536024570465
0.2968863546848297 -0.23353008925914764 0.14812877774238586
0.24201804399490356 0.36988335847854614 -0.08789590746164322
-0.2703946530818939 -0.16257967054843903 -0.1317475438117981
0.14518368244171143 0.1765359491109848 0.15318718552589417
0.05357243865728378 0.21631737053394318 0.15713541209697723
-0.26868876814842224 0.2178567349910736 0.12554913759231567
-0.22928085923194885 -0.4743492901325226 -0.00795164704322815
0.25315847992897034 -0.25233396887779236 -0.04908912256360054
0.23898795247077942 -0.031967438757419586 0.16754822432994843
-0.2709292769432068 0.014848655089735985 -0.12215177714824677
-0.26638880372047424 -0.21570612490177155 -0.13390156626701355
-0.27007973194122314 0.05892883241176605 -0.12372283637523651
-0.025997094810009003 -0.19614233076572418 0.15277373790740967
-0.2708130180835724 0.07638885825872421 -0.13206595182418823
-0.26521262526512146 0.054355449974536896 -0.13810376822948456
0.27096429467201233 0.3732394576072693 0.12819400429725647
-0.19625842571258545 0.2298685908317566 0.14516624808311462
0.2988889217376709 -0.06481561809778214 -0.13011547923088074
-0.25809502601623535 0.3707185387611389 0.07608145475387573
0.29483291506767273 0.19429822266101837 -0.1307213306427002
0.2980475425720215 -0.09844981133937836 -0.12486672401428223
-0.26817330718040466 -0.1455838978290558 -0.12945762276649475
-0.07172683626413345 0.22787252068519592 -0.12883494794368744
0.07114143669605255 0.16007837653160095 -0.1369374841451645
0.21586951613426208 0.30469784140586853 -0.017767474055290222
0.06654587388038635 -0.2525121867656708 0.02467375248670578
-0.15499159693717957 0.02794811874628067 -0.13585251569747925
0.25685378909111023 -0.28945252299308777 -0.051020894199609756
0.21174271404743195 0.4470800757408142 -0.07654215395450592
0.28892648220062256 -0.130859375 -0.13373251259326935
-0.2669519782066345 0.11344283074140549 -0.13434377312660217
0.2865361273288727 -0.41649767756462097 0.1802259087562561
-0.07842414826154709 0.04948903247714043 -0.13504180312156677
0.1376962959766388 -0.25203409790992737 -0.10380126535892487
-0.26766273379325867 0.21109962463378906 -0.1355539858341217
-0.21826434135437012 -0.013898766599595547 0.16351255774497986
0.2985779047012329 -0.11214111745357513 -0.13024480640888214
-0.07069388031959534 -0.2480996698141098 0.15311451256275177
0.2887973487377167 -0.2298794537782669 -0.13372106850147247
0.13388359546661377 0.22985059022903442 -0.12328727543354034
0.29138293862342834 -0.2462979257106781 -0.09706313163042068
0.25726330280303955 0.053674086928367615 0.1530221551656723
-0.14757384359836578 -0.2587261199951172 0.01113077625632286
0.29502516984939575 0.08983016014099121 0.16017645597457886
0.15698659420013428 -0.24937334656715393 -0.04048936069011688
0.2529597282409668 -0.2664421498775482 0.029403652995824814
0.09566264599561691 0.12035413086414337 0.16820171475410461
0.1552048623561859 -0.2446783185005188 -0.13439691066741943
0.25235870480537415 -0.19029012322425842 0.1538797914981842
0.2970898151397705 -0.046228714287281036 0.06477003544569016
0.19419880211353302 -0.4471040666103363 -0.06707450747489929
-0.21476563811302185 -0.23892924189567566 -0.13506269454956055
0.2393815815448761 0.16438624262809753 0.15643437206745148
-0.26793524622917175 -0.220443993806839 -0.13342078030109406
-0.13697613775730133 0.2285129725933075 -0.12240398675203323
0.29150745272636414 0.2227003574371338 -0.13475066423416138
0.13771556317806244 -0.43550753593444824 0.021538790315389633
0.16620241105556488 -0.4455512762069702 0.18988066911697388
0.28677722811698914 -0.07616326212882996 -0.1347316950559616
0.2871257960796356 -0.19363605976104736 -0.13497401773929596
-0.3344050347805023 -0.4067266583442688 -0.050335291773080826
0.2801094949245453 0.3277442157268524 0.04903833940625191
0.05524579808115959 -0.2492331713438034 -0.13352873921394348
-0.21301008760929108 0.22794683277606964 -0.054190173745155334
0.2868230640888214 -0.43015968799591064 0.01190777774900198
-0.23719367384910583 -0.007781725376844406 -0.13718873262405396
-0.2862183153629303 -0.45242276787757874 -0.07782009989023209
-0.2346874624490738 -0.3039834499359131 0.09549503773450851
0.2974005341529846 0.03524021804332733 0.15607883036136627
-0.26892325282096863 0.21912221610546112 -0.13584057986736298
-0.03265320509672165 0.15620288252830505 0.1687212735414505
0.2873217761516571 -0.42178836464881897 0.023049235343933105
-0.22493994235992432 0.48181021213531494 -0.044365182518959045
0.01537608727812767 0.004473037086427212 -0.13491059839725494
0.23069840669631958 -0.35933834314346313 -0.08922763168811798
0.13928872346878052 0.2267136424779892 -0.13329751789569855
0.26469138264656067 -0.33284154534339905 -0.06631540507078171
0.2948610782623291 -0.15442942082881927 -0.1340816617012024
-0.26644155383110046 -0.3750288486480713 -0.0937790721654892
0.2615131139755249 -0.124908447265625 0.1551845520734787
0.2949370741844177 -0.08303147554397583 -0.13311240077018738
-0.12124477326869965 0.21775026619434357 0.15641658008098602
0.29327958822250366 0.2180720865726471 -0.1343027651309967
0.2548522353172302 0.2115781009197235 0.15626032650470734
-0.2521775960922241 -0.4450547695159912 0.09466268867254257
0.29688191413879395 -0.19964531064033508 0.1533057689666748
-0.26601287722587585 0.02829023264348507 -0.1341746598482132
0.195496067404747 0.3409818708896637 -0.04100289195775986
-0.11596906930208206 0.22857291996479034 -0.1223415955901146
0.28052645921707153 -0.44295671582221985 0.1506093591451645
0.23771065473556519 0.3378639817237854 -0.06996514648199081
0.20064015686511993 0.22928068041801453 0.016645265743136406
0.26166030764579773 -0.25137707591056824 -0.04933752864599228
-0.25895094871520996 0.18900066614151 0.15700805187225342
-0.276385098695755 -0.45834365487098694 -0.07199449092149734
0.04980674013495445 0.1398317962884903 -0.19870805740356445
0.07778377830982208 -0.2478172779083252 0.14568495750427246
0.27434805035591125 0.22976386547088623 -0.1268864870071411
-0.21118754148483276 0.22097839415073395 -0.13640367984771729
0.2837831974029541 -0.21599595248699188 -0.1351775825023651
-0.2199944108724594 0.024996187537908554 0.16481027007102966
-0.27068597078323364 -0.04703468456864357 -0.08065760880708694
0.011800932697951794 0.22483640909194946 0.05273105576634407
-0.3322949707508087 -0.3644263446331024 0.13582678139209747
-0.2704707980155945 -0.051619596779346466 -0.13549596071243286
-0.26475346088409424 -0.10522858053445816 -0.1349981278181076
-0.2705827057361603 -0.12381957471370697 0.14576086401939392
-0.3067138195037842 -0.4448429346084595 -0.06785378605127335
-0.26951995491981506 0.1366179883480072 -0.12577325105667114
0.29299116134643555 0.2165164053440094 -0.13106374442577362
0.2372477948665619 -0.44464030861854553 -0.06908921152353287
0.29263272881507874 0.21836629509925842 -0.13459211587905884
0.28832119703292847 -0.39526063203811646 0.0915205180644989
-0.250985711812973 0.22575555741786957 -0.10164192318916321
0.29584571719169617 0.019494447857141495 -0.1326712816953659
0.07203908264636993 0.22835585474967957 -0.11282264441251755
-0.27029335498809814 -0.12184004485607147 0.01244150847196579
-0.04517970234155655 0.12232023477554321 -0.1355721652507782
0.1842784285545349 0.4155890643596649 0.10617692768573761
0.18927805125713348 0.15813110768795013 0.16740287840366364
-0.21879805624485016 -0.24648290872573853 -0.13476872444152832
0.19607706367969513 0.4441682696342468 0.10888483375310898
0.2955436408519745 -0.1628599911928177 0.15201306343078613
-0.3338891267776489 -0.3913593888282776 -0.02476348541676998
-0.2598498463630676 0.18513938784599304 -0.13677634298801422
0.06454348564147949 0.15377749502658844 0.16765792667865753
-0.02250702679157257 0.16966015100479126 -0.1382514089345932
0.1882380247116089 0.351725697517395 0.08273372054100037
-0.07073526084423065 0.22669106721878052 0.15304316580295563
-0.23369568586349487 0.22502373158931732 -0.13481612503528595
0.2571837306022644 0.09599509090185165 0.1535762995481491
-0.1853337287902832 0.1588384211063385 0.16386966407299042
0.15101848542690277 0.22521595656871796 0.15598297119140625
0.2030402421951294 -0.24826471507549286 0.14676442742347717
-0.21658089756965637 0.1888660043478012 0.15599873661994934
0.2969439923763275 -0.0831497386097908 0.14443710446357727
0.2957126796245575 -0.21789543330669403 -0.13395218551158905
-0.23931634426116943 -0.25993722677230835 0.019849959760904312
-0.2572583258152008 0.08985808491706848 -0.303314745426178
0.15892387926578522 -0.19994686543941498 0.1543838083744049
0.29667070508003235 -0.10091562569141388 0.14528828859329224
-0.19153183698654175 -0.25425317883491516 0.09934619069099426
0.2975122332572937 -0.13491792976856232 0.012479353696107864
-0.25997158885002136 -0.04406082257628441 -0.13501910865306854
-0.33620625734329224 -0.3838154971599579 -0.006091158837080002
0.24988317489624023 0.38958078622817993 0.10853554308414459
0.0015550521202385426 0.18997685611248016 -0.1387031078338623
-0.03847050294280052 -0.2386770397424698 -0.13544659316539764
-0.3340907096862793 -0.37736213207244873 0.02185751125216484
0.28881391882896423 -0.2487749606370926 0.10203200578689575
0.2626572549343109 0.35799440741539 -0.07999894767999649
-0.2725394666194916 0.0967859998345375 0.04278745874762535
0.29705867171287537 0.020656481385231018 -0.1324041336774826
0.29244571924209595 0.1493207961320877 -0.13404081761837006
-0.2877393960952759 0.07659727334976196 -0.28202807903289795
-0.2383982241153717 0.28067639470100403 0.01669921725988388
-0.13057930767536163 0.1935778558254242 -0.13491851091384888
-0.26962345838546753 -0.09905802458524704 -0.1317204236984253
0.29558077454566956 -0.11898349225521088 0.1577185094356537
-0.16286194324493408 0.4614717364311218 0.08189034461975098
-0.23869027197360992 0.40497079491615295 0.09971103817224503
-0.006744373589754105 -0.1806265413761139 0.1651904433965683
0.2920701503753662 0.22636014223098755 0.08035492151975632
0.2949663996696472 0.22631581127643585 0.1152992993593216
-0.19066600501537323 0.23123693466186523 -0.027561800554394722
-0.3283388614654541 -0.41906923055648804 -0.04868074506521225
0.2883031666278839 -0.09760425239801407 -0.13549841940402985
-0.26699012517929077 0.14630603790283203 -0.13514812290668488
0.1446712762117386 -0.43306246399879456 0.15671589970588684
-0.02120378240942955 0.18626797199249268 -0.13584913313388824
0.23000600934028625 -0.2488938570022583 0.1485719531774521
-0.26948466897010803 -0.10005297511816025 -0.13316506147384644
0.07135049998760223 -0.1891269087791443 0.1572018265724182
0.25308623909950256 0.16331246495246887 0.15496021509170532
-0.031095895916223526 0.21474464237689972 0.1561257690191269
0.15088139474391937 -0.2491302192211151 -0.12568634748458862
0.2677519917488098 -0.2503461539745331 -0.12282802909612656
-0.03237452358007431 -0.07009845972061157 0.16988766193389893
0.13645273447036743 -0.44011348485946655 0.06474204361438751
0.2556985020637512 0.09619786590337753 0.15460050106048584
-0.015657631680369377 -0.24481555819511414 -0.1359265297651291
-0.26976820826530457 -0.08562640845775604 0.1547490954399109
0.2947290539741516 0.13613459467887878 0.14665040373802185
0.23656749725341797 -0.23670127987861633 -0.13457031548023224
-0.02367732673883438 0.22791855037212372 0.1425212025642395
0.2968391180038452 0.22275638580322266 -0.04091471806168556
-0.2750803530216217 -0.3877503573894501 0.208934485912323
-0.2070842981338501 0.1550440490245819 0.16617166996002197
0.14767830073833466 -0.4192359149456024 0.16826216876506805
0.09616730362176895 -0.2524940073490143 0.1490239053964615
0.2943122982978821 0.21698063611984253 -0.13420933485031128
0.0536607950925827 0.22506791353225708 -0.13367092609405518
0.20841407775878906 0.22930610179901123 0.048348572105169296
0.09568315744400024 0.16222654283046722 0.1605946570634842
-0.26993682980537415 -0.005579086486250162 0.05067379027605057
0.299929678440094 -0.04071914032101631 0.15745320916175842
0.2975677251815796 -0.1965756118297577 0.09575480222702026
0.27932944893836975 -0.3611193001270294 0.12282406538724899
0.25439533591270447 -0.07843545079231262 0.15330030024051666
-0.2679436504840851 0.15614302456378937 -0.1339838206768036
-0.07068219780921936 -0.19337564706802368 0.15319056808948517
-0.003474552184343338 -0.07845114171504974 -0.13437804579734802
0.2745789587497711 -0.4448789358139038 0.08409763872623444
0.14958275854587555 -0.430656373500824 -0.028208663687109947
-0.10974649339914322 -0.08974926918745041 0.17120282351970673
0.2130936086177826 0.453727126121521 -0.07716456055641174
0.019201364368200302 -0.15339834988117218 -0.1336769461631775
-0.27050191164016724 -0.048735931515693665 0.15355254709720612
0.2014636993408203 -0.42280399799346924 0.20097282528877258
-0.13667166233062744 -0.2362765222787857 0.15594525635242462
0.2856220006942749 0.09725528955459595 0.15712763369083405
-0.2690340578556061 0.21075168251991272 -0.13329751789569855
-0.2525385320186615 0.34734219312667847 0.05499427765607834
-0.25260627269744873 0.4473896622657776 0.11483733355998993
0.24383872747421265 -0.17357897758483887 0.16667583584785461
-0.17501786351203918 -0.26280176639556885 -0.04166252538561821
0.25508612394332886 0.23088127374649048 -0.05061032623052597
-0.30132079124450684 -0.32719743251800537 0.06146464869379997
-0.2851261496543884 -0.014132190495729446 -0.2990575432777405
-0.2711327373981476 -0.07243669033050537 0.15380458533763885
-0.1930672526359558 -0.1768881380558014 0.16922055184841156
0.2600982189178467 -0.4459420442581177 0.09027805179357529
-0.018211055546998978 -0.09411459416151047 -0.13492830097675323
-0.22076770663261414 0.03296450152993202 0.16145110130310059
-0.17868654429912567 0.4780034124851227 0.09554985165596008
0.1273287534713745 0.22772537171840668 0.047506555914878845
-0.07664727419614792 0.15159472823143005 0.16855524480342865
-0.2158263772726059 0.4999966621398926 0.09880512207746506
0.1031663566827774 -0.17134983837604523 0.17261214554309845
0.25502732396125793 -0.2660712003707886 0.01435368787497282
0.2094997763633728 -0.12307282537221909 0.17102697491645813
0.29892656207084656 0.13193988800048828 0.1484108418226242
0.05147838220000267 0.2381943315267563 -0.2241162657737732
-0.18305617570877075 -0.19468392431735992 0.15160328149795532
0.007834448479115963 -0.24437536299228668 -0.1340799629688263
0.24537596106529236 -0.17823028564453125 0.16169360280036926
-0.2384321391582489 -0.47257450222969055 -0.03451153263449669
0.14746183156967163 -0.17832021415233612 0.16834710538387299
-0.21143223345279694 0.22507427632808685 -0.13356508314609528
0.2908039093017578 -0.43404895067214966 0.053149476647377014
0.13647714257240295 -0.24231000244617462 0.15606386959552765
-0.2693309187889099 0.13867151737213135 -0.13297715783119202
0.1387597620487213 -0.4256839156150818 0.10977210104465485
-0.20428726077079773 -0.05779740586876869 -0.13621482253074646
0.2535499334335327 -0.16646534204483032 0.1532279998064041
-0.32574784755706787 -0.4295932650566101 -0.06274077296257019
0.2594258487224579 0.07344305515289307 0.15345534682273865
-0.26819032430648804 -0.017335083335638046 -0.135999396443367
-0.1869754195213318 -0.1307148039340973 -0.13498874008655548
-0.21701796352863312 0.07494205981492996 0.16673213243484497
0.2934606075286865 0.2193257063627243 -0.13475549221038818
-0.01136857457458973 0.21949540078639984 -0.13426007330417633
-0.022399716079235077 -0.23835618793964386 0.15587016940116882
-0.2677602469921112 0.07997405529022217 0.14530877768993378
-0.2576292157173157 0.46524184942245483 0.04272225871682167
-0.2632431983947754 -0.24641059339046478 -0.08403074741363525
-0.13553154468536377 -0.2511354982852936 0.008143618702888489
0.25899195671081543 -0.1316743791103363 0.15353135764598846
0.26048743724823 0.15851382911205292 0.1528911590576172
0.19808116555213928 -0.44429290294647217 -0.07349003851413727
0.23686039447784424 -0.05764131620526314 0.16914252936840057
-0.24106420576572418 -0.2792721688747406 -0.038314156234264374
-0.03766900673508644 0.12535332143306732 -0.13556136190891266
-0.0961938425898552 -0.23803266882896423 0.15612870454788208
0.23554405570030212 0.21560324728488922 -0.13479501008987427
-0.22643417119979858 -0.25953251123428345 -0.03711166977882385
-0.24037618935108185 -0.268653929233551 0.022089721634984016
0.1905396729707718 0.3674924373626709 0.10556117445230484
-0.2692221701145172 -0.2441597729921341 0.06491243839263916
0.25586339831352234 -0.04927695542573929 0.1541425734758377
0.2532899081707001 0.08881258964538574 0.1522047370672226
0.28569576144218445 -0.43335145711898804 0.0016561560332775116
-0.2692137360572815 0.05027109384536743 -0.13265009224414825
0.27680885791778564 0.3700994551181793 0.12051449716091156
0.291757732629776 0.22513802349567413 0.10949632525444031
0.2364266812801361 0.2294982671737671 0.058096010237932205
-0.13820591568946838 -0.24565593898296356 -0.12789061665534973
0.005976952612400055 0.23171502351760864 -0.039389561861753464
0.12609295547008514 0.1530497968196869 0.16817666590213776
0.24938729405403137 -0.24904990196228027 -0.12134813517332077
0.10944554954767227 -0.1744208037853241 0.1701233834028244
0.25387343764305115 -0.3992137312889099 0.1940704882144928
0.2963342070579529 0.08084645867347717 -0.13422758877277374
-0.22360874712467194 0.49424755573272705 0.10660573840141296
-0.329115629196167 -0.41776329278945923 -0.05537019670009613
-0.020163841545581818 0.21314406394958496 -0.1338232308626175
-0.08180148154497147 0.14913202822208405 0.16927416622638702
0.05750080570578575 -0.24819780886173248 -0.12295401096343994
0.29721182584762573 0.14147555828094482 -0.12448455393314362
0.26697421073913574 -0.44626104831695557 0.18536131083965302
-0.21587711572647095 -0.24913662672042847 -0.12294715642929077
0.12839850783348083 0.17826496064662933 0.15257416665554047
0.11643895506858826 -0.24680428206920624 -0.11646837741136551
0.24568837881088257 -0.3419327139854431 0.13847751915454865
-0.13487310707569122 -0.1784868836402893 0.17045755684375763
0.04167307913303375 -0.249521866440773 -0.12026038020849228
-0.22632817924022675 0.21998417377471924 0.1570775806903839
0.29582643508911133 -0.08076393604278564 0.15005585551261902
-0.15503254532814026 0.42553043365478516 0.08554642647504807
0.29068723320961 0.22684986889362335 -0.03200971707701683
0.15989597141742706 -0.4329894185066223 -0.042246751487255096
0.2565246522426605 -0.13492602109909058 0.1546620875597
0.2786492109298706 0.22860665619373322 -0.032626740634441376
0.27463197708129883 0.4605465531349182 0.1262829303741455
0.29775750637054443 0.2160053551197052 -0.10154184699058533
-0.22265413403511047 -0.24042144417762756 -0.13401882350444794
-0.2704065442085266 -0.22681771218776703 -0.13250237703323364
0.2814527750015259 0.21998664736747742 -0.13128253817558289
-0.24338003993034363 0.48242804408073425 -0.019499411806464195
0.24866273999214172 -0.12463598698377609 0.16317084431648254
-0.27121564745903015 0.06479401886463165 0.04620525985956192
0.2612397372722626 -0.3278377652168274 -0.0676756352186203
0.2496522217988968 -0.13431963324546814 0.1619696468114853
0.18120062351226807 -0.25267505645751953 -0.02954113483428955
-0.2730545699596405 0.21554139256477356 0.02294269949197769
0.2975536286830902 0.17275354266166687 0.14852216839790344
0.2899784445762634 -0.054446153342723846 -0.13556210696697235
0.2672659158706665 -0.44480088353157043 -0.05684499442577362
0.07284586131572723 -0.2505653202533722 0.07787173986434937
-0.02394021302461624 -0.04281950742006302 0.17073294520378113
-0.33384767174720764 -0.3464752435684204 0.14516876637935638
0.22549699246883392 -0.07391677051782608 0.17027850449085236
-0.20750902593135834 -0.0026195943355560303 0.16924002766609192
0.29541313648223877 0.09011903405189514 -0.13508136570453644
-0.05736340582370758 -0.2494715303182602 -0.033821310847997665
-0.01054040715098381 0.22712786495685577 -0.13451580703258514
-0.21527104079723358 -0.24565590918064117 -0.1366332769393921
0.29042062163352966 0.22083309292793274 -0.13407690823078156
0.2936113178730011 0.21680626273155212 -0.13307233154773712
0.226170152425766 -0.1920463740825653 0.15638595819473267
-0.2685288190841675 -0.12122601270675659 0.15654858946800232
-0.25695404410362244 0.22264441847801208 -0.0383920893073082
-0.26361602544784546 -0.18996340036392212 -0.13570962846279144
0.23018419742584229 0.23705612123012543 -0.02801726758480072
0.218563050031662 0.11801854521036148 0.16630081832408905
0.19421106576919556 0.16485494375228882 0.15870773792266846
-0.2898043990135193 -0.3327598571777344 -0.023189526051282883
-0.270948201417923 -0.03859914094209671 -0.12218417972326279
0.296372652053833 0.08074277639389038 -0.1298687905073166
-0.15577419102191925 -0.24851174652576447 0.14870621263980865
-0.026678942143917084 -0.24703781306743622 0.1540505439043045
-0.2383503019809723 -0.2243434488773346 0.15670068562030792
-0.07574455440044403 -0.23479965329170227 0.1560848355293274
-0.07711716741323471 -0.20017385482788086 0.15353924036026
0.2914997339248657 -0.0338595025241375 -0.1337818205356598
-0.1814386546611786 -0.1980692595243454 0.1525244414806366
-0.17856177687644958 0.24790368974208832 0.027184151113033295
0.2821602523326874 -0.2269117534160614 -0.13549137115478516
0.15309873223304749 0.22012722492218018 0.1561931073665619
0.2989654242992401 -0.11114710569381714 0.010060172528028488
-0.0353628545999527 -0.1828012764453888 0.1674114614725113
0.13808582723140717 -0.2468227744102478 -0.13506269454956055
0.2498314082622528 0.49059298634529114 0.123587466776371
-0.2182157337665558 -0.46335065364837646 0.07155448198318481
0.29164600372314453 0.4453612267971039 0.11902417242527008
-0.2493976652622223 -0.3504244387149811 -0.09023676812648773
-0.01082608476281166 0.23467154800891876 -0.24980606138706207
-0.17662665247917175 0.3703649640083313 0.10261829197406769
0.16846780478954315 -0.44597354531288147 0.18055760860443115
-0.18551857769489288 -0.2549079656600952 0.07952441275119781
0.20847097039222717 -0.4191783368587494 0.20292317867279053
-0.2711392045021057 0.20764832198619843 -0.12297744303941727
0.29727616906166077 0.09534396976232529 0.09020215272903442
0.15219978988170624 -0.4456844925880432 0.007969912141561508
-0.043151576071977615 0.13137173652648926 -0.13589879870414734
0.23568713665008545 0.22559182345867157 -0.13394154608249664
-0.26764577627182007 0.0038399510085582733 -0.1364549696445465
0.03131935000419617 -0.18972063064575195 0.15571343898773193
-0.2514171898365021 0.47391775250434875 0.10399913787841797
-0.26805728673934937 -0.1863795518875122 -0.13466277718544006
0.21702216565608978 0.4909367263317108 -0.04783147573471069
0.24428921937942505 -0.3851085603237152 -0.09113875776529312
-0.2849424183368683 0.10376859456300735 -0.30282697081565857
-0.33638763427734375 -0.37583017349243164 0.028919201344251633
-0.11478093266487122 0.2287062257528305 -0.12440957874059677
0.255668044090271 -0.03733554482460022 0.1537822037935257
0.29310446977615356 0.2207239270210266 -0.1346638947725296
0.08501622080802917 -0.07276585698127747 -0.1345798820257187
0.26027148962020874 0.1623561978340149 0.14924286305904388
0.24792708456516266 0.08867409080266953 0.16017456352710724
0.25651034712791443 -0.30637550354003906 0.08829261362552643
-0.1762550324201584 0.2508094012737274 0.015606931410729885
0.2963521182537079 0.019258279353380203 0.1551363468170166
0.2888146638870239 -0.4328754246234894 0.11641446501016617
-0.126723974943161 -0.17181745171546936 0.1714482605457306
0.2956065833568573 0.22531571984291077 0.0031015053391456604
-0.271236777305603 0.06723356246948242 0.04789328575134277
0.1589825600385666 0.17143523693084717 0.1541217714548111
0.29852017760276794 -0.19542251527309418 -0.12340546399354935
0.2590544819831848 -0.2985600531101227 0.07620259374380112
0.29582807421684265 0.08419948071241379 0.15478602051734924
-0.25526517629623413 -0.47619324922561646 -0.03720599040389061
-0.16621948778629303 -0.25298455357551575 -0.0625704750418663
-0.26553234457969666 -0.06712719798088074 -0.1360425055027008
-0.027632134035229683 -0.24109452962875366 -0.13550657033920288
-0.21037176251411438 -0.05689336732029915 0.169364333152771
-0.2155466228723526 0.383230060338974 -0.07988341152667999
0.0584515705704689 -0.23755714297294617 -0.13478292524814606
-0.27152037620544434 -0.2452642321586609 -0.03274168819189072
-0.2710455060005188 0.1575462520122528 0.15102452039718628
-0.2154381424188614 -0.17184576392173767 0.16505643725395203
0.13619834184646606 -0.18277564644813538 0.16795088350772858
-0.1559653878211975 -0.23567333817481995 0.15541887283325195
-0.16514506936073303 0.4437156319618225 0.10368701815605164
0.19636937975883484 -0.25018423795700073 -0.0680389404296875
-0.20531153678894043 -0.03605542704463005 0.16940602660179138
-0.2729421555995941 -0.18389233946800232 0.13017523288726807
-0.2699767053127289 -0.1547100991010666 -0.13118089735507965
0.29874491691589355 0.21295607089996338 -0.1331881582736969
-0.0424269437789917 0.22488249838352203 -0.13426724076271057
0.29631099104881287 0.2234194427728653 -0.10002277046442032
0.22266331315040588 -0.4451307952404022 0.19753363728523254
-0.26007479429244995 -0.2517431080341339 0.07772282510995865
0.21321317553520203 0.4837385416030884 0.11706152558326721
-0.2186616063117981 0.08383415639400482 0.16467790305614471
0.19311386346817017 -0.2522439658641815 -0.05219937860965729
-0.2646472156047821 -0.2387210726737976 -0.13670939207077026
-0.23513785004615784 0.346748024225235 0.08979760855436325
0.2975272238254547 0.17439594864845276 0.12543019652366638
0.2961083948612213 -0.19339579343795776 0.15762215852737427
0.2564041018486023 -0.3039771020412445 -0.059372588992118835
-0.20986893773078918 0.2259666621685028 -0.1298525333404541
0.24629218876361847 -0.4030334949493408 -0.08916813880205154
0.08757093548774719 -0.24907079339027405 0.1515509933233261
0.20612961053848267 0.22531893849372864 0.04147765040397644
0.22856073081493378 0.23541387915611267 -0.02845516800880432
0.23625658452510834 0.35955050587654114 -0.08182960748672485
0.2969553768634796 0.20930534601211548 0.15255723893642426
0.1683691442012787 0.15436628460884094 0.1696150004863739
-0.21567252278327942 0.012511875480413437 0.16654065251350403
0.26393812894821167 -0.3728576898574829 -0.0749213695526123
0.2763849198818207 -0.24789181351661682 -0.13435636460781097
0.2584353983402252 -0.44520166516304016 0.19244299829006195
-0.013281799852848053 0.09081190824508667 -0.13464875519275665
-0.26940059661865234 -0.16272763907909393 -0.13023853302001953
-0.2694774866104126 -0.2143016904592514 -0.12886272370815277
-0.20835860073566437 -0.4364878833293915 0.13192133605480194
0.2946443259716034 -0.24669697880744934 -0.07041589915752411
0.21821849048137665 0.22137686610221863 0.15577316284179688
0.23341573774814606 0.22811567783355713 -0.12280689179897308
0.29256826639175415 0.03758550435304642 0.15664562582969666
-0.26693761348724365 -0.06996741890907288 -0.13642063736915588
-0.2688700258731842 -0.031034667044878006 0.15515848994255066
-0.2050144076347351 -0.1006864532828331 0.1681637167930603
0.2625712454319 0.3242623209953308 0.05920197814702988
-0.015047362074255943 -0.20005835592746735 0.1535024791955948
0.05253385007381439 0.14261290431022644 -0.13329170644283295
-0.14986565709114075 -0.2535383999347687 0.045158304274082184
0.19618800282478333 0.4877689480781555 0.09858689457178116
-0.18573713302612305 0.2562747299671173 -0.01421355176717043
-0.26102951169013977 0.22774894535541534 0.058290332555770874
-0.32851073145866394 -0.40644800662994385 -0.05671904608607292
-0.26922738552093506 -0.24150529503822327 -0.009644482284784317
0.2968389391899109 0.07702817022800446 -0.13220416009426117
0.19500938057899475 -0.24997852742671967 0.14927510917186737
-0.20051226019859314 -0.39350712299346924 0.11789222061634064
-0.27075889706611633 -0.003740323707461357 0.14981485903263092
-0.19685308635234833 0.4498869478702545 0.08857008814811707
0.2561436891555786 -0.12832191586494446 0.15585468709468842
0.25346022844314575 0.14791986346244812 0.1556769162416458
-0.15167930722236633 -0.2408142238855362 -0.13544145226478577
-0.26920875906944275 -0.16572636365890503 0.15605199337005615
-0.18367108702659607 0.36928871273994446 -0.06892439723014832
0.2874625325202942 0.22918295860290527 -0.04563518241047859
-0.1538095921278 0.17435668408870697 0.15218129754066467
-0.22848734259605408 -0.2394225150346756 0.156554713845253
-0.2083347737789154 -0.24040833115577698 -0.13433648645877838
-0.26746004819869995 0.004538387060165405 -0.13659420609474182
-0.2484508901834488 0.22252818942070007 -0.13502879440784454
0.29205894470214844 0.22073085606098175 -0.13665851950645447
-0.13280251622200012 -0.17953047156333923 0.16935515403747559
0.24704787135124207 0.03833622857928276 0.16225576400756836
-0.3341729938983917 -0.3962661027908325 0.02799396589398384
-0.02204745076596737 0.16892579197883606 0.15499864518642426
0.10069794952869415 -0.2438017576932907 -0.13462655246257782
-0.2592497169971466 0.07985420525074005 -0.13501451909542084
0.0375949926674366 0.17878416180610657 -0.13747119903564453
0.032629188150167465 -0.19960558414459229 0.1544884592294693
-0.24896764755249023 0.48981186747550964 0.054584257304668427
0.16095563769340515 -0.22699691355228424 -0.1324506551027298
0.09074879437685013 -0.23757758736610413 0.15600767731666565
-0.21055859327316284 0.2260591685771942 -0.12128859758377075
0.17508843541145325 0.3811611831188202 0.028780069202184677
0.2502177357673645 0.23164644837379456 0.058834753930568695
0.2890050411224365 -0.21967104077339172 0.1576673537492752
-0.17878812551498413 0.47123903036117554 0.10563160479068756
-0.20073214173316956 0.22576196491718292 0.06566204130649567
0.09023525565862656 0.22682875394821167 -0.13413339853286743
0.023719383403658867 -0.2514461278915405 0.09882890433073044
0.290353000164032 -0.24407801032066345 0.1162768006324768
-0.06342317163944244 -0.24860171973705292 0.15042167901992798
-0.2693912982940674 -0.11124547570943832 -0.1313975751399994
0.29722604155540466 -0.07822328805923462 -0.12450262159109116
-0.23480212688446045 -0.2667759656906128 0.060091324150562286
0.29264524579048157 -0.1219044029712677 0.15764804184436798
-0.0772743970155716 -0.03939666971564293 -0.1325325220823288
-0.2676710784435272 -0.23922240734100342 -0.0397798977792263
0.29275912046432495 0.21972084045410156 -0.13471773266792297
0.2976531684398651 0.10248768329620361 0.05383047088980675
0.2964182198047638 0.08324775099754333 0.14565978944301605
-0.22710026800632477 -0.26391950249671936 -0.04081220179796219
-0.25710418820381165 0.3640107810497284 0.08341266214847565
-0.27092111110687256 0.0964541882276535 -0.12380548566579819
-0.2627933621406555 -0.15269364416599274 -0.13516369462013245
-0.08869674801826477 -0.24118687212467194 -0.13503079116344452
0.10819977521896362 0.15563973784446716 0.16886460781097412
0.13399137556552887 0.15994521975517273 0.16286325454711914
0.25650858879089355 -0.07872267067432404 0.15473471581935883
0.22098025679588318 0.3121219873428345 0.04939170181751251
-0.2162903994321823 -0.4405568242073059 0.15367472171783447
-0.2255026400089264 -0.2809913158416748 0.0798497274518013
-0.09906591475009918 -0.24992787837982178 0.14756549894809723
0.15472255647182465 -0.18120776116847992 0.16821831464767456
-0.26917731761932373 0.0036319829523563385 0.14803746342658997
-0.019297942519187927 0.22945591807365417 -0.07303982228040695
0.2843187153339386 -0.4285662770271301 0.0007088445127010345
-0.06697728484869003 0.22620733082294464 -0.010260488837957382
0.19213750958442688 0.36487099528312683 0.10023276507854462
0.2136247158050537 -0.2494284063577652 0.14687809348106384
-0.291776567697525 0.05359029397368431 -0.2662180960178375
-0.052360016852617264 0.22641342878341675 -0.13344404101371765
0.023561621084809303 0.1880609393119812 -0.1385674774646759
0.12655073404312134 0.2235807329416275 -0.13380283117294312
-0.26129624247550964 -0.1670982539653778 -0.13525304198265076
-0.12623988091945648 -0.2500040531158447 0.1439477801322937
-0.26019686460494995 0.46265384554862976 0.0971166267991066
-0.20683707296848297 -0.09782765805721283 0.168874591588974
0.25559866428375244 -0.25993576645851135 0.022828178480267525
0.29119673371315 0.22068729996681213 -0.13428455591201782
0.2895786762237549 -0.08225642144680023 -0.13418690860271454
0.24343541264533997 0.30492234230041504 0.0493161715567112
-0.23749583959579468 0.2253483533859253 0.1204758733510971
0.2934647798538208 -0.11234654486179352 0.15675088763237
-0.11150554567575455 -0.1766926646232605 0.168557807803154
0.2819245457649231 0.329995721578598 -0.024999301880598068
0.2779002785682678 -0.24906587600708008 -0.07951249927282333
-0.24627159535884857 0.4404904544353485 0.11085161566734314
-0.2308386266231537 -0.43960341811180115 0.16449299454689026
0.29068347811698914 -0.007744096219539642 -0.13440170884132385
0.20046590268611908 0.229543998837471 0.006137044634670019
0.2549595832824707 0.0490092933177948 0.15342958271503448
-0.33528298139572144 -0.38543498516082764 0.04784097522497177
0.297961562871933 -0.06620266288518906 0.14697769284248352
0.24771392345428467 0.16734033823013306 0.15392598509788513
-0.06296844780445099 -0.25003036856651306 -0.12265907227993011
-0.2673572599887848 -0.1646246463060379 0.155906081199646
-0.2640664875507355 -0.3346865177154541 -0.07728784531354904
0.2512921690940857 0.012605839408934116 0.154887855052948
0.29607638716697693 0.21122746169567108 0.15605276823043823
0.29890426993370056 0.41666850447654724 -0.010755042545497417
0.04015696421265602 0.1825789362192154 -0.13761979341506958
-0.16717024147510529 0.22888413071632385 0.008951717987656593
-0.2737475633621216 0.20558516681194305 -0.12613289058208466
-0.0560571625828743 0.22736239433288574 0.1418347805738449
0.29740938544273376 -0.035859107971191406 0.1458667814731598
0.2951071262359619 0.21724925935268402 -0.13426190614700317
0.28447020053863525 -0.2150297909975052 -0.1328011304140091
0.05661078914999962 -0.18522480130195618 0.16614915430545807
-0.2714027762413025 0.15301513671875 0.15427595376968384
0.2949657440185547 0.18418265879154205 0.15757818520069122
-0.13888749480247498 0.22828571498394012 0.10990028083324432
0.2966117560863495 -0.11391286551952362 0.15419310331344604
0.290895938873291 -0.11138305813074112 -0.13405217230319977
0.17105500400066376 -0.2660605311393738 -0.0006247672718018293
0.028485670685768127 0.21705609560012817 0.1565159112215042
-0.16349546611309052 0.22783982753753662 -0.13439804315567017
-0.24634070694446564 0.45679202675819397 0.11335241794586182
-0.04358745366334915 0.16402001678943634 0.1603088080883026
0.18126986920833588 -0.08373456448316574 0.16685982048511505
-0.11523008346557617 -0.17278888821601868 0.1692311018705368
0.2877327799797058 0.16126391291618347 -0.13433361053466797
0.2852766513824463 -0.20966583490371704 -0.13423721492290497
0.28833839297294617 0.33381685614585876 0.013705724850296974
-0.3343026638031006 -0.38174736499786377 -0.005807706154882908
0.2930774390697479 0.22796490788459778 -0.08905848115682602
-0.09201355278491974 -0.24806001782417297 -0.1320073902606964
-0.28329193592071533 0.09016495943069458 -0.27727043628692627
0.0026224846951663494 0.18372783064842224 -0.13382519781589508
-0.09491652250289917 0.16684578359127045 0.15857939422130585
-0.09016510844230652 0.1839434653520584 -0.13382919132709503
0.1639023870229721 0.22861248254776 0.1384299248456955
-0.2307509332895279 -0.4515257477760315 0.12673191726207733
0.2951609194278717 0.0878959372639656 -0.12602877616882324
-0.23740941286087036 -0.4724133610725403 -0.030490003526210785
0.2633204758167267 0.399722695350647 -0.08970402181148529
0.011803999543190002 -0.15652373433113098 -0.1336769312620163
-0.33614516258239746 -0.3607853055000305 0.13516591489315033
-0.0032547898590564728 -0.19387800991535187 0.15470542013645172
0.2800873816013336 0.3776559829711914 -0.07051628828048706
-0.2697296440601349 -0.22113953530788422 -0.1318131536245346
0.27557218074798584 0.49607473611831665 0.11737072467803955
-0.3382475674152374 -0.40022358298301697 -0.003600306808948517
0.2846049666404724 0.002203918993473053 -0.13375981152057648
-0.15841351449489594 -0.26219072937965393 0.03527721390128136
0.097133107483387 -0.18380701541900635 0.1654481142759323
-0.16832976043224335 0.34469786286354065 0.045428987592458725
0.06873933970928192 -0.13097581267356873 0.1694745123386383
0.1914079189300537 0.3400029242038727 0.06321784853935242
0.23862624168395996 0.00332333380356431 0.1689201444387436
-0.25317710638046265 0.3431677222251892 0.04536285251379013
-0.2695590853691101 -0.1448182463645935 -0.13122346997261047
-0.24829676747322083 -0.37017393112182617 0.18836665153503418
-0.27069276571273804 -0.08866177499294281 -0.05285806208848953
0.26243314146995544 -0.44164448976516724 -0.056492578238248825
-0.21953769028186798 0.4331711530685425 -0.07995518296957016
0.24356412887573242 -0.40214380621910095 -0.0912260040640831
0.2664593458175659 -0.24416974186897278 -0.13764718174934387
0.29433000087738037 0.2155543565750122 -0.13251368701457977
0.29316800832748413 0.34991341829299927 -0.034724317491054535
-0.31682267785072327 -0.41390371322631836 0.013992924243211746
0.15261557698249817 -0.32084763050079346 -0.011947096325457096
0.22637473046779633 0.43744710087776184 0.10205788910388947
0.2232581079006195 -0.2821938693523407 -0.06104881316423416
-0.25940579175949097 0.1431010216474533 -0.13667599856853485
0.24861781299114227 -0.05500320345163345 0.16150891780853271
-0.26900219917297363 -0.20820756256580353 0.1525854915380478
0.21894770860671997 0.21865633130073547 -0.13384175300598145
0.1413048952817917 -0.4287218749523163 -0.01485955435782671
0.21266420185565948 0.22754447162151337 -0.032111216336488724
-0.2678777873516083 -0.02149069495499134 -0.1358260214328766
-0.27059945464134216 0.0006123892962932587 -0.12878915667533875
-0.3374788761138916 -0.3625531792640686 0.1292087882757187
0.05763283744454384 -0.249475359916687 -0.13284356892108917
0.1602323353290558 -0.44738253951072693 -0.03662866726517677
0.2962930500507355 0.22552666068077087 0.0386902317404747
-0.2173883616924286 -0.27990609407424927 -0.061091817915439606
0.2524046301841736 -0.24766503274440765 0.15131384134292603
0.09303417056798935 -0.24870702624320984 0.15102967619895935
0.11992363631725311 -0.24929755926132202 -0.13597984611988068
-0.17911185324192047 0.23055435717105865 -0.027526980265975
0.015136916190385818 0.05565151944756508 0.1694396287202835
-0.2664739191532135 -0.2501987814903259 0.05274377018213272
-0.21815089881420135 0.18143117427825928 0.156575545668602
0.2939457297325134 0.21863822638988495 -0.13482831418514252
0.2582368850708008 0.1588117778301239 0.1523628830909729
-0.2873203754425049 -0.42473042011260986 -0.08873629570007324
0.29596954584121704 -0.2042253613471985 0.157147616147995
-0.2708081901073456 -0.24180053174495697 -0.0911983996629715
0.29686346650123596 -0.23641064763069153 0.14949756860733032
-0.20519980788230896 -0.4192676246166229 0.15732336044311523
0.003353916807100177 0.16145473718643188 -0.1357276737689972
0.07060008496046066 0.2285597324371338 0.14303603768348694
-0.1729387491941452 -0.05378859490156174 -0.13567425310611725
-0.15356339514255524 0.3921321630477905 0.016521437093615532
0.29483938217163086 0.2266470491886139 -0.12887154519557953
-0.2678820490837097 -0.2409045398235321 0.030699362978339195
-0.019075915217399597 0.23854753375053406 -0.1974976360797882
0.297659695148468 -0.24161125719547272 -0.05157869681715965
-0.2749420404434204 -0.3899184465408325 0.2090807855129242
0.21270409226417542 -0.4030683636665344 0.20072294771671295
0.13834065198898315 -0.4423869550228119 0.0893983244895935
0.29151880741119385 0.22186577320098877 -0.13680237531661987
-0.3309864103794098 -0.3535924553871155 0.1596410721540451
0.2000618577003479 0.22798573970794678 -0.0021303314715623856
0.07530903816223145 -0.17631973326206207 0.1694597601890564
0.2419758439064026 -0.24146270751953125 -0.1345185488462448
0.1399698704481125 -0.18527156114578247 0.16477155685424805
-0.15898413956165314 0.3592904508113861 -0.025869665667414665
