0.29362761974334717 0.036333438009023666 0.15421079099178314
-0.2487027496099472 0.3321061134338379 -0.02025524340569973
-0.285826176404953 -0.45139017701148987 -0.07931262254714966
-0.22329899668693542 -0.38381537795066833 0.1588839590549469
0.2971831262111664 0.21401003003120422 0.07114220410585403
-0.27075234055519104 -0.03366103768348694 -0.04410012438893318
0.09241807460784912 0.16458451747894287 0.16486242413520813
-0.27200305461883545 -0.23687174916267395 0.11052784323692322
0.10945087671279907 0.15373215079307556 0.1699136346578598
-0.2720598876476288 -0.23439443111419678 -0.1306564211845398
-0.08927379548549652 -0.24383792281150818 0.15349580347537994
0.17689788341522217 0.003875352442264557 -0.13597480952739716
-0.27158650755882263 0.08037178218364716 -0.12586325407028198
0.24548090994358063 -0.32309529185295105 -0.07797770202159882
-0.2695123553276062 -0.13905298709869385 0.07318749278783798
-0.20293670892715454 0.5009502172470093 0.07820921391248703
-0.2711436450481415 0.21360233426094055 0.13690130412578583
0.29167768359184265 0.2211664617061615 -0.13526125252246857
-0.25005120038986206 0.22642168402671814 -0.13524748384952545
0.18793857097625732 -0.4381652772426605 -0.06996405124664307
-0.23644840717315674 -0.2717348337173462 0.04922350123524666
0.2067996859550476 -0.1737094521522522 0.17009706795215607
0.12202273309230804 0.21335433423519135 -0.1341661512851715
0.06721076369285583 -0.23967400193214417 -0.13370420038700104
-0.31392809748649597 -0.3297595977783203 0.18635669350624084
-0.037254828959703445 0.2262788861989975 0.1471061110496521
-0.21575401723384857 -0.01384198758751154 0.16854147613048553
-0.02320028468966484 0.17432576417922974 0.15434716641902924
0.29748424887657166 -0.11225874722003937 0.14413100481033325
-0.3356974422931671 -0.3658389449119568 0.10910411179065704
-0.27094948291778564 0.1103731021285057 0.14679433405399323
-0.27175119519233704 0.09447513520717621 0.041910845786333084
-0.270063579082489 0.1788850724697113 -0.13238880038261414
0.2685355842113495 -0.250014990568161 -0.018323902040719986
0.07423794269561768 -0.24831993877887726 -0.12174995988607407
-0.2726905047893524 -0.15009859204292297 0.1467159241437912
0.21444657444953918 0.36203545331954956 -0.07871928811073303
0.28348761796951294 0.025286979973316193 -0.13496597111225128
0.18106895685195923 0.3595837652683258 -0.005634688772261143
0.2028675079345703 -0.2500406503677368 -0.05545760691165924
-0.1066068485379219 0.17458143830299377 0.15335246920585632
0.15413405001163483 0.22676046192646027 -0.130318745970726
0.23562277853488922 -0.2757604718208313 -0.06026054546236992
-0.08558782935142517 0.2140907347202301 -0.13662783801555634
-0.2323589324951172 -0.3027360141277313 0.09433537721633911
0.16165688633918762 -0.012769587337970734 0.16758565604686737
0.20784401893615723 0.16366994380950928 0.16318932175636292
-0.26723697781562805 -0.2527441084384918 0.06642010807991028
-0.27324098348617554 0.11512812227010727 -0.1338067650794983
0.295383095741272 0.09523795545101166 -0.13110269606113434
-0.2710537016391754 0.12403380870819092 -0.11672430485486984
-0.004640733823180199 -0.20493079721927643 -0.13417111337184906
0.18390093743801117 0.23117658495903015 0.07835792005062103
-0.25465822219848633 0.18570813536643982 0.15617313981056213
0.2715506851673126 0.5055893659591675 0.04942633584141731
0.28557705879211426 -0.1991100013256073 -0.1330341398715973
-0.20583483576774597 0.003641311079263687 0.16883505880832672
-0.271671861410141 0.21097075939178467 0.12760044634342194
-0.25866419076919556 -0.30825498700141907 0.10106577724218369
0.2542472779750824 0.2329353243112564 -0.030819429084658623
-0.27278730273246765 -0.2359105944633484 0.11637112498283386
0.19129055738449097 0.17963142693042755 0.1518547236919403
0.0003930162638425827 -0.02098783105611801 -0.13429291546344757
-0.24419108033180237 -0.23400196433067322 -0.13434159755706787
-0.19935324788093567 0.22825059294700623 -0.11549755185842514
-0.12203118950128555 -0.24986080825328827 -0.1081698089838028
-0.2658722698688507 -0.2365114986896515 -0.13127866387367249
0.10385411977767944 -0.2525518238544464 -0.06534849852323532
0.06368388235569 -0.0711190328001976 -0.1344228833913803
0.29306575655937195 -0.005601264536380768 0.15624606609344482
-0.27154791355133057 0.047614291310310364 -0.13071317970752716
0.24972665309906006 0.03108324110507965 0.15492582321166992
0.05896860733628273 0.17379073798656464 0.1509772092103958
0.08641570061445236 0.18210995197296143 0.1555057168006897
0.05821714550256729 -0.17916810512542725 0.164242684841156
0.28500309586524963 -0.07285672426223755 0.15583384037017822
-0.26646509766578674 0.17476437985897064 0.15656419098377228
0.16943395137786865 0.15389961004257202 -0.13609029352664948
0.297544926404953 0.21990633010864258 0.018897783011198044
0.29543742537498474 -0.2442181408405304 0.13133785128593445
-0.26747748255729675 -0.23287801444530487 0.14970329403877258
-0.08120620250701904 -0.24924159049987793 -0.12172380089759827
0.136888787150383 0.2271198034286499 -0.12571503221988678
0.27914541959762573 -0.034062162041664124 -0.13440611958503723
0.12724462151527405 0.22530584037303925 -0.13314390182495117
0.15004056692123413 -0.24865922331809998 0.15259502828121185
-0.25283658504486084 -0.24958296120166779 0.14493310451507568
0.28525927662849426 -0.37895604968070984 0.14468954503536224
0.10644837468862534 0.22049131989479065 0.1574656069278717
0.14136649668216705 -0.14791028201580048 -0.13528405129909515
-0.26010432839393616 0.35836589336395264 0.05466724932193756
-0.23336514830589294 0.22743919491767883 -0.13388994336128235
0.09763049334287643 0.06364190578460693 0.17008176445960999
-0.2233147770166397 -0.13232673704624176 0.15818895399570465
-0.2569234073162079 -0.2511636018753052 -0.04810076951980591
0.2959754168987274 0.21976086497306824 0.15192554891109467
0.05096180737018585 0.22589731216430664 -0.13357847929000854
-0.000995999202132225 0.22764849662780762 -0.038395002484321594
0.2953161597251892 0.08299186825752258 -0.13255693018436432
-0.2282106876373291 -0.10347151756286621 0.15216682851314545
0.19697502255439758 0.3324395716190338 0.042668845504522324
0.12903450429439545 -0.24842742085456848 -0.12698817253112793
0.22117097675800323 -0.17359760403633118 0.17093880474567413
0.29703086614608765 -0.04569510370492935 -0.12224133312702179
0.18988505005836487 -0.24892978370189667 0.15153199434280396
0.2944999933242798 -0.25320690870285034 0.10632802546024323
-0.2630634605884552 -0.0930270254611969 -0.13667303323745728
-0.2667115032672882 -0.46621471643447876 -0.018678437918424606
0.020398035645484924 0.20473064482212067 -0.13792932033538818
-0.3396749198436737 -0.381771057844162 0.021890297532081604
0.2957981824874878 0.2236216813325882 -0.06750321388244629
-0.27010390162467957 -0.10343869030475616 0.15207700431346893
0.2908264696598053 0.10015104711055756 -0.1361512690782547
-0.2899037301540375 -0.341718465089798 0.1945308893918991
-0.12762555480003357 -0.23539003729820251 -0.137334406375885
0.2930220365524292 -0.4316355288028717 0.15164285898208618
-0.20485907793045044 0.24855194985866547 0.04661020264029503
-0.1414284110069275 -0.2522658705711365 0.032548658549785614
-0.13500666618347168 0.22859948873519897 0.1360241174697876
-0.06976135075092316 0.16677308082580566 0.16187578439712524
0.2400936782360077 -0.19172772765159607 0.1577342003583908
-0.270607590675354 0.04811300337314606 -0.011586902663111687
-0.264811635017395 -0.24492298066616058 -0.10173255950212479
-0.013780692592263222 0.2720676064491272 -0.2201080024242401
0.28976911306381226 0.19053028523921967 -0.13398930430412292
0.2959265112876892 0.22511984407901764 -0.09776283800601959
0.26881143450737 -0.3716578185558319 0.15702854096889496
-0.27099791169166565 0.08457604795694351 -0.13099262118339539
0.23811855912208557 0.22976070642471313 0.0627187117934227
0.2856481075286865 0.1777595728635788 -0.1354934126138687
-0.2714146375656128 -0.45911705493927 -0.06811109185218811
0.2962755262851715 -0.23874136805534363 -0.017850305885076523
-0.24630369246006012 0.36844345927238464 0.10929659754037857
-0.21719945967197418 -0.4300358295440674 0.17204433679580688
-0.017391297966241837 -0.16890983283519745 0.17110154032707214
0.261249303817749 0.14053906500339508 0.15432856976985931
-0.2678205072879791 0.2157595306634903 0.10060696303844452
-0.033658307045698166 0.1571541726589203 -0.1941087245941162
0.2503514289855957 0.1387956291437149 0.15817952156066895
0.2932360768318176 0.13448698818683624 0.15649309754371643
-0.046216655522584915 0.21238119900226593 -0.13419601321220398
0.05242769047617912 0.1742151379585266 0.14994372427463531
0.290388822555542 0.12295199930667877 -0.13371631503105164
-0.049900755286216736 -0.2418157458305359 -0.1357753723859787
-0.26968100666999817 0.22393226623535156 0.04285427927970886
-0.165939599275589 0.4739431142807007 0.09141993522644043
0.289455384016037 -0.016377855092287064 0.15714943408966064
0.012515130452811718 -0.05040537938475609 -0.1363043189048767
0.25465500354766846 0.04175885021686554 0.15419279038906097
-0.25784340500831604 0.01187102496623993 0.15566183626651764
0.22053974866867065 -0.21428099274635315 -0.13384325802326202
0.19583317637443542 0.3258194625377655 0.020220045000314713
0.2897516191005707 0.10248516499996185 -0.13460473716259003
0.29085394740104675 -0.43348801136016846 0.030974186956882477
-0.21919572353363037 -0.11495396494865417 0.1655619889497757
0.21947510540485382 -0.43203601241111755 -0.08897656202316284
-0.06206369027495384 0.16028088331222534 0.16771146655082703
0.2318124622106552 0.3835394084453583 -0.09034165740013123
0.2951968014240265 0.11105632781982422 0.08612100034952164
-0.27067267894744873 -0.010608152486383915 -0.01324304286390543
-0.24689912796020508 -0.22687813639640808 -0.13522280752658844
-0.04439389333128929 0.21698671579360962 0.15715323388576508
0.15641379356384277 0.22801217436790466 -0.025927050039172173
-0.2067432552576065 -0.03884368762373924 0.1709308922290802
0.21217267215251923 0.4912095367908478 0.11414417624473572
0.29621097445487976 0.0778028666973114 0.14616940915584564
-0.015752850100398064 -0.2368374466896057 0.15459121763706207
0.206154927611351 0.4821585714817047 0.1115502268075943
0.18604932725429535 0.485685259103775 0.02430642955005169
0.29703906178474426 -0.06316506862640381 0.14607247710227966
-0.12185394018888474 0.22790873050689697 -0.12637433409690857
-0.27297040820121765 0.12501400709152222 0.14541399478912354
-0.2736836373806 0.2184443175792694 -0.08585159480571747
-0.266567587852478 -0.24886322021484375 -0.12564776837825775
0.2372029423713684 -0.046761028468608856 0.16907361149787903
-0.08950699120759964 0.2297280728816986 -0.010086962953209877
0.20915940403938293 0.23449702560901642 -0.014420116320252419
0.0192310381680727 0.22559013962745667 0.15570390224456787
0.2901100516319275 0.12103208154439926 -0.13490505516529083
0.26326483488082886 0.23000505566596985 -0.09633363783359528
-0.14299276471138 -0.2507198452949524 -0.017048479989171028
-0.2723143398761749 -0.24270689487457275 -0.04624136537313461
-0.21504110097885132 -0.129044309258461 0.16963046789169312
-0.33958280086517334 -0.3621308207511902 0.09036864340305328
0.22068755328655243 0.24075588583946228 0.04553203657269478
-0.26730477809906006 0.10607241094112396 0.15672971308231354
0.07271840423345566 0.21571245789527893 0.15747573971748352
-0.1596888303756714 -0.2432679682970047 0.15605071187019348
-0.22763872146606445 -0.4225913882255554 0.18779870867729187
-0.022819161415100098 -0.2489798367023468 0.14615236222743988
-0.23743394017219543 0.22613148391246796 -0.13470779359340668
-0.23307223618030548 -0.3386434316635132 0.13049331307411194
0.2932843565940857 -0.1294257491827011 0.1571613848209381
0.2429916262626648 -0.3440849184989929 0.13734395802021027
-0.09323018789291382 -0.25040748715400696 0.11112956702709198
0.2910255789756775 -0.4252028465270996 0.03399255499243736
-0.22615037858486176 -0.47404688596725464 0.044959377497434616
0.28961697220802307 0.15836672484874725 -0.13475818932056427
-0.133573517203331 -0.2173788845539093 -0.13661974668502808
0.1892041116952896 0.40555012226104736 0.11369438469409943
0.29506251215934753 -0.13850568234920502 0.15158775448799133
0.2967660427093506 -0.23882299661636353 0.07442841678857803
0.02134718932211399 -0.248314768075943 -0.12214558571577072
-0.264397531747818 0.22295773029327393 -0.008170530200004578
-0.2352164387702942 -0.2747821807861328 -0.04043366014957428
0.045424170792102814 0.2287721037864685 -0.12472853809595108
0.2913592755794525 0.2038634568452835 0.15743984282016754
0.2319801151752472 -0.2422075718641281 -0.13453540205955505
0.00846012867987156 0.22733420133590698 0.14359311759471893
0.18571624159812927 0.19383853673934937 -0.13650238513946533
-0.21543850004673004 0.08036181330680847 0.168397918343544
0.29035359621047974 0.21720728278160095 -0.13361667096614838
-0.07474138587713242 0.23207955062389374 0.14657633006572723
-0.02490989863872528 0.11477822065353394 -0.136540949344635
-0.27143344283103943 0.1316518783569336 0.14579647779464722
0.2949644923210144 -0.18870584666728973 -0.131606325507164
-0.2200847864151001 0.22855693101882935 -0.135247603058815
0.28754135966300964 -0.170450359582901 0.15627609193325043
0.25670066475868225 0.0988728404045105 0.152653306722641
-0.08418016880750656 -0.23632405698299408 0.15534761548042297
0.29075467586517334 -0.24895161390304565 -0.11664316803216934
-0.21176229417324066 0.23046132922172546 -0.03133603185415268
0.2912735342979431 0.22369271516799927 -0.134206622838974
-0.28302016854286194 -0.3751360774040222 -0.08539479970932007
0.17844082415103912 0.17168430984020233 0.154210165143013
-0.24262124300003052 -0.4707914888858795 0.03800138831138611
0.19982528686523438 0.22706609964370728 -0.13085557520389557
0.2953856289386749 0.06706681847572327 0.047019775956869125
-0.271743506193161 0.20598599314689636 -0.12537263333797455
0.06438026577234268 0.1716216802597046 0.15353016555309296
0.22041141986846924 -0.44088247418403625 -0.07600948959589005
-0.20776763558387756 -0.24387697875499725 0.15547645092010498
-0.05620797723531723 0.2275787591934204 -0.1310647428035736
0.06367888301610947 -0.24653851985931396 -0.132086843252182
-0.2686125934123993 0.22102391719818115 0.12997543811798096
-0.17416420578956604 0.22413231432437897 -0.13277679681777954
-0.27434206008911133 0.21593467891216278 0.00391033012419939
-0.226247176527977 -0.4733656942844391 0.028397900983691216
0.07694113254547119 0.2196112722158432 0.1578221172094345
0.03480693697929382 0.11251305043697357 -0.1350300908088684
0.2895984649658203 -0.2330351024866104 -0.13454094529151917
-0.27156028151512146 -0.062489964067935944 0.010123182088136673
0.2972524166107178 -0.20777849853038788 -0.12494882196187973
-0.07833579182624817 -0.19553562998771667 0.15247218310832977
0.29987719655036926 -0.13907650113105774 -0.12386126816272736
0.2880396842956543 -0.2486117035150528 -0.013858243823051453
0.25520026683807373 -0.25782257318496704 -0.01806756667792797
0.22133474051952362 -0.4460207521915436 -0.031709108501672745
-0.3395637273788452 -0.39582064747810364 0.0022474974393844604
-0.059331052005290985 0.22737383842468262 -0.13182412087917328
-0.29817551374435425 -0.3297520577907562 0.020220108330249786
0.29695582389831543 0.029681066051125526 0.1474347710609436
0.293978750705719 0.08719576895236969 -0.12958309054374695
-0.04682591184973717 0.23190821707248688 -0.12271293252706528
-0.07592038065195084 -0.1693345010280609 0.16947494447231293
0.08946602046489716 0.1429847776889801 -0.13345244526863098
0.2878114581108093 0.21771763265132904 -0.13375981152057648
-0.21225173771381378 -0.12891343235969543 0.16931873559951782
0.26938995718955994 -0.42991992831230164 -0.06936981528997421
-0.1091638132929802 0.22923043370246887 -0.1242021694779396
0.08547070622444153 0.1804080307483673 0.15553557872772217
-0.23240144550800323 -0.45565274357795715 0.10909093916416168
0.25849249958992004 0.4034194350242615 0.10665232688188553
-0.27043616771698 -0.05013573169708252 0.1513480842113495
0.21378463506698608 0.22801196575164795 -0.016645997762680054
0.23035240173339844 -0.3166351616382599 -0.07872126996517181
-0.23318246006965637 -0.05233575403690338 0.15475475788116455
0.2964877188205719 -0.022333823144435883 -0.12651070952415466
-0.057121098041534424 0.06615351140499115 0.1679985374212265
-0.1738060712814331 0.49215593934059143 0.04487960785627365
0.17307749390602112 -0.25164398550987244 0.03757093474268913
0.297199010848999 -0.08461381494998932 0.1551189124584198
0.1767502725124359 0.39278683066368103 0.003633340820670128
0.19564208388328552 0.22563783824443817 -0.12231801450252533
-0.13338840007781982 -0.254635214805603 0.014188630506396294
0.2573396563529968 0.10285134613513947 0.15312977135181427
0.05479951575398445 -0.2505892813205719 -0.12903355062007904
-0.04326116666197777 0.14884430170059204 -0.1359703540802002
0.28451007604599 0.3411852717399597 0.08260320127010345
-0.07896054536104202 -0.18429034948349 0.1656561940908432
-0.0074410028755664825 0.1707901656627655 0.15360724925994873
-0.1713550090789795 0.23765690624713898 -0.002167818136513233
0.19831791520118713 0.2273261547088623 0.15118852257728577
-0.2696579694747925 -0.24693089723587036 0.010273341089487076
0.2883646488189697 0.21964676678180695 -0.13491959869861603
0.15156742930412292 0.23055529594421387 0.12145528197288513
-0.27411967515945435 -0.11540107429027557 0.14712950587272644
0.20200495421886444 0.17571592330932617 0.15315064787864685
-0.16958172619342804 0.47982606291770935 0.09561413526535034
-0.1867327094078064 -0.2521135210990906 0.08418740332126617
0.2877911925315857 -0.06746871024370193 -0.1361565887928009
0.29626941680908203 0.18285340070724487 0.14825865626335144
0.2379075437784195 -0.4444747269153595 -0.054117754101753235
0.18134881556034088 -0.447743684053421 -0.03665528818964958
-0.262803852558136 -0.36721673607826233 -0.09312193095684052
0.14855360984802246 -0.17685328423976898 0.16678275167942047
-0.2725812792778015 -0.13441982865333557 -0.06807558983564377
0.2375030815601349 0.1083449125289917 -0.13311758637428284
-0.2726680040359497 0.21361695230007172 0.10683586448431015
0.21452130377292633 0.42251214385032654 -0.08491513133049011
-0.14954625070095062 0.22948406636714935 -0.12768477201461792
-0.08243858069181442 0.21508249640464783 -0.13375736773014069
0.2858513593673706 0.1990049034357071 -0.13521794974803925
0.29164227843284607 -0.4331691861152649 0.11932840943336487
0.15270936489105225 -0.4299898147583008 -0.027240552008152008
0.19572865962982178 0.39590588212013245 0.11390107870101929
0.29859909415245056 0.17609986662864685 0.148333340883255
0.23942098021507263 -0.24156352877616882 -0.1339627355337143
0.29758331179618835 -0.1458628624677658 0.10989558696746826
0.2862495481967926 0.42324599623680115 0.12846793234348297
0.019952142611145973 0.2543729841709137 -0.19961687922477722
0.17589639127254486 0.42151767015457153 0.01397373154759407
-0.05636195093393326 -0.2496328204870224 0.034416381269693375
-0.24274170398712158 -0.39164891839027405 0.19637438654899597
0.295669823884964 0.0410885289311409 0.15691989660263062
0.20530863106250763 0.22839249670505524 -0.011346932500600815
-0.22898201644420624 -0.2443692833185196 0.15479683876037598
-0.07976585626602173 0.22972166538238525 -0.1297689527273178
0.1705499291419983 -0.2529292106628418 0.016088256612420082
-0.20789755880832672 -0.11389663070440292 0.1675190031528473
0.2916295528411865 0.22603969275951385 -0.08454997837543488
-0.2699770927429199 0.21890689432621002 0.11973324418067932
0.2379906177520752 -0.4456203877925873 -0.04808660224080086
0.2602858543395996 -0.3062325716018677 -0.057591892778873444
-0.20203183591365814 0.22866612672805786 -0.03905744478106499
0.2920233905315399 -0.09234660863876343 0.15741375088691711
-0.08267808705568314 0.2280447781085968 -0.1285538375377655
0.14838162064552307 -0.437772661447525 -0.013365441001951694
0.027703743427991867 0.228317528963089 0.1559954136610031
-0.27030041813850403 0.08566685765981674 0.15532130002975464
0.24553649127483368 -0.0032417774200439453 0.16473975777626038
-0.33371466398239136 -0.3571317493915558 0.15737205743789673
0.268313467502594 0.35979732871055603 -0.07829320430755615
0.024215688928961754 0.26119160652160645 -0.20718172192573547
0.25693365931510925 0.0173109732568264 0.1526663452386856
-0.26123782992362976 0.20347601175308228 0.15592041611671448
0.20792509615421295 0.23172129690647125 -0.00465866643935442
-0.16852976381778717 0.3548206388950348 0.06405355036258698
0.263554185628891 0.1912170946598053 0.1543085277080536
0.29519444704055786 -0.240059956908226 0.07378346472978592
0.2651694118976593 -0.4104403853416443 0.19779813289642334
-0.2702788710594177 0.18205657601356506 -0.13366444408893585
0.0766746923327446 0.17156414687633514 0.15149188041687012
-0.2544443607330322 -0.23506316542625427 -0.13335613906383514
0.26540449261665344 -0.38628992438316345 -0.07711897790431976
0.01564103551208973 -0.24819768965244293 -0.12236373126506805
0.16680829226970673 0.21828702092170715 0.15623190999031067
-0.24396637082099915 -0.2010398805141449 0.15413430333137512
0.29419073462486267 -0.037412382662296295 0.14893637597560883
0.2798672020435333 -0.2408636510372162 -0.13406485319137573
0.29098039865493774 0.4692434072494507 0.09768908470869064
-0.335149347782135 -0.35373079776763916 0.12737628817558289
-0.2700932025909424 0.21971584856510162 0.06597413122653961
0.2570163309574127 -0.443120539188385 -0.07447899878025055
0.2949182689189911 -0.017247356474399567 0.15637683868408203
0.29521241784095764 0.05241809040307999 0.1486869901418686
0.2885121703147888 0.34858518838882446 -0.04492798447608948
0.2951282858848572 -0.2441713511943817 0.1334923505783081
0.05795615538954735 0.21750310063362122 0.15749432146549225
0.28361448645591736 -0.4178144931793213 -0.03918946906924248
0.005031278356909752 0.09745793044567108 -0.13567744195461273
-0.2094808667898178 0.22752530872821808 0.14756156504154205
-0.22332870960235596 -0.4705779254436493 0.041735608130693436
0.2968539893627167 -0.14386038482189178 -0.05230512470006943
-0.20375512540340424 0.34825700521469116 0.0874442458152771
-0.23192262649536133 -0.301056832075119 0.09534050524234772
0.25537610054016113 0.06352528184652328 0.1518164426088333
0.28425443172454834 0.4838162958621979 0.09070312976837158
0.2948334515094757 0.2183743715286255 0.10536545515060425
-0.12008646875619888 0.22685563564300537 0.14980700612068176
-0.33786535263061523 -0.40828436613082886 -0.03172948583960533
-0.17871953547000885 -0.2626933157444 0.06899349391460419
0.2199263870716095 -0.25707489252090454 0.06863371282815933
0.20077574253082275 0.2266979217529297 0.017240231856703758
0.2909577488899231 0.13060784339904785 0.15795347094535828
0.21503227949142456 0.5114650130271912 0.015945754945278168
0.22561876475811005 0.16785484552383423 0.15741710364818573
0.04997985064983368 0.22393012046813965 0.15601953864097595
-0.10298889130353928 0.17053541541099548 0.15603110194206238
0.2775699198246002 0.4025382101535797 0.12205160409212112
-0.2710970342159271 -0.01662418060004711 -0.1306704729795456
-0.2718826234340668 -0.08253554999828339 -0.12500053644180298
-0.22316889464855194 0.1855955719947815 0.1546454280614853
0.28868040442466736 0.22092539072036743 -0.13371488451957703
-0.269273042678833 0.21818935871124268 0.11612431704998016
-0.25868239998817444 -0.07623565196990967 0.15507306158542633
-0.2241528183221817 0.02817872166633606 -0.13696298003196716
-0.2715695798397064 0.21733680367469788 -0.04264254868030548
-0.27568429708480835 0.1920861005783081 0.14707155525684357
-0.128013476729393 -0.17063942551612854 0.16960455477237701
-0.21120455861091614 -0.19117361307144165 0.1530495584011078
0.28832364082336426 -0.24907425045967102 -0.0498618446290493
0.23811277747154236 0.017598262056708336 0.16838335990905762
-0.040915172547101974 0.1212519034743309 -0.13580815494060516
0.04693184047937393 -0.17742906510829926 0.16906574368476868
0.28890180587768555 0.08222641795873642 -0.13485971093177795
-0.020277295261621475 0.22874437272548676 -0.1228337213397026
-0.2615450918674469 0.22817012667655945 0.0856880396604538
-0.26811683177948 0.2227163016796112 0.13787978887557983
-0.237497478723526 -0.3802415132522583 0.1849174201488495
-0.272745817899704 -0.2363922894001007 -0.13289734721183777
-0.2690889835357666 -0.21127091348171234 0.01754896342754364
0.1613057553768158 -0.17816062271595 0.1676175892353058
0.28734663128852844 -0.43129706382751465 0.14446525275707245
0.05986344441771507 0.2236473709344864 0.15694604814052582
-0.10115357488393784 0.2294333577156067 0.009222757071256638
-0.273224413394928 -0.24452552199363708 -0.035734813660383224
-0.27239108085632324 -0.1687353253364563 -0.12442301213741302
-0.17000338435173035 0.3470889925956726 -0.030255446210503578
0.2892300486564636 0.21588234603405 -0.1354769915342331
0.2645679712295532 -0.3650834858417511 0.15606345236301422
0.2568872570991516 0.015375781804323196 0.15226536989212036
0.1796451210975647 -0.25292208790779114 -0.04018256813287735
0.03959132730960846 0.12572437524795532 -0.13668829202651978
-0.20823387801647186 -0.4173043966293335 0.15101107954978943
0.295719176530838 0.22223399579524994 0.05320670083165169
0.2582036256790161 -0.4471266567707062 0.1834406554698944
0.24235641956329346 -0.014520572498440742 0.16814929246902466
0.27027955651283264 0.41516244411468506 -0.08081299811601639
-0.26886919140815735 -0.1088714674115181 0.15372708439826965
0.1871870905160904 0.4786233901977539 0.07547786831855774
-0.3043701946735382 -0.4455263018608093 -0.07504656910896301
-0.16055233776569366 0.39040064811706543 0.09104552119970322
0.17279455065727234 -0.18608084321022034 0.15988756716251373
-0.15994805097579956 -0.1717870533466339 0.16920530796051025
0.23786374926567078 -0.2001861333847046 0.1534046232700348
0.26012545824050903 0.5049582719802856 -0.009699439629912376
-0.27146437764167786 -0.3473443388938904 0.18787062168121338
0.020749563351273537 -0.19023960828781128 0.15097682178020477
0.17887386679649353 0.21696408092975616 -0.13515318930149078
-0.19122625887393951 -0.4149719476699829 0.0848558098077774
0.17266760766506195 -0.2496195286512375 -0.024884071201086044
0.26661956310272217 -0.43190157413482666 -0.07419511675834656
0.15676763653755188 0.22591803967952728 -0.1326720118522644
-0.2717553675174713 0.22057326138019562 0.02328694611787796
-0.20954352617263794 -0.017259996384382248 0.17281180620193481
-0.2681121826171875 -0.0936870351433754 -0.13677428662776947
-0.16952325403690338 0.1755373775959015 0.1524120718240738
0.2980290353298187 0.0775836780667305 0.031522415578365326
-0.09025107324123383 -0.23285648226737976 -0.13441060483455658
0.04698771610856056 0.18892638385295868 -0.13529761135578156
-0.23587660491466522 0.227299764752388 -0.11772049963474274
0.044049400836229324 -0.24678745865821838 -0.1329779177904129
-0.14141251146793365 -0.234407439827919 -0.13380171358585358
-0.10076119005680084 0.10309185087680817 0.1716705858707428
-0.10433059930801392 -0.24877335131168365 0.14407941699028015
-0.2714390456676483 0.004645038396120071 -0.13175205886363983
-0.26446864008903503 0.22727370262145996 -0.13431426882743835
0.28751757740974426 0.04949392378330231 0.15727733075618744
-0.18228642642498016 -0.26374372839927673 0.06998240947723389
0.29284608364105225 0.2039131224155426 0.10504081100225449
-0.17839249968528748 0.16636358201503754 0.16237838566303253
0.26628103852272034 -0.39653080701828003 0.1905505359172821
0.19849123060703278 0.4927915632724762 -0.0017888997681438923
-0.007872960530221462 -0.23898643255233765 0.15390050411224365
0.28476783633232117 0.0711463987827301 -0.13525213301181793
0.09156475961208344 -0.18076594173908234 0.16646742820739746
0.2948077619075775 -0.2471773475408554 0.12537671625614166
-0.24871104955673218 0.48619386553764343 0.09745924919843674
-0.2566247880458832 0.2254888117313385 -0.1339399516582489
0.05190199986100197 0.13999447226524353 -0.13460293412208557
0.296695739030838 -0.12221044301986694 0.08741948008537292
-0.09565029293298721 -0.2505481243133545 0.1051304042339325
0.19040636718273163 -0.44806817173957825 0.09757742285728455
0.2640056312084198 0.21452480554580688 -0.13594277203083038
-0.26159417629241943 0.37394604086875916 -0.030427712947130203
0.28725022077560425 0.22654157876968384 -0.12698237597942352
0.25787925720214844 -0.033785849809646606 0.1553063541650772
-0.28221824765205383 -0.06402599811553955 -0.26966655254364014
-0.2726038098335266 -0.2390071153640747 -0.13026203215122223
0.10220412909984589 0.2238195538520813 -0.13319629430770874
-0.2723870277404785 -0.21939557790756226 -0.1319047212600708
-0.26892176270484924 0.22072988748550415 0.11870098114013672
0.26042911410331726 0.3988513946533203 -0.09151025861501694
0.21478891372680664 -0.24203075468540192 -0.13404974341392517
0.26023995876312256 0.2303313910961151 -0.0343865230679512
0.28361010551452637 -0.4421992897987366 0.16220860183238983
0.040263790637254715 0.17248877882957458 0.15402470529079437
-0.28576594591140747 0.011889561079442501 -0.3113027513027191
0.2525347173213959 -0.29504382610321045 0.08519039303064346
0.289213091135025 0.010684125125408173 -0.13502804934978485
-0.26858025789260864 0.1704910546541214 0.15413044393062592
-0.2523866891860962 0.23414911329746246 0.01062912866473198
-0.014848876744508743 -0.24941621720790863 -0.1319451481103897
0.20986729860305786 0.22867293655872345 0.025252727791666985
-0.26873210072517395 0.22324949502944946 -0.07506835460662842
0.012876683846116066 0.20469851791858673 -0.13891270756721497
-0.23445096611976624 -0.4305303990840912 0.17967426776885986
-0.18192346394062042 -0.39682871103286743 -0.019512657076120377
-0.22870080173015594 -0.4362315535545349 0.16471482813358307
0.19543702900409698 0.1753048449754715 0.15501923859119415
0.2882905602455139 -0.027111314237117767 -0.13505935668945312
-0.26957640051841736 0.20522186160087585 -0.13595424592494965
0.2665266692638397 -0.3320292830467224 -0.06398720294237137
-0.1569703370332718 0.08340302109718323 -0.13707445561885834
0.2549590766429901 0.5002015829086304 -0.04050975665450096
0.21000276505947113 0.3010999858379364 0.024935029447078705
0.20647260546684265 0.2270573526620865 0.04527527466416359
-0.2371779978275299 -0.45610928535461426 0.09722709655761719
0.2508118152618408 0.07226134091615677 0.1574419140815735
-0.13485416769981384 0.22624924778938293 0.15131917595863342
-0.24665628373622894 -0.4609529376029968 0.05895872414112091
0.29445090889930725 0.07268720865249634 0.1530960500240326
-0.17106881737709045 -0.25231772661209106 0.0738641619682312
0.28240153193473816 -0.44626230001449585 0.08310101926326752
0.202918142080307 0.4879715144634247 0.11128708720207214
-0.031005781143903732 0.227412149310112 -0.04730449989438057
0.2358536571264267 -0.034528493881225586 0.1705566644668579
-0.2594766318798065 0.12392614781856537 -0.13571874797344208
0.28927284479141235 0.15129724144935608 -0.13703376054763794
0.2939358353614807 -0.06006593257188797 -0.13325874507427216
-0.271738201379776 -0.030505985021591187 0.14682403206825256
-0.009469332173466682 0.29687219858169556 -0.24619798362255096
0.1637197881937027 -0.44480282068252563 0.13423676788806915
0.28493165969848633 0.06742757558822632 -0.1352710723876953
-0.2702614367008209 0.01316668838262558 -0.13392019271850586
0.3002290725708008 0.36275240778923035 0.04733547195792198
0.17657054960727692 -0.2528351843357086 -0.0044699362479150295
-0.28692445158958435 -0.44512319564819336 -0.08261120319366455
0.1816798448562622 -0.2505853474140167 -0.027454599738121033
-0.2711382210254669 -0.0328337661921978 -0.1192990317940712
-0.13775348663330078 -0.19507229328155518 0.15372209250926971
-0.1372864693403244 -0.24971479177474976 0.0076246103271842
-0.29390013217926025 -0.3139130473136902 0.11853685975074768
-0.24721474945545197 -0.48278936743736267 -0.014624773524701595
0.2377685308456421 0.23338958621025085 0.053360678255558014
-0.269125759601593 -0.02376037836074829 0.15382356941699982
-0.2195691466331482 -0.05291324853897095 0.16295136511325836
0.16828203201293945 -0.40701743960380554 0.186330646276474
-0.1090596616268158 0.16746799647808075 0.16392570734024048
-0.2676597237586975 0.4107746481895447 0.04876556992530823
0.24223008751869202 -0.40862351655960083 -0.09218805283308029
0.24028365314006805 0.4366525709629059 -0.09061619639396667
0.17557698488235474 0.4004345238208771 0.07890401780605316
0.2964428961277008 -0.16591358184814453 0.1269744485616684
-0.1030249148607254 0.22622157633304596 -0.024693584069609642
0.03827070817351341 -0.24699249863624573 -0.12336571514606476
0.22459277510643005 0.4739641547203064 -0.06910507380962372
-0.2145608812570572 0.24552670121192932 0.05037009343504906
-0.3336600065231323 -0.3737317621707916 0.03266497328877449
-0.32426998019218445 -0.42787429690361023 -0.05482916533946991
-0.039649926126003265 0.22629599273204803 -0.13396960496902466
0.2948620915412903 0.0025897473096847534 -0.1334661841392517
0.28158092498779297 -0.4430657625198364 0.15067940950393677
0.26073163747787476 0.49485349655151367 0.12171106785535812
-0.2058343142271042 0.1947374939918518 0.15715891122817993
-0.2595989406108856 -0.32575884461402893 -0.073748379945755
-0.041938308626413345 0.12339293956756592 -0.13552379608154297
-0.06878872215747833 0.1196388304233551 0.16756191849708557
0.2876100540161133 0.15762938559055328 -0.1359044462442398
0.2959456145763397 0.0027997568249702454 0.14525209367275238
-0.03081173077225685 -0.23661857843399048 0.15596824884414673
-0.2646051049232483 -0.24827878177165985 0.14904533326625824
-0.2688063681125641 0.22318461537361145 -0.06973109394311905
-0.3265341818332672 -0.35744360089302063 0.18571507930755615
-0.18092891573905945 0.2161298245191574 0.15724420547485352
-0.2709639370441437 -0.21248023211956024 0.15505319833755493
-0.24853786826133728 -0.2525923550128937 -0.016485031694173813
-0.23836226761341095 0.22676607966423035 -0.13313068449497223
0.14579904079437256 -0.4359518587589264 0.14554598927497864
0.02528294175863266 0.10903275012969971 -0.18827936053276062
-0.2709749639034271 0.012826893478631973 -0.1342008262872696
0.15673741698265076 0.21645256876945496 0.15709376335144043
0.08200955390930176 0.0056378841400146484 0.17020994424819946
-0.25345855951309204 -0.36068832874298096 0.18706640601158142
0.2936570644378662 -0.008944213390350342 -0.1295212209224701
-0.25874000787734985 -0.18759623169898987 -0.13613015413284302
-0.2416619062423706 -0.25197914242744446 0.11035187542438507
0.1169637143611908 -0.24527151882648468 0.15378254652023315
0.2976711094379425 0.21859046816825867 0.13034652173519135
0.23329901695251465 0.3145785331726074 -0.02969442307949066
-0.2570842206478119 0.06649839878082275 -0.3002631962299347
0.2596435546875 0.23599694669246674 -0.027496980503201485
0.24380984902381897 -0.26486074924468994 0.06960100680589676
-0.1840442419052124 0.06298103928565979 0.16810639202594757
0.29488030076026917 -0.03343716263771057 -0.1302284151315689
-0.1800776571035385 0.22579367458820343 0.14777588844299316
0.02066969871520996 0.19346757233142853 -0.13892070949077606
0.22455745935440063 0.3909105956554413 0.1036132276058197
-0.24868051707744598 0.4693322777748108 0.1165618896484375
0.06169706583023071 0.17382825911045074 -0.1322452574968338
0.29691770672798157 0.1636503040790558 -0.12366339564323425
-0.2598690390586853 0.22688615322113037 -0.13365739583969116
0.28987160325050354 0.21665075421333313 -0.13448381423950195
-0.09432242810726166 0.2174171805381775 0.15725837647914886
0.09792614728212357 0.15856076776981354 0.17205427587032318
-0.3386119306087494 -0.38176625967025757 0.015325215645134449
-0.24111410975456238 0.42134639620780945 0.10299825668334961
0.29541757702827454 0.2235894799232483 0.1335943341255188
0.2894554138183594 0.21682395040988922 -0.1345978081226349
0.27294251322746277 -0.24298720061779022 -0.13549238443374634
-0.1970096379518509 0.2416200041770935 0.04581349343061447
-0.2687376141548157 -0.24560101330280304 -0.11876098811626434
0.11507780849933624 0.08551335334777832 0.17310163378715515
0.2934891879558563 0.18174996972084045 0.157553568482399
-0.2090001404285431 0.07955227792263031 0.1692238748073578
-0.2649097740650177 -0.12025457620620728 -0.13312098383903503
-0.2103159874677658 -0.09260350465774536 0.16928842663764954
0.2838425636291504 -0.42710134387016296 -0.028185199946165085
0.2848746180534363 0.07029065489768982 -0.13525688648223877
-0.22839906811714172 -0.10438873618841171 0.1525474190711975
-0.2545314431190491 0.474029541015625 -0.0014739343896508217
-0.2259833812713623 -0.2858891189098358 0.08245796710252762
0.29747843742370605 0.1678704023361206 0.15526628494262695
-0.20693978667259216 0.04162183031439781 0.16880707442760468
0.29065975546836853 0.21232733130455017 -0.13410010933876038
0.28558245301246643 -0.23066841065883636 -0.1343657225370407
-0.1516319066286087 -0.0240107923746109 -0.13641634583473206
-0.27007564902305603 -0.095639169216156 -0.12359520047903061
-0.27044159173965454 -0.0584636852145195 -0.13038814067840576
0.2963470220565796 0.024108558893203735 -0.1290033459663391
0.13783757388591766 -0.43156754970550537 0.10018238425254822
-0.25759071111679077 0.4288763701915741 0.12010440230369568
0.2932373285293579 0.33992910385131836 -0.026234935969114304
0.26429322361946106 -0.360384076833725 -0.07050512731075287
-0.3354876637458801 -0.3933384418487549 0.0259744580835104
-0.2350969910621643 -0.474142849445343 0.03753165528178215
0.2962770462036133 0.1509239375591278 0.1482585221529007
0.288481205701828 -0.13148222863674164 0.15658342838287354
0.06600809097290039 -0.2453145682811737 0.035917915403842926
0.28401610255241394 0.04677063226699829 -0.13510237634181976
-0.014886334538459778 0.07127716392278671 0.1678779125213623
0.29536062479019165 0.09363771975040436 0.14891283214092255
0.2869953513145447 -0.1877421885728836 -0.1354406774044037
0.2943122386932373 -0.043948300182819366 0.155940443277359
0.295751690864563 0.4738379120826721 0.06505012512207031
0.29520028829574585 0.4108791947364807 0.13058945536613464
-0.29510393738746643 -0.3756253719329834 0.20273366570472717
-0.2923089265823364 0.04866378754377365 -0.28371724486351013
-0.10478419065475464 -0.24933487176895142 0.1441510021686554
-0.2695186138153076 -0.2492407262325287 0.009371984750032425
-0.12131927907466888 -0.2505199909210205 -0.012307649478316307
-0.2709594666957855 -0.0014529218897223473 -0.06716029345989227
0.2970321774482727 0.022555038332939148 -0.13333289325237274
0.14539961516857147 -0.42862990498542786 0.1522526741027832
0.29559969902038574 -0.23581498861312866 0.11772569268941879
0.24881787598133087 -0.17722590267658234 0.1609339863061905
-0.27097707986831665 0.04586734250187874 -0.13396967947483063
0.29400402307510376 0.2266007959842682 -0.12693999707698822
0.22332459688186646 0.1725427657365799 0.15491081774234772
0.28756746649742126 -0.39545413851737976 0.1719980239868164
-0.2701283395290375 0.21153408288955688 -0.13402089476585388
0.29603374004364014 0.21641084551811218 0.11731836944818497
0.2991871237754822 -0.190316841006279 0.13602928817272186
0.2967076301574707 0.11731897294521332 -0.0010027140378952026
0.1896902173757553 0.34661391377449036 0.07443299889564514
-0.2687687277793884 0.0503704696893692 -0.13503633439540863
0.29603108763694763 -0.09172137081623077 0.12204540520906448
-0.17214426398277283 0.17824497818946838 0.1564636379480362
-0.2684541344642639 -0.15902239084243774 -0.12919309735298157
0.2906130850315094 0.2270973175764084 -0.03505527973175049
0.23642538487911224 -0.4471155107021332 0.19931621849536896
0.23931369185447693 0.42211952805519104 -0.09404385089874268
0.0384858064353466 0.18762560188770294 -0.1363801807165146
0.24837912619113922 -0.3478491008281708 -0.08532993495464325
-0.15628328919410706 -0.253801554441452 0.09028218686580658
-0.2582184076309204 0.17923982441425323 -0.1364019811153412
0.25040867924690247 0.24346022307872772 -0.026101961731910706
-0.011346154846251011 0.28285014629364014 -0.23312532901763916
-0.10800094902515411 0.1608041524887085 0.16863827407360077
-0.22830307483673096 0.22967925667762756 -0.11142244935035706
-0.25624534487724304 0.04459109157323837 0.15596619248390198
0.11709222197532654 0.1464499831199646 -0.13550403714179993
0.24555310606956482 -0.2436637133359909 0.1556701511144638
0.17807647585868835 -0.2523680627346039 0.05580856651067734
0.1723012924194336 -0.4473789632320404 0.027126416563987732
-0.2707301676273346 0.047593239694833755 -0.1277039498090744
-0.020706210285425186 0.17068830132484436 -0.13456836342811584
0.0068099237978458405 0.22624441981315613 -0.1333015412092209
-0.15356819331645966 0.40318816900253296 0.026643654331564903
0.04743754118680954 -0.062061820179224014 0.16792824864387512
0.29709988832473755 -0.05250905454158783 0.14457310736179352
-0.16362527012825012 0.1752346307039261 0.15461750328540802
-0.25130200386047363 0.04272805154323578 -0.2646435499191284
-0.2692391872406006 -0.2404886931180954 -0.1316547989845276
0.29413750767707825 0.2248409390449524 -0.017466701567173004
-0.06269849836826324 0.1678941696882248 0.1604657620191574
-0.2399113029241562 0.2306588888168335 0.044817112386226654
-0.05635036155581474 0.22896628081798553 -0.12717050313949585
0.23768150806427002 -0.4440905451774597 -0.07779324054718018
-0.23484252393245697 0.49720466136932373 0.016835015267133713
0.23662306368350983 -0.03310789540410042 0.1710776537656784
0.24066703021526337 -0.4115332067012787 -0.0917191207408905
0.13684186339378357 0.2235593944787979 0.1530935913324356
-0.29024380445480347 0.09015173465013504 -0.29584595561027527
-0.2608945965766907 0.22642925381660461 -0.13601791858673096
-0.19363799691200256 0.3553446829319 -0.06358328461647034
0.29553043842315674 -0.1621827483177185 0.15703651309013367
-0.31199726462364197 -0.32634469866752625 0.18214267492294312
-0.0749334990978241 0.22898311913013458 -0.12905459105968475
0.046970389783382416 -0.252310574054718 0.0918792188167572
-0.25911271572113037 0.3399142026901245 0.035774070769548416
-0.2733827531337738 -0.13000480830669403 0.10004299879074097
-0.27015575766563416 0.21986155211925507 -0.016774587333202362
-0.26988425850868225 0.21745580434799194 -0.0797315463423729
0.13797134160995483 0.21560485661029816 0.15648722648620605
0.2411031723022461 -0.4194343388080597 0.20595847070217133
-0.30470535159111023 -0.3956542909145355 -0.08126731216907501
0.2196633517742157 -0.4461381733417511 -0.07810565084218979
-0.271004319190979 -0.04697848856449127 -0.12780694663524628
-0.25736626982688904 0.425161212682724 0.12199521064758301
-0.26917871832847595 -0.08773823082447052 0.14661307632923126
0.29397526383399963 -0.11824563890695572 0.15651383996009827
-0.2756754159927368 -0.3803776502609253 -0.09377384930849075
-0.26967838406562805 -0.2469208836555481 0.007647287100553513
-0.26671338081359863 0.04583227261900902 -0.13524192571640015
0.2853463590145111 0.16411583125591278 -0.13555975258350372
0.24569451808929443 0.1678239107131958 0.15527482330799103
-0.32909315824508667 -0.4222547113895416 -0.05931372940540314
-0.24209290742874146 -0.30750319361686707 0.10150245577096939
0.04908255487680435 -0.2431025356054306 0.15304389595985413
0.2893332242965698 0.21563810110092163 -0.13388580083847046
0.13814491033554077 -0.07663631439208984 -0.1353898048400879
0.07819189876317978 0.17099837958812714 0.1533617377281189
0.2980765402317047 0.1888664811849594 0.1482895165681839
0.1274428814649582 0.21237170696258545 -0.13398970663547516
-0.2741521894931793 -0.2381293624639511 0.11361738294363022
0.19828853011131287 0.4953943192958832 0.006600644439458847
0.23529505729675293 -0.11708592623472214 0.1682041585445404
-0.10627314448356628 0.17770564556121826 0.15055902302265167
0.20922443270683289 0.23578394949436188 0.0427854098379612
-0.3108881115913391 -0.32907041907310486 0.18604275584220886
0.06139973923563957 0.1543930470943451 -0.1373673379421234
0.01134784147143364 0.14700250327587128 -0.13276703655719757
0.2264806628227234 0.10341405123472214 0.1691073179244995
0.29393187165260315 0.22269217669963837 -0.11268900334835052
0.12831011414527893 0.10299299657344818 -0.13569308817386627
0.2799220681190491 0.39648908376693726 -0.07591010630130768
-0.2084103524684906 0.4264901578426361 -0.08028045296669006
-0.26903778314590454 0.2251509428024292 0.06168684735894203
-0.2163964807987213 0.22951805591583252 -0.033958662301301956
-0.271476149559021 -0.2440313994884491 -0.0575302392244339
0.2963548004627228 0.012564053758978844 0.15384849905967712
0.08335941284894943 -0.2476857602596283 -0.13110484182834625
0.23830409348011017 0.10843638330698013 0.16869914531707764
0.25277847051620483 -0.07049095630645752 0.15614542365074158
0.2952077388763428 -0.06874079257249832 -0.13253706693649292
-0.25802314281463623 -0.24478353559970856 -0.13480447232723236
-0.18126894533634186 0.33040934801101685 -0.025982901453971863
0.2545900046825409 0.059310778975486755 0.15355870127677917
-0.24501138925552368 0.43256160616874695 0.11125490069389343
0.2947753369808197 0.34417447447776794 0.0499706007540226
0.29131031036376953 0.2061464786529541 0.1442285180091858
0.2931129038333893 0.014314793050289154 0.03668741509318352
0.19259898364543915 0.478568434715271 0.1085236445069313
0.1994388997554779 0.37286391854286194 -0.06211566925048828
-0.09188325703144073 0.14955362677574158 -0.13727328181266785
0.2888054847717285 0.21780988574028015 -0.13534191250801086
-0.27104926109313965 -0.2422584444284439 -0.06785798072814941
-0.2378954291343689 -0.48113569617271423 -0.01120772399008274
0.1946672946214676 -0.25335511565208435 -0.039797451347112656
0.27448633313179016 0.23377421498298645 0.03464898467063904
-0.18825700879096985 0.24782417714595795 0.0398697592318058
0.28790247440338135 0.08031166344881058 -0.134561225771904
-0.27973997592926025 -0.36189568042755127 0.2010163515806198
-0.27131006121635437 -0.2471705675125122 -0.0058629922568798065
-0.2691013813018799 0.15157145261764526 0.14466366171836853
-0.024103427305817604 0.28405141830444336 -0.2842285931110382
-0.2765451669692993 -0.39124247431755066 0.2019950896501541
0.28931814432144165 -0.009390421211719513 -0.13254813849925995
-0.20898841321468353 0.4458572268486023 -0.07363633066415787
-0.2576162815093994 0.02880338951945305 0.15581004321575165
0.2085871398448944 0.30878472328186035 0.016612783074378967
-0.14169684052467346 0.2279921919107437 -0.03680989891290665
0.23223689198493958 -0.24899636209011078 0.14648443460464478
-0.24865607917308807 -0.2530582547187805 0.005988858640193939
-0.18229785561561584 0.2293965071439743 -0.06708549708127975
-0.19352203607559204 -0.23694801330566406 0.15582361817359924
0.1918909251689911 -0.262673944234848 -0.038330405950546265
0.295025110244751 0.044325362890958786 0.14684322476387024
-0.2713638246059418 -0.2505881190299988 -0.046136874705553055
-0.11320199072360992 -0.23276889324188232 -0.13431157171726227
-0.25501495599746704 -0.307540625333786 0.10131614655256271
0.29011499881744385 0.12286444008350372 -0.13458797335624695
0.29730838537216187 -0.02136775106191635 -0.12301801145076752
0.02729983814060688 0.10073183476924896 -0.17214462161064148
-0.27264800667762756 -0.11696158349514008 0.09084133058786392
-0.2611510157585144 0.06347605586051941 0.1563553810119629
0.2990027964115143 0.225139781832695 0.06334710121154785
-0.026199132204055786 0.2772592008113861 -0.23327678442001343
0.294050931930542 0.45355144143104553 -0.031421761959791183
-0.22505053877830505 0.23993533849716187 0.051706671714782715
0.15048667788505554 -0.4313240945339203 -0.027539348229765892
0.22675758600234985 0.5146539807319641 0.06048505753278732
0.29492250084877014 0.01483830064535141 -0.13253679871559143
0.2686076760292053 -0.24630765616893768 -0.1254388839006424
0.2896704375743866 0.22713527083396912 -0.08541109412908554
0.2900962233543396 0.22267182171344757 -0.11478745937347412
0.1156059056520462 0.22444969415664673 -0.13277144730091095
0.2563496232032776 0.24110248684883118 -0.024316508322954178
-0.16392652690410614 0.22874480485916138 0.0010003075003623962
0.2898368239402771 -0.01896512508392334 -0.13430264592170715
