-0.33577343821525574 -0.36233219504356384 0.07116951793432236
-0.09765034168958664 -0.17560315132141113 0.17224447429180145
0.27120062708854675 -0.4141750931739807 0.19676795601844788
0.2930361032485962 0.40512794256210327 0.1251259297132492
0.2975319027900696 0.3905107378959656 0.06228000670671463
0.2508910894393921 0.09001421928405762 -0.13184517621994019
-0.26907244324684143 0.09662851691246033 -0.1285991668701172
-0.2606312334537506 0.43200138211250305 0.1064811423420906
-0.22809529304504395 -0.30056431889533997 0.08549002557992935
-0.264684796333313 -0.029501087963581085 -0.13562597334384918
0.21154093742370605 0.23304259777069092 -0.02484683319926262
-0.03422797843813896 -0.23513828217983246 0.15931037068367004
0.2605791985988617 -0.32769325375556946 -0.06443409621715546
0.22903813421726227 0.5174586772918701 0.04159931838512421
0.2921701967716217 -0.1390954852104187 -0.13340528309345245
-0.26885586977005005 -0.019890399649739265 0.15504814684391022
-0.26122185587882996 0.42937374114990234 0.11923249065876007
-0.2671653926372528 0.10766209661960602 -0.1347678303718567
-0.17561502754688263 -0.23976081609725952 -0.1321064829826355
0.16369770467281342 0.22878548502922058 -0.12131206691265106
0.246660977602005 0.034413740038871765 0.1547914445400238
0.22825345396995544 -0.24215468764305115 0.15778332948684692
-0.11083492636680603 -0.09856298565864563 0.1696258932352066
-0.22365111112594604 -0.4555094838142395 0.12895917892456055
-0.16056159138679504 0.43173280358314514 0.10086993873119354
0.29401567578315735 0.07861033082008362 -0.13429860770702362
-0.272891640663147 -0.20639672875404358 0.1502426266670227
0.12138861417770386 -0.18074770271778107 0.16737769544124603
0.2341156303882599 -0.08817769587039948 0.16926537454128265
-0.262810617685318 0.047250889241695404 0.15730257332324982
0.274305522441864 -0.23538221418857574 -0.13449427485466003
0.23779180645942688 -0.03947725147008896 0.16619683802127838
-0.23039674758911133 -0.2854123115539551 -0.06019032001495361
-0.12481842190027237 -0.24948234856128693 -0.060329560190439224
0.29245665669441223 -0.038367193192243576 -0.13281051814556122
0.12367486953735352 -0.23183518648147583 -0.13436245918273926
-0.26391923427581787 0.07435402274131775 -0.13321684300899506
-0.2950943410396576 -0.3822784423828125 -0.08232349902391434
0.29607832431793213 -0.1163472980260849 0.15387985110282898
-0.24307869374752045 -0.3104485273361206 0.1022896021604538
-0.06576134264469147 -0.240840882062912 -0.13602057099342346
-0.2597108781337738 0.22789837419986725 -0.06291718035936356
0.2967436909675598 0.07196100056171417 0.15224026143550873
0.1621561497449875 -0.445797324180603 0.16233223676681519
-0.15974102914333344 -0.2574358880519867 -0.027137476950883865
0.2904818058013916 -0.11126019805669785 -0.13794252276420593
-0.22372747957706451 0.13011261820793152 0.16306175291538239
0.23602281510829926 -0.1042005717754364 0.17055518925189972
0.15566839277744293 -0.44041264057159424 -0.0337677001953125
0.1380026638507843 0.22759756445884705 0.14807622134685516
-0.2695100009441376 -0.13531339168548584 -0.0048557366244494915
0.29916682839393616 0.12132935225963593 -0.12417309731245041
-0.2666513919830322 0.09392450004816055 -0.13437722623348236
0.29875537753105164 0.07326508313417435 0.1525474637746811
-0.27073851227760315 -0.09547840058803558 0.126829132437706
-0.26213720440864563 0.22353078424930573 -0.11777103692293167
-0.02347465604543686 -0.248139888048172 -0.07405944168567657
0.28805360198020935 -0.2483505755662918 -0.10275137424468994
0.2692936956882477 0.336230605840683 0.07602926343679428
0.09708602726459503 -0.24012835323810577 0.15829358994960785
-0.2681920826435089 -0.4560377597808838 0.016557786613702774
-0.18674390017986298 0.37916624546051025 -0.06429582834243774
-0.21915902197360992 0.18257257342338562 0.1562342643737793
0.06756814569234848 -0.24449431896209717 -0.1352529078722
-0.031697243452072144 0.22886185348033905 -0.03446247801184654
-0.333478182554245 -0.36138540506362915 0.1416025310754776
-0.26468953490257263 0.02060714364051819 -0.13443683087825775
0.24768611788749695 -0.03978981822729111 0.1615609973669052
-0.2568984925746918 -0.3620583415031433 -0.09000147879123688
0.29113948345184326 0.09000366181135178 0.159203439950943
-0.12450888752937317 -0.2545137405395508 0.1254078447818756
0.29570144414901733 0.039741549640893936 0.15253619849681854
0.21576303243637085 -0.1635456532239914 0.16806189715862274
-0.2701387107372284 -0.07588054239749908 -0.12731702625751495
-0.2659500241279602 0.12728048861026764 -0.13191713392734528
0.2981576919555664 0.2092820554971695 -0.12153583019971848
0.28908783197402954 0.17243900895118713 0.161182701587677
-0.2694322466850281 -0.07833126187324524 -0.1042376309633255
0.2691115140914917 -0.24125681817531586 -0.13182483613491058
-0.2625017464160919 0.16779698431491852 -0.1332634836435318
0.28404945135116577 -0.225909024477005 -0.13463075459003448
0.2962443232536316 0.11248859763145447 -0.11854979395866394
-0.22042140364646912 -0.2789888083934784 0.07913891971111298
-0.2050025314092636 -0.4176357686519623 0.15705254673957825
-0.18029798567295074 0.22650712728500366 0.12992249429225922
0.28551724553108215 -0.17418482899665833 -0.13462112843990326
-0.2718094289302826 -0.36679166555404663 0.20131421089172363
-0.21907246112823486 0.003915490582585335 0.16945002973079681
-0.27087485790252686 -0.159807026386261 0.10868969559669495
-0.009975767694413662 0.25932011008262634 -0.2680710554122925
-0.03225493058562279 0.16465497016906738 -0.19484446942806244
-0.2643398642539978 -0.12629899382591248 -0.13248755037784576
-0.12353552877902985 -0.16635796427726746 0.17164114117622375
-0.2651156187057495 0.03461075201630592 -0.13295848667621613
0.29457810521125793 0.21999762952327728 -0.09745992720127106
-0.2474847286939621 0.42006564140319824 0.10659030079841614
0.2642279863357544 -0.3745429217815399 0.17289264500141144
-0.26755011081695557 0.21858564019203186 -0.004007453564554453
0.039711639285087585 0.1063523143529892 -0.13762767612934113
0.20147627592086792 0.35754990577697754 0.10661680996417999
-0.21716144680976868 0.09735968708992004 -0.13663043081760406
0.1455361396074295 0.22095051407814026 0.15978416800498962
0.29506033658981323 -0.0036460235714912415 0.14736220240592957
0.29368919134140015 0.1253010481595993 0.1593818962574005
-0.26900720596313477 -0.025775756686925888 0.09962241351604462
-0.26949021220207214 -0.05078697204589844 -0.13120099902153015
0.1884380578994751 0.3402961194515228 -0.006080299615859985
0.14840735495090485 0.22814880311489105 -0.118763767182827
-0.26265260577201843 -0.04420877620577812 -0.13447901606559753
-0.2978177070617676 -0.37484052777290344 0.20602485537528992
0.26963114738464355 0.4825904071331024 0.1354503333568573
0.1809523105621338 0.4470334053039551 -0.024045636877417564
-0.33510497212409973 -0.37116751074790955 0.09618348628282547
0.004042722284793854 -0.2062372863292694 0.15559686720371246
0.24357256293296814 -0.24313980340957642 -0.13402234017848969
0.28021249175071716 0.46397948265075684 0.13666710257530212
0.2457686811685562 0.434078574180603 0.1046333909034729
-0.036291640251874924 0.21906723082065582 0.16154128313064575
-0.27058765292167664 0.08243109285831451 -0.12721188366413116
0.29046615958213806 -0.11405979841947556 0.1593332290649414
-0.20260418951511383 -0.43133512139320374 0.12271790951490402
-0.25998347997665405 0.3998352885246277 -0.04373951256275177
0.28490352630615234 -0.2388240247964859 -0.13213931024074554
0.28302156925201416 0.03233285993337631 -0.13436302542686462
-0.2686471939086914 -0.4700848460197449 -0.06577559560537338
0.2890915870666504 0.09261882305145264 -0.13452671468257904
0.08137068152427673 -0.18464675545692444 0.16387908160686493
-0.14394178986549377 -0.25736963748931885 0.011342492885887623
-0.2694590389728546 0.08364492654800415 0.14699921011924744
-0.245020791888237 -0.47761744260787964 -0.039953023195266724
0.19699421525001526 0.14854960143566132 0.1702522188425064
-0.2605651021003723 -0.36374136805534363 -0.0934363305568695
-0.2345285266637802 -0.2463812232017517 -0.1285734325647354
0.1378406286239624 -0.24509593844413757 -0.13423998653888702
0.06355343759059906 -0.24815499782562256 -0.05677235126495361
-0.08881429582834244 -0.17153795063495636 -0.13486599922180176
-0.18177038431167603 0.3436480164527893 0.06939569115638733
0.2801201343536377 0.08014968037605286 -0.13469885289669037
-0.09462850540876389 -0.24638952314853668 -0.13425108790397644
0.2003536820411682 -0.4264099895954132 -0.0819781944155693
-0.28885096311569214 0.06506730616092682 -0.2783116102218628
-0.266928493976593 -0.012779399752616882 0.15524683892726898
-0.2464832067489624 -0.27683332562446594 0.0436851792037487
-0.1594797670841217 -0.33826372027397156 -0.004820550791919231
0.24162909388542175 0.4372236132621765 0.10544333606958389
-0.26552239060401917 0.006995202042162418 -0.1353345513343811
0.18628151714801788 0.1452774852514267 -0.13652156293392181
0.06289584934711456 0.22836387157440186 -0.04631462320685387
0.24797794222831726 -0.06881153583526611 0.1539073884487152
-0.19052869081497192 0.22873762249946594 0.15400661528110504
-0.2722037136554718 -0.09575948119163513 -0.12935595214366913
0.27738991379737854 -0.4425381124019623 0.1684335321187973
-0.2655581533908844 -0.08270969241857529 -0.13592985272407532
-0.18524330854415894 -0.2478598654270172 -0.12427082657814026
-0.26589271426200867 0.03424355760216713 -0.13471822440624237
0.29029908776283264 -0.012040436267852783 -0.13360927999019623
0.23418259620666504 -0.1457010954618454 0.1701776683330536
0.011030063033103943 0.06776325404644012 -0.13648416101932526
-0.04030071943998337 -0.24692876636981964 -0.09750030934810638
-0.1956554353237152 0.2267029583454132 -0.10504259169101715
-0.2863367795944214 -0.31259220838546753 0.13503451645374298
0.286285400390625 -0.10613210499286652 0.15912355482578278
-0.2601935863494873 0.042359791696071625 -0.13526728749275208
0.17042702436447144 -0.18191908299922943 0.16920322179794312
-0.26348549127578735 -0.12497031688690186 -0.13596509397029877
0.29027023911476135 0.1004878431558609 -0.13488593697547913
-0.18852895498275757 0.22986076772212982 -0.04416801780462265
0.19800227880477905 0.32208168506622314 0.01391550526022911
0.26181817054748535 -0.29354801774024963 0.07789472490549088
0.21177808940410614 -0.24969126284122467 0.07065989822149277
-0.024005994200706482 -0.24032847583293915 -0.13500826060771942
-0.1801629513502121 -0.1895110309123993 0.1629149168729782
0.2973105311393738 0.20303894579410553 -0.09097523987293243
-0.16714459657669067 -0.23744535446166992 -0.13723760843276978
0.11815483868122101 0.22640468180179596 0.11420416831970215
0.0029591810889542103 0.17815478146076202 -0.22400563955307007
0.2857288718223572 0.387084424495697 0.11855415254831314
-0.2099217176437378 0.16414788365364075 0.15641313791275024
-0.15681272745132446 -0.29377999901771545 0.02683601900935173
0.22778263688087463 -0.44190818071365356 -0.08910881727933884
0.2966744899749756 -0.046918727457523346 0.14852102100849152
0.2958713471889496 -0.1588832139968872 0.15606121718883514
0.2355889528989792 -0.1546296775341034 0.17080806195735931
-0.26853346824645996 -0.1020403727889061 0.1548430174589157
0.2609483599662781 0.4473203718662262 -0.07858233898878098
0.23029428720474243 -0.15296798944473267 0.16827785968780518
0.23435893654823303 -0.34407463669776917 -0.08590356260538101
0.006570994853973389 -0.016734033823013306 -0.13648174703121185
0.28571128845214844 -0.3982338011264801 0.051809944212436676
0.0660729706287384 0.140217587351799 -0.1363193690776825
-0.10192859172821045 0.14930830895900726 0.17187608778476715
-0.2653380036354065 0.16312392055988312 -0.13542836904525757
0.23457224667072296 0.4599378705024719 -0.08302003890275955
0.2859801948070526 -0.3845301568508148 0.15788167715072632
-0.13486942648887634 -0.17415452003479004 0.17268307507038116
0.023058785125613213 -0.11803124845027924 0.16944094002246857
-0.2705855965614319 -0.17422650754451752 -0.04893167316913605
0.07239639759063721 0.15064842998981476 0.17217986285686493
0.28314143419265747 0.1050417572259903 -0.13224272429943085
-0.2632364332675934 0.4411312937736511 0.10833962261676788
0.2985398471355438 0.3873593211174011 0.055985912680625916
-0.2630124092102051 -0.147054523229599 -0.13655990362167358
0.2650316059589386 0.4629542827606201 -0.06892762333154678
-0.22447946667671204 -0.3145604729652405 -0.07862500846385956
-0.21210578083992004 -0.43078380823135376 0.1559762954711914
-0.2197447419166565 -0.06953461468219757 0.16828611493110657
-0.30423420667648315 -0.4464224576950073 -0.06831972301006317
0.13067469000816345 0.2286515086889267 -0.031565677374601364
0.29124489426612854 -0.08182661235332489 0.15898048877716064
-0.2828217148780823 -0.3651612401008606 0.20616063475608826
-0.06859815865755081 0.14739345014095306 0.17079150676727295
-0.204667329788208 -0.36849260330200195 0.10579024255275726
0.2910289466381073 0.1544310748577118 0.16086751222610474
-0.005049156025052071 -0.18240678310394287 0.16712291538715363
-0.21304938197135925 0.39076995849609375 -0.08224667608737946
-0.2905327081680298 0.054849252104759216 -0.3066200017929077
-0.26698440313339233 0.10549972951412201 -0.13677054643630981
0.29160836338996887 0.22582712769508362 -0.12223438918590546
-0.2677689492702484 -0.07208240032196045 0.15544059872627258
0.29514187574386597 -0.018269969150424004 -0.13378222286701202
-0.11175615340471268 0.08106629550457001 -0.14011260867118835
0.27736037969589233 0.37061432003974915 0.11674290895462036
-0.2667015790939331 0.08944723010063171 -0.133584126830101
0.24168425798416138 0.18309229612350464 -0.13352318108081818
-0.0185941681265831 0.22367867827415466 0.15319104492664337
-0.2627885937690735 -0.06124114990234375 -0.1342061311006546
0.26107901334762573 -0.3337419033050537 -0.06944087147712708
0.18122699856758118 0.22788429260253906 -0.12540589272975922
0.18278293311595917 -0.2537395656108856 0.05597357451915741
0.2736910879611969 0.3792165219783783 0.12324707210063934
-0.23470410704612732 -0.4566262662410736 0.11219314485788345
-0.2620186507701874 -0.13345883786678314 -0.13268855214118958
-0.2539142966270447 -0.250845730304718 -0.015283077955245972
0.25012555718421936 -0.2619783878326416 0.05072341114282608
-0.16383516788482666 0.3604052662849426 0.002865458372980356
-0.03949976712465286 0.07451826333999634 0.17146001756191254
-0.2715868651866913 0.21551278233528137 0.13161057233810425
-0.04745112359523773 0.16494706273078918 0.16088567674160004
-0.26880547404289246 0.18221087753772736 -0.12537556886672974
0.05718923732638359 -0.23405486345291138 0.1579699069261551
-0.3316829800605774 -0.35732516646385193 0.09050184488296509
0.18527819216251373 0.22898270189762115 -0.11969956010580063
0.26510757207870483 -0.3073401153087616 -0.04291275888681412
-0.2497340887784958 0.43866968154907227 -0.05061810463666916
-0.27146491408348083 -0.1412314623594284 -0.12574559450149536
-0.017447300255298615 0.22688178718090057 0.14934757351875305
0.29115915298461914 -0.07891155779361725 0.1606888473033905
-0.25987952947616577 0.15369760990142822 -0.13880576193332672
0.24784819781780243 -0.1332063376903534 0.15555822849273682
0.28568553924560547 0.41738423705101013 0.13463528454303741
0.21263688802719116 -0.44660598039627075 -0.08570274710655212
-0.039669208228588104 0.158522367477417 0.16662894189357758
0.01569558121263981 0.22481870651245117 0.15320566296577454
-0.007012180518358946 0.2259673923254013 -0.1824006736278534
-0.2600087523460388 -0.28908389806747437 0.044718507677316666
-0.1960633397102356 0.33076712489128113 -0.03776349872350693
-0.27037137746810913 0.1022452712059021 -0.12720917165279388
0.03459347411990166 0.22703392803668976 0.1447439193725586
-0.2726360261440277 -0.1730271279811859 0.01186060905456543
-0.029501117765903473 0.17736946046352386 -0.1889054775238037
-0.2710359990596771 0.05210791155695915 0.14956034719944
-0.27076566219329834 -0.1930079311132431 0.1530112326145172
0.23739254474639893 -0.4114646911621094 -0.0894438624382019
0.17927110195159912 0.1780966967344284 0.1579888015985489
0.2546340823173523 -0.33100271224975586 -0.07262896001338959
-0.22489003837108612 0.23724472522735596 0.057346537709236145
-0.2666378617286682 -0.20505261421203613 -0.13552391529083252
0.29653728008270264 -0.0009755901992321014 0.1524030715227127
-0.02219967171549797 0.22829094529151917 -0.06199049949645996
0.23579080402851105 0.3048105239868164 -0.029188746586441994
-0.008887263014912605 0.18295980989933014 -0.14295223355293274
-0.22648310661315918 -0.45685139298439026 0.12905475497245789
-0.2714117467403412 0.059788674116134644 -0.07625042647123337
0.06326237320899963 -0.24109560251235962 -0.13413305580615997
0.292631059885025 0.38107219338417053 0.10579361021518707
-0.25435999035835266 0.38547763228416443 0.112169049680233
-0.33685365319252014 -0.3605645000934601 0.13917507231235504
0.24886853992938995 -0.055192843079566956 0.1555825173854828
0.2441580593585968 -0.1216774731874466 0.16232100129127502
-0.2601836621761322 0.42574965953826904 0.11959138512611389
0.2388055920600891 -0.07377839833498001 0.16553963720798492
0.2417295277118683 0.22648322582244873 0.09947647154331207
0.29654616117477417 0.020302481949329376 0.14812049269676208
-0.23795495927333832 -0.044381283223629 0.1552913933992386
-0.0874100849032402 -0.01316399872303009 -0.1368281990289688
0.2976562976837158 0.22185759246349335 0.1203126460313797
-0.3070789575576782 -0.3959556818008423 -0.07829174399375916
0.2048116773366928 0.4952225983142853 0.11075648665428162
0.1402437835931778 -0.03469327464699745 -0.13595323264598846
0.29743140935897827 -0.15717634558677673 0.08056057244539261
-0.27095016837120056 -0.04083319008350372 0.1542910784482956
-0.2847380042076111 -0.3156261146068573 0.14043688774108887
0.03768168389797211 -0.02540942281484604 -0.1352291703224182
0.27063241600990295 -0.2962101697921753 0.03540430963039398
-0.23114646971225739 0.16897818446159363 0.15415580570697784
-0.21619917452335358 0.3916943371295929 -0.08216740190982819
-0.27086183428764343 0.14977522194385529 -0.0033832797780632973
-0.12810035049915314 0.1889980435371399 0.1581585705280304
-0.031980082392692566 0.18557658791542053 -0.19560278952121735
-0.17365437746047974 0.22002610564231873 -0.1323566436767578
0.291458398103714 -0.42491310834884644 0.047141559422016144
-0.03641531988978386 0.14687283337116241 -0.16565978527069092
0.29861387610435486 -0.1050964742898941 0.15478944778442383
-0.2685268521308899 -0.24309033155441284 -0.08917000889778137
-0.26885607838630676 0.09023168683052063 0.15371379256248474
0.10737930238246918 0.21768470108509064 -0.13418512046337128
-0.1424310952425003 0.22662471234798431 0.1533195674419403
0.25326162576675415 -0.265157014131546 -0.024603253230452538
0.278003454208374 0.37500810623168945 0.1245749369263649
-0.010355958715081215 0.2277403175830841 -0.03878796100616455
-0.20373910665512085 -0.43827131390571594 0.11140139400959015
0.2907813787460327 -0.11433335393667221 -0.13586831092834473
0.06924009323120117 -0.17452695965766907 0.16981537640094757
-0.2709566652774811 0.005741443485021591 -0.13220682740211487
0.0770062506198883 0.1878351867198944 -0.13555395603179932
0.25368502736091614 -0.30230700969696045 0.08763013035058975
-0.26096004247665405 0.1009223684668541 -0.1328270137310028
-0.17872175574302673 0.3451654314994812 0.05902140960097313
-0.1868295967578888 0.2291770577430725 -0.0665694922208786
0.12776194512844086 0.08544948697090149 -0.13556060194969177
0.19630996882915497 0.21757706999778748 -0.13630090653896332
-0.2502402365207672 -0.30859875679016113 0.10435786098241806
0.239432230591774 -0.24594426155090332 0.15679465234279633
0.06676115095615387 0.14691106975078583 -0.13730952143669128
-0.26967325806617737 0.016345100477337837 0.1554623693227768
0.12724623084068298 -0.2418082058429718 -0.1326374113559723
0.2967134118080139 -0.18037405610084534 0.14998197555541992
-0.21005390584468842 0.22844170033931732 -0.12996777892112732
-0.27579185366630554 -0.40067946910858154 -0.092355877161026
0.16179259121418 0.22031891345977783 0.16053390502929688
0.29757776856422424 0.15516041219234467 0.0703134685754776
0.29767242074012756 0.13651864230632782 -0.124674953520298
-0.2708045244216919 -0.03024684637784958 -0.12392036616802216
0.2841469645500183 0.08700282871723175 -0.1349041908979416
-0.1557813435792923 -0.25568047165870667 -0.026689346879720688
0.2989721894264221 0.1506432145833969 0.1602851301431656
0.2620152235031128 0.16703902184963226 0.16370776295661926
0.07122626900672913 -0.17628970742225647 0.17166852951049805
-0.21647650003433228 -0.07983626425266266 0.17066633701324463
-0.2743026912212372 -0.18968364596366882 0.07441446185112
0.17453983426094055 -0.2440158724784851 0.15779343247413635
-0.3335377275943756 -0.37045401334762573 0.032326214015483856
0.2473604828119278 -0.011220918968319893 0.15459397435188293
0.28416144847869873 -0.42151135206222534 0.18629682064056396
0.19640645384788513 0.22799262404441833 0.15423381328582764
0.2947025001049042 0.13923174142837524 0.14880244433879852
0.24727682769298553 -0.10352586209774017 0.15753261744976044
-0.2636781334877014 0.13511693477630615 -0.1340753138065338
-0.2119164764881134 0.027779489755630493 0.16987358033657074
0.29387444257736206 0.011758542619645596 -0.09048400074243546
-0.03365958482027054 0.226698100566864 -0.12994840741157532
0.1948052942752838 -0.4448607563972473 0.00827836710959673
-0.31337204575538635 -0.4106258749961853 -0.08253655582666397
0.2147531509399414 -0.24293482303619385 0.1602797657251358
0.29551729559898376 -0.172525092959404 0.15842992067337036
-0.33109724521636963 -0.35050705075263977 0.18273507058620453
-0.3407139182090759 -0.3716619610786438 0.07644591480493546
0.2299821525812149 -0.32609236240386963 -0.0794173926115036
0.1993151605129242 0.3295242190361023 -0.02704400196671486
0.2915341258049011 -0.06031147018074989 0.1558815836906433
-0.33413711190223694 -0.35191962122917175 0.16218045353889465
0.24969959259033203 -0.24678762257099152 -0.12431992590427399
0.2733238935470581 -0.37015268206596375 0.15674510598182678
-0.30263829231262207 -0.4078153371810913 0.07815086096525192
-0.13214655220508575 -0.07189405709505081 0.17199474573135376
-0.13871553540229797 0.22741009294986725 0.04504431039094925
0.013040490448474884 -0.14165952801704407 -0.13523033261299133
-0.266967236995697 0.10958981513977051 0.15573720633983612
-0.1617409884929657 0.4299687147140503 0.09119254350662231
0.29587122797966003 -0.18835949897766113 0.15840765833854675
0.29203498363494873 -0.19661828875541687 -0.13300330936908722
0.031038733199238777 0.1850808560848236 -0.13646022975444794
0.23226100206375122 0.12157595157623291 0.16839653253555298
-0.2721775472164154 0.1580737829208374 -0.12661276757717133
-0.14670954644680023 -0.14211443066596985 -0.1350465714931488
0.25694718956947327 0.007910005748271942 0.1578061878681183
0.2830798923969269 -0.24904800951480865 0.08254824578762054
0.290744423866272 -0.4321167767047882 0.16502439975738525
0.2989208400249481 -0.010507317259907722 0.06367824971675873
0.16928666830062866 -0.25541773438453674 -0.0019476469606161118
0.2395496368408203 0.3113947808742523 0.05186350271105766
-0.15853385627269745 0.1717621088027954 0.1558258831501007
-0.25015729665756226 -0.25517958402633667 0.0874442309141159
-0.3256582021713257 -0.33801373839378357 0.15459118783473969
0.23204369843006134 0.007937721908092499 0.1706116944551468
0.045973703265190125 0.16402605175971985 0.15986056625843048
-0.24091902375221252 -0.2817278504371643 -0.045173898339271545
0.29043447971343994 -0.04060745611786842 -0.1328035444021225
0.2915559709072113 0.45300549268722534 0.12514255940914154
0.13594713807106018 -0.24836517870426178 -0.10001049935817719
-0.2350967973470688 -0.24908247590065002 -0.07756546884775162
-0.25704145431518555 -0.08195165544748306 -0.13631948828697205
-0.27036139369010925 -0.1625426858663559 -0.125319242477417
-0.2636907994747162 -0.09128585457801819 -0.1338869333267212
-0.19868317246437073 0.2283679097890854 -0.12051812559366226
-0.21582257747650146 -0.4727368652820587 0.037459686398506165
-0.26597923040390015 0.09116193652153015 -0.1340995728969574
0.2220274657011032 0.23146505653858185 -0.030456803739070892
0.2368113100528717 -0.063311368227005 0.16880455613136292
-0.26613563299179077 -0.07944092154502869 -0.13814020156860352
-0.3064113259315491 -0.42298203706741333 0.01322810910642147
0.2553655207157135 0.3998207151889801 -0.09154684096574783
-0.26524773240089417 0.01342600304633379 -0.1342041790485382
-0.21792294085025787 -0.4218347370624542 0.16773471236228943
-0.28645408153533936 -0.3323638439178467 -0.03423217311501503
0.2955899238586426 0.0906488448381424 -0.021940156817436218
-0.05463216081261635 0.22711911797523499 0.1491786241531372
0.14520467817783356 -0.3429613709449768 0.012055977247655392
-0.013885928317904472 0.18505774438381195 0.15768852829933167
-0.25134921073913574 -0.41613003611564636 0.19395801424980164
0.0632844865322113 0.01873624697327614 -0.13734343647956848
-0.20508073270320892 0.22992835938930511 0.15417158603668213
0.2398967146873474 -0.42309096455574036 -0.08896436542272568
-0.25031036138534546 -0.42019176483154297 0.18943680822849274
-0.07210846990346909 -0.20338448882102966 0.15452750027179718
0.13347786664962769 0.22636516392230988 0.11732088029384613
-0.006741181015968323 -0.23809437453746796 -0.13720884919166565
0.19008995592594147 0.33623817563056946 0.012672165408730507
-0.26553136110305786 -0.3330310583114624 -0.07784739881753922
0.1459069550037384 0.21866203844547272 -0.13409490883350372
0.17354577779769897 -0.2513693571090698 -0.12873536348342896
0.23320385813713074 0.15839442610740662 0.1651136577129364
-0.053817398846149445 0.22727195918560028 -0.1336681842803955
-0.03513365238904953 -0.2443930059671402 -0.13356681168079376
0.08183805644512177 0.15616562962532043 0.16746583580970764
-0.21634089946746826 -0.4006586968898773 0.17192086577415466
0.23801273107528687 0.5168278813362122 0.03145772963762283
-0.22758087515830994 -0.48001959919929504 0.023818396031856537
0.19780206680297852 0.33373844623565674 0.0432390458881855
0.29319366812705994 -0.2321639060974121 0.06507225334644318
0.2215755134820938 0.1754649579524994 0.15804868936538696
-0.22455373406410217 0.22913673520088196 0.10332823544740677
0.2947114408016205 0.037165407091379166 0.15834033489227295
0.2885426878929138 -0.06548678129911423 -0.13372434675693512
-0.2667366862297058 -0.38580361008644104 -0.09307370334863663
0.028722262009978294 -0.2488250732421875 0.1486809253692627
-0.2664993405342102 -0.18290816247463226 -0.13467182219028473
0.2885310649871826 0.44305291771888733 0.13272389769554138
-0.26797956228256226 -0.14301182329654694 0.15537790954113007
-0.25806647539138794 -0.24605681002140045 0.15173879265785217
0.24616940319538116 -0.3427402675151825 0.13176052272319794
0.2942158877849579 0.2105359435081482 0.16014054417610168
-0.2708134949207306 0.2137088030576706 -0.11352896690368652
0.11664383858442307 -0.2030433714389801 0.1542913168668747
0.10440453886985779 0.21878385543823242 0.1607879102230072
-0.2647601366043091 0.05297374352812767 -0.13454397022724152
-0.2458149939775467 0.2323407083749771 0.052809134125709534
-0.22118033468723297 0.42047736048698425 -0.08215873688459396
0.23223015666007996 0.4479328393936157 -0.08449079841375351
0.2966269254684448 -0.107681043446064 0.15141408145427704
0.21895673871040344 -0.1773870587348938 0.16890057921409607
0.21357150375843048 0.4539732038974762 -0.07335121184587479
0.23030497133731842 -0.4434690773487091 0.20232559740543365
0.11350215971469879 -0.18431860208511353 0.16618409752845764
-0.27037766575813293 0.05422266945242882 0.15553498268127441
0.26907244324684143 -0.44032156467437744 -0.043384820222854614
0.29358139634132385 -0.13851167261600494 -0.12032055854797363
0.18849216401576996 0.44209110736846924 0.11802902817726135
0.27020981907844543 0.18852651119232178 0.16302642226219177
0.024863477796316147 0.1664210855960846 -0.13923543691635132
0.25742989778518677 -0.2642584443092346 0.01771150529384613
-0.20939365029335022 0.4529322385787964 -0.07482104748487473
-0.211563378572464 0.2339957058429718 -0.035206619650125504
-0.2736426591873169 -0.4666096568107605 -0.0551169291138649
0.2923482656478882 0.347864031791687 0.008002013899385929
0.01098645105957985 0.15846967697143555 0.16702567040920258
-0.2658044695854187 0.435459703207016 0.02274848334491253
0.26682382822036743 0.419910728931427 -0.08090538531541824
-0.2398523986339569 -0.2794550657272339 -0.045204028487205505
0.1828632950782776 -0.24966475367546082 0.14717474579811096
0.2579193413257599 -0.15639865398406982 0.15849757194519043
0.16497406363487244 0.020361434668302536 -0.13635732233524323
0.11845453828573227 0.22955510020256042 0.14824454486370087
0.28585734963417053 -0.16687539219856262 0.16035601496696472
-0.14345747232437134 -0.24154624342918396 -0.13397176563739777
0.29668933153152466 0.047305040061473846 0.14830337464809418
-0.2628171741962433 -0.1387789100408554 -0.13310441374778748
0.0431416779756546 0.10223700106143951 -0.13681407272815704
-0.2261498123407364 -0.17665432393550873 0.16253980994224548
-0.23797431588172913 0.011195456609129906 0.1550942063331604
0.15588010847568512 -0.4424550533294678 -0.03929346054792404
0.20638471841812134 0.22990889847278595 -0.03063095547258854
0.2816682755947113 -0.3526031970977783 0.03883221000432968
-0.03890053927898407 -0.2347494512796402 0.15855731070041656
0.25438976287841797 0.22892773151397705 -0.12040680646896362
0.2950809597969055 -0.16675838828086853 0.15174101293087006
-0.21695350110530853 0.23233747482299805 -0.11712728440761566
0.29641881585121155 -0.002879846841096878 0.1494603157043457
0.2618841528892517 -0.3843626379966736 0.18183410167694092
0.20785683393478394 0.32311442494392395 -0.024352338165044785
0.29616764187812805 -0.13748089969158173 0.1532732993364334
0.189632385969162 -0.246127650141716 -0.13073484599590302
-0.3047696352005005 -0.3444506525993347 0.1996959000825882
-0.33254727721214294 -0.3907884359359741 -0.029838543385267258
-0.2678239643573761 -0.06827707588672638 0.1552027016878128
0.2964213788509369 0.2187022566795349 -0.08332624286413193
-0.26353728771209717 -0.16317439079284668 -0.1354367733001709
-0.268462598323822 0.22059860825538635 0.08703937381505966
0.23477153480052948 -0.0903637558221817 0.16739657521247864
0.26317891478538513 0.5009269714355469 -0.03863527998328209
0.28259798884391785 -0.4431983530521393 0.009871559217572212
0.2464047074317932 0.2211148738861084 -0.13583920896053314
-0.2077946662902832 -0.4401744604110718 0.12682993710041046
0.29020532965660095 0.11073761433362961 -0.13269025087356567
0.28365886211395264 0.48958009481430054 -0.014228135347366333
0.15234270691871643 0.1297578662633896 0.17126719653606415
0.11019623279571533 0.22563089430332184 -0.13034629821777344
-0.07509347051382065 0.21294060349464417 -0.13585597276687622
0.01339244470000267 0.16230230033397675 0.16330058872699738
-0.2639580965042114 0.3940719664096832 0.10142214596271515
0.19307398796081543 0.15271469950675964 0.17136023938655853
-0.24550949037075043 0.4169500470161438 -0.06157705932855606
0.2863081693649292 0.3413558602333069 -0.02784542739391327
-0.2692008912563324 -0.0656607449054718 0.15171298384666443
0.2521684467792511 0.5153618454933167 0.07223676890134811
0.27073001861572266 -0.3693172335624695 0.16783282160758972
-0.27035194635391235 0.14806444942951202 0.15661200881004333
-0.266281396150589 -0.09061072021722794 -0.13669505715370178
-0.32658135890960693 -0.3371647894382477 0.17759551107883453
0.2934782803058624 -0.0071717724204063416 0.15825948119163513
-0.2177451103925705 -0.1378733068704605 -0.1338663101196289
-0.1938943862915039 -0.1603728085756302 -0.13344278931617737
-0.2543942630290985 -0.41714221239089966 0.19519731402397156
-0.2735668122768402 -0.20887716114521027 0.14542752504348755
-0.280240923166275 -0.45696109533309937 -0.0812506452202797
0.24279804527759552 -0.04771383851766586 0.16311444342136383
-0.2651045620441437 0.04150983318686485 -0.13550415635108948
-0.12765368819236755 -0.09889581799507141 0.17257419228553772
0.13795460760593414 -0.4338533878326416 0.0199850182980299
-0.33812692761421204 -0.365997850894928 0.0813281312584877
0.292423814535141 0.05238658934831619 0.15855823457241058
-0.050058312714099884 0.22851285338401794 -0.12212727218866348
-0.2707899808883667 -0.022364787757396698 0.1425841897726059
0.2186732292175293 0.4525899887084961 -0.07703591138124466
0.2531255781650543 -0.16135795414447784 0.15703487396240234
0.2870236039161682 0.22915710508823395 -0.08926671743392944
0.2908077538013458 -0.17811468243598938 0.15938521921634674
0.2947918772697449 0.20812557637691498 0.1589902937412262
-0.18413516879081726 0.238226518034935 0.037943389266729355
0.18919815123081207 -0.24792350828647614 0.15062908828258514
-0.04310604929924011 0.014240007847547531 -0.13621465861797333
0.2841476500034332 0.1773465871810913 -0.13374052941799164
-0.2769540548324585 -0.39528268575668335 -0.09552325308322906
0.18344996869564056 -0.2518940567970276 0.07167262583971024
-0.24294844269752502 0.22989316284656525 0.15387073159217834
-0.15938441455364227 0.22826698422431946 0.00020502367988228798
-0.2650788724422455 -0.12462521344423294 -0.13074256479740143
-0.26758766174316406 0.2198672890663147 0.1360051929950714
0.16227111220359802 -0.2868347465991974 -0.010534470900893211
0.1514807641506195 0.21835952997207642 0.16152167320251465
0.29372644424438477 0.08782263100147247 0.15810035169124603
0.02117418870329857 0.21479997038841248 -0.23841936886310577
0.24270834028720856 0.14001072943210602 0.1649119257926941
-0.2584744989871979 0.22776223719120026 -0.07392476499080658
0.28940823674201965 -0.4070688486099243 0.16104306280612946
0.020261012017726898 -0.24953506886959076 0.15157270431518555
0.2965768277645111 0.2134009152650833 0.08025550842285156
0.016708793118596077 0.14820128679275513 -0.13742585480213165
0.27995964884757996 0.36836209893226624 0.11852194368839264
0.2113577276468277 -0.17898346483707428 0.16925089061260223
-0.10255807638168335 0.0034854868426918983 0.1717229187488556
-0.26483863592147827 0.06090354174375534 -0.1350989192724228
0.05901253968477249 -0.24190180003643036 -0.1363982856273651
0.24458235502243042 -0.2494630217552185 0.14986920356750488
-0.27007418870925903 0.08388598263263702 0.14838255941867828
-0.2712620496749878 -0.08722612261772156 -0.12998457252979279
0.2692320942878723 -0.22204437851905823 0.1607590913772583
-0.26789534091949463 0.2280316948890686 -0.06744301319122314
0.28273454308509827 -0.2208370864391327 -0.13532038033008575
-0.054743021726608276 0.22857287526130676 -0.13040859997272491
-0.2594076991081238 0.45541825890541077 0.1239527016878128
-0.2894802689552307 -0.01335580088198185 -0.24618877470493317
-0.27300095558166504 0.21365296840667725 0.03019469976425171
-0.1721878945827484 -0.27481263875961304 0.05527769774198532
-0.05159628391265869 -0.2454284280538559 -0.1285596787929535
-0.2617908716201782 -0.0638628751039505 -0.1332046389579773
0.24706020951271057 -0.44192320108413696 -0.07843045890331268
-0.2544383406639099 -0.11864247173070908 -0.13379909098148346
-0.04705933481454849 0.23014509677886963 -0.12862913310527802
-0.22772535681724548 0.18767580389976501 -0.13973313570022583
0.2781786620616913 -0.4399779736995697 0.18971478939056396
-0.27107736468315125 0.07216925919055939 -0.13238511979579926
-0.15114334225654602 -0.25260722637176514 0.03399258106946945
0.2963399291038513 0.01755499467253685 -0.1046145036816597
0.13571889698505402 -0.4403141736984253 0.04537704214453697
0.07021661102771759 0.2285403311252594 0.06551899015903473
0.16759219765663147 -0.4098040759563446 0.18851915001869202
-0.05573501065373421 -0.18159982562065125 0.16632071137428284
0.27414190769195557 -0.24867966771125793 0.14746707677841187
0.2117961049079895 -0.20423267781734467 0.15622560679912567
-0.2669953405857086 0.20401933789253235 0.15402087569236755
-0.23406796157360077 0.05253329873085022 0.1533946990966797
-0.22138471901416779 0.1461213082075119 0.16857999563217163
-0.09307762235403061 -0.24787399172782898 0.1575392782688141
-0.27246159315109253 -0.22993750870227814 0.1526785045862198
0.034833863377571106 0.22955578565597534 -0.12260004132986069
0.28748366236686707 0.05798675864934921 0.15892340242862701
-0.2862553000450134 0.07378865033388138 -0.27169427275657654
0.2962629199028015 0.006428584456443787 0.15173396468162537
-0.22598552703857422 -0.4453248381614685 0.1492113173007965
-0.26990047097206116 0.22395585477352142 -0.03314998000860214
-0.1605137139558792 0.4560559093952179 0.08625485002994537
0.2597848176956177 -0.44426077604293823 -0.07387695461511612
-0.23429866135120392 0.007842681370675564 0.15481241047382355
-0.26499709486961365 0.17024797201156616 0.15942643582820892
0.2618081867694855 -0.4148571789264679 0.20138731598854065
0.2856798768043518 0.22880062460899353 -0.1068563163280487
-0.22625093162059784 -0.32473355531692505 -0.08216332644224167
0.034985363483428955 0.22187776863574982 0.1577763706445694
0.13017238676548004 -0.07829921692609787 -0.13595208525657654
0.2299710065126419 -0.2042420506477356 0.15638065338134766
0.25783881545066833 0.48719504475593567 0.13375474512577057
0.25636404752731323 -0.32753244042396545 -0.07262872904539108
-0.27145522832870483 0.03502343222498894 0.15831488370895386
-0.02286229282617569 0.08792084455490112 -0.13768701255321503
0.0403217114508152 0.2170167863368988 0.15995287895202637
-0.19771109521389008 -0.23815304040908813 -0.13580738008022308
-0.2634485065937042 -0.24464011192321777 -0.11706371605396271
-0.3342665135860443 -0.3577890694141388 0.1519702970981598
-0.2710094749927521 -0.24428877234458923 -0.08167647570371628
0.20951013267040253 0.4964573383331299 0.1121114045381546
-0.1602793037891388 0.4643269181251526 0.0073214126750826836
0.15207751095294952 -0.4290124773979187 0.17449477314949036
-0.2876577377319336 0.04009513184428215 -0.2971949875354767
0.2738279104232788 -0.44176438450813293 -0.017862441018223763
-0.2695753872394562 -0.10930418968200684 0.15138383209705353
-0.26328206062316895 0.12715844810009003 0.15895158052444458
0.016654960811138153 0.03639458119869232 -0.13663524389266968
0.29280585050582886 0.16782820224761963 0.16003239154815674
0.25830668210983276 -0.13519473373889923 0.15998904407024384
-0.2711632549762726 0.19740892946720123 -0.12500348687171936
-0.21618770062923431 -0.005503162741661072 0.1699405461549759
-0.12634246051311493 0.22584468126296997 0.15106378495693207
0.004091554321348667 0.21978341042995453 0.16031761467456818
0.24325722455978394 0.14670827984809875 0.1620185226202011
-0.2688365578651428 -0.24669453501701355 -0.09686439484357834
0.2882447838783264 -0.1391570121049881 -0.13372667133808136
-0.26346367597579956 -0.015835124999284744 -0.13363462686538696
-0.24260778725147247 0.40930381417274475 -0.06913422048091888
-0.17143815755844116 -0.29388484358787537 0.05089285224676132
-0.2634136974811554 -0.4022977352142334 0.19976362586021423
0.17154674232006073 -0.4403274655342102 -0.05503920093178749
-0.2907564640045166 0.05249703302979469 -0.28228431940078735
0.27913931012153625 0.22894133627414703 -0.12338677048683167
-0.03486114367842674 0.07216716557741165 -0.1366298496723175
-0.26955729722976685 -0.24805153906345367 -0.04503683000802994
-0.2678137421607971 0.13397535681724548 0.15852919220924377
0.2934802770614624 0.12078707665205002 0.15866395831108093
0.15328265726566315 -0.3978670835494995 0.1643805056810379
0.19937734305858612 0.22733174264431 0.021842919290065765
0.29799801111221313 -0.07187019288539886 0.14650876820087433
-0.20579707622528076 0.4192768633365631 0.08824802935123444
0.19238178431987762 0.2282809466123581 -0.006047415547072887
0.2956171929836273 0.030298877507448196 0.15161599218845367
-0.2642344534397125 -0.11552044004201889 0.15576191246509552
0.29511627554893494 -0.1214761957526207 -0.13327273726463318
-0.2708360552787781 -0.04240806773304939 -0.12404274195432663
0.13872207701206207 -0.4398840665817261 0.013984635472297668
-0.2676055431365967 0.21841052174568176 0.00021401417325250804
0.22522178292274475 0.348126620054245 -0.06856641918420792
0.29366403818130493 0.20634347200393677 0.12648770213127136
0.2964974641799927 0.007337648421525955 0.1587008535861969
0.29673469066619873 0.09788762032985687 0.14598138630390167
0.17877468466758728 -0.40518197417259216 0.19015264511108398
0.17068806290626526 -0.44570255279541016 0.18083563446998596
-0.26943421363830566 0.20461589097976685 -0.13592678308486938
0.23772844672203064 -0.30446192622184753 0.09568251669406891
0.2966037690639496 -0.001054699532687664 -0.12237256020307541
-0.17784225940704346 -0.2544492483139038 0.065451979637146
0.25503501296043396 0.1052616536617279 0.15840260684490204
-0.26296985149383545 0.16520072519779205 -0.13537459075450897
-0.28959158062934875 -0.4347187280654907 -0.0892401933670044
0.0184542927891016 0.15961328148841858 -0.1372561901807785
0.24954666197299957 -0.34712451696395874 0.13776957988739014
0.16330528259277344 -0.20743952691555023 0.1561194509267807
-0.18479138612747192 0.22116638720035553 0.15759581327438354
0.04140214994549751 -0.18722619116306305 0.16129501163959503
0.2363937944173813 -0.3700568675994873 -0.08873636275529861
-0.1682826280593872 -0.17923182249069214 0.17063970863819122
0.281211793422699 0.49753931164741516 0.031176894903182983
0.07984638214111328 -0.24066293239593506 0.1589127480983734
0.2412402480840683 0.06030300259590149 0.16163568198680878
-0.27229782938957214 -0.07054923474788666 -0.12613657116889954
-0.2683560252189636 0.1262616664171219 -0.12829206883907318
-0.2690085470676422 0.22403833270072937 0.06641528755426407
-0.03250202536582947 0.1894199699163437 -0.19634005427360535
0.2953241765499115 0.010262053459882736 0.1493091732263565
0.1776164025068283 -0.44176629185676575 -0.06246340274810791
0.2797030806541443 -0.4402632713317871 0.19224813580513
0.2935603857040405 -0.18417926132678986 0.15599383413791656
-0.0725850984454155 0.22658883035182953 -0.13285966217517853
-0.2699926495552063 0.2227228581905365 -0.01992383599281311
-0.26594364643096924 0.1383664608001709 -0.13438715040683746
0.23762258887290955 0.05310611054301262 0.1686081439256668
-0.16482573747634888 -0.040650248527526855 0.17120498418807983
0.24730037152767181 -0.29965922236442566 0.09162198007106781
-0.1634170413017273 0.44615790247917175 0.08762282133102417
-0.20761170983314514 -0.4012244939804077 0.13863226771354675
0.2383732795715332 0.07488243281841278 0.16396114230155945
0.2971162796020508 0.008475419133901596 0.1456608772277832
-0.30443644523620605 -0.3162180483341217 0.1611243039369583
-0.17523972690105438 0.3407011032104492 -0.022198867052793503
-0.2651728391647339 0.049835581332445145 -0.13284704089164734
-0.037029117345809937 0.11780393123626709 -0.13985547423362732
0.16395701467990875 -0.25510144233703613 0.027963323518633842
-0.24131816625595093 -0.27878767251968384 0.05292417109012604
-0.26479822397232056 -0.08384011685848236 -0.13467049598693848
0.04572775587439537 0.2115137130022049 -0.13618434965610504
0.2973572611808777 -0.048475030809640884 0.1401825100183487
-0.05139206349849701 -0.23803523182868958 0.15872348845005035
-0.2692428231239319 0.2268497496843338 0.06977403163909912
-0.022501666098833084 -0.23971131443977356 0.15899205207824707
-0.25761741399765015 -0.3587966561317444 -0.09184455871582031
0.19472146034240723 0.4347515106201172 0.11535193026065826
0.0007822660263627768 -0.17810770869255066 0.17224451899528503
-0.19521784782409668 -0.24892586469650269 0.11546364426612854
-0.2499338835477829 -0.3696993887424469 -0.09409749507904053
0.29675814509391785 -0.028914866968989372 -0.12249690294265747
0.13258257508277893 0.22744525969028473 0.04925069957971573
0.005633695982396603 0.2580108046531677 -0.2073478102684021
-0.15150073170661926 -0.18936382234096527 0.1631411612033844
0.07669886201620102 0.15221107006072998 0.16858434677124023
0.1992003321647644 0.4755436182022095 -0.04112254083156586
-0.3027600944042206 -0.3957221508026123 0.12921586632728577
0.03311289846897125 0.11563961207866669 -0.13700488209724426
0.2045724093914032 -0.4446018636226654 0.1984798014163971
-0.23878735303878784 0.23077695071697235 0.05517037212848663
0.28719404339790344 0.36116689443588257 0.10295010358095169
0.23255914449691772 0.22907492518424988 0.147114098072052
0.23922953009605408 -0.388123095035553 -0.08819102495908737
-0.2650114595890045 0.15085840225219727 -0.133958101272583
0.2876676321029663 -0.22010764479637146 -0.13368496298789978
0.01565595716238022 0.27587538957595825 -0.22782231867313385
0.22137022018432617 -0.17192168533802032 0.16751807928085327
-0.23016667366027832 0.1780611127614975 0.15727734565734863
-0.26510411500930786 0.13895785808563232 -0.13449905812740326
0.2994752526283264 0.2150489240884781 -0.07052446901798248
0.08696255087852478 0.22618217766284943 -0.13146919012069702
0.28677061200141907 0.1509150266647339 0.1609213650226593
-0.24037615954875946 0.44200411438941956 -0.060040950775146484
0.23523694276809692 -0.11696818470954895 0.16909287869930267
-0.2552844285964966 -0.2478337436914444 -0.12386805564165115
-0.1992829591035843 -0.3996524214744568 -0.05916432663798332
-0.26626697182655334 0.0719248503446579 -0.13643699884414673
0.22304187715053558 0.5153740644454956 0.008648532442748547
-0.14629431068897247 -0.25445833802223206 0.00742979533970356
-0.24445107579231262 -0.39433392882347107 -0.08982355892658234
-0.20544999837875366 0.3765062391757965 -0.07648199051618576
-0.23486673831939697 0.10891794413328171 0.1539195477962494
-0.2683989405632019 0.13677582144737244 -0.1272585541009903
0.10410923510789871 0.21577520668506622 0.15973803400993347
-0.09453931450843811 0.22948609292507172 -0.12805378437042236
-0.26246780157089233 0.36210355162620544 -0.008445411920547485
-0.2616273760795593 -0.08675260841846466 -0.13595692813396454
-0.2725021541118622 -0.15026476979255676 -0.12777204811573029
-0.23142056167125702 -0.28294262290000916 -0.05830348655581474
0.24188289046287537 -0.15500164031982422 0.16617009043693542
0.01445409469306469 0.1866166889667511 -0.1407497525215149
0.2469530999660492 -0.29846733808517456 -0.06306266039609909
-0.23623442649841309 -0.46597152948379517 0.0686422809958458
0.2780018150806427 -0.44165027141571045 0.15066266059875488
0.19903361797332764 -0.2007995992898941 -0.1350862979888916
-0.17853468656539917 0.23786771297454834 0.03328130766749382
-0.0640329048037529 -0.24929790198802948 0.1493545025587082
0.16454818844795227 -0.2515065371990204 0.02878277376294136
0.2838529348373413 0.32724180817604065 0.040495894849300385
-0.25236427783966064 0.22729389369487762 -0.05055447295308113
0.063692107796669 0.1804826706647873 -0.13599613308906555
0.19012603163719177 -0.015474356710910797 0.17111678421497345
0.08664730936288834 -0.18448437750339508 0.1637204885482788
-0.2657511234283447 -0.049112457782030106 -0.13455356657505035
0.10112719982862473 -0.2452624887228012 0.14820453524589539
0.0715002566576004 0.16057188808918 0.1671273410320282
0.20644861459732056 0.3329426646232605 0.04681353271007538
-0.2834278643131256 -0.4472803473472595 -0.08235692232847214
-0.2704498767852783 -0.119996577501297 -0.12484723329544067
0.2723962068557739 -0.382422536611557 0.18100206553936005
0.28524383902549744 0.10425189882516861 0.15983964502811432
0.13322623074054718 0.2265261858701706 -0.13022081553936005
0.2982182204723358 0.22395990788936615 0.06333639472723007
-0.26388782262802124 -0.12386251240968704 -0.13261137902736664
0.16890279948711395 -0.2523048520088196 0.0011959150433540344
0.010894774459302425 0.1548376977443695 -0.13655433058738708
0.19927361607551575 0.22968590259552002 -0.0029446035623550415
-0.2653072774410248 -0.0990026518702507 -0.13143417239189148
0.2942841649055481 0.05705059692263603 0.15805171430110931
-0.19109612703323364 0.23978795111179352 0.043944425880908966
-0.3344966173171997 -0.36302411556243896 0.12311210483312607
0.21117223799228668 0.23070098459720612 0.14922243356704712
-0.17365556955337524 0.33702796697616577 -0.01740284450352192
-0.2686045169830322 -0.11569605767726898 -0.12777572870254517
