0.2946977913379669 -0.11950813978910446 0.15596595406532288
0.2563488781452179 0.07152280956506729 0.1535506248474121
-0.15145939588546753 -0.2766002416610718 0.018270235508680344
0.1332813948392868 -0.24534296989440918 -0.1360594481229782
0.13887213170528412 0.22354096174240112 -0.13325625658035278
-0.32916924357414246 -0.3612014353275299 0.15815547108650208
-0.2710534334182739 -0.21115680038928986 0.06785041093826294
0.11657752096652985 -0.18955348432064056 0.1634807288646698
0.14274060726165771 -0.44397446513175964 0.09795372188091278
-0.22557120025157928 -0.291934609413147 0.082022525370121
0.223812073469162 -0.18618495762348175 0.15987500548362732
-0.04384973645210266 -0.24926994740962982 -0.1307772994041443
0.19615425169467926 -0.1858619600534439 0.1621595174074173
-0.23621445894241333 0.22841152548789978 0.14826852083206177
-0.24951595067977905 -0.2514156997203827 0.0959150493144989
0.1909373551607132 0.46809038519859314 0.11144889891147614
-0.20873655378818512 -0.1758011281490326 0.1676057130098343
0.2548041343688965 -0.06079653650522232 0.15320397913455963
-0.2681104838848114 -0.15541614592075348 0.1560899168252945
-0.2699889540672302 0.08851365000009537 -0.1153172105550766
-0.26263073086738586 0.22720083594322205 -0.08598890900611877
-0.26976335048675537 -0.11172454059123993 -0.1338135302066803
0.23970326781272888 -0.19075191020965576 0.15450796484947205
-0.2762517035007477 -0.363717645406723 -0.08850022405385971
0.2924273610115051 -0.11583814769983292 0.15507926046848297
-0.2706671953201294 -0.03359517827630043 -0.13374969363212585
0.2872396409511566 -0.10929711163043976 -0.1352834850549698
-0.31617218255996704 -0.3765111565589905 0.1538117229938507
0.28550344705581665 -0.4006403982639313 0.175796777009964
-0.2712506353855133 -0.4677123725414276 -0.06913430988788605
0.1021040827035904 -0.20444339513778687 0.15510186553001404
0.29101040959358215 0.22237634658813477 -0.12401114404201508
0.2966761589050293 0.03218095004558563 -0.1321362555027008
0.18491502106189728 0.4112580120563507 0.10947826504707336
-0.2673759162425995 -0.0068569667637348175 -0.13393144309520721
-0.2603737711906433 0.015345602296292782 -0.13233228027820587
-0.1499498337507248 -0.24864690005779266 -0.1251792311668396
0.23235270380973816 0.41006866097450256 -0.09181967377662659
0.29701292514801025 -0.05266279727220535 -0.12726348638534546
-0.27113398909568787 -0.16700024902820587 -0.07135754078626633
0.2510857582092285 0.1516619622707367 0.1548878401517868
-0.1623944342136383 0.22911149263381958 -0.0034857969731092453
0.2959313690662384 -0.18562521040439606 0.1485854983329773
-0.2686495780944824 -0.08109049499034882 0.14359726011753082
0.29484671354293823 0.2143738865852356 -0.08104997128248215
-0.2700411379337311 -0.06009018421173096 -0.13396596908569336
-0.05185092240571976 -0.249369814991951 0.14724305272102356
-0.3331182897090912 -0.3466827869415283 0.12416712939739227
0.26863861083984375 0.3384801745414734 -0.06874426454305649
0.29039329290390015 0.040334343910217285 -0.13470937311649323
0.22535374760627747 0.2299463152885437 -0.08525826781988144
0.15885043144226074 -0.18423247337341309 0.16604062914848328
0.29376494884490967 -0.16690650582313538 0.15638688206672668
0.29413041472435 -0.2448049932718277 0.0066133104264736176
-0.27066540718078613 -0.13335144519805908 -0.13014425337314606
0.28984519839286804 -0.4098838269710541 0.07049818336963654
-0.27074673771858215 0.21655069291591644 0.11890426278114319
0.065635547041893 0.16194814443588257 0.16162298619747162
-0.2921569049358368 0.059264495968818665 -0.28123465180397034
0.1767863929271698 -0.2511233389377594 -0.12460596859455109
-0.25474226474761963 -0.25598329305648804 0.11530502885580063
-0.26945510506629944 -0.23875200748443604 -0.13034915924072266
-0.2486743927001953 0.2523531913757324 -0.0032936260104179382
0.14211948215961456 -0.44515717029571533 0.08374832570552826
0.07314993441104889 0.21686801314353943 0.15774953365325928
0.2841969132423401 0.02583415061235428 -0.13530291616916656
-0.21032395958900452 -0.12009312212467194 0.17040163278579712
0.02178935892879963 0.16074635088443756 0.16233640909194946
-0.2888536751270294 -0.3787192404270172 -0.083722323179245
0.016898632049560547 0.17488552629947662 -0.1369248479604721
0.22922757267951965 0.03468816727399826 -0.13604578375816345
0.17939434945583344 -0.25120121240615845 -0.0134623683989048
0.22135138511657715 0.4996086657047272 -0.03954009711742401
-0.17613422870635986 0.25766420364379883 0.0154792545363307
0.23437616229057312 0.15279656648635864 0.1659461259841919
-0.2707236707210541 -0.24218852818012238 0.03295111656188965
-0.26837730407714844 -0.19087594747543335 -0.1353333741426468
-0.26804137229919434 0.07380449771881104 -0.1343626081943512
-0.27145498991012573 -0.1566028743982315 0.017095524817705154
0.06026129797101021 -0.2020658552646637 0.1544845998287201
0.29569870233535767 0.14977312088012695 -0.1300036758184433
0.27509430050849915 -0.3200436532497406 -0.02886870503425598
-0.22040651738643646 0.061148326843976974 0.1654759794473648
-0.2681254744529724 0.13108088076114655 -0.13326658308506012
0.2436518669128418 -0.1418556421995163 0.16555002331733704
-0.07002668082714081 -0.11843790113925934 -0.13426601886749268
0.2815966308116913 -0.24925197660923004 -0.11748414486646652
0.12272042036056519 0.1523985117673874 0.16868509352207184
0.24079763889312744 -0.12141644954681396 0.16650156676769257
-0.25569069385528564 -0.29707497358322144 0.0792778953909874
-0.2683345377445221 0.08753963559865952 -0.129766047000885
-0.009786565788090229 0.28983259201049805 -0.2454039305448532
0.2560637295246124 0.35411176085472107 -0.08504094183444977
0.2956555485725403 -0.1654134839773178 0.15219682455062866
-0.26963430643081665 -0.10212122648954391 -0.1313740462064743
0.20104920864105225 0.4622596502304077 0.10541284829378128
0.29671651124954224 -0.23611339926719666 0.1454889327287674
0.15348714590072632 -0.44411441683769226 0.008543789386749268
0.2962492108345032 -0.11140920221805573 0.1540287435054779
0.295845627784729 0.18993467092514038 0.03454316407442093
0.2402365356683731 -0.2371433526277542 0.15590903162956238
0.20684507489204407 -0.1866399198770523 0.1614285260438919
0.29418185353279114 -0.2462463527917862 -0.10948052257299423
-0.2126900553703308 0.227116197347641 -0.06739778816699982
0.16390758752822876 0.21325863897800446 -0.1353468894958496
-0.14985546469688416 -0.2527267336845398 -0.042202986776828766
-0.2665242552757263 0.2219058871269226 0.0908193290233612
-0.26956862211227417 0.023945409804582596 -0.132976695895195
0.1919201761484146 0.4945926070213318 0.019993161782622337
0.23934465646743774 -0.24848389625549316 0.1521083116531372
0.24165038764476776 0.382329523563385 -0.09610864520072937
-0.21571116149425507 -0.05795487388968468 0.16785643994808197
-0.27133190631866455 -0.14063392579555511 -0.13405126333236694
-0.26347482204437256 -0.21298158168792725 0.156172513961792
-0.16021983325481415 -0.18414999544620514 0.16295386850833893
-0.1845412403345108 0.49820804595947266 0.05564191937446594
-0.2740010619163513 -0.24718426167964935 -0.015043795108795166
-0.29360419511795044 -0.3245212733745575 0.17764535546302795
-0.27205726504325867 -0.22065123915672302 0.14369985461235046
0.011503983289003372 0.2594834268093109 -0.26941248774528503
-0.26904112100601196 -0.23856031894683838 -0.025668397545814514
0.2961576581001282 0.04665815457701683 -0.1326303333044052
0.22054702043533325 -0.4296058714389801 -0.0878216028213501
0.3015775978565216 0.12256062030792236 0.14674657583236694
-0.17118366062641144 0.3638177216053009 0.09305509924888611
-0.26853570342063904 0.21666111052036285 0.08174039423465729
-0.2609204053878784 0.22732722759246826 -0.03923029080033302
0.031332407146692276 0.21040713787078857 -0.23387260735034943
0.2527890205383301 0.5042107105255127 -0.02995254471898079
-0.2597705125808716 -0.16344884037971497 -0.13514864444732666
0.2952416241168976 -0.06159283220767975 -0.1276938021183014
-0.16346122324466705 -0.2827204167842865 0.04907853901386261
-0.19363680481910706 -0.17628929018974304 0.16850852966308594
-0.27827760577201843 -0.40225455164909363 -0.09394589811563492
0.29736849665641785 -0.19327044486999512 0.13263970613479614
-0.22187171876430511 -0.003430156037211418 0.16317759454250336
-0.27359914779663086 0.1596883237361908 -0.1220623329281807
0.1651456505060196 -0.2530592679977417 0.03145319223403931
-0.02088131383061409 0.22518080472946167 0.15275555849075317
-0.28656205534935 -0.3732365071773529 -0.08292216062545776
-0.0008694250136613846 0.1740647852420807 0.15266655385494232
-0.23874139785766602 0.4125932455062866 -0.07960274815559387
-0.08681660890579224 -0.0802527666091919 0.16787829995155334
-0.27006515860557556 -0.10018368810415268 0.12132305651903152
-0.213168665766716 -0.4433425962924957 0.1359151154756546
0.2961503565311432 -0.04109075292944908 0.15017753839492798
-0.20341253280639648 -0.1758786141872406 0.16836436092853546
-0.2887652814388275 -0.3843957781791687 0.20036423206329346
0.19927285611629486 0.33154815435409546 0.039108388125896454
0.17714697122573853 0.23026639223098755 -0.1256933957338333
0.28225982189178467 0.22677329182624817 -0.09127930551767349
0.29186883568763733 0.04182492196559906 -0.13457423448562622
-0.1858702301979065 -0.26898184418678284 0.06882093101739883
-0.19599781930446625 0.1605096459388733 0.1650201678276062
0.23725415766239166 -0.2875131070613861 -0.06467681378126144
0.20304709672927856 0.35477519035339355 -0.06178981810808182
-0.15821833908557892 0.426033079624176 0.08932176977396011
-0.2369629442691803 0.4070165157318115 -0.08220676332712173
0.008684417232871056 -0.244671031832695 0.15448234975337982
0.15967467427253723 -0.18162035942077637 0.16786779463291168
0.29544657468795776 0.057578351348638535 0.15400421619415283
-0.26977819204330444 0.053921498358249664 -0.13444429636001587
0.29586082696914673 -0.08597535640001297 -0.13618481159210205
0.24045330286026 0.00048344116657972336 0.16581982374191284
0.19066859781742096 -0.44638511538505554 0.1929502636194229
0.2502523958683014 0.3904232680797577 0.1072075217962265
0.2941446304321289 0.04063519835472107 0.024869220331311226
0.10924232006072998 0.23048759996891022 -0.12533484399318695
0.2614480257034302 -0.38102197647094727 -0.07803990691900253
0.17881038784980774 0.22674903273582458 0.14951559901237488
0.21627961099147797 0.07074204087257385 0.16839054226875305
0.28332313895225525 0.3607335388660431 -0.06422984600067139
0.2950338125228882 -0.02684672176837921 -0.13341234624385834
-0.2608543336391449 -0.24882978200912476 -0.12005914747714996
0.28852736949920654 -0.25242310762405396 -0.07849869132041931
0.21833768486976624 -0.17416056990623474 -0.13551156222820282
0.1561041921377182 -0.43930527567863464 -0.0371549092233181
0.2514687180519104 -0.03281097859144211 0.15309707820415497
0.29760539531707764 -0.16860327124595642 -0.13452604413032532
-0.21766027808189392 0.07718007266521454 0.1690646857023239
-0.17689067125320435 -0.23852160573005676 0.15629197657108307
0.28723835945129395 -0.24994072318077087 0.0016057752072811127
0.1740521639585495 -0.44155600666999817 -0.048472099006175995
0.23698067665100098 -0.05466892570257187 0.1692742109298706
0.1628444641828537 -0.2964322865009308 0.03905650973320007
-0.2373354732990265 -0.26914405822753906 0.04886569455265999
0.2323690950870514 0.1758202165365219 0.15279620885849
-0.2695883512496948 0.14190445840358734 -0.13354437053203583
-0.26925984025001526 0.10921649634838104 -0.134324312210083
0.05135259032249451 0.1782982051372528 -0.2136809378862381
0.1758609116077423 -0.2550486922264099 0.03204966336488724
-0.21713295578956604 -0.25189530849456787 -0.06273528188467026
0.29678505659103394 0.19878485798835754 0.14242804050445557
-0.21724329888820648 0.09239114820957184 0.17003409564495087
-0.22732004523277283 -0.4580245316028595 0.11456689983606339
-0.2697579860687256 0.02335698902606964 0.1532306671142578
0.2097787708044052 0.503095269203186 -0.002336256206035614
0.16598229110240936 -0.33424896001815796 0.08505400270223618
-0.27031171321868896 0.02556852623820305 -0.1351919174194336
-0.3040449321269989 -0.3230557143688202 0.1749860942363739
0.294851690530777 0.07645423710346222 -0.12523365020751953
-0.07306432723999023 -0.17895062267780304 0.166889026761055
0.017945630475878716 -0.20451214909553528 0.15532149374485016
0.29333174228668213 -0.11882734298706055 -0.12250982224941254
-0.28172585368156433 -0.3667370676994324 -0.07833670824766159
0.29158222675323486 -0.23563188314437866 -0.13393986225128174
0.15875615179538727 -0.40777474641799927 0.1737046241760254
0.05859088897705078 0.14991287887096405 0.16943931579589844
0.28538477420806885 0.04536930471658707 0.15655577182769775
0.20704588294029236 0.2277841418981552 -0.025970544666051865
0.2554919719696045 -0.2688562870025635 0.043280284851789474
0.17447030544281006 -0.256060391664505 0.0017068283632397652
0.29384857416152954 0.19484005868434906 -0.12729714810848236
-0.1545618772506714 -0.2501627802848816 0.14222003519535065
0.2472054660320282 0.23381291329860687 -0.030306324362754822
-0.19006620347499847 -0.2533937394618988 0.0791657343506813
-0.21279066801071167 0.23292523622512817 0.06250836700201035
-0.03180409222841263 0.17236948013305664 -0.13416031002998352
-0.2706162929534912 -0.03456928953528404 0.1497538983821869
-0.11395882815122604 -0.24639832973480225 -0.13210345804691315
0.2660958468914032 -0.38653188943862915 -0.07352965325117111
-0.04002869874238968 0.2284502238035202 -0.12107983231544495
-0.3334919810295105 -0.3854983448982239 0.06549347937107086
0.10709335654973984 -0.18309158086776733 0.16625197231769562
0.1312311887741089 -0.17619019746780396 0.16755424439907074
-0.21577009558677673 -0.055153489112854004 0.16893205046653748
-0.17817020416259766 -0.2513729929924011 -0.1037573367357254
0.29727044701576233 -0.07103854417800903 -0.1220804899930954
-0.262563019990921 0.13944339752197266 -0.13467708230018616
-0.3281004726886749 -0.3360203206539154 0.16063763201236725
-0.27020135521888733 -0.09020033478736877 0.14375345408916473
-0.2721061110496521 -0.08391162008047104 -0.12817972898483276
0.13264144957065582 0.22363272309303284 -0.13250288367271423
-0.26961880922317505 0.21967628598213196 0.054096125066280365
0.2602047920227051 0.30186763405799866 -0.019614137709140778
0.055296640843153 -0.1977413445711136 0.15311665832996368
0.29390111565589905 0.15294456481933594 0.15603134036064148
0.2956908941268921 -0.24169479310512543 0.01410096138715744
0.2869705855846405 -0.43597298860549927 0.010300872847437859
0.29489508271217346 0.06457177549600601 -0.12877532839775085
0.04034361243247986 0.23229831457138062 -0.1848752200603485
-0.2718876302242279 -0.096780925989151 -0.13071534037590027
0.17327919602394104 -0.41058671474456787 0.1904790997505188
0.191070556640625 -0.18377025425434113 0.16613289713859558
-0.23991909623146057 0.33998164534568787 0.06191062927246094
-0.2686600089073181 -0.10418068617582321 -0.13268956542015076
0.16068638861179352 -0.24886548519134521 -0.13198211789131165
-0.14042401313781738 0.22869937121868134 0.08713534474372864
-0.2705132067203522 0.1953023374080658 0.1451457142829895
-0.1904304176568985 0.25132134556770325 0.04213399812579155
-0.03067055717110634 0.12358202785253525 -0.187064528465271
-0.27091285586357117 -0.1903379261493683 -0.1332269012928009
0.292861670255661 -0.14017421007156372 -0.13530372083187103
0.03905121609568596 -0.03840791434049606 -0.13505421578884125
-0.2152591198682785 -0.4379964768886566 0.14987081289291382
-0.2634486258029938 0.42373448610305786 0.10227897763252258
-0.19405964016914368 0.2333800047636032 -0.029415996745228767
0.012153424322605133 -0.2513677179813385 -0.11528714001178741
0.29541662335395813 -0.1345302313566208 0.1551322042942047
-0.27490970492362976 -0.05693069100379944 -0.13313092291355133
-0.26943090558052063 0.22525641322135925 -0.03282120078802109
0.25002479553222656 -0.25125652551651 -0.08877113461494446
0.28655678033828735 0.22489987313747406 -0.12124872207641602
0.013216672465205193 0.22904753684997559 -0.24695537984371185
0.10922790318727493 -0.24456475675106049 0.15655560791492462
0.15130361914634705 0.22692519426345825 -0.12444282323122025
0.29669663310050964 0.1596442461013794 -0.12943658232688904
-0.26716169714927673 -0.2514209747314453 -0.05668764188885689
0.29713407158851624 -0.19724997878074646 -0.12565284967422485
-0.24456553161144257 -0.012387270107865334 -0.2746880054473877
-0.2732871472835541 -0.35064825415611267 -0.07785769551992416
-0.26652610301971436 0.22545120120048523 0.15014086663722992
-0.18139982223510742 0.17914001643657684 0.1546068638563156
0.20977699756622314 0.21727244555950165 -0.13450880348682404
0.2582821547985077 0.4615171551704407 -0.08033286035060883
-0.2715250551700592 -0.08908461034297943 -0.1298256665468216
-0.3344481885433197 -0.3565032482147217 0.15127107501029968
-0.15726186335086823 -0.24933847784996033 -0.1318751871585846
0.2775638997554779 0.4315691590309143 -0.06873460114002228
0.18022024631500244 0.43687865138053894 0.07722096890211105
0.2891816198825836 -0.43609923124313354 0.14184314012527466
-0.27031204104423523 -0.07388778030872345 -0.13360074162483215
-0.2673378586769104 -0.10468141734600067 0.1471305787563324
0.13901737332344055 0.15406551957130432 0.16819381713867188
-0.03784465789794922 -0.2484329640865326 0.15408504009246826
0.24165143072605133 0.1228552907705307 0.16562533378601074
0.2717600166797638 -0.4051556885242462 0.1895311027765274
-0.2667180299758911 0.42717862129211426 0.027284789830446243
-0.26742058992385864 -0.06974072009325027 -0.13427086174488068
0.21801041066646576 -0.283850759267807 -0.06017744541168213
-0.26923567056655884 -0.16252295672893524 -0.12829701602458954
0.29801124334335327 0.09736065566539764 0.14747890830039978
-0.26846832036972046 -0.00039883702993392944 -0.13381388783454895
-0.27049243450164795 0.16566407680511475 -0.06360653042793274
0.2916320562362671 -0.12181508541107178 -0.13711637258529663
-0.2713676393032074 0.12468796223402023 0.144722580909729
-0.2704916000366211 0.08420873433351517 0.15254941582679749
0.21230453252792358 0.4639032185077667 -0.07238756120204926
0.13043510913848877 0.22429805994033813 -0.11634200066328049
0.29531461000442505 0.40975338220596313 0.1209426000714302
0.22871987521648407 0.2299836128950119 0.059152308851480484
0.17287516593933105 -0.18598268926143646 0.1648590862751007
0.061482254415750504 -0.17747020721435547 0.16697373986244202
0.27792778611183167 0.3331353962421417 -0.05529794842004776
0.29659026861190796 0.07859484851360321 0.14652082324028015
0.23324808478355408 -0.2855355739593506 -0.06255153566598892
-0.25733500719070435 -0.25209811329841614 0.052605628967285156
-0.2686231732368469 -0.15438786149024963 0.14912192523479462
0.26500076055526733 -0.3988180160522461 0.19153954088687897
0.10344520956277847 -0.12579992413520813 -0.13683778047561646
-0.2046794593334198 -0.11839273571968079 0.167867973446846
0.11308744549751282 -0.17824038863182068 0.1670471876859665
-0.3194320499897003 -0.3595997393131256 0.19501233100891113
-0.2138955146074295 -0.24785533547401428 -0.1314602792263031
-0.26065704226493835 -0.06587536633014679 -0.13324551284313202
0.2978672683238983 0.19734512269496918 0.14778688549995422
0.03714371472597122 -0.2425323873758316 -0.13617998361587524
-0.26886942982673645 0.20700731873512268 0.14935490489006042
-0.17268255352973938 -0.2574279010295868 0.06759604811668396
0.2850317358970642 0.11216089129447937 -0.13460250198841095
0.22508665919303894 -0.25110524892807007 0.1480189859867096
0.17306514084339142 -0.2644013464450836 -0.010310548357665539
0.29244178533554077 -0.01564992405474186 -0.13608399033546448
-0.2706039547920227 -0.24957570433616638 0.13316774368286133
0.28863266110420227 -0.24961479008197784 0.0020301826298236847
0.20735439658164978 0.22831742465496063 0.017947161570191383
-0.004467350896447897 0.22101850807666779 0.1573432981967926
-0.17905454337596893 0.2544025480747223 0.026491135358810425
-0.01744874380528927 0.21499904990196228 -0.17466218769550323
-0.24867843091487885 0.3459644615650177 -0.05011459439992905
-0.012110091745853424 -0.25230273604393005 0.14272573590278625
-0.03375264257192612 -0.25606828927993774 -0.10223647207021713
-0.2711285948753357 -0.22821713984012604 -0.1347794532775879
0.10153426975011826 -0.24199727177619934 0.15629009902477264
0.29773831367492676 -0.19975826144218445 0.1541459858417511
-0.2698715329170227 0.12555108964443207 -0.13136979937553406
-0.30399957299232483 -0.4494573771953583 -0.061913587152957916
-0.1494583636522293 -0.09387791156768799 -0.13473457098007202
0.2957466244697571 -0.16744321584701538 -0.1367054432630539
-0.2684352397918701 0.1302051693201065 0.1432948112487793
-0.2653561234474182 -0.2531507909297943 -0.03870853781700134
-0.26987361907958984 0.07232996076345444 -0.13427795469760895
-0.17741242051124573 -0.257386714220047 0.06901651620864868
-0.12108055502176285 0.15648621320724487 0.16661514341831207
0.2954542636871338 -0.22591790556907654 -0.12083083391189575
-0.23214635252952576 -0.2062983214855194 0.15397275984287262
-0.25183314085006714 0.22123456001281738 -0.13445314764976501
0.2521211504936218 0.030717559158802032 0.1540326476097107
-0.27057647705078125 0.21932180225849152 0.11952593922615051
-0.23102763295173645 0.328728049993515 0.052451107650995255
-0.2694014608860016 0.09297683835029602 -0.1335190236568451
0.20979730784893036 0.28014931082725525 0.012473641894757748
-0.29766029119491577 -0.44775763154029846 -0.04401175677776337
-0.17770589888095856 0.2513408958911896 -0.002222886774688959
0.28104132413864136 -0.36443087458610535 0.12952587008476257
0.15399056673049927 -0.3723154067993164 0.10778287053108215
-0.16652096807956696 0.4733654260635376 -0.014954427257180214
0.03865998238325119 -0.25057587027549744 0.14440996944904327
0.24906836450099945 -0.28626081347465515 -0.05660075321793556
-0.26937049627304077 -0.1905936747789383 -0.13328656554222107
0.15225088596343994 -0.41043657064437866 0.1588628888130188
-0.21095195412635803 -0.08923282474279404 0.16919592022895813
0.12118677794933319 0.052441343665122986 -0.1358916163444519
-0.24031248688697815 -0.478768914937973 0.016956185922026634
-0.25821998715400696 -0.0982368215918541 -0.13513097167015076
0.2706751823425293 0.46895626187324524 0.12355975061655045
0.2589866518974304 -0.39647406339645386 -0.07954616844654083
0.010373689234256744 0.22955523431301117 -0.11972161382436752
-0.14376205205917358 -0.23469510674476624 -0.13490156829357147
-0.03387793153524399 0.1209864467382431 -0.17144611477851868
0.20869499444961548 0.17063897848129272 -0.1353200227022171
-0.2696109414100647 -0.2383752018213272 0.0782630518078804
-0.2675522565841675 -0.10593941062688828 -0.13292843103408813
-0.0016812258400022984 -0.17330724000930786 0.16755744814872742
-0.12756231427192688 -0.24159380793571472 -0.13181820511817932
0.24827364087104797 -0.16304969787597656 0.15607035160064697
0.19461968541145325 -0.20296652615070343 0.15306268632411957
0.19176454842090607 -0.2395271360874176 -0.1347675919532776
-0.26900073885917664 0.07969318330287933 0.14617131650447845
-0.21900396049022675 -0.4704178273677826 0.046579524874687195
-0.2660536766052246 -0.18673452734947205 -0.1340159922838211
-0.22293643653392792 0.13020434975624084 0.16121292114257812
0.2008916139602661 0.0007756352424621582 -0.13678808510303497
0.09096284210681915 0.22717058658599854 -0.058335307985544205
0.055712874978780746 -0.24384991824626923 -0.136187344789505
0.2887119948863983 0.44027256965637207 0.1276933252811432
-0.23442140221595764 -0.4712424874305725 0.06305748969316483
-0.2705414891242981 -0.04209379106760025 -0.13268867135047913
-0.26999032497406006 -0.16910767555236816 -0.12494245916604996
-0.2712186276912689 -0.08459942042827606 -0.13168153166770935
0.28295573592185974 0.49109309911727905 0.04872250184416771
-0.2731570303440094 -0.05240093544125557 0.1458197832107544
0.2987963557243347 -0.16552624106407166 0.14728446304798126
-0.19907736778259277 0.4834737777709961 0.10782696306705475
-0.26796817779541016 0.03205651417374611 -0.1325346678495407
-0.038060277700424194 0.17023369669914246 -0.1345195472240448
0.2966310977935791 -0.19769838452339172 -0.13495256006717682
0.29212093353271484 0.06895299255847931 -0.13329444825649261
0.16496936976909637 -0.4352966547012329 -0.049842312932014465
0.29539990425109863 -0.028963197022676468 -0.12340258061885834
-0.15317225456237793 -0.17629443109035492 0.1684310883283615
0.29427477717399597 -0.0697348564863205 0.15481197834014893
0.18961530923843384 -0.2520172595977783 0.08764752745628357
0.29374638199806213 -0.1459474265575409 0.1559426188468933
0.29162928462028503 0.22469452023506165 -0.03076302632689476
-0.2677533030509949 -0.23257499933242798 0.026590781286358833
0.1047816202044487 0.16325759887695312 0.159590944647789
-0.07940647751092911 0.22609427571296692 -0.13160380721092224
-0.17411528527736664 0.4895077347755432 0.009926894679665565
0.17016048729419708 0.2261185348033905 -0.12239067256450653
0.2975533604621887 0.06465138494968414 -0.12137767672538757
0.22150886058807373 0.29040130972862244 -0.019333316013216972
-0.1440187394618988 -0.25691524147987366 -0.020949317142367363
0.14858755469322205 -0.19416695833206177 0.15452057123184204
-0.17457160353660583 0.46773475408554077 -0.03321639820933342
0.09592026472091675 0.09553028643131256 -0.13707348704338074
0.2931021451950073 0.22080016136169434 -0.13435569405555725
0.034373488277196884 0.10303531587123871 -0.16340762376785278
-0.23062588274478912 -0.4341370165348053 0.18378369510173798
-0.21423611044883728 0.5029505491256714 -0.012960848398506641
-0.26894283294677734 -0.09524532407522202 -0.1337641328573227
0.2932233214378357 0.0747334361076355 0.15485849976539612
-0.23636387288570404 -0.39631012082099915 0.19183090329170227
-0.2692910432815552 0.03714562579989433 -0.1337094008922577
-0.2675687372684479 0.04056274890899658 0.15471775829792023
-0.23174071311950684 -0.30385008454322815 -0.07422959804534912
0.13357362151145935 0.22832387685775757 -0.12178415805101395
-0.16486528515815735 -0.037819188088178635 0.16823895275592804
-0.2717171013355255 0.13002735376358032 -0.13150133192539215
-0.2517695724964142 0.45429912209510803 0.11509757488965988
0.2939983308315277 0.45927634835243225 0.08940228819847107
-0.2953926920890808 -0.34797313809394836 0.19922086596488953
0.2013755738735199 0.502341628074646 0.02474580518901348
0.14691297709941864 -0.4465632736682892 0.12396900355815887
-0.20492082834243774 -0.2541697919368744 -0.06133534759283066
-0.15993957221508026 -0.2465922087430954 -0.12177639454603195
-0.29087311029434204 -0.3471773862838745 -0.03183861821889877
0.15818406641483307 -0.254725843667984 0.07080777734518051
0.2972283363342285 -0.1798608899116516 -0.1345948427915573
-0.19784300029277802 -0.413358211517334 0.11161768436431885
0.2858825922012329 -0.24993592500686646 -0.05195135995745659
-0.29588404297828674 -0.4414525330066681 -0.08397260308265686
-0.2685941755771637 0.07179125398397446 0.1546802669763565
-0.272060364484787 -0.16837960481643677 -0.12736183404922485
-0.23727379739284515 -0.45711368322372437 0.10008831322193146
-0.2694973051548004 -0.1876264214515686 -0.12823091447353363
-0.26580801606178284 -0.14963026344776154 -0.1330644190311432
-0.27040812373161316 -0.07025463879108429 -0.13368286192417145
-0.26332831382751465 0.04873133823275566 -0.13513514399528503
-0.21848154067993164 -0.4275652766227722 0.175535649061203
-0.24152854084968567 0.23167233169078827 -0.026189349591732025
-0.2807629704475403 -0.4552452266216278 -0.08080370724201202
-0.13611717522144318 -0.14551196992397308 0.16731537878513336
-0.05511115491390228 0.22888392210006714 0.07243651151657104
-0.2702876925468445 0.09073615074157715 -0.13418635725975037
0.2516903877258301 -0.25594663619995117 -0.031492896378040314
0.28974807262420654 -0.22014334797859192 0.1549520045518875
-0.2099994719028473 0.18004433810710907 0.15422365069389343
-0.23937422037124634 0.49162861704826355 0.008061245083808899
0.2933349609375 -0.15110346674919128 -0.12092112004756927
-0.03563379496335983 -0.1942257583141327 0.15248946845531464
-0.2058941125869751 0.24734936654567719 0.048726409673690796
-0.20996814966201782 0.26083821058273315 -0.026167478412389755
-0.24412287771701813 0.3901529312133789 -0.07055121660232544
-0.008955561555922031 0.2510458528995514 -0.20434090495109558
-0.10009804368019104 0.22326156497001648 0.15587949752807617
-0.2732434570789337 -0.21102677285671234 0.15062111616134644
-0.23211337625980377 -0.2856825590133667 -0.061426155269145966
0.2989611029624939 0.08615492284297943 -0.1275169849395752
0.2024504542350769 0.31625983119010925 0.02902500331401825
-0.2636442482471466 0.17707931995391846 -0.1342255175113678
0.29717087745666504 0.22375105321407318 -0.03707339987158775
0.2906758487224579 0.2240085005760193 -0.08369608968496323
-0.16668900847434998 -0.1882740706205368 0.15913020074367523
0.06030037999153137 0.22498565912246704 0.1528240144252777
-0.03890647739171982 0.22324679791927338 -0.13098588585853577
-0.21367870271205902 -0.464347243309021 0.07695335149765015
0.19975703954696655 0.3354107737541199 0.06730695068836212
-0.2688438296318054 -0.02310914173722267 -0.13173095881938934
-0.23627164959907532 -0.4732398986816406 -0.03274967893958092
-0.2668815553188324 0.0696515142917633 0.15611045062541962
0.19915388524532318 -0.4379081130027771 -0.08212195336818695
-0.2663211226463318 -0.18420451879501343 -0.13156287372112274
-0.2694348692893982 -0.20626302063465118 -0.1312432438135147
-0.25024205446243286 -0.24951665103435516 -0.075810007750988
-0.26868584752082825 -0.13136152923107147 0.15450403094291687
0.2472347915172577 0.048136696219444275 0.15746654570102692
-0.18239741027355194 0.26128119230270386 0.03083258494734764
-0.2646963894367218 0.3645722270011902 0.04489923268556595
-0.2697412371635437 0.22014322876930237 -0.10072273015975952
-0.2530108690261841 0.48082268238067627 0.08170409500598907
-0.25669097900390625 -0.204107403755188 0.15578106045722961
-0.11925628036260605 0.1768517792224884 0.15432672202587128
-0.22347649931907654 -0.2729482650756836 -0.05261143669486046
-0.27152326703071594 0.0030032768845558167 -0.13419558107852936
-0.26907485723495483 -0.011127263307571411 0.14720484614372253
0.2859680652618408 -0.15924932062625885 0.15586256980895996
-0.2622089684009552 0.09440766274929047 0.15707986056804657
0.21419531106948853 -0.24993306398391724 -0.05547222122550011
-0.2414245307445526 0.31608954071998596 -0.0009850496426224709
0.29707035422325134 -0.14005453884601593 0.15599113702774048
0.04384187236428261 0.22858963906764984 0.14273633062839508
0.2941671907901764 0.13258151710033417 -0.13229449093341827
0.1382666975259781 -0.24563078582286835 0.1551181674003601
-0.3007679879665375 -0.31980809569358826 0.16889572143554688
0.11461590975522995 -0.2529136836528778 -0.05782855674624443
0.16238714754581451 -0.4152251183986664 0.18312576413154602
-0.21936511993408203 0.09246176481246948 0.16967013478279114
-0.283085435628891 -0.4537193775177002 -0.07923019677400589
0.2696617543697357 -0.44051477313041687 -0.045535776764154434
-0.19052085280418396 0.16371747851371765 0.1630268543958664
-0.28178566694259644 -0.31254830956459045 0.10654163360595703
0.29510918259620667 -0.138667494058609 0.1475227326154709
0.10124804079532623 -0.2521914541721344 -0.11807318031787872
-0.22696059942245483 -0.20526328682899475 -0.13534750044345856
0.24085253477096558 -0.30605393648147583 -0.06810883432626724
-0.04414449259638786 0.22696919739246368 0.14829878509044647
-0.27327731251716614 -0.21603286266326904 -0.13138547539710999
0.2526184022426605 0.002716359682381153 0.15186649560928345
0.2526548504829407 -0.24373702704906464 -0.13439786434173584
-0.15443095564842224 -0.19663380086421967 0.15319421887397766
0.27284470200538635 0.41041162610054016 -0.07810640335083008
-0.21066391468048096 0.2643362581729889 -0.02375897765159607
0.2532198131084442 0.47168514132499695 -0.07639320194721222
-0.24044881761074066 0.30993223190307617 0.023766707628965378
-0.011994090862572193 0.22293777763843536 0.1473253220319748
-0.17543771862983704 0.2282504141330719 0.030469432473182678
-0.19841264188289642 0.1737060695886612 0.15259191393852234
0.22608140110969543 -0.18898186087608337 -0.1353074312210083
-0.3011165261268616 -0.346285343170166 0.20094789564609528
0.19010195136070251 -0.24403272569179535 0.15624725818634033
0.29408493638038635 0.030718570575118065 -0.1348748654127121
-0.1691282093524933 0.23041796684265137 0.017699066549539566
-0.27240437269210815 -0.007069744169712067 0.14561501145362854
-0.26593855023384094 -0.1847878098487854 -0.13316304981708527
0.14608922600746155 0.025104524567723274 -0.13566769659519196
0.2955971360206604 0.20004677772521973 0.03672568127512932
-0.2688097357749939 0.050901953130960464 -0.13503743708133698
-0.05122022703289986 -0.008406408131122589 0.16897353529930115
0.29743707180023193 -0.007716691121459007 0.03208174183964729
0.289575457572937 -0.19970068335533142 0.15675535798072815
-0.3323051631450653 -0.4001815915107727 0.01713879592716694
-0.16517773270606995 0.2299882471561432 0.015426870435476303
0.24127426743507385 -0.013518434017896652 0.16414794325828552
0.06051267310976982 -0.17697162926197052 0.16643106937408447
0.19449137151241302 0.21737632155418396 -0.1356891244649887
-0.27243074774742126 -0.07970616966485977 0.047581419348716736
0.2907554805278778 0.16482269763946533 -0.1346510797739029
0.2944612503051758 -0.19801932573318481 0.14773643016815186
0.2553625702857971 -0.24693122506141663 0.1536526381969452
0.16352061927318573 0.17726218700408936 0.1554601639509201
-0.21367968618869781 -0.08626646548509598 0.16876721382141113
0.17155513167381287 -0.19109518826007843 0.1593797504901886
0.2729179263114929 -0.24336574971675873 -0.13553465902805328
-0.2393181025981903 -0.341291606426239 -0.08534825593233109
0.28786227107048035 0.10530399531126022 0.15687887370586395
0.2873181998729706 -0.16900062561035156 0.15586528182029724
-0.17198795080184937 0.3990752696990967 -0.055660076439380646
0.2965985834598541 0.08172537386417389 0.1468977928161621
0.01424904353916645 0.12483660131692886 -0.2089385688304901
0.2770140767097473 -0.24925772845745087 -0.10703936964273453
-0.2696813941001892 -0.13390803337097168 -0.13188576698303223
-0.2709362804889679 0.0036037468817085028 -0.1363176852464676
0.19123925268650055 0.3541722595691681 0.07992305606603622
0.25324422121047974 0.16804635524749756 0.1519528478384018
0.3011656701564789 0.0325888991355896 0.14541591703891754
0.28714117407798767 -0.24934804439544678 -0.046510204672813416
0.2904798984527588 0.020378924906253815 0.15577435493469238
-0.2928308844566345 -0.3773452341556549 0.20538149774074554
0.2948257029056549 0.15016509592533112 -0.07656926661729813
-0.16495978832244873 -0.1995585709810257 0.15344449877738953
0.24529984593391418 -0.0129074202850461 0.16456639766693115
0.25874826312065125 0.22698703408241272 0.14864861965179443
0.22540298104286194 0.5126504898071289 0.012570648454129696
-0.28080832958221436 -0.3110702335834503 0.13231417536735535
-0.27032339572906494 0.0012149699032306671 -0.13413745164871216
-0.24959658086299896 -0.25075551867485046 0.05126747861504555
-0.13486793637275696 0.22887322306632996 0.09733256697654724
0.04162558168172836 0.1539064198732376 -0.21557201445102692
0.2983512580394745 0.16335752606391907 -0.12373420596122742
0.23752790689468384 -0.06313233822584152 0.16760793328285217
0.14897601306438446 -0.4177624583244324 0.1544439196586609
-0.22025218605995178 -0.13710644841194153 0.16206656396389008
-0.009075166657567024 0.18000198900699615 -0.13747213780879974
-0.13787683844566345 1.0313466191291809e-05 0.17106056213378906
0.20371180772781372 -0.44761228561401367 0.19618923962116241
0.09251996874809265 -0.2451189011335373 -0.1348918080329895
-0.17467734217643738 -0.07984161376953125 0.168240025639534
0.2960415184497833 0.21829725801944733 0.12835970520973206
-0.31243592500686646 -0.4100461006164551 -0.08263693004846573
0.23047304153442383 -0.24909184873104095 0.10072848945856094
-0.009444253519177437 0.20454742014408112 -0.1578885018825531
-0.12377499788999557 -0.2371678501367569 0.1556219905614853
-0.2573152184486389 -0.1411556750535965 -0.13698655366897583
-0.2699010670185089 -0.1434299200773239 0.14645959436893463
-0.2581368088722229 -0.24952229857444763 0.05902488902211189
0.29369640350341797 0.0712173730134964 0.15541104972362518
0.14756491780281067 -0.44688040018081665 0.12286779284477234
-0.1688872128725052 0.23088374733924866 0.028417907655239105
-0.2605037987232208 -0.06564280390739441 -0.13395729660987854
-0.32907620072364807 -0.345525324344635 0.13195043802261353
0.2952018678188324 -0.043161481618881226 -0.11948278546333313
-0.1279837042093277 0.22385568916797638 -0.1328146755695343
-0.27463218569755554 -0.39622819423675537 0.1964399218559265
0.2890549302101135 -0.4345863461494446 0.0825749933719635
-0.2130139172077179 0.22985132038593292 -0.05398405343294144
0.2558293044567108 -0.249540314078331 0.15333528816699982
0.2913810908794403 0.22237367928028107 -0.1277770698070526
0.2976085841655731 0.025191517546772957 0.14365868270397186
-0.2322119027376175 -0.2624075710773468 -0.01503213681280613
-0.206040620803833 0.22891968488693237 -0.12513622641563416
-6.7678047344088554e-06 0.09896804392337799 -0.16140693426132202
-0.15130843222141266 -0.2732488214969635 -0.00773718673735857
0.23150092363357544 0.23311832547187805 -0.03788190707564354
0.2952033281326294 0.16796061396598816 0.036097630858421326
-0.012087278068065643 -0.24075835943222046 -0.13731007277965546
-0.13622118532657623 -0.10931723564863205 0.16906976699829102
0.2924714982509613 -0.4274214506149292 0.09766311198472977
0.2923094928264618 -0.21673054993152618 -0.1359347403049469
0.05441330373287201 0.11855286359786987 -0.13354893028736115
-0.2722990810871124 -0.23463498055934906 0.12896272540092468
-0.27072805166244507 -0.08191831409931183 -0.0022028908133506775
-0.2399154007434845 -0.30540627241134644 0.0981406569480896
-0.15593962371349335 -0.1586681604385376 -0.1343591809272766
-0.2709938585758209 0.148966446518898 -0.13182830810546875
0.017797455191612244 0.17456334829330444 0.15345580875873566
-0.22027717530727386 -0.35935720801353455 -0.0828305184841156
0.2837165594100952 -0.23761212825775146 -0.13476860523223877
-0.02828693762421608 0.15039807558059692 -0.13593092560768127
-0.1877899467945099 -0.25021684169769287 0.1466762125492096
-0.010399946942925453 0.22581562399864197 -0.1291288286447525
0.24689653515815735 0.5168139934539795 0.025066561996936798
0.25010526180267334 -0.030644886195659637 0.1579459011554718
0.29576003551483154 0.17660948634147644 -0.09202898293733597
0.17635862529277802 0.17354407906532288 0.15280582010746002
-0.2709292769432068 -0.3036915957927704 0.10834061354398727
-0.08690713346004486 0.17603836953639984 0.15394730865955353
0.2863084375858307 -0.12631575763225555 0.15603920817375183
-0.2704578936100006 0.006345722824335098 -0.04864778742194176
-0.1499253213405609 0.14926868677139282 0.1695944368839264
-0.22145619988441467 -0.18397432565689087 0.15741069614887238
0.20869377255439758 0.3631562292575836 -0.0751161202788353
0.1840376853942871 0.3411490321159363 -0.005291802808642387
-0.12367905676364899 -0.17283165454864502 0.16835279762744904
-0.02546633407473564 0.11104301363229752 -0.13511070609092712
0.2977049648761749 -0.16005703806877136 -0.12489636242389679
-0.19365547597408295 -0.42617231607437134 0.07584264874458313
-0.2740277349948883 0.21298983693122864 0.14213305711746216
-0.17073188722133636 0.4703374207019806 0.09729370474815369
-0.2710476815700531 0.012355327606201172 -0.13454797863960266
-0.21469759941101074 0.09955717623233795 0.1708717942237854
-0.2454136162996292 -0.3021475076675415 -0.06618060171604156
-0.2691443860530853 0.12095566093921661 -0.13354502618312836
0.25544995069503784 -0.24966247379779816 -0.12131242454051971
0.2944446802139282 0.20862853527069092 0.15477138757705688
0.012097878381609917 -0.24470356106758118 0.15473753213882446
-0.21761301159858704 0.22301290929317474 -0.13239039480686188
0.009874816052615643 0.08680605888366699 0.16935712099075317
-0.2728128433227539 -0.06833600252866745 -0.12452705204486847
0.2554650604724884 0.12752598524093628 0.1531049758195877
0.15193596482276917 -0.2511238157749176 0.14215394854545593
0.2075476050376892 0.2271796613931656 0.01710488274693489
-0.2895451784133911 -0.4061710834503174 -0.0936369001865387
0.2852126657962799 0.22730451822280884 -0.06629836559295654
0.2787196636199951 0.4969156086444855 0.0807574987411499
0.2192767858505249 -0.44737952947616577 0.19717907905578613
0.1309504359960556 -0.20387600362300873 0.15480539202690125
0.2974589765071869 0.21897098422050476 0.0542670339345932
-0.0058038681745529175 -0.23844337463378906 -0.1310495138168335
0.28615328669548035 0.48152899742126465 0.10986119508743286
0.02338087186217308 0.10693074017763138 -0.1363753378391266
-0.2425021231174469 -0.47418785095214844 0.022636381909251213
0.14689044654369354 -0.24560587108135223 -0.13635550439357758
0.29570695757865906 0.19156962633132935 0.14706330001354218
-0.2659187316894531 0.034721434116363525 -0.13370738923549652
-0.20583239197731018 0.22665904462337494 -0.131519615650177
0.29637411236763 0.08307942748069763 -0.045765213668346405
-0.27075427770614624 -0.07422053813934326 0.054617445915937424
-0.17050579190254211 0.368435800075531 0.09257754683494568
-0.24399663507938385 -0.039164599031209946 -0.2641945779323578
-0.27245286107063293 -0.18547187745571136 -0.11554154008626938
0.0024359673261642456 -0.2521362602710724 -0.1284533143043518
-0.2891429662704468 0.07521513849496841 -0.2779107391834259
-0.26991599798202515 0.21172744035720825 -0.1273902952671051
-0.2182595282793045 0.10173496603965759 0.16990168392658234
0.28816285729408264 -0.09210097789764404 0.1560969352722168
0.029986336827278137 0.16183331608772278 0.16134247183799744
0.0694388896226883 0.2264135628938675 -0.12521186470985413
0.172610342502594 0.4219866991043091 -0.0032671347726136446
0.29829028248786926 -0.13058499991893768 0.14498046040534973
0.26627811789512634 -0.25433334708213806 -0.04963909089565277
-0.2666902244091034 -0.011352205649018288 -0.13253876566886902
0.06505473703145981 -0.2419266551733017 0.15595313906669617
-0.2716464400291443 0.09670189023017883 -0.13121986389160156
0.2817862033843994 0.22531309723854065 -0.13130071759223938
-0.26083308458328247 -0.24881215393543243 0.021243475377559662
-0.21898825466632843 -0.06392090022563934 0.16594520211219788
-0.1990596055984497 -0.20232856273651123 0.15324021875858307
-0.164028599858284 0.22811296582221985 -0.006571654230356216
-0.26453959941864014 -0.2462533414363861 0.1532951146364212
0.30036410689353943 0.45599186420440674 0.03169623389840126
0.027443256229162216 -0.2496887743473053 -0.12981954216957092
0.24286873638629913 -0.4484906494617462 0.18834543228149414
0.23965898156166077 -0.1262088418006897 0.16681577265262604
0.13534535467624664 0.1745719164609909 0.1538572907447815
-0.2692258358001709 0.05752154439687729 -0.05769697576761246
-0.17732392251491547 0.4573638141155243 0.10146599262952805
-0.327301949262619 -0.3677169978618622 0.14303959906101227
0.29626229405403137 0.17394505441188812 0.14728295803070068
0.2937695384025574 -0.24626553058624268 0.01591053232550621
-0.18197013437747955 0.2257295399904251 -0.06295284628868103
-0.3324541747570038 -0.38033321499824524 0.08681865781545639
-0.23903794586658478 0.3696298599243164 -0.07455562055110931
-0.26959577202796936 -0.18440207839012146 -0.13635201752185822
0.02759462594985962 0.1628485918045044 0.15885986387729645
-0.21296648681163788 -0.15269729495048523 0.16825565695762634
0.294266015291214 -0.07713399082422256 0.14733104407787323
-0.14325255155563354 0.2270333617925644 -0.12699487805366516
0.06017591431736946 -0.24006155133247375 0.15630939602851868
0.015642378479242325 -0.2147853672504425 -0.13540767133235931
0.22448647022247314 0.3011779189109802 -0.024441272020339966
-0.17186519503593445 0.23217041790485382 -0.0025916409213095903
-0.08613230288028717 0.2309931516647339 0.1370352953672409
-0.26840072870254517 0.050759732723236084 -0.13377758860588074
0.17096595466136932 -0.4040144383907318 0.1854788064956665
0.206140398979187 0.22642767429351807 -0.0530523844063282
0.2751880884170532 -0.44368788599967957 0.027289966121315956
0.2836727201938629 0.1063668429851532 0.1578824669122696
-0.23815037310123444 0.30284029245376587 -0.004253100603818893
-0.2113266885280609 0.175485759973526 0.15293367207050323
-0.2699006497859955 -0.11689131706953049 0.15506678819656372
0.154354527592659 -0.24077843129634857 -0.13393715023994446
-0.1843949258327484 -0.23416969180107117 -0.13434599339962006
-0.2720027267932892 -0.009031018242239952 -0.12502364814281464
-0.2699567675590515 -0.15941867232322693 -0.1355123668909073
0.23085059225559235 0.055377714335918427 0.167474165558815
0.2229263037443161 -0.264599472284317 -0.050685491412878036
0.28831562399864197 -0.42326050996780396 0.1710510402917862
-0.044589851051568985 0.15893852710723877 0.16528752446174622
-0.2056051343679428 -0.264007568359375 -0.05295921862125397
0.2957165241241455 0.09681658446788788 -0.10778029263019562
0.2816152274608612 0.44881880283355713 -0.04433121532201767
-0.3081534206867218 -0.44269901514053345 -0.07660047709941864
0.020390259101986885 0.1086454764008522 -0.13569879531860352
-0.08913013339042664 0.16540974378585815 0.1573665738105774
-0.18704500794410706 0.3040563464164734 -0.008002057671546936
0.25243812799453735 -0.01892283745110035 0.1516399085521698
-0.262066125869751 0.09646376967430115 0.15650413930416107
-0.2986445724964142 -0.3723428249359131 0.20345725119113922
0.23842498660087585 0.15383338928222656 0.16420920193195343
0.27019715309143066 -0.4072840213775635 0.19226989150047302
-0.21770212054252625 -0.29333609342575073 -0.06379304081201553
0.12823228538036346 -0.2529788911342621 -0.018842272460460663
-0.2213086485862732 -0.15357476472854614 0.15923461318016052
0.20939196646213531 0.22774170339107513 0.042294200509786606
0.1958773285150528 0.1717430055141449 0.15177012979984283
0.2877088785171509 -0.017825353890657425 -0.1356949806213379
-0.11558941751718521 0.164459228515625 0.15708228945732117
0.20287756621837616 0.312511146068573 0.010958818718791008
0.2909855842590332 0.010930689051747322 -0.13444316387176514
0.29038798809051514 -0.21632833778858185 -0.13376633822917938
-0.22324533760547638 0.2513769865036011 -0.02848168835043907
-0.15408855676651 0.13558578491210938 -0.134864941239357
0.13940465450286865 0.22847770154476166 -0.12438434362411499
-0.10617069900035858 -0.1714136004447937 0.16773752868175507
0.05664617568254471 0.22794902324676514 0.07522552460432053
-0.21494218707084656 0.008235598914325237 0.168462872505188
0.23008161783218384 -0.249120831489563 0.14819860458374023
0.2797112762928009 0.22683773934841156 -0.06688623130321503
0.2952826917171478 0.18952977657318115 -0.13058900833129883
0.24459756910800934 0.14120803773403168 0.16288800537586212
-0.26865354180336 0.17309728264808655 -0.1192447617650032
0.13949957489967346 -0.4371680021286011 0.03327180817723274
0.17077577114105225 -0.2534903883934021 0.036223240196704865
0.2872607409954071 -0.17988014221191406 -0.13362658023834229
-0.041044339537620544 0.1773453801870346 0.15471266210079193
0.2905952036380768 0.2277340143918991 -0.12662474811077118
0.11453261971473694 -0.25242385268211365 0.11808066070079803
0.2158963978290558 0.3866707682609558 -0.08401995897293091
0.29896771907806396 0.19590190052986145 -0.03826908767223358
-0.2467491328716278 0.41221269965171814 -0.0710858479142189
0.29182958602905273 0.21975871920585632 -0.1359664648771286
-0.23007769882678986 0.3729138970375061 -0.07511775195598602
-0.27096444368362427 -0.036672089248895645 0.03836452215909958
0.29707759618759155 -0.0629265159368515 -0.13464242219924927
0.18994811177253723 0.39019089937210083 -0.05799344927072525
-0.2667141556739807 0.11914459615945816 0.15014706552028656
0.24815046787261963 0.30758339166641235 0.04876099154353142
-0.05013366788625717 0.14748960733413696 0.169636070728302
0.29679393768310547 0.0645509660243988 0.14341944456100464
