0.00802154466509819 -0.2453879415988922 -0.13376055657863617
-0.08446069061756134 -0.20088568329811096 0.16072754561901093
-0.2551397979259491 -0.021944046020507812 -0.1325564831495285
-0.25585705041885376 0.17217060923576355 -0.13523255288600922
-0.12758368253707886 0.17644354701042175 -0.13153499364852905
-0.15037575364112854 -0.25279518961906433 0.12946535646915436
0.29899778962135315 -0.08104172348976135 -0.04242761805653572
0.08769938349723816 -0.19279253482818604 0.16022729873657227
0.23482266068458557 0.08083406835794449 0.16375131905078888
-0.21008485555648804 0.2036673128604889 -0.13300272822380066
0.2970798909664154 0.08467257767915726 -0.0327807255089283
-0.10505203157663345 -0.24992802739143372 0.05493447929620743
0.2351723164319992 -0.16236446797847748 0.1544925421476364
-0.09680081903934479 0.16211771965026855 -0.13634076714515686
0.08686984330415726 -0.1955793797969818 0.15862512588500977
-0.259949654340744 0.1578138768672943 -0.13456350564956665
-0.2732248604297638 -0.23973135650157928 0.12030009180307388
0.21385489404201508 0.333756685256958 0.08165696263313293
0.19307085871696472 -0.447528600692749 0.09551211446523666
0.2574615776538849 0.22826091945171356 -0.11036054790019989
-0.23998835682868958 -0.274477481842041 -0.020933879539370537
0.18556317687034607 0.33697327971458435 0.025269193574786186
0.12571266293525696 0.2257729023694992 0.0453416183590889
0.2982085943222046 0.38810691237449646 0.06808258593082428
0.16805532574653625 -0.19251832365989685 0.16358067095279694
0.06814943253993988 -0.24806025624275208 -0.13689477741718292
-0.27024275064468384 -0.016751939430832863 -0.01548273116350174
-0.02930632047355175 -0.2523763179779053 0.055645234882831573
0.2203630805015564 -0.12140678614377975 -0.13297457993030548
0.14702649414539337 0.23143596947193146 0.06685634702444077
0.0626370832324028 0.18613111972808838 -0.18832767009735107
0.3000079095363617 0.015345597639679909 0.09345926344394684
-0.2585897147655487 0.4622957408428192 0.004006761591881514
0.2974132299423218 0.22836068272590637 -0.045727573335170746
0.16318613290786743 0.22701884806156158 -0.02118837460875511
0.1705234944820404 0.2247946411371231 -0.12972025573253632
0.20308595895767212 -0.09763091057538986 -0.1335560828447342
0.20054322481155396 -0.22284457087516785 -0.13379140198230743
0.09816232323646545 -0.2251722812652588 0.15874038636684418
0.08395407348871231 -0.2495332509279251 0.010364634916186333
0.17461170256137848 -0.269465833902359 0.03301522508263588
-0.26969894766807556 -0.43465474247932434 0.08936122804880142
-0.10176881402730942 -0.18349416553974152 0.16831761598587036
-0.016571857035160065 -0.20060774683952332 0.15883339941501617
-0.1994602531194687 -0.3774440288543701 0.1155080795288086
-0.2460310161113739 -0.0613107830286026 -0.2683127820491791
-0.2645896077156067 0.362886518239975 0.020809583365917206
0.1966424286365509 0.5010912418365479 0.04109853506088257
0.27707481384277344 0.17474482953548431 -0.1380520910024643
-0.030539561063051224 -0.2512969374656677 0.1255035251379013
0.25229930877685547 0.026979774236679077 -0.1330682337284088
0.08410803228616714 -0.193549245595932 0.16076436638832092
0.024408308789134026 -0.2510913610458374 0.08321912586688995
-0.11138483136892319 0.18108657002449036 -0.1344624161720276
0.2370816171169281 -0.3366332948207855 0.1288994997739792
-0.2095576673746109 -0.3394724130630493 0.1007261574268341
0.10992907732725143 -0.25225621461868286 0.045028313994407654
0.2385076880455017 -0.44382980465888977 -0.06131015717983246
0.195462167263031 0.44956353306770325 -0.05999206006526947
0.17436891794204712 0.4279448688030243 0.07380678504705429
0.19470472633838654 -0.27877485752105713 0.06586095690727234
0.29785436391830444 0.0061479490250349045 0.029256168752908707
-0.1091032475233078 0.06855238229036331 0.17175912857055664
0.2473829686641693 -0.3562387228012085 -0.08501593768596649
-0.02926936000585556 -0.0034277699887752533 0.17316675186157227
0.22793209552764893 0.41812664270401 -0.0900847390294075
0.046952985227108 0.1655994951725006 -0.13545437157154083
-0.18119792640209198 -0.2887985408306122 0.06801405549049377
0.2972071170806885 -0.012687725946307182 0.10447075217962265
0.2964421212673187 0.08879417926073074 0.01722189038991928
-0.20045794546604156 -0.08424939215183258 0.16955824196338654
0.24523530900478363 -0.35130608081817627 -0.08344753086566925
0.14977136254310608 -0.1944800615310669 0.16433803737163544
0.26532894372940063 0.048851966857910156 -0.1371474266052246
0.29659658670425415 0.1441859006881714 -0.11111481487751007
-0.09479673206806183 -0.2519538402557373 0.060929037630558014
0.21449267864227295 0.5033426284790039 -0.019115908071398735
-0.2679833471775055 0.21223899722099304 -0.11323871463537216
0.23190216720104218 -0.3769117593765259 -0.09312212467193604
-0.1600264459848404 0.4294481575489044 -0.028484566137194633
0.2981659173965454 0.19690847396850586 0.0119959507137537
-0.15538570284843445 0.43127086758613586 -0.015516741201281548
0.1022183746099472 -0.24022957682609558 -0.13400188088417053
0.24053122103214264 -0.4455886781215668 0.12238233536481857
-0.20585797727108002 0.10481224209070206 0.1676584631204605
0.3006637692451477 0.37776118516921997 0.014386925846338272
0.2092270851135254 0.3430972993373871 0.0999348908662796
0.23087897896766663 0.1357877403497696 0.1660337746143341
0.025439079850912094 0.03707048296928406 -0.13263331353664398
-0.27093303203582764 0.006641559302806854 -0.12806256115436554
-0.16538888216018677 0.19551953673362732 -0.13324758410453796
0.13861308991909027 0.15624785423278809 0.16669663786888123
0.2125757932662964 -0.3423495292663574 -0.07991375774145126
-0.24581246078014374 0.43716537952423096 -0.061717547476291656
0.29619625210762024 0.18073514103889465 -0.10275108367204666
-0.2851647138595581 -0.06282714009284973 -0.2573160231113434
0.297733873128891 -0.17611373960971832 -0.054145779460668564
0.1991058588027954 0.22316324710845947 -0.13050201535224915
0.07962293922901154 -0.25327613949775696 0.1374174952507019
0.10319903492927551 -0.25166210532188416 -0.11779197305440903
0.29702451825141907 -0.12549448013305664 -0.0302157960832119
0.23434768617153168 0.04527443274855614 0.165835902094841
0.29732412099838257 -0.174099400639534 0.07090318202972412
-0.26583242416381836 0.3980766832828522 -0.016560440883040428
-0.27016550302505493 0.20519641041755676 -0.1093258187174797
0.17590183019638062 -0.44585514068603516 0.1451733410358429
0.04838663712143898 0.08102086186408997 -0.13425981998443604
0.29635706543922424 0.22352664172649384 0.04310500621795654
-0.19235838949680328 -0.11030476540327072 0.172652468085289
0.09572989493608475 -0.23473355174064636 -0.13469327986240387
0.2969471216201782 -0.1566188484430313 0.08065087348222733
-0.12198340147733688 -0.2522403597831726 -0.02851301245391369
-0.268130898475647 -0.4463246166706085 0.0637015700340271
-0.18196259438991547 -0.4158523976802826 0.04923506826162338
0.2374642789363861 -0.24686667323112488 -0.11507731676101685
0.10753874480724335 0.14168831706047058 -0.13570739328861237
0.029279261827468872 0.20924897491931915 -0.23550808429718018
0.17445339262485504 0.44278451800346375 0.013001983985304832
0.20697303116321564 -0.42058756947517395 -0.0855993777513504
0.01707327738404274 0.08670224249362946 -0.13141585886478424
-0.19967302680015564 -0.3639821410179138 -0.06334245949983597
-0.17950256168842316 -0.32131901383399963 -0.04682118818163872
0.29805150628089905 -0.03835492581129074 0.053359098732471466
0.2578793168067932 -0.4433150291442871 0.11273442953824997
0.244029238820076 -0.23485633730888367 -0.13483744859695435
0.2778114080429077 -0.07067554444074631 -0.13813452422618866
-0.3343981206417084 -0.3753340542316437 0.012417691759765148
-0.1934611052274704 -0.18068791925907135 0.16714827716350555
-0.2670864462852478 -0.41634273529052734 0.16502462327480316
-0.2690863013267517 0.10548147559165955 -0.12744785845279694
0.29861980676651 0.415075421333313 -0.015419302508234978
0.2205071896314621 0.2267298400402069 -0.1261218786239624
0.2281675487756729 -0.3679361045360565 0.16577114164829254
-0.01816835254430771 0.15373679995536804 0.16898494958877563
-0.1643984317779541 0.22657527029514313 0.13533441722393036
0.26646551489830017 -0.2558412551879883 0.060425225645303726
-0.2691924273967743 -0.03215945512056351 -0.13088372349739075
0.2903672158718109 0.1225200966000557 -0.06984511762857437
0.23973920941352844 0.19991424679756165 -0.13455858826637268
0.2111387401819229 -0.4478970170021057 -0.03964934125542641
-0.2686648368835449 0.012083631008863449 -0.12924569845199585
-0.11884415149688721 0.15462489426136017 0.16523154079914093
0.26969730854034424 0.06947174668312073 -0.13380925357341766
0.06616350263357162 -0.19600194692611694 0.16298355162143707
-0.18783491849899292 -0.3809954524040222 0.08934056013822556
0.2430189698934555 0.515776515007019 0.04316340759396553
-0.2664773762226105 0.3947230577468872 0.07593462616205215
0.2953978180885315 0.1873496174812317 0.13133743405342102
0.2896544635295868 0.47531217336654663 0.09496388584375381
0.22205308079719543 -0.2112681269645691 0.15752717852592468
-0.12127770483493805 -0.2505747675895691 0.052917659282684326
0.13751664757728577 -0.24811844527721405 -0.05032697692513466
-0.18661285936832428 -0.3073076903820038 -0.05494040995836258
-0.1071433275938034 -0.21074870228767395 0.15565833449363708
-0.2491946518421173 0.20298698544502258 -0.1316271871328354
0.07689181715250015 0.2261025756597519 -0.03087911382317543
0.007840314880013466 0.2393965721130371 -0.18689507246017456
-0.19962430000305176 -0.31649306416511536 -0.06449482589960098
0.2963207960128784 -0.11409638822078705 0.149992898106575
0.2932543158531189 0.22969406843185425 -0.04281759634613991
0.21862788498401642 0.13435611128807068 0.16355302929878235
0.27456140518188477 0.07923603057861328 -0.13530336320400238
0.14608006179332733 -0.23031635582447052 0.15917734801769257
-0.2697359323501587 -0.026114758104085922 -0.12683485448360443
-0.26969438791275024 0.04106093943119049 -0.11453509330749512
-0.2690906226634979 0.08436580002307892 -0.12710781395435333
-0.12583588063716888 0.1680034101009369 -0.13346128165721893
-0.25801971554756165 0.11688453704118729 -0.13290885090827942
0.18003880977630615 -0.337400883436203 0.10237753391265869
0.17733071744441986 0.3561338782310486 0.04583454504609108
-0.26932063698768616 0.19948935508728027 0.12025230377912521
-0.2476845383644104 0.4037162959575653 -0.06538362056016922
0.28238630294799805 -0.38767221570014954 -0.019869139418005943
0.2567753493785858 0.09356552362442017 -0.13439103960990906
0.2702523171901703 -0.3218274712562561 0.0932062640786171
0.2631813883781433 -0.2166808843612671 -0.13579335808753967
0.10965514928102493 0.19724299013614655 -0.13532011210918427
-0.24899142980575562 -0.2929966151714325 -0.048437055200338364
-0.19688284397125244 0.2168496549129486 -0.12935684621334076
-0.256123423576355 0.07200771570205688 -0.13431575894355774
-0.24499346315860748 0.2057960033416748 -0.13316357135772705
0.26409977674484253 -0.44365260004997253 0.07643885910511017
0.2715015411376953 -0.3953246474266052 -0.06797973811626434
-0.14173653721809387 0.2234741896390915 0.03168826177716255
0.25685417652130127 -0.2926139533519745 0.07345639169216156
-0.2561745345592499 0.06678622961044312 -0.13193298876285553
-0.03944116830825806 0.18764910101890564 0.15564462542533875
0.29049691557884216 0.47447821497917175 0.02246066741645336
0.10589923709630966 0.2284756749868393 0.024610815569758415
-0.20815876126289368 -0.011542132124304771 0.17026302218437195
0.1988263875246048 0.2283589392900467 0.0650332123041153
0.1141589879989624 0.15534527599811554 0.1666433960199356
0.15483994781970978 0.2273644506931305 -0.11433827877044678
0.28999489545822144 0.47621768712997437 0.030254099518060684
0.29394394159317017 0.22127468883991241 0.08756764233112335
0.20377708971500397 0.22795939445495605 0.07694124430418015
0.06575565785169601 -0.233919158577919 -0.13077755272388458
0.10113812983036041 -0.20064109563827515 0.15933141112327576
-0.24512383341789246 0.07826777547597885 -0.1326485574245453
0.18026654422283173 0.3686196506023407 0.07620734721422195
0.06080642715096474 -0.236301451921463 -0.1283438354730606
0.2840384542942047 0.4793870449066162 0.09279221296310425
-0.20315279066562653 -0.023404095321893692 0.168833926320076
0.26630863547325134 -0.4454980492591858 0.12179682403802872
-0.1194821149110794 -0.24911363422870636 0.04024530202150345
-0.2694213092327118 0.21370889246463776 -0.09810718894004822
0.00031728949397802353 0.22696325182914734 -0.030056100338697433
0.12061172723770142 -0.20931904017925262 0.15846310555934906
0.02251124009490013 0.08590438961982727 -0.16529349982738495
-0.2706739604473114 0.19435247778892517 -0.11446860432624817
0.07929201424121857 0.2234230935573578 -0.12682463228702545
0.10282532870769501 -0.22133997082710266 -0.13303673267364502
-0.32078537344932556 -0.3636283874511719 -0.004911981988698244
0.23450160026550293 0.03192688897252083 0.16701243817806244
-0.22393883764743805 0.21553412079811096 -0.1331111639738083
-0.14968004822731018 0.19286222755908966 0.15937431156635284
-0.16142718493938446 -0.3051140308380127 -0.020385902374982834
-0.011258815415203571 0.22876468300819397 -0.08435078710317612
0.16353119909763336 -0.2493119239807129 -0.0899169072508812
-0.24867293238639832 -0.0986432284116745 0.15619176626205444
0.006592112593352795 0.14577925205230713 -0.13629445433616638
-0.24483758211135864 -0.27880626916885376 0.014096970669925213
0.2989877462387085 0.4439184367656708 0.07262889295816422
-0.12272284179925919 -0.2309189736843109 -0.13247117400169373
-0.20342175662517548 -0.37883564829826355 -0.0657782033085823
-0.19052405655384064 0.4007928967475891 -0.07578906416893005
0.29521507024765015 -0.21624325215816498 0.14151151478290558
0.22741883993148804 -0.17006176710128784 0.16828395426273346
0.16620218753814697 -0.3531956374645233 0.11207740008831024
0.28986498713493347 -0.40571027994155884 0.06525342911481857
-0.1371622234582901 -0.11406613886356354 0.17195549607276917
0.2952021658420563 0.053195349872112274 -0.005774958059191704
-0.27051326632499695 -0.021613018587231636 -0.03409045934677124
-0.2925695478916168 -0.4059796929359436 0.11679707467556
-0.1773906946182251 -0.23840929567813873 -0.13400621712207794
0.2696032226085663 -0.41454026103019714 -0.06707747280597687
0.19717702269554138 -0.2486514300107956 0.08784797042608261
0.19994544982910156 0.45109841227531433 -0.06301233917474747
-0.2622396945953369 0.4586319625377655 0.06244495138525963
0.29731085896492004 0.012149381451308727 -0.03834078088402748
0.30125242471694946 -0.20941060781478882 0.02274736762046814
0.2767570912837982 -0.23829315602779388 -0.13571231067180634
0.20336996018886566 0.2285844087600708 0.0010390708921477199
0.1757451742887497 -0.24790336191654205 -0.038814932107925415
-0.15788918733596802 -0.3056243658065796 -0.012044820934534073
0.17438672482967377 0.41284096240997314 -0.012529098428785801
0.2788848876953125 -0.3292374312877655 0.04590185359120369
-0.2698543667793274 0.1433359682559967 -0.07705983519554138
0.274120956659317 -0.04760773107409477 -0.1335863620042801
-0.2878546118736267 -0.3114250600337982 0.100684255361557
-0.2713071405887604 0.131744846701622 -0.12824738025665283
-0.27108004689216614 0.18829630315303802 -0.12507492303848267
-0.19368787109851837 0.22400937974452972 -0.04304399713873863
-0.27032724022865295 -0.1452101171016693 -0.13370013236999512
0.1095762550830841 -0.23906947672367096 -0.13269400596618652
-0.21659481525421143 -0.19855302572250366 -0.13415776193141937
-0.26932740211486816 0.21947407722473145 -0.030463963747024536
-0.1557224839925766 0.4307827353477478 0.06794535368680954
0.14988383650779724 0.10173340141773224 0.17212943732738495
-0.2649024724960327 0.3995637893676758 0.00675567053258419
-0.07235676050186157 -0.2517677843570709 0.03412773460149765
-0.30515238642692566 -0.35616689920425415 -0.020179785788059235
0.2788656949996948 -0.16130033135414124 -0.13430693745613098
-0.26990121603012085 -0.4553777873516083 0.011722924187779427
-0.26990410685539246 -0.06363929063081741 -0.13028034567832947
0.029087962582707405 -0.2508479356765747 0.06846354156732559
0.2978159785270691 -0.04203145578503609 -0.001087341457605362
-0.26889994740486145 0.011561617255210876 -0.13237731158733368
0.10232551395893097 0.22890764474868774 0.12791360914707184
0.2860533595085144 -0.12698930501937866 -0.13250398635864258
0.19176548719406128 0.027661561965942383 -0.13506634533405304
-0.24954740703105927 -0.3209133744239807 0.12771402299404144
0.16987890005111694 0.4165630042552948 0.03760862722992897
-0.17949479818344116 -0.39742472767829895 0.024136757478117943
-0.021694839000701904 0.22976689040660858 -0.043623775243759155
-0.14213557541370392 0.1935410499572754 0.15719975531101227
0.0898110643029213 0.1787870228290558 -0.13739413022994995
0.27889716625213623 -0.3403230309486389 -0.007878828793764114
-0.20522136986255646 -0.4447644054889679 0.09919758886098862
-0.15992845594882965 0.42106613516807556 -0.024211041629314423
-0.2680264115333557 -0.03833572939038277 -0.1323031485080719
0.14784255623817444 0.12239181995391846 -0.13446815311908722
-0.20703043043613434 -0.2529197633266449 0.13559268414974213
-0.2390979677438736 -0.25190868973731995 -0.08088233321905136
0.1365135759115219 -0.24374383687973022 -0.13259105384349823
0.14557865262031555 -0.181011363863945 0.16993160545825958
0.19186192750930786 0.4739120602607727 -0.03746721148490906
0.06391898542642593 0.2264750748872757 -0.13067759573459625
0.2302168309688568 -0.2496994286775589 -0.11964286863803864
0.016878776252269745 -0.14776217937469482 0.17147232592105865
0.20846442878246307 0.49175500869750977 -0.036206141114234924
0.22701065242290497 0.2268533557653427 -0.08086090534925461
0.09226057678461075 0.22354428470134735 -0.12794433534145355
0.24575814604759216 -0.19695256650447845 -0.13360528647899628
0.29877209663391113 0.029878387227654457 -0.010595430620014668
0.2384004294872284 -0.44539186358451843 -0.044433362782001495
0.17328068614006042 0.38928449153900146 -0.01593245007097721
0.16989055275917053 -0.31596800684928894 -0.03612499684095383
0.0628465935587883 -0.1918593943119049 0.16254886984825134
-0.15443412959575653 -0.10527605563402176 0.17477117478847504
-0.27069488167762756 0.20696918666362762 -0.1049610897898674
-0.19667771458625793 0.22977286577224731 -0.04616042226552963
0.30002886056900024 0.42088285088539124 0.07583014667034149
-0.04967270791530609 0.22567833960056305 0.06376011669635773
0.09715054929256439 -0.10540364682674408 0.1706770360469818
0.12352434545755386 -0.25049376487731934 0.09608584642410278
-0.10247435420751572 0.22605767846107483 0.022953640669584274
-0.021341238170862198 0.13993337750434875 -0.13664163649082184
0.24334438145160675 -0.25095197558403015 0.08966369926929474
-0.26903480291366577 0.02848787046968937 -0.13282300531864166
0.22307468950748444 0.22602525353431702 -0.12179949879646301
-0.23003336787223816 0.2139122486114502 -0.13335509598255157
0.26889196038246155 -0.29687702655792236 0.005458080675452948
0.18971143662929535 0.4846048951148987 0.09321731328964233
0.2538180351257324 -0.1786845475435257 0.15670031309127808
0.23003984987735748 -0.44653111696243286 0.16054342687129974
0.27699264883995056 0.4921572506427765 0.09069715440273285
-0.23989903926849365 -0.20969684422016144 0.15581032633781433
0.30077701807022095 0.1384764462709427 0.04416725039482117
-0.23342587053775787 0.20807766914367676 -0.1331162303686142
0.2734564542770386 0.14997611939907074 -0.1338995397090912
-0.02628706395626068 -0.1964886486530304 0.15954287350177765
0.2979945242404938 -0.023343484848737717 0.04971091449260712
0.2972443103790283 0.22643008828163147 -0.046001482754945755
-0.22883857786655426 0.2290506213903427 -0.11057166010141373
-0.19045600295066833 0.5003848671913147 0.039144117385149
0.2786400318145752 -0.32399308681488037 -0.006248507648706436
-0.26904910802841187 0.08073510974645615 -0.12396662682294846
-0.07978279888629913 -0.10392439365386963 0.17168720066547394
-0.21641942858695984 0.19865794479846954 -0.1331198364496231
-0.2849131226539612 -0.31446340680122375 0.039240606129169464
0.2899017930030823 0.39214202761650085 -0.06154487282037735
0.07793984562158585 -0.250248521566391 0.026092732325196266
0.2742777168750763 -0.4174700975418091 -0.05411038547754288
0.26972001791000366 -0.4448014199733734 0.07672014832496643
0.2859156131744385 -0.3675966262817383 0.03825750946998596
0.23416374623775482 -0.10190342366695404 -0.13314849138259888
0.014727422036230564 0.2252001315355301 0.09554297477006912
-0.2679857313632965 0.20995193719863892 -0.1081124097108841
0.24884599447250366 -0.4458361864089966 0.1388826072216034
0.29667308926582336 0.03284606337547302 0.14884795248508453
-0.26928088068962097 -0.04603172093629837 -0.13329307734966278
0.17140108346939087 -0.2508239150047302 -0.04379228875041008
0.27982479333877563 -0.22111794352531433 -0.13359321653842926
-0.07996921241283417 -0.24939444661140442 0.09148891270160675
-0.022474372759461403 -0.25335776805877686 0.004597363993525505
-0.2706105411052704 0.21233788132667542 -0.1052490845322609
0.20078563690185547 -0.1874564290046692 0.16673579812049866
-0.0728050172328949 0.09976648539304733 -0.13065284490585327
-0.2691148519515991 0.13673542439937592 -0.12316322326660156
-0.2998765707015991 -0.3288273811340332 0.059440240263938904
-0.23687292635440826 0.48736444115638733 -0.004258178174495697
0.29188311100006104 -0.041921116411685944 0.10878530144691467
-0.09135807305574417 -0.24969662725925446 0.04916659742593765
-0.24356627464294434 0.06857958436012268 -0.1327468305826187
0.046614762395620346 -0.04070352390408516 -0.13173708319664001
0.18603143095970154 0.4825783669948578 0.009147526696324348
-0.16960634291172028 -0.01608601026237011 0.17178378999233246
-0.0018183141946792603 -0.09096331894397736 0.1728653907775879
-0.16088367998600006 -0.2502659857273102 -0.11491657048463821
0.1582079827785492 -0.23849736154079437 -0.13344117999076843
-0.2702213525772095 -0.2276371866464615 0.006792303174734116
-0.050711292773485184 -0.2341974377632141 -0.13433434069156647
0.22069735825061798 -0.3253317177295685 -0.07870583236217499
0.29834461212158203 -0.05286901816725731 0.12167162448167801
0.02435583993792534 0.15292565524578094 0.16915325820446014
-0.2441997528076172 -0.44754672050476074 0.11249062418937683
-0.3104715645313263 -0.3984530568122864 0.09125038236379623
-0.27701786160469055 -0.32004669308662415 -0.029346993193030357
-0.20703125 0.03956851735711098 0.16816416382789612
-0.26992112398147583 -0.2100135236978531 -0.09465411305427551
0.15122494101524353 0.18950839340686798 -0.13522519171237946
0.23635613918304443 -0.15909117460250854 0.16841855645179749
-0.26387840509414673 0.38085097074508667 0.0736842155456543
0.14127686619758606 -0.19262836873531342 -0.13326163589954376
-0.005930555984377861 0.15777891874313354 0.16724519431591034
0.2471468448638916 -0.44413042068481445 -0.007379946298897266
0.0025437772274017334 0.08361344039440155 -0.13338130712509155
-0.2316504418849945 0.21539799869060516 -0.1329660564661026
-0.27978968620300293 -0.42055341601371765 0.12253569811582565
0.2950134575366974 -0.41194668412208557 0.1326795071363449
0.06639531254768372 0.15601108968257904 0.1692313551902771
0.29722172021865845 -0.1959138959646225 -0.11328408867120743
0.27575793862342834 -0.21218670904636383 0.15935282409191132
-0.21856233477592468 -0.1857117861509323 -0.13604041934013367
0.2731679379940033 -0.3774586021900177 -0.053423382341861725
-0.2590333819389343 -0.2960088551044464 0.020715000107884407
0.2643026113510132 -0.27819567918777466 0.03683370351791382
0.2934662997722626 0.3526228368282318 0.059791356325149536
-0.016234487295150757 0.22543367743492126 0.07682961225509644
-0.2510829269886017 0.053364407271146774 -0.2922290563583374
0.1430855095386505 -0.18718594312667847 0.1684897541999817
-0.18457764387130737 0.4909014105796814 -0.014629833400249481
-0.19395481050014496 -0.34438657760620117 -0.060977425426244736
0.2189883291721344 -0.14820781350135803 0.16142626106739044
-0.24391521513462067 0.32236039638519287 0.033354032784700394
-0.22627224028110504 0.1903141885995865 0.15490862727165222
0.2237946093082428 0.14748737215995789 0.16561131179332733
0.2918265461921692 0.34449559450149536 0.0072449869476258755
0.1980268806219101 -0.2413165271282196 -0.13338366150856018
0.27253901958465576 -0.057991936802864075 -0.13326427340507507
-0.21712346374988556 -0.24767233431339264 -0.11347808688879013
0.29344868659973145 0.3731938600540161 -0.012599045410752296
0.27564820647239685 0.4837961792945862 -0.03497608006000519
-0.19969119131565094 0.22426766157150269 -0.11004791408777237
0.039116859436035156 -0.25289198756217957 -0.12107514590024948
0.27354252338409424 -0.24940435588359833 -0.09365866333246231
0.2457319051027298 -0.33844587206840515 0.13103045523166656
0.279487669467926 -0.06328719854354858 -0.1356264352798462
-0.1848125010728836 0.4980795979499817 0.08179444074630737
-0.12294996529817581 -0.25114282965660095 -0.08371873199939728
-0.2731475532054901 0.11461307108402252 0.11633262038230896
0.29001346230506897 0.3811320662498474 -0.04704967513680458
0.10732536762952805 0.2282293438911438 0.05068176984786987
0.19759564101696014 -0.0858045369386673 -0.13244986534118652
0.29701802134513855 -0.15067972242832184 0.10404946655035019
0.013428021222352982 0.2265174239873886 0.03583003580570221
0.13297626376152039 0.15513452887535095 0.1691504567861557
-0.2603543996810913 0.05277387052774429 -0.1343328207731247
0.15622808039188385 0.22743655741214752 0.01351853646337986
0.06420460343360901 -0.04494991898536682 -0.1318623274564743
-0.07465506345033646 -0.25311902165412903 0.04108908772468567
0.11900695413351059 -0.11347070336341858 0.17134371399879456
0.2274063378572464 -0.25373709201812744 0.12787330150604248
0.15019145607948303 -0.16785961389541626 -0.1364421248435974
-0.2698489725589752 -0.20192764699459076 -0.13573569059371948
-0.17723123729228973 0.050550028681755066 -0.13069450855255127
0.1744697093963623 -0.2508765459060669 -0.09988357126712799
0.010508455336093903 -0.25206780433654785 0.07557129114866257
-0.027619285508990288 -0.25053244829177856 -0.055305156856775284
-0.08116340637207031 -0.13263271749019623 0.171622171998024
0.20424844324588776 0.2271961122751236 0.057456307113170624
0.2952820360660553 0.216598242521286 0.12193036079406738
-0.26865124702453613 0.029578018933534622 0.10627396404743195
-0.2718881666660309 0.14122408628463745 -0.12529076635837555
0.297751784324646 -0.17080259323120117 -0.02066248282790184
-0.1671438068151474 0.3431631624698639 -0.014679805375635624
0.14594405889511108 -0.3706142008304596 0.06161218509078026
0.30079567432403564 0.06777412444353104 0.10301607847213745
0.21949836611747742 -0.21368838846683502 0.1576945036649704
0.29689204692840576 0.37919074296951294 0.0994488075375557
0.14868223667144775 0.1981552392244339 -0.13719241321086884
-0.272638738155365 0.019026799127459526 -0.09797004610300064
0.029444154351949692 0.11867320537567139 -0.13523587584495544
-0.1675037145614624 -0.25188004970550537 -0.0712558850646019
0.2970048785209656 -0.06307222694158554 -0.11574151366949081
0.29843834042549133 -0.22343245148658752 -0.002911994233727455
-0.2699427902698517 -0.10120823979377747 0.13568347692489624
0.06605784595012665 -0.2521804869174957 0.13100165128707886
-0.27026525139808655 0.21729585528373718 0.11394951492547989
0.08685251325368881 0.22539950907230377 -0.12576118111610413
-0.24177756905555725 0.2277953028678894 -0.10150941461324692
-0.20677633583545685 -0.45653340220451355 0.04848070815205574
0.19399406015872955 0.45476585626602173 -0.05460534244775772
-0.18612682819366455 0.1511538177728653 0.16304785013198853
-0.264352947473526 0.07256551086902618 -0.13491567969322205
0.2425859123468399 0.22697904706001282 -0.13155558705329895
-0.27475830912590027 0.2050977647304535 0.03681103512644768
-0.054149080067873 -0.24242156744003296 -0.1329728215932846
-0.31422340869903564 -0.34089741110801697 0.07620932161808014
0.20217180252075195 0.4362371861934662 -0.07019130140542984
-0.14932085573673248 0.2277989685535431 -0.028708267956972122
-0.3147573471069336 -0.34847649931907654 0.03918283060193062
0.17962321639060974 -0.3588518798351288 -0.06012709438800812
-0.12206937372684479 0.043367646634578705 0.1719764769077301
0.17207972705364227 -0.18391253054141998 0.16081272065639496
-0.26959890127182007 -0.24263298511505127 -0.02924979478120804
-0.2496323585510254 -0.40890058875083923 -0.08462349325418472
-0.01872137375175953 -0.23497039079666138 -0.13320372998714447
0.13797520101070404 -0.41273683309555054 0.0724606066942215
0.2648206055164337 0.03656647354364395 -0.1337447166442871
-0.2732948362827301 0.06355149298906326 -0.12553520500659943
0.2969248294830322 -0.22346758842468262 -0.06337574124336243
-0.28815555572509766 -0.39385131001472473 0.1778404712677002
0.2942332625389099 -0.18700136244297028 0.10342961549758911
-0.010835748165845871 0.11469608545303345 -0.13198386132717133
-0.29403337836265564 -0.03257887810468674 -0.2701777517795563
0.2721307873725891 0.11841930449008942 -0.13336622714996338
-0.09606164693832397 -0.2506473958492279 -0.10439883917570114
-0.025881027802824974 0.2304123193025589 0.1269659698009491
0.18067878484725952 0.394471138715744 0.09695548564195633
0.2976123094558716 0.08531055599451065 -0.07073327153921127
-0.0233924463391304 -0.24196279048919678 -0.13334423303604126
0.2964763939380646 0.16136910021305084 0.007008076645433903
0.21432700753211975 -0.19344839453697205 0.15565679967403412
0.1327688843011856 0.21190735697746277 -0.13638705015182495
0.29299020767211914 0.22455483675003052 0.01669890806078911
0.06221187114715576 0.19365906715393066 0.15592098236083984
0.1931520402431488 0.47447100281715393 -0.04147680848836899
0.05311986804008484 -0.07945354282855988 0.17516453564167023
0.27408748865127563 -0.04354383051395416 -0.13441094756126404
0.2320632040500641 0.20963376760482788 -0.13266833126544952
0.11508158594369888 0.2272329479455948 0.11896354705095291
-0.22351031005382538 0.2289429008960724 0.07715848833322525
0.1764936000108719 0.41945213079452515 -0.01328397449105978
0.2778405249118805 -0.07885845005512238 -0.13557854294776917
0.18229810893535614 -0.33668068051338196 -0.05759710073471069
0.1756635308265686 -0.44727087020874023 0.14724543690681458
-0.2691425085067749 0.17914080619812012 -0.1201479434967041
-0.22442564368247986 -0.17731136083602905 -0.13418906927108765
0.2214747667312622 0.22740569710731506 0.12863785028457642
0.24149484932422638 -0.10229913890361786 0.16126036643981934
-0.29331475496292114 -0.3351549804210663 0.19175638258457184
-0.18793553113937378 -0.4033733308315277 -0.03381284698843956
0.019738664850592613 0.10086395591497421 -0.17820200324058533
0.29708099365234375 -0.0925658643245697 -0.011963125318288803
-0.1586618572473526 -0.3159046471118927 0.016373001039028168
0.07328065484762192 0.20727965235710144 -0.1374450922012329
-0.11087872833013535 0.056893471628427505 -0.13081052899360657
-0.04708881676197052 -0.22221040725708008 -0.1352216750383377
-0.24390576779842377 0.4895929992198944 0.008810964412987232
-0.257720023393631 0.46903327107429504 0.06490999460220337
-0.18595954775810242 -0.414755642414093 -0.006970462389290333
0.07362180203199387 -0.19940337538719177 0.15773238241672516
0.29712313413619995 0.05014543980360031 -0.0458637997508049
-0.2361118644475937 0.4920707941055298 -0.015632150694727898
-0.26095694303512573 0.1495172083377838 -0.1325702965259552
0.2259216010570526 0.06088118255138397 -0.13333570957183838
0.015780895948410034 -0.23045852780342102 0.1587049961090088
0.25865575671195984 -0.2780439853668213 -0.019782084971666336
0.29687145352363586 -0.1758146584033966 -0.010404630564153194
-0.19581997394561768 -0.04083724319934845 0.17160966992378235
-0.17204035818576813 -0.25131604075431824 0.1267479956150055
-0.16470998525619507 0.3424459993839264 0.013459473848342896
-0.2657971680164337 0.11522528529167175 -0.09713919460773468
0.18895460665225983 0.2274082601070404 0.010576899163424969
-0.2681446075439453 -0.013137903064489365 -0.09952208399772644
0.15441998839378357 -0.3479534089565277 0.07700403034687042
-0.2346920669078827 0.200813889503479 -0.13175927102565765
-0.009734530001878738 0.1619262993335724 0.1678852140903473
0.2580316364765167 0.508721649646759 -0.007822061888873577
0.2874031662940979 -0.3779541254043579 0.09616027027368546
0.05939817801117897 0.15186667442321777 -0.18608707189559937
-0.2105095386505127 -0.25024741888046265 0.10307728499174118
-0.09750792384147644 0.058430369943380356 0.17573648691177368
0.28346744179725647 -0.3551875650882721 0.010797286406159401
0.24749194085597992 0.06382738053798676 -0.13288576900959015
-0.1352861076593399 0.16038571298122406 0.1657802164554596
0.013319559395313263 -0.24968746304512024 0.08485063910484314
0.19034135341644287 -0.23168796300888062 -0.12859801948070526
-0.26826027035713196 0.20949521660804749 -0.11661767959594727
0.2979484498500824 -0.09100886434316635 -0.03941722586750984
-0.23639672994613647 -0.27899453043937683 -0.052919335663318634
-0.1363595575094223 0.20418044924736023 -0.13899970054626465
-0.2313874363899231 0.22578874230384827 -0.043389324098825455
-0.18678325414657593 0.13414645195007324 -0.13313241302967072
0.300989031791687 -0.00041065504774451256 -0.06215711683034897
-0.0230262354016304 -0.1596492975950241 0.16949598491191864
-0.2648653984069824 0.1980607509613037 -0.1186567097902298
0.24075435101985931 -0.09654408693313599 0.16733184456825256
-0.26103103160858154 0.442535936832428 0.0799674242734909
0.17921598255634308 0.2240748405456543 -0.12752798199653625
0.2973131537437439 0.0533260703086853 0.042422980070114136
-0.2592564523220062 0.4181163012981415 -0.0422191321849823
-0.18412388861179352 0.49962085485458374 0.01697465218603611
-0.2681728005409241 0.21427272260189056 0.08570793271064758
0.2767285704612732 -0.10180952399969101 0.15392053127288818
-0.17133073508739471 -0.30743351578712463 -0.03172466158866882
0.2766568958759308 -0.25556766986846924 0.10618642717599869
0.044195812195539474 0.2235926389694214 -0.12485121935606003
0.20771753787994385 0.22452212870121002 -0.1313052624464035
-0.28338661789894104 -0.06301134824752808 -0.26370513439178467
0.13642646372318268 0.22603043913841248 -0.004227381199598312
-0.21208138763904572 0.22605733573436737 0.13086773455142975
-0.18427231907844543 -0.4108336269855499 0.0633283331990242
-0.1670173704624176 -0.36455675959587097 -0.00040877610445022583
-0.05902795121073723 0.11650719493627548 0.16967272758483887
-0.1767463982105255 -0.36711838841438293 0.05848529189825058
-0.1738327145576477 -0.3683665692806244 0.04383823648095131
-0.0351458415389061 -0.19434770941734314 0.16538506746292114
-0.252358615398407 -0.14498698711395264 0.15657109022140503
0.14966417849063873 -0.38052240014076233 -0.021102188155055046
0.2573377192020416 0.22511275112628937 0.12265454977750778
-0.25044479966163635 0.37943634390830994 -0.05719611421227455
0.23198705911636353 -0.18258783221244812 0.15962263941764832
0.19635941088199615 -0.44762012362480164 0.0029507430735975504
-0.06464685499668121 0.15523362159729004 0.1679215431213379
-0.2610073983669281 -0.3339003026485443 0.1586264669895172
-0.27252766489982605 -0.30150899291038513 0.08059988170862198
-0.25412145256996155 -0.3949889838695526 -0.0933980718255043
-0.2537005543708801 -0.30552637577056885 -0.04104170203208923
0.2978915274143219 -0.07416019588708878 -0.015566294081509113
0.2965409755706787 0.06294016540050507 -0.08641079068183899
-0.11804896593093872 0.2238510549068451 0.131802499294281
-0.3328290283679962 -0.3740428388118744 0.02014908194541931
0.18340200185775757 0.37273451685905457 -0.02968832477927208
-0.2684312164783478 0.13361741602420807 0.04893035069108009
0.12508201599121094 -0.190036803483963 0.16543731093406677
0.29791268706321716 -0.08152944594621658 -0.03542329743504524
0.13913777470588684 0.22750958800315857 -0.027325129136443138
-0.30319327116012573 -0.413442462682724 0.07253006100654602
-0.2586015462875366 -0.062021590769290924 -0.13178780674934387
0.2789815664291382 0.3200519382953644 -0.0015026158653199673
0.18393537402153015 0.4785912334918976 0.022321274504065514
0.20412620902061462 0.34570860862731934 0.0996832549571991
0.19894859194755554 -0.18198876082897186 0.15750078856945038
0.035084862262010574 -0.20003710687160492 0.15706461668014526
0.11196669191122055 -0.25250548124313354 0.10119860619306564
-0.017220860347151756 -0.252755343914032 -0.07342083752155304
-0.0634823888540268 -0.21954482793807983 0.15712164342403412
0.18736571073532104 -0.285452276468277 -0.04258647933602333
0.04527995362877846 -0.20403745770454407 0.16502097249031067
0.06859172880649567 -0.18523027002811432 0.16184084117412567
-0.11564593017101288 -0.19072359800338745 0.1596381962299347
-0.16985096037387848 -0.29005831480026245 0.05199231952428818
0.2978881299495697 -0.11637090146541595 0.0034883394837379456
-0.1617577224969864 0.4572090804576874 -0.021135402843356133
0.2969403862953186 0.12184756249189377 0.14317600429058075
0.23302124440670013 -0.04188496619462967 0.16885685920715332
-0.06979244947433472 0.2302708774805069 0.13054324686527252
0.015140604227781296 -0.11059802770614624 0.17047108709812164
0.2811024785041809 -0.046265508979558945 -0.13705216348171234
0.17730283737182617 0.1481408029794693 -0.13347642123699188
0.27053749561309814 -0.1248970627784729 -0.13380582630634308
-0.24702580273151398 -0.044636763632297516 -0.2749747931957245
-0.25186535716056824 0.20050036907196045 -0.1331491470336914
0.025690071284770966 0.12164361774921417 -0.1331205517053604
-0.1376524269580841 -0.25110387802124023 0.1418692171573639
0.14171378314495087 -0.2345370054244995 -0.13232409954071045
-0.19115306437015533 -0.40833723545074463 0.08612127602100372
0.2652724087238312 -0.2251536101102829 0.15650075674057007
0.27788397669792175 -0.38046348094940186 -0.040523309260606766
-0.17023229598999023 0.13244059681892395 -0.1321868896484375
-0.15961387753486633 0.115750253200531 -0.13530363142490387
0.29848259687423706 -0.09779690206050873 0.10402694344520569
0.27059853076934814 -0.10429184883832932 -0.1349952518939972
-0.3326672613620758 -0.4108850061893463 -0.007073757704347372
-0.2630399465560913 0.0952439233660698 -0.13423708081245422
-0.26727068424224854 0.18619997799396515 -0.12293446809053421
0.04435892403125763 0.12406980246305466 -0.1347050964832306
0.300112247467041 -0.14470674097537994 -0.04026859253644943
0.12296000868082047 -0.24915562570095062 0.04513455927371979
0.2773873805999756 -0.1666838824748993 -0.13400143384933472
0.2543242275714874 0.22908739745616913 0.13361792266368866
0.12047117203474045 0.0010830424726009369 -0.13259656727313995
0.28327178955078125 -0.3890362083911896 0.036278918385505676
0.21464715898036957 0.5144546627998352 0.09965891391038895
-0.06203112378716469 -0.005370505154132843 -0.13261941075325012
0.26322007179260254 -0.29136210680007935 0.057033438235521317
0.10208864510059357 -0.25273963809013367 -0.0481182262301445
-0.2851738929748535 -0.4496760070323944 -0.023112067952752113
0.2966276705265045 -0.022868145257234573 -0.11179906129837036
-0.15795819461345673 0.43556445837020874 0.06412625312805176
-0.09837256371974945 0.15825974941253662 0.1674918830394745
-0.20596244931221008 -0.44656023383140564 -0.017395086586475372
0.15202203392982483 0.15445980429649353 0.17180931568145752
0.2664347290992737 -0.07608000189065933 0.15545235574245453
0.2956031262874603 -0.08633054047822952 0.03855767846107483
-0.26954102516174316 -0.4452389180660248 0.029061920940876007
-0.07356184720993042 0.1567314863204956 -0.13549581170082092
-0.15496960282325745 0.3936666250228882 0.07090797275304794
0.1348045915365219 0.2230047881603241 -0.12936127185821533
0.2953488528728485 0.40972763299942017 -0.03518982604146004
-0.16676673293113708 -0.2529743015766144 0.10341284424066544
0.02586178295314312 0.14588245749473572 -0.13128438591957092
-0.007252744864672422 -0.11669619381427765 -0.13127143681049347
-0.15227819979190826 0.3973843455314636 0.013295468874275684
-0.12647788226604462 0.22812455892562866 0.06986892223358154
0.19474509358406067 -0.38083967566490173 0.17655138671398163
0.2801293432712555 -0.35646381974220276 -0.031738899648189545
-0.15660621225833893 0.4042133092880249 0.006356938276439905
0.29679808020591736 0.14878323674201965 0.13325117528438568
0.2841640114784241 0.4470701813697815 -0.05038999393582344
-0.31810107827186584 -0.42837339639663696 -0.05083679035305977
0.051746588200330734 0.03444472700357437 -0.1291865110397339
-0.2275296151638031 -0.349865198135376 0.12976934015750885
-0.27048981189727783 -0.2229927033185959 -0.12095402926206589
-0.07148890942335129 -0.2144441455602646 0.15630623698234558
-0.28963252902030945 0.012480128556489944 -0.2620525062084198
0.2967182397842407 -0.21913015842437744 0.1300990879535675
0.009504570625722408 0.25071343779563904 -0.1983419954776764
0.09976909309625626 -0.2511713206768036 0.08866102248430252
0.1521928757429123 -0.24058902263641357 -0.1328936219215393
0.2675206959247589 -0.28998157382011414 0.01851039007306099
0.16509662568569183 -0.23483791947364807 -0.13229380548000336
0.03497407212853432 -0.25543662905693054 0.007274174131453037
-0.18106335401535034 -0.3114510178565979 0.06431282311677933
0.2642752230167389 -0.2790643274784088 0.039890702813863754
-0.21721772849559784 0.20901846885681152 -0.13289086520671844
-0.08106055855751038 0.15361905097961426 0.16807514429092407
0.2839648425579071 -0.18928158283233643 -0.13620467483997345
-0.18174193799495697 -0.18926683068275452 0.1645326316356659
0.295231431722641 0.15217655897140503 0.13500282168388367
0.148167222738266 -0.2502001225948334 0.02993941865861416
-0.2673761546611786 0.209941104054451 0.010062729939818382
0.008002077229321003 0.2277134358882904 0.017590530216693878
0.28600963950157166 -0.364053338766098 -0.001852002926170826
-0.20637084543704987 0.2095271795988083 -0.13483068346977234
-0.20702628791332245 0.10751959681510925 0.16185057163238525
-0.2674129605293274 -0.1787259578704834 -0.07761170715093613
0.15063969790935516 -0.32645657658576965 0.012377205304801464
0.09639842063188553 -0.1928337812423706 0.1610237956047058
0.10214187204837799 -0.2499200701713562 -0.11471033096313477
-0.26119112968444824 -0.14483915269374847 -0.1322186291217804
0.2922058403491974 0.22231030464172363 0.040583256632089615
-0.14051690697669983 -0.1928371787071228 0.16249871253967285
-0.2584577798843384 0.07093168795108795 -0.13561105728149414
0.08401031047105789 -0.19938291609287262 0.1578461229801178
-0.20994706451892853 0.07924193143844604 0.16611361503601074
0.040032412856817245 0.22632460296154022 0.08546636998653412
0.060685914009809494 0.18548843264579773 0.15909096598625183
0.15484069287776947 -0.37748849391937256 -0.030554326251149178
-0.27388232946395874 -0.20184478163719177 -0.08660785853862762
0.20610573887825012 -0.2504850924015045 0.07810269296169281
0.23142267763614655 -0.4471537470817566 0.11021945625543594
-0.09085400402545929 0.15132416784763336 -0.1330152302980423
0.0795038491487503 0.09463139623403549 -0.1346164345741272
-0.23710031807422638 0.22702693939208984 0.10855293273925781
0.1652832180261612 -0.4475497603416443 0.14983564615249634
0.3018336594104767 -0.2132495939731598 -0.05270710587501526
-0.20733506977558136 -0.3037024140357971 0.08661379665136337
0.17368878424167633 0.3912539780139923 0.01995811052620411
0.028850670903921127 -0.20331506431102753 0.1572667509317398
0.1884046494960785 -0.3274942636489868 -0.06215345486998558
-0.23519283533096313 0.015486270189285278 -0.13193845748901367
-0.004145055543631315 0.22452503442764282 -0.12736469507217407
-0.26492732763290405 -0.30044999718666077 0.005999590270221233
0.27252060174942017 -0.2513006329536438 -0.09849455952644348
-0.2258824110031128 -0.4688670337200165 -0.019776372238993645
0.045218419283628464 -0.24847760796546936 -0.11144304275512695
0.07789304107427597 0.23003089427947998 0.03406338393688202
-0.26973649859428406 0.18903771042823792 -0.05983278527855873
-0.2974191904067993 -0.32465314865112305 0.06766048073768616
-0.2447052299976349 0.161774680018425 -0.13320206105709076
-0.26672664284706116 -0.03598262369632721 -0.13257187604904175
-0.2541511654853821 0.1891457587480545 -0.13086211681365967
0.24412177503108978 -0.44469842314720154 0.024601589888334274
-0.10689177364110947 -0.2561671733856201 0.08027279376983643
-0.22512072324752808 0.22681114077568054 -0.08417055755853653
0.16812437772750854 0.22670097649097443 0.037409741431474686
-0.197062686085701 0.40058645606040955 -0.07834272086620331
-0.036559540778398514 0.22734777629375458 0.1233949065208435
0.18612544238567352 -0.44540050625801086 0.15761108696460724
0.19145673513412476 -0.3784831464290619 -0.07533988356590271
-0.00521252304315567 0.10397182404994965 -0.13379213213920593
-0.1816548854112625 -0.24943438172340393 -0.10796913504600525
0.20702601969242096 0.22619734704494476 0.06646588444709778
0.20835967361927032 0.4942933917045593 -0.03528671711683273
-0.09449928998947144 0.22743850946426392 0.13542971014976501
0.035962220281362534 -0.1687564104795456 0.1679895967245102
-0.2726146876811981 -0.30351024866104126 0.0696718767285347
0.28024715185165405 -0.019801542162895203 -0.13467758893966675
0.2540145814418793 -0.3798486292362213 0.17747916281223297
0.28105008602142334 -0.20379212498664856 -0.13535451889038086
0.2886086106300354 0.47421231865882874 0.0037259869277477264
-0.051208652555942535 -0.2497776597738266 -0.00496309669688344
-0.26983997225761414 0.41903156042099 0.04616186022758484
-0.1967674195766449 -0.40394413471221924 0.1005161702632904
-0.1682046353816986 -0.32658445835113525 -0.029013540595769882
0.17122218012809753 0.4239119291305542 0.024607917293906212
0.2795546352863312 -0.15565435588359833 -0.1383252590894699
0.09112429618835449 0.15531586110591888 -0.13436183333396912
-0.318536639213562 -0.3328568637371063 0.13370943069458008
0.2958374321460724 -0.20189669728279114 0.02020985819399357
0.29743692278862 -0.15269632637500763 -0.06389222294092178
-0.06249704211950302 0.202580988407135 0.15763139724731445
0.11693603545427322 -0.1967954933643341 0.15838734805583954
0.3016156256198883 0.41408437490463257 0.057814136147499084
-0.2594868838787079 0.06344518065452576 -0.1364639550447464
-0.26923248171806335 -0.13893510401248932 -0.12985621392726898
-0.0030254207085818052 0.098426453769207 -0.16131559014320374
-0.18894000351428986 0.22751286625862122 0.08111795783042908
0.19802816212177277 0.3728612959384918 -0.06514725834131241
0.2650686800479889 -0.2539142668247223 -0.10732825100421906
-0.13273856043815613 -0.18536558747291565 0.16495533287525177
0.19486375153064728 -0.07361283153295517 0.1707393229007721
0.03562707081437111 -0.25114738941192627 -0.06340750306844711
-0.26997697353363037 -0.029219012707471848 -0.1217973455786705
0.19438767433166504 -0.22581803798675537 -0.13379234075546265
-0.21315649151802063 0.023484475910663605 -0.12978217005729675
0.08684148639440536 -0.05973713845014572 -0.1285269856452942
0.29754582047462463 -0.20983222126960754 0.040986720472574234
-0.01816117949783802 -0.25094127655029297 0.11335384100675583
0.18029026687145233 -0.2810801863670349 0.052903078496456146
0.053361065685749054 0.05722253397107124 -0.13312293589115143
0.2274971753358841 -0.16542088985443115 0.16834737360477448
-0.187810480594635 0.09861189872026443 0.17042884230613708
-0.15075543522834778 -0.18466831743717194 0.1653941571712494
-0.26850372552871704 0.1739041656255722 -0.12231042981147766
0.06772304326295853 0.1568104475736618 0.1681896597146988
0.29773008823394775 -0.17437466979026794 0.01505661103874445
-0.12868715822696686 0.1675984114408493 0.16336332261562347
0.09868181496858597 0.12558294832706451 -0.13465607166290283
0.19641757011413574 0.22827258706092834 0.06971938163042068
-0.08553043007850647 0.22771458327770233 0.10892008990049362
0.29597440361976624 0.23032020032405853 -0.08447407186031342
-0.23887723684310913 -0.25033605098724365 -0.08324693888425827
-0.08975692838430405 -0.012087993323802948 -0.134515181183815
-0.27845463156700134 -0.42096593976020813 0.11430183053016663
