0.1932855248451233 0.48126187920570374 0.1110866591334343
-0.18156450986862183 0.45058444142341614 -0.06080811470746994
-0.25828051567077637 -0.002216184511780739 0.1589280366897583
-0.20120052993297577 0.3199669122695923 -0.33008378744125366
0.2906748354434967 -0.2477874755859375 -0.12900899350643158
-0.034537557512521744 0.14274848997592926 -0.1977633684873581
0.2942905128002167 0.10477632284164429 0.15740902721881866
-0.2539990544319153 -0.06964866071939468 0.15796402096748352
-0.28799471259117126 0.04813157767057419 -0.3080440163612366
-0.2523060739040375 0.0428166538476944 -0.3017443120479584
0.16623017191886902 -0.43561795353889465 -0.0476485937833786
-0.2608374059200287 0.2790905833244324 -0.3535519540309906
-0.2685939371585846 0.16313821077346802 -0.33849895000457764
-0.33927568793296814 -0.34245815873146057 0.17718124389648438
0.05815441906452179 -0.24645788967609406 -0.13432711362838745
0.1874973624944687 -0.44558170437812805 -0.07021086663007736
0.2959451973438263 -0.11958726495504379 0.15503568947315216
0.24803942441940308 0.4311894476413727 -0.09026236087083817
0.23914439976215363 -0.20230655372142792 0.15519045293331146
0.1890254020690918 0.39754483103752136 0.12012935429811478
0.04814871773123741 0.24979275465011597 -0.23664695024490356
-0.27712228894233704 -0.05656003579497337 -0.27403518557548523
-0.24856355786323547 0.026584479957818985 -0.301698237657547
0.3010006248950958 -0.22969838976860046 -0.12131263315677643
0.2523222267627716 0.37770694494247437 0.12221135199069977
-0.17952975630760193 0.3125401437282562 -0.3547085225582123
0.2963101863861084 -0.11490883678197861 -0.12911799550056458
0.14868873357772827 -0.4473152160644531 0.02682025358080864
-0.18122093379497528 0.2509874701499939 0.0174367967993021
0.2974415719509125 0.048537760972976685 0.14756180346012115
-0.21087238192558289 0.38853389024734497 0.08943110704421997
-0.2573283612728119 -0.24336859583854675 -0.13488833606243134
-0.21223084628582 0.5046565532684326 -0.0002610929368529469
-0.04864481836557388 0.3150474727153778 -0.26705676317214966
-0.19838310778141022 -0.2551620602607727 -0.06193118542432785
0.2968619465827942 0.224298894405365 -0.04312793165445328
-0.2730932831764221 0.014370989985764027 -0.2323179543018341
0.2265637069940567 0.384603887796402 0.10977764427661896
0.30186107754707336 0.1333678811788559 -0.1333160102367401
-0.07184115052223206 -0.183793306350708 0.1693001240491867
-0.10487502813339233 0.22451168298721313 0.16151462495326996
0.2382006049156189 0.3000718951225281 -0.027074333280324936
0.2756862938404083 0.37103161215782166 0.12556354701519012
-0.2618926763534546 0.15189579129219055 -0.30530691146850586
-0.20132502913475037 0.16331569850444794 0.16407135128974915
0.25660353899002075 0.41202449798583984 -0.0880717933177948
0.27795735001564026 0.12116289138793945 0.15700165927410126
-0.26436251401901245 -0.012791920453310013 0.15869690477848053
0.20673730969429016 0.3587976098060608 0.1133715808391571
0.2314269244670868 -0.18509942293167114 0.16919907927513123
0.2122594565153122 0.29757556319236755 -0.0058376481756567955
-0.21534205973148346 0.3389837145805359 -0.05219997838139534
0.2864495813846588 -0.24907685816287994 0.14173664152622223
0.3035416007041931 0.20300906896591187 -0.1340494155883789
0.2329302728176117 0.4891830086708069 0.11471222341060638
-0.33727535605430603 -0.35485783219337463 0.15306687355041504
0.271924763917923 0.3644896447658539 -0.07484957575798035
-0.0301763154566288 0.24401473999023438 -0.2220323085784912
-0.26270827651023865 0.15089505910873413 -0.13498149812221527
-0.18388548493385315 0.2292582094669342 -0.041746094822883606
-0.04174339026212692 0.21425601840019226 0.1570342630147934
-0.2691556215286255 0.02209998294711113 -0.3170384466648102
-0.27385246753692627 0.08496496826410294 -0.3167901933193207
-0.18848934769630432 0.22786124050617218 -0.12520277500152588
-0.2640107572078705 0.20297513902187347 -0.3485235869884491
0.2375311255455017 0.5106260180473328 -0.02147401124238968
-0.1524837613105774 0.16669294238090515 0.15836451947689056
-0.20806939899921417 0.5059282779693604 0.0016407864168286324
-0.034310001879930496 0.19016094505786896 -0.1632128208875656
0.1669914722442627 -0.4327108860015869 -0.05462674796581268
-0.2117772251367569 0.5047425031661987 -0.012817637994885445
0.25275421142578125 0.10885158181190491 0.1499808132648468
-0.215326726436615 -0.2627103924751282 -0.059523213654756546
0.2495899200439453 0.1644124686717987 0.16114932298660278
0.2422226071357727 -0.3365685045719147 -0.08524437993764877
-0.22973750531673431 -0.26370999217033386 -0.028566503897309303
0.25960588455200195 0.5113726854324341 0.0909612700343132
0.24930496513843536 -0.38449952006340027 -0.08596955984830856
-0.25981464982032776 -0.07948654890060425 -0.27867719531059265
0.2945203185081482 0.21781568229198456 -0.012446826323866844
0.08195044845342636 0.1757923662662506 0.15275496244430542
-0.18819506466388702 0.16826210916042328 0.1614147126674652
-0.22979605197906494 -0.19071203470230103 0.15778830647468567
-0.25834277272224426 0.1047135517001152 0.1587495058774948
-0.26957201957702637 0.22697296738624573 0.005129407159984112
0.05145486816763878 0.2284974306821823 -0.19745197892189026
0.20112811028957367 -0.24881483614444733 -0.13302987813949585
-0.19598011672496796 0.28079819679260254 -0.013781054876744747
0.051754534244537354 0.14807072281837463 -0.20463718473911285
-0.06236846372485161 0.33077332377433777 -0.2928577959537506
0.2991590201854706 0.20945850014686584 -0.13444764912128448
0.2581196129322052 0.02989291027188301 0.15695545077323914
0.26732295751571655 -0.3532734811306 0.13827171921730042
-0.22625784575939178 0.05782167613506317 0.16493599116802216
-0.16224093735218048 0.2314411997795105 0.15420396625995636
-0.27660518884658813 0.24514426290988922 -0.3346041142940521
0.16371481120586395 -0.4307898283004761 0.18924930691719055
-0.3171669840812683 -0.33034640550613403 0.18613079190254211
0.2758246064186096 0.4825635850429535 0.13192299008369446
-0.01903151534497738 0.1033707782626152 -0.17337533831596375
-0.24801097810268402 -0.06143542379140854 -0.27103203535079956
-0.22583819925785065 -0.0729297623038292 0.1551419347524643
-0.28178226947784424 0.17564505338668823 -0.32446908950805664
-0.2778959572315216 -0.012796514667570591 -0.2272227555513382
-0.04934248328208923 0.2985574007034302 -0.30181586742401123
0.2898537218570709 0.34539034962654114 -0.03406766057014465
0.03294231370091438 0.26826977729797363 -0.2552988529205322
0.15683317184448242 0.18265286087989807 0.15550220012664795
-0.2524530291557312 0.07270705699920654 0.1569136381149292
-0.2609153389930725 -0.05372584983706474 -0.13715235888957977
-0.2763376235961914 -0.08352886140346527 -0.23579633235931396
-0.2348620444536209 0.059289004653692245 0.15367451310157776
-0.15568573772907257 -0.25283411145210266 -0.005112579092383385
-0.19434741139411926 0.4879733920097351 -0.05223403498530388
0.17334838211536407 -0.2520563006401062 -0.13027827441692352
-0.22656969726085663 0.12269804626703262 0.1550075113773346
-0.2727571725845337 0.2366686314344406 -0.3243640661239624
-0.2378675788640976 0.2803860902786255 0.0010706508764997125
-0.24705389142036438 -0.0364626944065094 -0.24315284192562103
-0.21558193862438202 -0.25661659240722656 -0.05801589787006378
0.29221272468566895 -0.24554090201854706 -0.12434520572423935
0.28063100576400757 0.4174889028072357 -0.07914266735315323
-0.23202653229236603 -0.2506563365459442 0.08248339593410492
-0.2203502655029297 0.3139520585536957 -0.3588167428970337
-0.06533875316381454 0.22000031173229218 -0.13502031564712524
-0.02645646035671234 -0.2455706000328064 -0.1361944079399109
-0.2667088210582733 0.22859793901443481 0.03459407389163971
0.176084503531456 -0.44025740027427673 0.17435450851917267
0.22930938005447388 0.2595873773097992 -0.020125368610024452
-0.001714580226689577 0.30122560262680054 -0.26351848244667053
0.2963867783546448 -0.17915542423725128 -0.1340840756893158
-0.21019937098026276 0.3044828176498413 -0.3593105375766754
-0.20647338032722473 0.3745530843734741 -0.07864969223737717
-0.15933102369308472 0.18263249099254608 0.15653866529464722
-0.17884483933448792 0.3634794056415558 0.09785644710063934
-0.20344266295433044 0.3216787576675415 0.05029331147670746
-0.18985827267169952 0.3288646638393402 -0.3580877482891083
0.2773853540420532 -0.3715813457965851 0.15100115537643433
-0.2508726119995117 0.44741639494895935 0.11942808330059052
0.25614896416664124 -0.441298246383667 0.20694760978221893
-0.20897850394248962 0.4925045967102051 -0.049282222986221313
-0.030844463035464287 0.21114543080329895 -0.18828703463077545
-0.2254951149225235 0.25366371870040894 0.045844025909900665
0.25284019112586975 -0.44267815351486206 -0.08042217791080475
0.0027333665639162064 -0.18178151547908783 0.16950182616710663
-0.00715160695835948 0.28909367322921753 -0.29250064492225647
-0.028255756944417953 0.154164656996727 -0.20888936519622803
0.22283130884170532 0.4422086775302887 -0.08736582100391388
-0.03233248367905617 0.21596761047840118 -0.20276381075382233
0.2932504415512085 -0.15884387493133545 -0.1344420462846756
0.30367860198020935 0.10652541369199753 -0.13100962340831757
0.21547628939151764 0.32139134407043457 -0.03383403643965721
-0.2559593617916107 -0.2419697344303131 -0.13577713072299957
-0.2643161416053772 0.00817363616079092 -0.1359180361032486
0.29800355434417725 -0.22756050527095795 -0.12824168801307678
-0.2888356149196625 -0.41612178087234497 -0.09265487641096115
-0.2192917764186859 -0.4694216549396515 0.08469468355178833
-0.24249890446662903 -0.4262694716453552 0.19103415310382843
-0.22415995597839355 -0.18572604656219482 0.1612984836101532
-0.2374800145626068 0.23652490973472595 -0.017878178507089615
0.24843831360340118 0.4329485595226288 -0.09020066261291504
-0.18654181063175201 -0.26537564396858215 -0.06017962098121643
0.2518306076526642 -0.25027596950531006 -0.022321803495287895
0.2590124309062958 -0.25853464007377625 0.030020857229828835
-0.2263222336769104 -0.13329721987247467 0.1556575745344162
-0.22899317741394043 0.23440685868263245 0.05249902606010437
-0.26722604036331177 -0.25035837292671204 0.04307929426431656
-0.2715001106262207 0.24848146736621857 -0.3346039652824402
-0.2772373557090759 0.22357363998889923 -0.34679484367370605
-0.25286129117012024 0.04550018906593323 0.1557610183954239
0.24089235067367554 0.34249407052993774 0.10746444016695023
-0.13132056593894958 -0.24351181089878082 0.1589033454656601
0.24964512884616852 0.17704957723617554 0.15527643263339996
-0.01844540424644947 0.16041114926338196 -0.21762457489967346
0.1630578190088272 -0.44359326362609863 0.1794002503156662
-0.2548130750656128 0.2268139272928238 -0.1289973109960556
-0.23811665177345276 0.2914135456085205 0.011011986061930656
-0.15431247651576996 -0.19517038762569427 0.1530529111623764
-0.17239944636821747 0.17268683016300201 0.15286986529827118
0.18439380824565887 -0.24705153703689575 0.042558468878269196
0.25721976161003113 0.5060811042785645 0.11717721819877625
-0.2326255738735199 0.3092211186885834 0.039549268782138824
0.2328396439552307 0.3558870851993561 -0.08359699696302414
0.30356884002685547 0.13716481626033783 -0.13574856519699097
-0.22610360383987427 0.036452822387218475 0.16262951493263245
0.28948917984962463 -0.2500837445259094 0.12865464389324188
-0.2615373432636261 0.34839704632759094 0.03469378873705864
0.2635444402694702 -0.4389725923538208 0.2043408304452896
0.0045396797358989716 0.20587939023971558 -0.14484867453575134
0.23253753781318665 -0.18798746168613434 0.16644813120365143
-0.18314287066459656 0.3203522861003876 0.032162316143512726
0.05050890892744064 0.11210349202156067 -0.1756470650434494
0.23424753546714783 -0.25683754682540894 -0.04910364747047424
-0.09604509174823761 -0.1893978863954544 0.16572698950767517
0.3019760549068451 -0.2467445433139801 -0.12224487960338593
-0.04508771002292633 0.17334288358688354 0.1472911834716797
-0.2472812831401825 0.4852287173271179 0.06718745827674866
0.23899340629577637 0.47901350259780884 0.10931843519210815
0.2227512001991272 -0.2473244071006775 0.15101927518844604
0.0890825092792511 -0.23604296147823334 0.16127049922943115
0.2868299186229706 0.36790844798088074 0.11766251921653748
0.2517368495464325 0.10811871290206909 0.1577649563550949
-0.0024330143351107836 0.1778639256954193 0.15383999049663544
0.2256137728691101 0.22830811142921448 0.14473824203014374
-0.27713173627853394 0.24249529838562012 -0.32660111784935
-0.016634784638881683 -0.24318143725395203 -0.13382144272327423
0.21096035838127136 0.2905929386615753 0.015286581590771675
0.2510609030723572 0.04548782855272293 0.15936149656772614
-0.2700890004634857 0.22298136353492737 -0.1190062165260315
0.19497442245483398 0.2256304770708084 -0.13287527859210968
0.20735245943069458 -0.4426431357860565 -0.0857655256986618
-0.19358792901039124 0.4927521347999573 0.11495822668075562
0.19727064669132233 0.227425217628479 -0.1287718564271927
-0.23937687277793884 0.42046788334846497 -0.07477057725191116
-0.2636224627494812 -0.1696152687072754 -0.13010051846504211
-0.33501648902893066 -0.34328174591064453 0.19469845294952393
-0.3064214885234833 -0.33481279015541077 0.1962505728006363
-0.3337312340736389 -0.36260750889778137 0.06107870861887932
0.24388836324214935 -0.2846429944038391 0.08404915034770966
-0.21285557746887207 0.2487969845533371 -0.028727879747748375
-0.2668232321739197 -0.24824002385139465 -0.1036367267370224
-0.20532231032848358 0.48861485719680786 -0.0496617816388607
0.24776269495487213 -0.421745240688324 0.20673783123493195
-0.25715920329093933 0.09355827420949936 -0.30809158086776733
0.2940029501914978 -0.15358704328536987 -0.1336420178413391
0.08285795897245407 -0.24845802783966064 -0.13435061275959015
-0.1973048448562622 -0.2400617152452469 0.164348766207695
-0.21940025687217712 -0.2873993217945099 0.08418796956539154
-0.3385825455188751 -0.3528333902359009 0.15590925514698029
-0.23376400768756866 0.47463715076446533 0.11119575053453445
-0.22083376348018646 0.2395218312740326 -0.02599126473069191
-0.23672282695770264 -0.3995852470397949 0.20059671998023987
0.015382513403892517 0.10739782452583313 -0.19567765295505524
0.20390699803829193 0.46364155411720276 0.11223461478948593
0.20631270110607147 0.23714295029640198 0.009889618493616581
-0.03481343388557434 0.19975394010543823 -0.20379891991615295
-0.2314593493938446 0.5005510449409485 0.07599817961454391
0.2975701093673706 0.18478433787822723 0.15156297385692596
-0.206498384475708 0.3153798282146454 -0.3605796694755554
0.05637560412287712 0.20124095678329468 -0.13393305242061615
0.30221328139305115 0.20872946083545685 -0.13163769245147705
-0.20702117681503296 0.4786331355571747 -0.07082337886095047
-0.2801714241504669 0.012758525088429451 -0.31161218881607056
-0.14296922087669373 0.3314880430698395 -0.3407144546508789
0.2140275090932846 -0.2572907507419586 0.06586068868637085
0.2496296614408493 -0.3124661147594452 0.09992396086454391
0.06085456535220146 0.15508975088596344 -0.13678503036499023
-0.22834181785583496 0.12662005424499512 0.1538986712694168
0.26306653022766113 0.5116655826568604 0.05106243118643761
-0.006773307919502258 0.1623413860797882 0.16081105172634125
0.20560498535633087 0.30471381545066833 0.020796138793230057
0.07780706137418747 -0.23783500492572784 0.16042913496494293
0.28715232014656067 0.34668299555778503 0.07743890583515167
-0.32593345642089844 -0.34766435623168945 0.19308394193649292
-0.22671249508857727 0.2299046814441681 0.06705951690673828
0.24650709331035614 0.03633788228034973 0.16899289190769196
-0.25406330823898315 -0.20182017982006073 0.15293821692466736
-0.15921156108379364 0.18054203689098358 0.15316757559776306
0.06683161109685898 0.22366054356098175 0.15898889303207397
-0.24324171245098114 0.3228413164615631 -0.00612002145498991
0.27318087220191956 -0.43061181902885437 0.2002403885126114
0.14014935493469238 0.1814231276512146 0.15573275089263916
0.2511385977268219 -0.252093642950058 0.14108829200267792
0.22625552117824554 -0.1962551772594452 0.15124091506004333
0.26472926139831543 -0.4276086091995239 0.20020495355129242
0.18428541719913483 0.2298503816127777 -0.12869510054588318
0.24358053505420685 -0.33924925327301025 -0.08351098001003265
-0.2532082200050354 -0.08591266721487045 -0.26380205154418945
-0.1010742336511612 -0.19657862186431885 0.15615296363830566
0.25754082202911377 -0.3102199137210846 0.09229990839958191
-0.20057465136051178 0.4073513150215149 0.08858588337898254
0.21197818219661713 0.26966598629951477 0.0044274767860770226
-0.24560104310512543 -0.31708940863609314 -0.08177870512008667
-0.23003895580768585 0.402083158493042 -0.0821133702993393
-0.2387634813785553 -0.2300756275653839 0.16005857288837433
0.25904381275177 0.30973348021507263 0.04530547559261322
0.24380475282669067 0.4943528175354004 -0.0625862255692482
-0.27058008313179016 0.2244492769241333 -0.12571564316749573
-0.27549219131469727 0.10583712160587311 -0.12822730839252472
0.24936443567276 -0.11433131992816925 0.1708669662475586
0.28031161427497864 -0.4523608684539795 0.022816777229309082
-0.09044338762760162 0.3124823272228241 -0.31433022022247314
-0.007951484061777592 0.18377098441123962 -0.22332580387592316
0.23725397884845734 0.2599206864833832 -0.02133263275027275
0.21465301513671875 0.2902663052082062 -0.009438062086701393
-0.2071082592010498 0.3330383002758026 0.061869166791439056
-0.2623293995857239 -0.036385901272296906 -0.2203490138053894
-0.21504464745521545 0.37883979082107544 0.10015429556369781
0.29478514194488525 -0.24170249700546265 0.1458602398633957
0.26175397634506226 0.32720449566841125 -0.05120430514216423
-0.19246362149715424 0.23237344622612 0.045245375484228134
0.2998327314853668 -0.016949445009231567 -0.12888678908348083
0.14450396597385406 -0.4359406530857086 0.16368579864501953
-0.27945950627326965 -0.4692871570587158 -0.06909428536891937
-0.012369591742753983 0.1754045933485031 0.15087226033210754
-0.20088805258274078 0.24281291663646698 0.04625501111149788
0.29527080059051514 0.22450923919677734 0.06722503155469894
-0.291212797164917 -0.45949944853782654 -0.07883526384830475
0.2421792894601822 0.012929050251841545 0.16921363770961761
0.0334196612238884 0.10390706360340118 -0.17866596579551697
-0.08392080664634705 0.2265383005142212 0.15447960793972015
0.2722526490688324 -0.4433879256248474 0.19345280528068542
-0.014010914601385593 0.29998984932899475 -0.29499247670173645
0.2945888042449951 -0.2565552294254303 -0.06420353055000305
-0.1395808309316635 0.3186279237270355 -0.339434951543808
0.25855574011802673 -0.32224157452583313 0.10459990054368973
0.23193271458148956 0.2674030363559723 -0.01915901154279709
-0.20735830068588257 -0.25319361686706543 0.0782080665230751
-0.25009575486183167 -0.02429094724357128 -0.23132182657718658
0.060948144644498825 0.1863659769296646 -0.1394946128129959
-0.18805789947509766 0.2607921063899994 -0.004121850710362196
-0.20162451267242432 -0.269559383392334 -0.06115018576383591
-0.0161582063883543 0.2973829209804535 -0.24962185323238373
-0.3325091302394867 -0.35114023089408875 0.17115896940231323
-0.2619137763977051 0.22787676751613617 0.11043403297662735
-0.3339131772518158 -0.345567911863327 0.1886526644229889
-0.29022401571273804 -0.3128562569618225 0.14530804753303528
-0.04407297819852829 0.16807061433792114 0.15898089110851288
-0.21988624334335327 -0.25413426756858826 -0.06779563426971436
0.2967824935913086 0.2288445681333542 0.06370382755994797
0.04802478477358818 0.16640616953372955 -0.21410441398620605
-0.25976353883743286 -0.0495118647813797 0.1581583023071289
0.21143080294132233 0.49183592200279236 -0.04222790524363518
0.2287522852420807 0.5080596208572388 -0.02936321496963501
-0.26511383056640625 -0.09795664250850677 -0.2582281529903412
0.28936323523521423 0.4633244276046753 0.1329748034477234
-0.1794186383485794 0.3120414614677429 -0.35425516963005066
-0.019780000671744347 0.21064527332782745 -0.1371140480041504
-0.189414381980896 0.2732536494731903 0.035647183656692505
0.24199429154396057 -0.2648516893386841 0.06613312661647797
0.09414166957139969 0.16431821882724762 0.16545893251895905
0.2509540915489197 -0.4350742697715759 -0.08919313549995422
0.24505093693733215 -0.0607868917286396 0.169204980134964
-0.0329284593462944 0.19899454712867737 -0.20496836304664612
0.2397022247314453 -0.34309956431388855 -0.08166377246379852
0.26367661356925964 -0.17060083150863647 0.1583339422941208
0.263982892036438 -0.4195784628391266 0.20013098418712616
-0.05650914087891579 0.322704017162323 -0.3032114803791046
-0.23880867660045624 -0.1983766406774521 0.14792031049728394
-0.2548956573009491 0.05424996092915535 -0.26730576157569885
-0.13636338710784912 0.2262992113828659 -0.13245268166065216
-0.1862502545118332 0.2250271588563919 -0.13279086351394653
-0.24842016398906708 0.2699958086013794 -0.3611542284488678
0.21928931772708893 0.2924203872680664 0.04158312827348709
0.25793570280075073 0.060711249709129333 0.15495212376117706
-0.24157777428627014 -0.2348223775625229 0.16164523363113403
-0.17830713093280792 0.4014710485935211 0.1022636815905571
-0.17070496082305908 -0.18412941694259644 0.16818447411060333
-0.22755393385887146 -0.03885902836918831 0.1508675068616867
0.2951768934726715 -0.1974024474620819 -0.13427896797657013
-0.2499532401561737 0.22732429206371307 -0.12378410249948502
-0.017132170498371124 0.20444545149803162 -0.14415468275547028
-0.2695314586162567 0.16181819140911102 0.15507422387599945
-0.301939457654953 -0.44498926401138306 -0.08921650797128677
-0.01992766559123993 0.1121332123875618 -0.19056165218353271
-0.20187215507030487 0.3136785328388214 -0.36028382182121277
0.10310050845146179 -0.18360909819602966 0.16838587820529938
-0.1820981800556183 0.37520602345466614 0.10781156271696091
0.13019590079784393 0.22108575701713562 -0.137566938996315
-0.012336865067481995 -0.24187369644641876 -0.13275741040706635
-0.23879507184028625 0.2744070887565613 0.01923678256571293
0.21070879697799683 -0.4160762131214142 0.20638449490070343
-0.27831971645355225 -0.06940742582082748 -0.27210843563079834
-0.25917863845825195 -0.29452911019325256 0.08054773509502411
0.18117040395736694 -0.4429462254047394 -0.06886495649814606
-0.2695634067058563 -0.06274005025625229 -0.2200814038515091
-0.016355328261852264 0.1267918348312378 -0.13495156168937683
-0.22135159373283386 0.32349422574043274 -0.03283260390162468
-0.28602325916290283 -0.34501853585243225 0.20120404660701752
-0.28221097588539124 0.0385650172829628 -0.24530410766601562
0.257199227809906 0.1660357564687729 0.1501702219247818
-0.18591701984405518 0.24078141152858734 -0.014667702838778496
-0.2579655349254608 0.08628915250301361 0.15703929960727692
-0.0986107662320137 0.16482797265052795 0.16397778689861298
-0.26851314306259155 -0.17493563890457153 -0.13457410037517548
0.2846626341342926 0.4768238663673401 0.1181204617023468
0.17605863511562347 0.16076454520225525 0.16800901293754578
-0.25575020909309387 -0.09208501875400543 -0.23610526323318481
-0.2688625454902649 0.2092023342847824 0.14633162319660187
-0.26953044533729553 0.17314156889915466 -0.29890233278274536
-0.031108172610402107 0.22636950016021729 -0.21193848550319672
-0.11464350670576096 0.3315398097038269 -0.3293091356754303
0.0034883853513747454 0.28181639313697815 -0.22914491593837738
-0.28174132108688354 0.01691596210002899 -0.24494032561779022
0.2871743440628052 0.02557913027703762 0.15814948081970215
0.26535549759864807 -0.3280494809150696 0.10589361935853958
0.20115752518177032 -0.24939404428005219 0.06452285498380661
-0.28356319665908813 -0.0547984279692173 -0.24045993387699127
-0.15978160500526428 0.4228687882423401 0.09176190942525864
-0.21174690127372742 0.32422298192977905 -0.34786638617515564
0.05021749809384346 0.13473841547966003 -0.14874999225139618
-0.26978740096092224 -0.2492108792066574 -0.08056541532278061
0.2861368656158447 -0.4292788505554199 0.16639187932014465
-0.26064449548721313 0.12460822612047195 -0.2922072410583496
-0.02159246802330017 0.208343505859375 -0.1702839881181717
-0.04549010843038559 0.15028917789459229 -0.1429312527179718
-0.008346046321094036 0.10511527210474014 -0.18808142840862274
0.24015475809574127 0.5175634026527405 0.09802848100662231
-0.01216926984488964 0.1699506640434265 -0.2197110801935196
-0.2056715339422226 0.28520339727401733 0.04477515444159508
-0.3408460319042206 -0.38911277055740356 0.030008556321263313
0.22334930300712585 0.27087682485580444 0.03460155799984932
0.22094228863716125 0.22941389679908752 -0.03949029743671417
-0.24635718762874603 0.2539895176887512 -0.35619035363197327
-0.2576132118701935 0.09449765831232071 -0.3017030954360962
-0.2828885316848755 0.1536792516708374 -0.3091352581977844
-0.25618410110473633 0.2316761612892151 -0.3545472025871277
0.2765777111053467 0.4558367133140564 0.1273474246263504
0.18823598325252533 0.40406179428100586 0.11679817736148834
-0.23998937010765076 0.2647562026977539 -0.33890148997306824
-0.10852852463722229 -0.18081453442573547 0.1682938039302826
0.21654504537582397 0.3289945721626282 -0.04584375396370888
-0.10458139330148697 0.22185666859149933 -0.13463811576366425
-0.27119526267051697 -0.014469745568931103 -0.12326332181692123
-0.2387067824602127 -0.18934214115142822 0.15332196652889252
-0.2718653082847595 0.21927756071090698 0.03659217059612274
0.29979926347732544 -0.043627575039863586 0.15093958377838135
0.25898438692092896 0.11602968722581863 0.15536636114120483
-0.27648237347602844 0.21278105676174164 -0.317861407995224
-0.18619304895401 0.4081519842147827 0.08872230350971222
-0.27275216579437256 0.21999108791351318 -0.12072629481554031
-0.11075298488140106 0.33600953221321106 -0.316345751285553
-0.23135021328926086 -0.18980476260185242 0.1627006232738495
0.250058650970459 0.5081928968429565 0.11436554044485092
-0.027230024337768555 0.1601576805114746 -0.20541013777256012
-0.23859678208827972 0.29557323455810547 -0.36293014883995056
-0.2294999659061432 -0.16701914370059967 0.1656370311975479
0.07362730801105499 -0.24625416100025177 0.15831533074378967
-0.04614105820655823 0.16850781440734863 -0.14980348944664001
-0.26838546991348267 0.22691234946250916 0.15216830372810364
0.24354134500026703 -0.11298040300607681 0.16943266987800598
-0.1948288530111313 0.41567182540893555 0.08724143356084824
-0.18628144264221191 0.33020612597465515 -0.34747809171676636
0.24780745804309845 -0.2517125904560089 -0.030436484143137932
-0.26477137207984924 -0.24982903897762299 -0.0058752745389938354
-0.22984100878238678 -0.005462221801280975 0.15054945647716522
0.04128551855683327 0.15773874521255493 -0.2127983421087265
-0.22522535920143127 -0.4620341658592224 0.12111017107963562
-0.13569338619709015 0.3404834270477295 -0.32014065980911255
-0.21178941428661346 0.23696795105934143 -0.02609849162399769
0.24880902469158173 0.010169519111514091 0.1663718968629837
-0.2586216330528259 0.20674654841423035 0.15516720712184906
-0.1512754261493683 -0.23690031468868256 0.16099587082862854
-0.23108772933483124 0.28331702947616577 -0.3333687484264374
-0.26007509231567383 -0.25120648741722107 0.07537905126810074
0.03800588473677635 0.23600944876670837 -0.19406872987747192
-0.013722655363380909 0.19921986758708954 -0.1329822987318039
-0.2256953865289688 -0.05064981430768967 0.16705526411533356
-0.18452532589435577 0.3494459390640259 0.08135004341602325
-0.16595715284347534 0.22337037324905396 -0.1355365812778473
0.0114089734852314 0.22277101874351501 0.15899215638637543
-0.2649688124656677 0.12529903650283813 -0.28920966386795044
-0.19408690929412842 -0.24113117158412933 0.16236716508865356
0.05958140268921852 0.13017144799232483 -0.163652241230011
0.22283722460269928 0.34496936202049255 0.10988190770149231
-0.0866667628288269 0.21252000331878662 0.160375714302063
-0.310894250869751 -0.42775222659111023 -0.08783429861068726
-0.12845125794410706 0.22890815138816833 -0.13186214864253998
0.024650216102600098 0.2276625782251358 0.1527792066335678
-0.3390534818172455 -0.36044177412986755 0.10146854817867279
-0.2568165361881256 0.2794427275657654 -0.3281974792480469
-0.2219637930393219 -0.25615882873535156 -0.047371868044137955
0.03994516283273697 0.18352003395557404 -0.22289970517158508
-0.014758557081222534 0.2609899938106537 -0.2141949087381363
-0.23923087120056152 0.41380980610847473 0.10050090402364731
-0.3118239641189575 -0.42641159892082214 -0.09141452610492706
-0.27199995517730713 -0.19725178182125092 -0.1213102787733078
-0.27594640851020813 0.09549331665039062 -0.27523407340049744
-0.29083114862442017 0.018428832292556763 -0.2518559992313385
-0.27368131279945374 -0.23960734903812408 0.1475442498922348
-0.2287387102842331 -0.4234156906604767 0.1960078477859497
0.2974105477333069 -0.04467284679412842 -0.135274276137352
-0.22476428747177124 -0.08191924542188644 0.16699622571468353
-0.19356831908226013 0.4438215494155884 0.08580473810434341
-0.14456073939800262 0.3247844874858856 -0.3220977485179901
0.04395616054534912 0.21601471304893494 -0.17641720175743103
-0.08193191140890121 0.22733348608016968 -0.12925155460834503
-0.26576992869377136 -0.11932937055826187 0.15994854271411896
-0.12135174125432968 -0.23378446698188782 0.16042107343673706
-0.20105354487895966 0.22044894099235535 -0.13228201866149902
-0.21582944691181183 -0.2524731457233429 0.07126287370920181
-0.2618286907672882 -0.3018193542957306 0.08954843878746033
0.08940262347459793 0.21353843808174133 0.1601485162973404
0.23823042213916779 0.5187460780143738 0.004993613343685865
-0.036793798208236694 0.13686935603618622 -0.195370152592659
0.28693893551826477 0.2294377237558365 -0.007991636171936989
-0.10337851941585541 -0.18737320601940155 0.16486313939094543
-0.009856521151959896 0.19754163920879364 -0.23107598721981049
0.029628824442625046 0.12579520046710968 -0.20568999648094177
-0.26103898882865906 0.2302038073539734 0.04260309785604477
-0.22849087417125702 0.03644385188817978 0.15960335731506348
0.26876112818717957 0.22821277379989624 0.15182709693908691
-0.02775481902062893 0.17429204285144806 0.15066006779670715
0.2719945013523102 0.4149441719055176 0.11367356777191162
-0.110188327729702 0.22266586124897003 -0.13530392944812775
-0.23593279719352722 -0.40408259630203247 0.2006276547908783
-0.2317613810300827 -0.04842779040336609 0.15421155095100403
-0.20254266262054443 0.3521953523159027 0.1020563542842865
-0.2803729474544525 0.021253250539302826 -0.3148374855518341
-0.2260684370994568 -0.1485470086336136 0.15640005469322205
-0.27259424328804016 -0.24407489597797394 -0.12810952961444855
0.22746340930461884 0.5153635740280151 -0.005270212423056364
0.28554514050483704 0.38205939531326294 0.11483270674943924
0.21803759038448334 0.2316201776266098 -0.009966529905796051
0.023172225803136826 -0.24250458180904388 0.15794560313224792
0.2665656507015228 0.4217011630535126 -0.0870886966586113
-0.027645841240882874 0.12274254113435745 -0.1909991204738617
-0.2534700036048889 0.07341013848781586 -0.2910221219062805
-0.34110432863235474 -0.3803400993347168 0.03560508042573929
0.25570565462112427 0.35214731097221375 -0.07920341938734055
-0.23565296828746796 -0.278767853975296 0.06910927593708038
0.2995474636554718 -0.20069891214370728 -0.13178007304668427
0.28862375020980835 0.22762182354927063 -0.07622973620891571
0.02887338399887085 0.2756991684436798 -0.25555169582366943
-0.24021561443805695 0.34669798612594604 0.08549148589372635
-0.11694173514842987 -0.20011970400810242 0.15320298075675964
-0.25411009788513184 0.2866551876068115 -0.3584708571434021
-0.02856515534222126 0.3072759211063385 -0.29335930943489075
-0.030773304402828217 0.16565680503845215 -0.2065291404724121
-0.2634120583534241 0.0029011827427893877 -0.22888724505901337
0.2837645709514618 0.19142624735832214 0.15604816377162933
-0.2308688908815384 0.1729852259159088 0.14851215481758118
-0.26534396409988403 0.006559139583259821 -0.22946006059646606
0.22794109582901 0.23533600568771362 -0.029533373191952705
-0.19937366247177124 -0.24855943024158478 -0.1055971011519432
0.051787327975034714 0.23407036066055298 -0.21685431897640228
-0.14168496429920197 -0.19790031015872955 0.1566876918077469
-0.2341773957014084 -0.17038702964782715 0.15350759029388428
-0.19010840356349945 0.2120828777551651 0.1579826921224594
0.21036139130592346 0.16706758737564087 0.1594904661178589
-0.31182393431663513 -0.33403199911117554 0.1965024471282959
0.2655310034751892 -0.24690571427345276 -0.1300143450498581
0.21535901725292206 -0.25059521198272705 0.060271043330430984
-0.26189473271369934 -0.14930525422096252 0.1589396893978119
0.09001795947551727 -0.24521824717521667 -0.1346506029367447
0.2140459418296814 0.23116165399551392 -0.01803438737988472
0.18554545938968658 0.43227407336235046 0.11503880470991135
0.29748091101646423 -0.03410467877984047 0.15482158958911896
-0.017436420544981956 0.11288861185312271 -0.19347800314426422
-0.22389480471611023 -0.25298991799354553 -0.048388976603746414
-0.02764447033405304 0.12303221970796585 -0.15649859607219696
-0.27070850133895874 -0.06848391890525818 -0.22296404838562012
0.2515862286090851 -0.24826432764530182 -0.01391040813177824
-0.260802686214447 0.22182400524616241 -0.31681394577026367
0.05582654848694801 0.2137470841407776 -0.20937612652778625
0.18670669198036194 0.22624728083610535 0.15729863941669464
-0.2390797883272171 0.271605908870697 -0.3619401752948761
-0.26579907536506653 0.274503231048584 -0.34835267066955566
0.27084583044052124 0.3339073061943054 -0.05570845305919647
-0.27743539214134216 -0.05129118263721466 -0.29351043701171875
-0.2541424036026001 -0.054465800523757935 -0.2872996926307678
0.30272337794303894 0.03963549807667732 -0.13749447464942932
-0.262584388256073 0.22846050560474396 0.11985805630683899
0.03922632336616516 0.10154248028993607 -0.17936497926712036
-0.28351834416389465 0.1445004791021347 -0.2983790934085846
-0.2362956404685974 -0.29600486159324646 0.08600366115570068
0.0029735839925706387 0.2061520516872406 -0.1500694453716278
0.13398784399032593 0.21717871725559235 0.15984995663166046
-0.314361035823822 -0.32292431592941284 0.1802087277173996
0.20905418694019318 0.43550243973731995 0.10120175778865814
-0.007276124320924282 0.23636367917060852 -0.25320273637771606
0.26078125834465027 0.014857402071356773 0.15579161047935486
0.22016456723213196 0.4739398956298828 -0.06988448649644852
0.2607133388519287 -0.25312790274620056 0.03716868907213211
-0.07049885392189026 0.3253622353076935 -0.28845447301864624
-0.012768477201461792 0.13084453344345093 -0.13504144549369812
-0.244271919131279 0.28663304448127747 -0.3285778760910034
-0.22617097198963165 0.25540339946746826 -0.024085387587547302
0.16268764436244965 0.2310875952243805 0.14230696856975555
0.03211803361773491 0.2664493918418884 -0.22434160113334656
-0.20376640558242798 -0.26455268263816833 -0.05911757051944733
-0.22161628305912018 0.3183490037918091 0.052840299904346466
0.18944557011127472 0.2126627117395401 0.15990832448005676
-0.24639125168323517 -0.32042986154556274 -0.08505173772573471
-0.2686341106891632 0.2574339509010315 -0.3296947777271271
-0.27408960461616516 -0.05948071554303169 -0.28099456429481506
0.2424231320619583 0.15989701449871063 0.1690995991230011
-0.2600595951080322 0.15127524733543396 -0.304735004901886
-0.2902505695819855 -0.3716509938240051 0.2150339037179947
0.2294999212026596 0.5007407069206238 0.12287610024213791
-0.33534321188926697 -0.3404630124568939 0.187397763133049
-0.26746469736099243 0.07997109740972519 -0.26424604654312134
0.06408048421144485 0.17270790040493011 -0.1356341540813446
0.29639336466789246 -0.05963633209466934 0.15198549628257751
-0.06703872233629227 0.1673431098461151 0.1584526151418686
-0.26615041494369507 0.10884448140859604 -0.28495657444000244
-0.2374216467142105 0.033053088933229446 0.15399377048015594
-0.02472640387713909 0.2792963683605194 -0.27743130922317505
-0.23871907591819763 0.3370789587497711 -0.04135977104306221
-0.2729915380477905 0.11335021257400513 -0.3237406611442566
-0.0901491641998291 0.3318043649196625 -0.29744425415992737
0.05286042392253876 0.16745537519454956 0.15534961223602295
0.04077879711985588 0.217429056763649 -0.13530124723911285
-0.3178808391094208 -0.32939982414245605 0.191896453499794
-0.2456180900335312 0.4840030372142792 0.10393199324607849
-0.2212386578321457 0.47685617208480835 0.1049993708729744
-0.020787859335541725 0.22906094789505005 -0.18976005911827087
-0.21268631517887115 0.32737767696380615 -0.3339919149875641
-0.23301081359386444 0.35886508226394653 0.1116723045706749
0.25159016251564026 0.09484189748764038 0.15694615244865417
0.300911009311676 0.22818346321582794 0.09431290626525879
0.2941393554210663 -0.44466137886047363 0.10892614722251892
-0.23625582456588745 0.2662518620491028 0.032257549464702606
-0.23253175616264343 0.15906351804733276 0.15300749242305756
-0.18823681771755219 0.22812920808792114 -0.046541277319192886
0.29730620980262756 -0.25243473052978516 0.04081523418426514
0.24144303798675537 0.1492287516593933 0.169295072555542
-0.26090237498283386 0.2243155837059021 0.1545989066362381
-0.0839441642165184 0.15653645992279053 0.1702696532011032
-0.3037487268447876 -0.3167351186275482 0.17464402318000793
-0.23454320430755615 -0.24520498514175415 -0.13631601631641388
0.23505567014217377 0.3508206307888031 -0.08550485223531723
-0.2316005676984787 -0.27915892004966736 -0.07023819535970688
-0.24166327714920044 -0.25211620330810547 -0.02486713044345379
0.05428878217935562 0.124915711581707 -0.15245604515075684
-0.27015045285224915 -0.24833206832408905 -0.10483814775943756
-0.2911096513271332 -0.3513855040073395 0.20676970481872559
-0.11322622001171112 -0.23492500185966492 0.15744923055171967
-0.2694529891014099 -0.22939631342887878 0.158746600151062
-0.24433653056621552 -0.06490787863731384 -0.24036510288715363
0.20956701040267944 0.5101438164710999 0.07079174369573593
-0.2064104676246643 0.23351599276065826 -0.024647535756230354
0.2517121732234955 0.2875830829143524 0.039437681436538696
-0.23474672436714172 0.24057704210281372 -0.02118447795510292
0.27770140767097473 -0.411835253238678 0.19603994488716125
0.2818717360496521 -0.25134989619255066 0.031353387981653214
-0.28707727789878845 0.010037829168140888 -0.2424718737602234
-0.04436991736292839 0.1536448746919632 -0.13648322224617004
0.283326655626297 -0.2527749836444855 0.04058293253183365
0.283938467502594 -0.4519737958908081 0.1501540243625641
-0.003900145413354039 0.12709149718284607 -0.21040551364421844
-0.25024619698524475 0.47559496760368347 0.10904958844184875
-0.1941547393798828 0.44857820868492126 0.09101304411888123
0.2479315996170044 0.4434356987476349 -0.08756696432828903
-0.20470592379570007 0.4673863649368286 0.0895003080368042
0.23086979985237122 0.22398120164871216 0.1572803109884262
-0.25186023116111755 0.23076404631137848 0.05233954265713692
-0.06511607021093369 0.3269846737384796 -0.2916811406612396
-0.06083305925130844 -0.19734430313110352 0.15272079408168793
-0.23472808301448822 0.26686444878578186 0.03526473790407181
0.035861484706401825 0.11113426089286804 -0.19602155685424805
0.20343944430351257 0.3350532352924347 -0.04920075833797455
-0.3091239333152771 -0.4309048056602478 -0.09285853803157806
-0.27385953068733215 -0.06999822705984116 -0.23130564391613007
-0.20606431365013123 0.3262246549129486 0.05452050641179085
-0.2430657297372818 0.3647112548351288 -0.06490877270698547
-0.22359876334667206 -0.25604650378227234 0.0516388937830925
0.27027052640914917 -0.2469453662633896 0.029385995119810104
0.05189526826143265 0.12972567975521088 -0.14985434710979462
0.2982231676578522 -0.2487049698829651 0.11232735216617584
-0.30902740359306335 -0.3211529850959778 0.16399703919887543
0.05598539859056473 0.19908955693244934 -0.20461305975914001
-0.2513197958469391 -0.25430238246917725 -0.05022256448864937
-0.2794855535030365 0.0020993580110371113 -0.3100787401199341
-0.21983258426189423 0.24054138362407684 0.05393325909972191
-0.2368030548095703 -0.29268258810043335 0.08516451716423035
-0.031062757596373558 0.20226699113845825 -0.21543830633163452
-0.24240177869796753 -0.27506735920906067 0.056315962225198746
-0.23256175220012665 0.4084347188472748 -0.08065493404865265
-0.17704986035823822 0.34602007269859314 0.0754539892077446
-0.20440880954265594 0.463011771440506 0.09191426634788513
-0.1849510669708252 0.4175531566143036 0.09190363436937332
0.25816258788108826 -0.4244980812072754 0.2040100246667862
0.004151178523898125 0.2052680402994156 -0.14823932945728302
0.2336765080690384 -0.234206885099411 0.15675488114356995
-0.14161455631256104 -0.18252556025981903 0.16738827526569366
-0.1672828644514084 -0.24647119641304016 -0.1367432028055191
-0.04536925256252289 0.17251712083816528 -0.13760560750961304
0.3027539849281311 -0.2530133128166199 -0.07998660206794739
-0.23768311738967896 0.3683417737483978 0.11480649560689926
0.22754022479057312 0.28143593668937683 -0.01850343495607376
0.1474425047636032 -0.42796963453292847 0.1595054268836975
-0.21119242906570435 -0.2622470259666443 0.069391168653965
-0.17757466435432434 0.22236274182796478 -0.13302920758724213
0.28136345744132996 0.49283120036125183 0.11750969290733337
-0.14922352135181427 0.3332589268684387 -0.33996808528900146
-0.25089797377586365 -0.07541991770267487 -0.2792939245700836
0.04721757397055626 0.14190144836902618 -0.2004450559616089
-0.18356484174728394 0.28857356309890747 0.022943325340747833
0.06836088746786118 0.15888871252536774 0.1694854497909546
0.068191759288311 0.20779341459274292 -0.13548994064331055
-0.24749639630317688 0.22924159467220306 0.1555148810148239
0.2543845474720001 -0.41037118434906006 -0.08890026062726974
-0.26967787742614746 0.1851753145456314 0.1576947718858719
-0.24492520093917847 0.3978961408138275 0.10735099017620087
-0.30109167098999023 -0.31457632780075073 0.16172221302986145
-0.29102060198783875 -0.4652850031852722 -0.07303418964147568
-0.030690789222717285 -0.23660647869110107 0.15886743366718292
-0.032238561660051346 0.17922410368919373 -0.2078758180141449
0.006078680045902729 -0.20096221566200256 0.15552200376987457
-0.02590436302125454 0.18802396953105927 -0.2172853648662567
0.04144446924328804 0.2029401957988739 -0.14486931264400482
-0.2219807654619217 0.2742334306240082 -0.02029600739479065
-0.04882332682609558 0.177039235830307 -0.13424940407276154
-0.14253690838813782 -0.24708837270736694 -0.13448253273963928
-0.23238159716129303 0.38837960362434387 -0.07931648939847946
-0.2687971889972687 0.19185514748096466 0.1565568745136261
-0.024786047637462616 0.2295055389404297 0.14207670092582703
0.3002789318561554 0.2092825174331665 -0.12762528657913208
0.28998252749443054 0.22665724158287048 -0.13476060330867767
-0.028870519250631332 0.2192004770040512 -0.2230650782585144
-0.06520763039588928 0.16852529346942902 0.15838152170181274
0.2708183228969574 0.3071173429489136 -0.0031191164162009954
0.2850598096847534 -0.43940630555152893 0.18200324475765228
-0.23156537115573883 0.3045779764652252 -0.020051313564181328
-0.21774648129940033 -0.25675517320632935 -0.046611469238996506
-0.1688755750656128 -0.25747591257095337 -0.036592997610569
0.13073089718818665 -0.24672554433345795 0.15959049761295319
-0.24241475760936737 0.350938618183136 0.0891551673412323
-0.03420659527182579 0.27502143383026123 -0.26691964268684387
-0.16712497174739838 0.3600752651691437 0.07981628179550171
0.2073492407798767 -0.25220027565956116 0.07819857448339462
-0.2507227659225464 0.03484821319580078 -0.2552897334098816
-0.23144303262233734 0.23344172537326813 -0.023654868826270103
-0.24715746939182281 -0.012696280144155025 -0.24004949629306793
0.24425767362117767 -0.04859837144613266 0.1701846420764923
0.2962959110736847 0.21883361041545868 -0.01497408002614975
-0.2641424536705017 0.21988730132579803 -0.3538767099380493
-0.2740631401538849 -0.2983458638191223 0.09574975073337555
-0.21860270202159882 0.5062705278396606 0.04462766647338867
-0.26209166646003723 0.19901514053344727 0.15598507225513458
-0.2280120551586151 -0.2604551315307617 -0.03867651894688606
-0.23922458291053772 0.3571275472640991 -0.0634320080280304
0.18313390016555786 -0.2572241425514221 -0.018119173124432564
-0.259431928396225 0.16882582008838654 -0.3175857663154602
-0.2731974124908447 -0.3688388764858246 -0.09941825270652771
-0.2692267596721649 -0.014632042497396469 -0.22294102609157562
-0.18521219491958618 -0.2521086633205414 0.06881967931985855
-0.018810346722602844 0.3101668357849121 -0.2822435796260834
-0.2885909676551819 0.08023988455533981 -0.27897360920906067
0.24706891179084778 0.02750200778245926 0.16766048967838287
0.14734217524528503 -0.4442062973976135 0.13187499344348907
-0.2710311710834503 0.23697128891944885 -0.32005786895751953
-0.19915901124477386 0.5026756525039673 0.08519335091114044
0.15899784862995148 -0.4449981153011322 -0.04146058112382889
0.2729155719280243 0.34341534972190857 -0.06567937135696411
0.20551127195358276 -0.3307706415653229 0.11614960432052612
-0.05672242119908333 -0.18738307058811188 0.15896138548851013
-0.1564568430185318 0.16064320504665375 0.16983526945114136
-0.18601976335048676 0.30103492736816406 -0.0036912194918841124
-0.2492385357618332 -0.08409499377012253 -0.2439323365688324
0.09706822037696838 0.16169406473636627 0.16731058061122894
-0.12491033226251602 0.33874496817588806 -0.316592276096344
0.288517564535141 0.33297234773635864 0.07098053395748138
0.2376667857170105 -0.42638781666755676 -0.09488663077354431
-0.26843535900115967 -0.1916462779045105 0.16024570167064667
-0.22659556567668915 -0.42288026213645935 0.19322770833969116
-0.270867258310318 0.1861903816461563 -0.13055647909641266
0.2810719609260559 -0.23221006989479065 0.1585623025894165
0.21125011146068573 0.4943840503692627 -0.04551825672388077
0.23978501558303833 -0.25355833768844604 0.060445547103881836
-0.2243720144033432 0.26457175612449646 0.042711447924375534
0.25269803404808044 -0.1580830216407776 0.15409192442893982
-0.33672189712524414 -0.3688952922821045 0.0952301099896431
-0.1847139298915863 0.33036884665489197 -0.347143292427063
-0.205232173204422 -0.241472989320755 0.16367536783218384
0.26765188574790955 -0.33478832244873047 0.11621246486902237
-0.27968817949295044 -0.06987044215202332 -0.24138525128364563
0.025911463424563408 0.2744576632976532 -0.24202172458171844
-0.25118863582611084 0.23322276771068573 -0.34165728092193604
0.2571994364261627 0.11829595267772675 0.15256106853485107
-0.028431417420506477 0.14966490864753723 -0.13840824365615845
-0.21184660494327545 0.36053359508514404 -0.07612477988004684
0.2574233412742615 0.4244963228702545 -0.0886400118470192
-0.04015207290649414 0.18269126117229462 -0.15380646288394928
-0.19942408800125122 0.4891006350517273 -0.04733787849545479
-0.29708534479141235 -0.35870200395584106 0.21116770803928375
-0.0668027251958847 0.22847585380077362 -0.13472303748130798
-0.2152576744556427 0.39119142293930054 -0.08643923699855804
-0.18762369453907013 0.3838921785354614 0.09875384718179703
-0.26702144742012024 0.26405709981918335 -0.33899685740470886
-0.17908287048339844 0.17597351968288422 0.15101255476474762
-0.29795509576797485 -0.4057122766971588 -0.09455655515193939
0.2150016725063324 -0.2501644194126129 -0.1290399730205536
-0.2811432480812073 -0.3017076253890991 0.10556168109178543
0.21556627750396729 0.4907223582267761 0.1153658777475357
-0.17516487836837769 0.4061813950538635 0.09638909250497818
0.19529078900814056 0.21541249752044678 0.15801693499088287
-0.2729344367980957 -0.24469703435897827 -0.12178190052509308
-0.27504491806030273 0.00976337306201458 -0.13073250651359558
-0.2559894621372223 0.08951683342456818 -0.2976090908050537
-0.256979763507843 0.08245678246021271 -0.303364098072052
0.02353113889694214 -0.24947480857372284 -0.12638486921787262
-0.1239498108625412 0.3315921723842621 -0.30831119418144226
0.2909543812274933 -0.44403550028800964 0.13565728068351746
-0.21935677528381348 0.40494275093078613 -0.08739408850669861
0.21807730197906494 0.5128054022789001 0.002446613274514675
0.22334423661231995 0.4418823719024658 -0.08659446984529495
-0.006599310785531998 0.23989862203598022 -0.1947331577539444
0.06048579514026642 -0.19989106059074402 0.15588153898715973
-0.2616294026374817 0.08724846690893173 -0.27209731936454773
