0.2539273500442505 -0.29336440563201904 0.0843861997127533
0.19235417246818542 -0.32225990295410156 0.0991230458021164
-0.13640686869621277 -0.20577743649482727 -0.13375572860240936
0.1541469395160675 0.20002755522727966 0.15619893372058868
0.07496016472578049 0.22689585387706757 0.10330423712730408
-0.19613483548164368 0.23420198261737823 -0.13824240863323212
-0.1763642281293869 -0.38873395323753357 0.0467318519949913
0.2973707318305969 -0.10168108344078064 -0.017130304127931595
-0.26767873764038086 0.003366110846400261 -0.13980738818645477
-0.22800946235656738 -0.2504083812236786 -0.08081923425197601
0.2936331033706665 0.038038916885852814 0.13428424298763275
-0.2064310610294342 0.14577209949493408 0.16407965123653412
-0.18353745341300964 0.22705957293510437 -0.09418419003486633
-0.1801518350839615 0.22724157571792603 -0.12899614870548248
-0.03777148202061653 0.22623850405216217 -0.1252032220363617
0.16087546944618225 -0.2486574947834015 -0.031301889568567276
0.2949541509151459 -0.20223772525787354 -0.13353250920772552
0.12065423280000687 -0.21661536395549774 0.1553015410900116
-0.2675493061542511 0.10865859687328339 -0.13625647127628326
0.2988734543323517 -0.08011506497859955 0.11170819401741028
-0.2695191502571106 0.17177067697048187 -0.14831328392028809
-0.3079163432121277 -0.34799787402153015 0.021845797076821327
0.245432510972023 -0.2514505982398987 0.1306924968957901
-0.051588211208581924 -0.2510565519332886 -0.11332195997238159
-0.04643396660685539 0.23177598416805267 0.01357368566095829
0.04417388141155243 -0.22510263323783875 0.1540374755859375
-0.2203822135925293 -0.4401093125343323 -0.04981537163257599
-0.2271008938550949 -0.15337064862251282 -0.1352301687002182
-0.26828432083129883 -0.15129809081554413 0.020614229142665863
0.2569640278816223 0.12795808911323547 -0.13620007038116455
0.019994143396615982 0.15627744793891907 0.16285081207752228
-0.0008639900479465723 -0.2557702660560608 0.03126225247979164
0.21586333215236664 0.3307975232601166 -0.0452905148267746
-0.18786603212356567 -0.2841494083404541 -0.053924452513456345
-0.07028046995401382 0.2273373305797577 0.11042656749486923
0.20911173522472382 -0.21069647371768951 0.1603716015815735
-0.17960447072982788 -0.3406960964202881 -0.04349979758262634
-0.15899287164211273 -0.30496084690093994 -0.014309472404420376
0.24484890699386597 -0.015980936586856842 0.1608128547668457
0.2984359562397003 0.1740218549966812 0.06372591108083725
0.18822412192821503 0.49113181233406067 0.02063779905438423
-0.272508442401886 0.23801611363887787 0.04314713552594185
-0.2457852065563202 -0.27440208196640015 0.01918666809797287
-0.288211464881897 -0.34313952922821045 -0.05110286548733711
-0.21659202873706818 0.2329784780740738 0.0963505357503891
-0.2664366066455841 0.44691234827041626 0.08323977887630463
-0.2686258554458618 0.025246627628803253 0.0029307007789611816
0.14940664172172546 -0.35894444584846497 0.09573733806610107
-0.29510414600372314 0.047179289162158966 -0.30210304260253906
0.29712340235710144 -0.09551078826189041 -0.06029830873012543
0.28968867659568787 -0.4101463556289673 0.04886675253510475
0.27835455536842346 -0.1341831386089325 0.15830940008163452
-0.260804146528244 -0.46009528636932373 0.022605987265706062
0.29120299220085144 0.46412238478660583 0.09967464953660965
-0.20462042093276978 0.20102840662002563 -0.1370459496974945
0.2917183041572571 0.006601911038160324 -0.1342841237783432
-0.2652844786643982 0.09949009120464325 -0.14043107628822327
-0.18515409529209137 -0.2529037594795227 -0.06734748929738998
-0.04103614389896393 0.16720016300678253 -0.18084417283535004
0.07026081532239914 -0.2511030435562134 0.04407978802919388
0.17697614431381226 -0.4465198516845703 0.1761271059513092
0.2615765333175659 0.018587522208690643 -0.13692055642604828
-0.19647245109081268 0.41904255747795105 -0.07530763000249863
-0.26846981048583984 -0.04020071029663086 -0.13567698001861572
-0.18034213781356812 0.1988694965839386 -0.1352173089981079
-0.26829421520233154 0.01350795105099678 -0.14000318944454193
-0.19832134246826172 0.3357209861278534 -0.049036189913749695
0.2977713644504547 -0.18293309211730957 -0.10376738756895065
0.22824035584926605 0.140484020113945 0.16851626336574554
-0.19253785908222198 -0.42853376269340515 -0.007380153052508831
0.16767266392707825 -0.2519334852695465 -0.055416930466890335
-0.2684572637081146 0.012308523058891296 -0.12072347104549408
-0.10775699466466904 0.09013170003890991 -0.13609132170677185
0.2306484431028366 -0.25141772627830505 -0.08691355586051941
0.13594280183315277 -0.4269404411315918 0.0089923907071352
-0.302834153175354 -0.32169610261917114 0.10212880373001099
0.29894745349884033 -0.17021018266677856 0.004582218360155821
0.17351028323173523 0.4176359176635742 0.04534333944320679
0.23210248351097107 -0.20358799397945404 0.15978634357452393
-0.26500529050827026 0.43665027618408203 0.004357095807790756
0.016863854601979256 0.14258167147636414 -0.13392741978168488
0.15495671331882477 -0.24988578259944916 0.05349549651145935
-0.19443462789058685 -0.41796258091926575 0.09083384275436401
-0.296664297580719 0.011876337230205536 -0.26008936762809753
-0.22833560407161713 0.502642810344696 0.05169167369604111
0.2969965934753418 -0.07368293404579163 -0.1350216418504715
-0.2616147994995117 0.05359102040529251 -0.13471868634223938
-0.27095267176628113 -0.1213633269071579 0.12212813645601273
0.10968036204576492 -0.23292659223079681 -0.1387423425912857
-0.2686387300491333 -0.17927862703800201 -0.13387411832809448
-0.2920784056186676 -0.3207411468029022 0.0472409725189209
-0.15599068999290466 -0.2209852635860443 -0.13379618525505066
0.1800745129585266 0.36376357078552246 -0.014860731549561024
0.18580052256584167 0.4725319743156433 0.09012922644615173
-0.21653340756893158 0.2322988659143448 -0.13645336031913757
-0.24767109751701355 -0.14315631985664368 -0.1334610879421234
-0.24661889672279358 0.23168745636940002 -0.09696702659130096
-0.044286031275987625 0.1477128118276596 -0.1570674479007721
0.026114236563444138 -0.25023362040519714 -0.02782958373427391
0.29190462827682495 0.3383932113647461 -0.004487334284931421
-0.27824193239212036 -0.3116087019443512 0.07972156256437302
0.2967127859592438 -0.21666446328163147 -0.05948455259203911
0.2846839725971222 -0.17638960480690002 -0.13895979523658752
-0.26651546359062195 0.07765574008226395 -0.1418471783399582
0.07728559523820877 -0.2507855296134949 0.00016347141354344785
0.2749378979206085 0.2292008250951767 -0.10757612437009811
0.29555776715278625 0.032403137534856796 -0.13260678946971893
0.27100032567977905 0.5050538778305054 0.016369875520467758
-0.2125929743051529 -0.011498496867716312 0.1658918559551239
0.20461653172969818 -0.05493337661027908 -0.13920558989048004
-0.27048927545547485 0.23090244829654694 0.054279427975416183
0.2444099336862564 0.40232160687446594 0.10360144823789597
0.14774437248706818 -0.40825125575065613 0.1572531759738922
0.2969939708709717 0.06166929379105568 -0.015715762972831726
-0.010235724039375782 -0.013583211228251457 -0.13719359040260315
0.001031690277159214 0.1422068327665329 -0.21337607502937317
0.2859509587287903 -0.36616700887680054 0.011390196159482002
-0.19722270965576172 -0.31595104932785034 -0.06350524723529816
-0.26652517914772034 -0.30498939752578735 -0.029464371502399445
0.28870919346809387 -0.15583154559135437 -0.13564281165599823
0.22440172731876373 0.5134133100509644 0.07741463929414749
-0.20205065608024597 -0.41180333495140076 -0.049443259835243225
0.18387281894683838 0.2286100834608078 -0.00889944564551115
0.19329792261123657 0.228162482380867 0.07123412191867828
0.265092670917511 0.12680888175964355 0.15668590366840363
-0.06262318789958954 -0.1905006468296051 0.15813788771629333
0.10268114507198334 0.12587551772594452 -0.13825932145118713
-0.26491621136665344 0.37475836277008057 0.042347803711891174
-0.08714690059423447 -0.2185337394475937 0.16006359457969666
0.26440611481666565 -0.1574268639087677 -0.13212262094020844
0.03384730592370033 -0.13904330134391785 0.16534194350242615
0.06081974878907204 -0.2511266767978668 -0.0623440220952034
-0.3195159137248993 -0.4212835729122162 -0.015785876661539078
-0.25747907161712646 0.4440239369869232 -0.03789917007088661
-0.15663301944732666 0.42518141865730286 -0.026110786944627762
0.10687795281410217 0.010829495266079903 0.1679186075925827
0.23578017950057983 -0.4448719918727875 0.13407431542873383
0.17454828321933746 -0.38630902767181396 0.1775059551000595
-0.2754453122615814 -0.4328289330005646 -0.08766219764947891
0.21240106225013733 0.2224942445755005 0.060386866331100464
0.09469553083181381 -0.24929077923297882 0.08395159989595413
0.2981853485107422 -0.13192732632160187 0.027960391715168953
0.2385251820087433 0.038712482899427414 -0.1357618272304535
0.2751905918121338 0.20973657071590424 -0.1349908709526062
0.17942765355110168 0.4432235658168793 -0.013180498033761978
0.290034681558609 -0.13135689496994019 -0.13633733987808228
-0.24142566323280334 -0.17733271420001984 -0.13197137415409088
0.2992381155490875 0.12866860628128052 -0.1364777535200119
-0.30139395594596863 -0.44760027527809143 -0.054835934191942215
-0.24058547616004944 -0.24835143983364105 -0.12070923298597336
0.29963842034339905 -0.1571362018585205 0.04435298591852188
0.2750759720802307 0.5012413859367371 0.03429455682635307
0.1692250370979309 0.2327829748392105 -0.12415719032287598
-0.2712334096431732 -0.2311677783727646 -0.09003536403179169
0.29794785380363464 0.07679398357868195 -0.012943459674715996
0.15358948707580566 -0.20693494379520416 -0.137438103556633
-0.21971513330936432 -0.22665350139141083 -0.13554707169532776
-0.24133412539958954 -0.2285315990447998 -0.13501201570034027
-0.23526573181152344 0.19836640357971191 -0.13440686464309692
0.17962631583213806 0.35913076996803284 0.05512020364403725
-0.20157553255558014 0.12994280457496643 0.16381578147411346
0.10881243646144867 0.23072440922260284 0.037639982998371124
0.17078541219234467 -0.4454968571662903 0.1406678408384323
0.2968260943889618 -0.17119957506656647 0.0687825158238411
-0.16968239843845367 0.22810031473636627 0.05177135393023491
0.024558085948228836 0.0667545422911644 0.16785013675689697
0.14939148724079132 -0.021248485893011093 -0.13662268221378326
0.03641098365187645 0.1461293250322342 0.16620168089866638
0.23597335815429688 -0.23157915472984314 -0.13659162819385529
0.16440227627754211 0.22480382025241852 0.04088488221168518
0.2914121448993683 0.44287073612213135 -0.03628968819975853
0.30002889037132263 -0.10659810900688171 0.06979608535766602
0.2993354797363281 0.14794668555259705 -0.0678221732378006
0.08837155252695084 -0.22989559173583984 -0.13708966970443726
0.15152978897094727 -0.23772937059402466 -0.1385526806116104
-0.1746814250946045 -0.017823994159698486 -0.13566277921199799
-0.2677347660064697 -0.20422551035881042 -0.14179080724716187
0.10616979002952576 -0.23087430000305176 -0.13952265679836273
0.297442227602005 -0.15545697510242462 0.13754890859127045
-0.21664084494113922 -0.3498101234436035 -0.07961338013410568
0.2744632363319397 -0.2298106849193573 -0.13660643994808197
0.29817014932632446 0.02540268562734127 -0.043704207986593246
0.29237133264541626 -0.40994179248809814 0.1328943818807602
-0.009237933903932571 -0.12974825501441956 0.1670626997947693
-0.2351013422012329 0.03398377448320389 -0.13447654247283936
0.0254902932792902 0.22879166901111603 0.027096133679151535
-0.26824960112571716 0.06738148629665375 -0.14210070669651031
-0.04871220886707306 -0.11413219571113586 -0.13260632753372192
0.28437522053718567 -0.39291614294052124 0.016746550798416138
0.044064950197935104 -0.23081466555595398 0.1567450761795044
-0.19590899348258972 0.21939025819301605 -0.13465695083141327
0.19777937233448029 0.4261751174926758 -0.06935731321573257
-0.006486992817372084 0.2263754904270172 0.10647956281900406
0.29405662417411804 0.4617159366607666 0.07329265773296356
-0.26893356442451477 -0.22104474902153015 0.11844787001609802
0.2000122368335724 -0.44713011384010315 -0.030126212164759636
-0.2585603594779968 -0.09287011623382568 -0.1366402506828308
0.09395208954811096 -0.25093337893486023 0.10619795322418213
-0.029143400490283966 -0.05446518212556839 -0.13514475524425507
0.2801923453807831 0.22710637748241425 -0.09391311556100845
-0.2675735354423523 0.43261033296585083 0.04798197001218796
0.06545019149780273 0.18599528074264526 0.1557978242635727
0.29273924231529236 0.3873581886291504 -0.040853314101696014
0.28709688782691956 0.39567673206329346 -0.061241503804922104
0.2460629642009735 -0.25101837515830994 -0.1039140522480011
0.29966798424720764 0.14394551515579224 -0.0641290694475174
0.2939065098762512 0.19934073090553284 -0.06991340965032578
0.13614173233509064 0.1464206874370575 -0.13894134759902954
-0.2396935522556305 -0.2788918614387512 -0.04910996928811073
-0.2708437442779541 0.20795777440071106 0.12996867299079895
0.2779819369316101 -0.15045620501041412 -0.13127250969409943
0.21744921803474426 -0.2513333857059479 0.11007846146821976
0.00832426082342863 0.22367553412914276 -0.01757304184138775
0.29590660333633423 -0.11532393097877502 -0.13654689490795135
0.2839668095111847 0.4992983639240265 0.058585070073604584
-0.2685467004776001 0.03502238541841507 -0.14126011729240417
-0.2418810874223709 0.49278950691223145 0.07424041628837585
0.27390196919441223 -0.3758997917175293 -0.05640193074941635
-0.2628059387207031 0.09811235964298248 -0.13951805233955383
0.28549686074256897 -0.3688938617706299 0.01055922731757164
-0.2451276332139969 -0.27367839217185974 0.022228451445698738
-0.04141423851251602 -0.2281709611415863 0.1582297533750534
0.10689101368188858 -0.250712513923645 0.05703434348106384
-0.2889866828918457 -0.4338471591472626 0.04640927538275719
-0.05688674375414848 0.2276783585548401 -0.12218339741230011
-0.2820151746273041 -0.412143737077713 0.12749716639518738
-0.2658770680427551 0.45926403999328613 0.0421193465590477
-0.13140766322612762 -0.19154495000839233 0.1591501235961914
0.10112594068050385 0.1509123295545578 0.16515737771987915
-0.26974841952323914 -0.23792664706707 -0.04026844725012779
0.09814316779375076 0.226438969373703 -0.11421637237071991
0.14908330142498016 -0.2215193659067154 0.1558704376220703
0.2280140072107315 0.4668252766132355 -0.077540323138237
-0.2093602567911148 -0.3843376636505127 0.14196884632110596
0.25393059849739075 0.2291821539402008 0.07702265679836273
0.23472639918327332 0.20140448212623596 -0.13474608957767487
0.18292148411273956 -0.4471309781074524 0.017612893134355545
0.08464868366718292 -0.21725082397460938 -0.1403445452451706
-0.20978833734989166 -0.4561559557914734 0.0675995722413063
0.22677867114543915 -0.3584386110305786 -0.08797135949134827
0.23918277025222778 -0.1748051941394806 0.15091395378112793
-0.26858043670654297 0.23691046237945557 -0.030895989388227463
0.3018204867839813 0.40528976917266846 0.025945845991373062
-0.2713122069835663 -0.23090845346450806 -0.13198411464691162
-0.2691992223262787 0.2273198664188385 0.06749886274337769
0.24946022033691406 -0.23098142445087433 -0.13482104241847992
-0.17762573063373566 0.19037896394729614 -0.1333463340997696
-0.24790431559085846 -0.28607144951820374 0.06577851623296738
-0.20453917980194092 -0.36751657724380493 0.11589530855417252
-0.16666676104068756 0.3938582241535187 -0.04498988017439842
0.2714942693710327 0.2292574942111969 0.08478216826915741
0.2476850003004074 -0.17271192371845245 0.16167108714580536
0.29647499322891235 -0.15957684814929962 0.07149634510278702
-0.16436144709587097 0.23199008405208588 -0.011075261048972607
-0.2664715349674225 0.18942806124687195 0.12683695554733276
0.29760977625846863 0.18328550457954407 -0.058743126690387726
-0.14404141902923584 0.22442486882209778 -0.1373039186000824
0.2497931718826294 -0.13172246515750885 0.1662275493144989
0.29687830805778503 0.08734212815761566 -0.011594101786613464
0.21241824328899384 -0.18765150010585785 0.15541741251945496
0.2933020293712616 -0.17264050245285034 -0.13443802297115326
-0.0991593673825264 -0.20800268650054932 0.16279274225234985
0.1528588831424713 -0.23220540583133698 -0.1420317143201828
0.2956032454967499 0.3923928737640381 0.11047223955392838
0.1377382129430771 0.021627793088555336 -0.13560564815998077
0.18356528878211975 -0.23272806406021118 -0.1386113464832306
-0.18078731000423431 -0.3429040312767029 -0.047060634940862656
0.17156772315502167 -0.4481777846813202 0.14069879055023193
0.25596606731414795 -0.22127395868301392 0.15618407726287842
0.17870423197746277 0.4411564767360687 0.00036981215816922486
-0.13509239256381989 0.15098705887794495 0.1612061858177185
0.040284063667058945 -0.25085902214050293 -0.095639169216156
-0.2417360246181488 0.2612631022930145 0.014844827353954315
0.2761108875274658 -0.3206790089607239 0.003596347291022539
0.1175832450389862 -0.21881775557994843 -0.13715888559818268
-0.009049266576766968 0.10159981995820999 -0.17641997337341309
0.015956232324242592 0.10237375646829605 -0.16719819605350494
0.29720035195350647 0.1848650723695755 -0.0037445540074259043
-0.26721882820129395 -0.02863307297229767 -0.13853368163108826
-0.2255411446094513 -0.4329090714454651 -0.062257684767246246
-0.17265209555625916 0.031497806310653687 -0.13509337604045868
-0.21856380999088287 -0.3740867078304291 0.14986161887645721
0.07765351980924606 0.1889033019542694 -0.13619767129421234
-0.061470065265893936 0.22512687742710114 -0.12998956441879272
0.13913489878177643 0.18265829980373383 -0.13599653542041779
0.2650167942047119 -0.3186705410480499 -0.05653299018740654
-0.26677823066711426 0.37172988057136536 0.04849587753415108
-0.2662367522716522 0.045925065875053406 -0.06059581786394119
0.10685917735099792 -0.20914578437805176 -0.13688622415065765
0.27003946900367737 0.15295694768428802 0.1571996510028839
-0.15365806221961975 0.42406022548675537 0.05544404685497284
-0.2576766312122345 -0.055682942271232605 -0.13706086575984955
0.29376956820487976 -0.22809258103370667 0.00987292267382145
0.140127494931221 -0.15824860334396362 -0.1346164494752884
-0.15878847241401672 0.22740699350833893 -0.13499341905117035
0.15311428904533386 0.13310614228248596 0.16121217608451843
0.27375397086143494 -0.3083500862121582 0.012416713871061802
-0.2869974672794342 -0.41046541929244995 0.11882864683866501
0.18055526912212372 0.466580867767334 0.06371602416038513
0.15110059082508087 -0.3217202126979828 0.03846922889351845
-0.26851359009742737 0.09504938125610352 0.07971733808517456
0.06450747698545456 -0.2507695257663727 -0.05216347053647041
0.2679426074028015 -0.03845357894897461 -0.1373697966337204
-0.1848904937505722 0.14136181771755219 0.16198134422302246
-0.1653585135936737 0.3882107436656952 -0.036285508424043655
-0.22980526089668274 0.22936901450157166 0.09801235795021057
0.04791925475001335 -0.2525516748428345 0.07168912887573242
-0.18110977113246918 -0.21839915215969086 -0.13501186668872833
0.29813435673713684 0.2063954770565033 0.11384257674217224
0.29259270429611206 0.19845762848854065 -0.07654183357954025
0.29913097620010376 0.411872535943985 0.09037844091653824
0.06317873299121857 0.208112895488739 -0.13397431373596191
0.27916771173477173 -0.3676321804523468 -0.039506945759058
-0.19144681096076965 -0.34381845593452454 -0.05997507646679878
-0.22666430473327637 -0.38606199622154236 0.17761260271072388
-0.11351141333580017 -0.18318161368370056 0.16118453443050385
0.27384454011917114 -0.4457721710205078 0.12677936255931854
0.2778765857219696 -0.23076191544532776 -0.13551607728004456
0.2945072054862976 0.18375679850578308 -0.13485443592071533
-0.13214093446731567 0.1603529155254364 -0.13556496798992157
0.15074245631694794 -0.06037332862615585 0.16760118305683136
0.2731955647468567 -0.450857013463974 0.11121143400669098
0.3020111322402954 0.3839394450187683 0.03592943772673607
0.29679128527641296 -0.17741180956363678 0.006948055233806372
0.04582004249095917 0.22794245183467865 -0.12548671662807465
0.1124347448348999 0.11211562901735306 0.1651647537946701
0.2786123752593994 -0.3495365083217621 0.0599227137863636
-0.2696835398674011 -0.18465232849121094 0.14242494106292725
0.040682900696992874 -0.2242838442325592 -0.13561953604221344
0.011492550373077393 0.22670753300189972 0.11560285091400146
0.00580007815733552 0.22824576497077942 0.06113486364483833
-0.0336419902741909 0.14953665435314178 0.1624763160943985
-0.23603402078151703 -0.25137802958488464 -0.1066557765007019
0.022937588393688202 -0.14521385729312897 0.16544093191623688
0.10491824895143509 -0.09948292374610901 -0.1360330879688263
-0.2261897474527359 0.20324629545211792 -0.13497339189052582
-0.02773793414235115 0.22805815935134888 0.06612003594636917
-0.183786079287529 -0.21920274198055267 -0.140997976064682
-0.26742488145828247 0.009761529043316841 -0.13797007501125336
-0.06832507252693176 0.1459113359451294 -0.13433252274990082
-0.27036646008491516 0.138091579079628 0.021405167877674103
-0.27058592438697815 -0.3278263509273529 -0.06018185243010521
0.2128949761390686 -0.33120638132095337 0.11599330604076385
0.12823137640953064 -0.24977903068065643 0.029014727100729942
-0.26212596893310547 0.11494604498147964 -0.13510075211524963
-0.2216428816318512 0.19659774005413055 -0.13562490046024323
-0.2706757187843323 0.21066808700561523 0.10929445922374725
-0.1907801330089569 0.17303085327148438 -0.13533300161361694
0.07336650788784027 -0.2298797070980072 -0.1366015076637268
-0.12289559096097946 -0.22360552847385406 -0.13621193170547485
0.289755254983902 -0.3969454765319824 0.10102391242980957
-0.24419113993644714 -0.1713993400335312 -0.13217869400978088
0.17904700338840485 0.3926660716533661 -0.00038905261317268014
0.29714781045913696 -0.0016034599393606186 0.12802022695541382
0.10126935690641403 -0.2525739371776581 0.0803333967924118
-0.20829756557941437 -0.007839418947696686 -0.13425083458423615
-0.0918489620089531 0.20611359179019928 0.15786992013454437
0.1765555739402771 0.4026968777179718 -0.011631738394498825
0.26842427253723145 -0.2312401533126831 -0.13384650647640228
0.15656383335590363 -0.03580929711461067 -0.1351349800825119
-0.26631635427474976 0.3568201959133148 0.031518690288066864
0.2956295609474182 -0.044746238738298416 0.06960423290729523
-0.26955410838127136 0.07708640396595001 -0.1421874612569809
0.27922922372817993 0.390704870223999 -0.07240714877843857
0.2724691927433014 0.31530073285102844 -0.02299339510500431
0.3005847930908203 0.43433040380477905 0.0372021459043026
0.1451473832130432 -0.027094613760709763 -0.13741125166416168
-0.3163505494594574 -0.35433846712112427 0.03167388588190079
-0.2705787122249603 -0.23175913095474243 0.021810483187437057
0.02566162496805191 -0.2508653700351715 -0.026052527129650116
-0.17741253972053528 -0.28530436754226685 -0.0454125814139843
-0.06493554264307022 -0.2548994719982147 0.032648880034685135
0.2993960976600647 0.005764859262853861 -0.08491449058055878
-0.08281875401735306 -0.2496396005153656 -0.09914322197437286
-0.27654731273651123 -0.44779253005981445 0.021011782810091972
-0.2632496654987335 0.42551207542419434 -0.021998560056090355
-0.19994425773620605 -0.20773886144161224 0.1670093685388565
-0.27002549171447754 0.23202985525131226 0.06586697697639465
-0.16410107910633087 -0.358849436044693 0.02144186571240425
0.2618345618247986 -0.29745155572891235 -0.04123575612902641
0.1760544627904892 -0.3372173309326172 0.10052180290222168
-0.2547250986099243 -0.429924339056015 0.14533191919326782
-0.1797437071800232 -0.2044810950756073 0.16295331716537476
0.235063835978508 -0.20225471258163452 0.1580272614955902
-0.17728029191493988 -0.28150519728660583 0.061008550226688385
0.29653918743133545 0.14473584294319153 0.10072928667068481
0.17852093279361725 -0.42282834649086 -0.06537710875272751
0.1935749650001526 0.05047807842493057 0.16515277326107025
0.10712546110153198 -0.0020780526101589203 -0.13618586957454681
0.15361368656158447 0.2290283441543579 -0.11121321469545364
-0.0721447765827179 -0.194560244679451 0.15780101716518402
0.17954067885875702 0.38596147298812866 -0.02393275499343872
0.2986898720264435 -0.1467583179473877 -0.046421512961387634
0.2756512463092804 -0.32756930589675903 0.02483076974749565
-0.26874521374702454 -0.05522921681404114 -0.10853787511587143
-0.267981618642807 0.08318567276000977 -0.14218953251838684
0.1503550112247467 -0.25162261724472046 -0.11715291440486908
0.04117858037352562 -0.2508395314216614 -0.10641957074403763
0.08914797008037567 0.15621106326580048 -0.13675746321678162
0.26509708166122437 -0.4072520136833191 0.19869215786457062
0.2622222900390625 -0.2516275644302368 0.1323251575231552
-0.17362163960933685 -0.3802501857280731 0.003773447358980775
0.07777497917413712 0.0894647166132927 -0.1361372470855713
0.2793474495410919 -0.3377439081668854 -0.02385898493230343
-0.2675873935222626 0.11488671600818634 -0.14473631978034973
0.19945786893367767 0.2273130863904953 0.05921516194939613
0.19949154555797577 -0.10057049989700317 -0.13970111310482025
-0.1730368733406067 0.18314629793167114 -0.1361074000597
0.10062876343727112 -0.025792721658945084 -0.13391056656837463
0.2119876593351364 0.1266758292913437 -0.13701088726520538
0.20687079429626465 0.22693072259426117 0.09669847041368484
0.2941959500312805 0.10508569329977036 -0.049784790724515915
0.3007042706012726 0.3691971004009247 0.05326744541525841
-0.10055188089609146 -0.25183239579200745 0.06483730673789978
-0.26649054884910583 -0.03365864232182503 0.03228521719574928
0.020079415291547775 -0.2256908118724823 0.15811747312545776
-0.13725319504737854 0.22845575213432312 0.025938481092453003
-0.27000969648361206 0.1506410539150238 0.10268068313598633
-0.2535557448863983 0.01435669045895338 -0.29349544644355774
0.2900642454624176 -0.210829496383667 -0.13590911030769348
-0.3078570067882538 -0.3319898843765259 0.07214871048927307
-0.17742344737052917 0.2285347282886505 0.0700041875243187
-0.1554073840379715 -0.24829672276973724 0.12589706480503082
0.027051622048020363 0.06536506861448288 -0.1381482183933258
-0.3175286650657654 -0.42100292444229126 -0.008411833085119724
0.27933451533317566 -0.3430818021297455 0.10557353496551514
-0.18230563402175903 0.48348382115364075 -0.005730618257075548
-0.2556256353855133 -0.28317078948020935 0.018340598791837692
-0.2713412046432495 -0.05606709420681 0.14141952991485596
0.2698497176170349 -0.44391053915023804 0.10740690678358078
-0.08196032792329788 0.22668804228305817 0.019496239721775055
0.1610013097524643 -0.38184845447540283 0.15971416234970093
0.28310060501098633 -0.4135543704032898 -0.023467307910323143
-0.21373814344406128 -0.1555858701467514 -0.13095936179161072
-0.00760908517986536 -0.25149813294410706 0.05359920486807823
0.2990681529045105 -0.11282023787498474 0.1248023509979248
0.29737037420272827 0.19902703166007996 0.06313391774892807
0.03549181669950485 -0.12346495687961578 -0.13398143649101257
0.21361738443374634 -0.44559767842292786 0.14455990493297577
0.21051698923110962 -0.17564909160137177 0.15585488080978394
-0.0535714328289032 0.22709670662879944 0.11300425231456757
-0.21237894892692566 0.024442531168460846 -0.134379044175148
-0.2707595229148865 0.20737051963806152 0.04855389893054962
-0.31690096855163574 -0.4157150089740753 0.013839658349752426
0.2969246208667755 0.1657291203737259 -0.13453294336795807
0.2881928086280823 -0.15156704187393188 -0.13561299443244934
-0.24537040293216705 -0.16027748584747314 -0.1323666274547577
-0.14647895097732544 0.0462423637509346 -0.13579928874969482
0.1292610764503479 0.1192503497004509 -0.13858461380004883
-0.11248397082090378 0.22813230752944946 0.0507020577788353
0.2522476315498352 0.43098747730255127 0.10554834455251694
0.07235470414161682 -0.250537246465683 0.050943244248628616
-0.24783675372600555 -0.3258052170276642 0.1280180811882019
-0.10185685753822327 0.1963527649641037 -0.1377376765012741
-0.15285220742225647 -0.20965608954429626 0.16478212177753448
0.2954804003238678 -0.002395862713456154 0.023923806846141815
0.18166136741638184 -0.25134706497192383 -0.07411123812198639
-0.11474913358688354 -0.21560551226139069 0.1618322730064392
0.2700217664241791 -0.4445370137691498 0.10182271897792816
0.2973039746284485 0.12315940856933594 -0.05034235864877701
0.01203747745603323 0.1833922117948532 -0.13413619995117188
0.30208277702331543 0.03446315973997116 -0.0439702533185482
0.2969839870929718 -0.23356842994689941 -0.0023336559534072876
0.2921244502067566 0.47502315044403076 0.05416955426335335
0.16337838768959045 -0.44733926653862 0.0852356106042862
-0.22070665657520294 0.227869912981987 0.08144766837358475
-0.27467432618141174 -0.14692233502864838 0.09708134829998016
-0.25523629784584045 -0.42723312973976135 0.16455483436584473
-0.1963048279285431 0.13413190841674805 0.16353483498096466
-0.25185516476631165 0.45938345789909363 -0.04197603464126587
0.04634691774845123 0.14323148131370544 0.16420111060142517
0.16247442364692688 0.22722087800502777 0.10266172885894775
-0.2691153585910797 0.08139854669570923 -0.1420315057039261
0.29861199855804443 0.38230186700820923 0.08204194158315659
0.2309899479150772 -0.2962796092033386 0.09512500464916229
0.03034301847219467 -0.22944456338882446 -0.1402287781238556
-0.05488089099526405 -0.21297752857208252 0.15735775232315063
-0.12910261750221252 0.15596531331539154 0.16437003016471863
-0.0022317790426313877 0.16112063825130463 -0.1357535570859909
-0.2905226945877075 -0.039445456117391586 -0.26848486065864563
0.296677827835083 0.1798631101846695 0.057536739856004715
-0.16650553047657013 -0.27439597249031067 -0.03291146829724312
0.16635403037071228 -0.27975374460220337 -0.011076945811510086
0.1896272897720337 0.22672434151172638 -0.13058999180793762
0.2737019658088684 0.10465371608734131 -0.13612347841262817
-0.2393585592508316 0.22900894284248352 -0.0550849586725235
0.21640567481517792 0.14280398190021515 0.16859322786331177
-0.046458736062049866 -0.22860214114189148 -0.13643956184387207
-0.14139825105667114 -0.21342526376247406 0.15703538060188293
0.14580309391021729 0.1569402813911438 0.16357509791851044
-0.26743796467781067 0.12719322741031647 -0.13652029633522034
0.2764136791229248 -0.4461337924003601 0.1386861950159073
-0.1922382414340973 -0.3649245500564575 -0.06135137751698494
-0.16781018674373627 0.0595129020512104 -0.13582956790924072
0.15575090050697327 -0.25159725546836853 -0.10209523886442184
0.2213553637266159 0.1466287076473236 0.1619754433631897
-0.2274608165025711 0.34109053015708923 0.08772856742143631
-0.26857128739356995 0.15279851853847504 -0.13921663165092468
-0.21148954331874847 -0.36808598041534424 -0.07446780800819397
-0.16979309916496277 0.01009415090084076 -0.13476286828517914
0.2148371934890747 -0.2510376274585724 0.0948956310749054
0.2964838743209839 -0.10837830603122711 0.1286565065383911
0.2831606864929199 -0.1858230084180832 -0.1363760530948639
0.28743329644203186 -0.38163620233535767 0.11369048058986664
-0.2741502523422241 0.1861518919467926 0.1231582909822464
0.16625437140464783 -0.16204607486724854 0.16167286038398743
-0.12637828290462494 0.2266075313091278 0.05652304366230965
0.21831940114498138 -0.2401922047138214 -0.13938546180725098
-0.2538197934627533 -0.43794140219688416 0.13166417181491852
0.2604188323020935 -0.30118006467819214 -0.053147125989198685
-0.2827424705028534 -0.3195961117744446 -0.0009213621960952878
0.12405992299318314 -0.2538852095603943 0.08328928798437119
-0.27293458580970764 -0.42462557554244995 -0.09037063270807266
0.176008939743042 0.407304972410202 -0.003912977874279022
0.011667216196656227 -0.22177474200725555 -0.13577893376350403
-0.007810145616531372 0.22818943858146667 0.0681564211845398
-0.04487551748752594 0.09615377336740494 -0.1399945169687271
0.2313295304775238 -0.2942538559436798 0.09038465470075607
-0.0776662677526474 -0.25121840834617615 -0.030542662367224693
0.06644515693187714 0.22816553711891174 0.10935032367706299
0.29680925607681274 0.16105276346206665 0.0254933200776577
0.09068756550550461 0.12146663665771484 0.16907620429992676
-0.2694950997829437 0.04937848448753357 -0.14103317260742188
0.14931648969650269 -0.32268643379211426 0.019486989825963974
-0.19801296293735504 -0.3923788368701935 0.10682518035173416
-0.2714712619781494 0.16017983853816986 -0.027549684047698975
0.09273730963468552 -0.2509525418281555 0.09548378735780716
0.2270209640264511 -0.4451885521411896 -0.07276394218206406
-0.27136075496673584 -0.09066464751958847 -0.08421878516674042
0.113077312707901 -0.2507997453212738 0.07108508050441742
-0.015217006206512451 -0.19700366258621216 0.15449686348438263
-0.0366322323679924 -0.24965161085128784 0.1340736299753189
0.2800091505050659 -0.34598276019096375 -0.011690535582602024
-0.29543569684028625 -0.45352718234062195 -0.03859013319015503
-0.2695573568344116 -0.1452350914478302 -0.08217617869377136
-0.15444837510585785 0.36695075035095215 0.022229136899113655
0.1305675059556961 0.22830957174301147 0.005378351081162691
0.23425766825675964 0.13960954546928406 0.1697584092617035
0.23407989740371704 0.10246963053941727 0.16581504046916962
0.3000463545322418 0.15180301666259766 0.03530307114124298
0.20903819799423218 -0.04299372434616089 -0.1399913728237152
0.07803976535797119 -0.2250281721353531 -0.13411639630794525
0.27519866824150085 0.2287902534008026 -0.07848837226629257
-0.1383434385061264 0.1782630980014801 -0.13626369833946228
0.14188387989997864 0.14503653347492218 0.1659509837627411
0.18827708065509796 -0.44573694467544556 0.03756876662373543
-0.26977115869522095 -0.16169129312038422 -0.10943209379911423
0.15305006504058838 -0.17234456539154053 -0.13286489248275757
-0.14088286459445953 0.13291065394878387 -0.13592150807380676
0.048585399985313416 0.08390933275222778 0.16684558987617493
0.07627324014902115 0.23031964898109436 -0.12464987486600876
0.1813545823097229 0.07992725074291229 -0.136387899518013
-0.1662641167640686 -0.24639536440372467 -0.11391075700521469
-0.2691359519958496 0.2245485484600067 0.03109327331185341
-0.27092245221138 0.21951650083065033 0.006732214242219925
0.044863078743219376 -0.23332390189170837 0.15591248869895935
0.05882015824317932 0.22808340191841125 0.05296061187982559
-0.1864897757768631 -0.41710829734802246 0.004300336353480816
-0.32112860679626465 -0.3511769771575928 0.04917050153017044
-0.2705632448196411 -0.3192645013332367 0.1480843722820282
-0.18439018726348877 0.4431571364402771 -0.05928971245884895
0.22836139798164368 -0.23521988093852997 -0.1360740065574646
-0.05928918719291687 0.02363959327340126 -0.13556303083896637
0.29584941267967224 0.12926515936851501 0.007177835330367088
0.23141518235206604 0.33027809858322144 0.07626482099294662
0.16830800473690033 -0.4209434986114502 -0.055577099323272705
0.11434084177017212 0.2287297397851944 -0.00035821646451950073
0.20468096435070038 0.3458840548992157 0.100505530834198
0.1438976377248764 -0.34409692883491516 0.02618836611509323
0.29779326915740967 0.21240346133708954 0.03694705292582512
0.04624052345752716 -0.204879030585289 0.15555188059806824
0.24329857528209686 -0.21224835515022278 0.15478947758674622
-0.2501554489135742 0.04371103644371033 -0.29219260811805725
-0.26476654410362244 0.4031674563884735 0.05286822095513344
-0.1898019015789032 -0.37307778000831604 -0.05100030079483986
0.19624502956867218 0.14774657785892487 -0.13373231887817383
-0.021743973717093468 0.08391353487968445 -0.134368896484375
0.25135478377342224 -0.3624851703643799 -0.08337301015853882
0.2960996627807617 0.1108364537358284 -0.13547982275485992
0.19971804320812225 0.14923353493213654 0.16407984495162964
0.2971682548522949 -0.19160540401935577 0.10507404804229736
0.20629820227622986 -0.23400358855724335 -0.13634417951107025
-0.26872628927230835 0.1846594661474228 0.11559270322322845
0.18825270235538483 0.47575822472572327 0.00022371654631569982
0.17228515446186066 -0.23303382098674774 -0.13623616099357605
-0.010261908173561096 0.20822036266326904 -0.16285310685634613
0.1617441624403 -0.2932133376598358 -0.003144156886264682
-0.20067784190177917 -0.44981852173805237 0.018328120931982994
-0.2684164345264435 0.04544251412153244 -0.14117266237735748
0.10994166880846024 -0.24879221618175507 -0.003882898250594735
-0.15660583972930908 -0.3002835214138031 -0.0064737447537481785
-0.3080703914165497 -0.3274664282798767 0.10480134934186935
0.28473973274230957 -0.35491254925727844 0.03266327083110809
0.14293889701366425 0.2279711812734604 0.0290508009493351
0.2959822714328766 -0.07991813868284225 -0.09229575842618942
-0.24909333884716034 0.23014245927333832 -0.07947013527154922
-0.16280919313430786 -0.3318221867084503 -0.0011940072290599346
-0.13986551761627197 0.06655703485012054 0.16934336721897125
-0.1840621680021286 -0.3227790296077728 0.07227727770805359
0.07927018404006958 -0.2538003623485565 0.044941309839487076
-0.1806958168745041 0.09659996628761292 0.16728857159614563
0.2942241132259369 0.20369474589824677 0.026782438158988953
0.004297591745853424 -0.06624442338943481 0.16813163459300995
-0.1793426126241684 -0.22292843461036682 -0.13571768999099731
0.2899162173271179 -0.4074801504611969 0.05541379377245903
0.14601564407348633 -0.3858475983142853 0.12952348589897156
-0.1496959626674652 0.22717484831809998 -0.024190977215766907
0.29849207401275635 0.044619232416152954 -0.13712078332901
0.2782033681869507 -0.22791574895381927 -0.1333448588848114
-0.17062869668006897 0.22772103548049927 -0.10913586616516113
0.29838699102401733 0.13560286164283752 -0.11065132170915604
-0.07649978250265121 0.2067774385213852 -0.13485261797904968
0.16231830418109894 -0.4232068359851837 -0.05044744908809662
-0.14524725079536438 0.22653363645076752 -0.030651073902845383
-0.1653289645910263 0.4736899733543396 0.03208575025200844
0.1889936327934265 -0.23544028401374817 -0.13636265695095062
0.2973004877567291 0.20875638723373413 0.11262482404708862
0.16850546002388 0.004988193511962891 0.17180313169956207
0.301525354385376 0.44913730025291443 0.06476341187953949
0.16906823217868805 0.22758080065250397 -0.11695332080125809
0.022486235946416855 -0.24810028076171875 -0.11822687834501266
-0.10569972544908524 -0.25021129846572876 -0.10111279040575027
0.16988521814346313 0.2259708195924759 0.008338861167430878
0.2809861898422241 -0.3990488350391388 -0.04017874225974083
-0.03804738074541092 -0.2508779764175415 -0.06446667015552521
-0.24422809481620789 -0.46055829524993896 0.07947859168052673
0.20335444808006287 -0.4463757872581482 0.12294845283031464
-0.045143503695726395 0.22670628130435944 0.1338561326265335
-0.284584641456604 -0.39522191882133484 0.18136265873908997
-0.09373993426561356 0.22713719308376312 0.008236611261963844
0.29621875286102295 0.1307254284620285 0.07656160742044449
0.23570793867111206 -0.19444559514522552 0.1516100913286209
-0.134541317820549 0.2290133237838745 -0.0455528125166893
0.2960186004638672 -0.18711960315704346 0.11455395072698593
0.13259337842464447 -0.0195675827562809 -0.13609743118286133
-0.2602740228176117 0.3423018157482147 0.011426129378378391
0.1696585863828659 0.22829891741275787 0.027413660660386086
0.19610460102558136 0.5065491795539856 0.054690685123205185
0.14272160828113556 -0.3634815514087677 0.0020523525308817625
0.18992111086845398 -0.34744101762771606 0.1258247345685959
-0.12918144464492798 0.21858249604701996 -0.13561378419399261
-0.21249032020568848 0.34048691391944885 0.07987189292907715
0.21681740880012512 0.22844198346138 0.06797577440738678
0.29137322306632996 -0.06440555304288864 -0.13587728142738342
0.24076645076274872 0.016087565571069717 0.1670464128255844
0.2918698489665985 -0.05442819371819496 -0.13494457304477692
-0.247629776597023 -0.1677842140197754 -0.13415512442588806
0.2927073836326599 -0.18284043669700623 0.08657248318195343
0.028164092451334 0.15083441138267517 0.1690571904182434
0.2967621088027954 -0.1150260642170906 -0.07164370268583298
-0.2704126834869385 -0.1647455394268036 0.11139610409736633
0.20729023218154907 0.027368098497390747 0.16544084250926971
-0.18700003623962402 0.09744274616241455 -0.13692325353622437
-0.1746453046798706 0.22458875179290771 -0.13515466451644897
-0.14953169226646423 0.14686167240142822 -0.13578225672245026
-0.10769923031330109 0.14475017786026 -0.13727280497550964
0.2975103557109833 -0.02119840309023857 -0.07877461612224579
0.20035001635551453 0.22790533304214478 -0.0724804550409317
0.07339920103549957 -0.2514917254447937 0.11280865222215652
-0.15984763205051422 -0.047210387885570526 -0.13450707495212555
0.20777615904808044 -0.24938476085662842 -0.10556183755397797
-0.2784360647201538 -0.4045136868953705 0.17501677572727203
-0.07597129046916962 0.12908044457435608 -0.13416239619255066
-0.2702435851097107 0.09787067770957947 0.07858538627624512
0.06742092221975327 -0.24869990348815918 -0.06969121098518372
-0.20187675952911377 0.08237507194280624 0.16756898164749146
-0.025398682802915573 0.16200315952301025 -0.1382834017276764
-0.009029943495988846 -0.22823894023895264 0.15822511911392212
0.2473231852054596 -0.44648125767707825 0.0580325648188591
-0.13768506050109863 0.22776217758655548 0.06662888079881668
0.24637910723686218 -0.25102248787879944 -0.10766074806451797
-0.08344981074333191 -0.25147324800491333 0.018250685185194016
-0.2784396708011627 -0.32799461483955383 -0.04624683037400246
-0.18637584149837494 0.04440545663237572 -0.13490362465381622
0.27043572068214417 -0.3055832087993622 -0.017577920109033585
0.17559967935085297 0.4271821677684784 0.07480371743440628
0.0632665827870369 -0.22753232717514038 -0.1366068422794342
0.17224586009979248 0.4369717538356781 0.05597686395049095
0.15237821638584137 -0.31134212017059326 0.006916317157447338
0.015392392873764038 -0.21000425517559052 0.15332332253456116
0.08768212050199509 -0.1495552510023117 -0.13521015644073486
0.2769528329372406 -0.17103172838687897 0.15909633040428162
0.003696650732308626 -0.25330159068107605 0.09237746894359589
-0.16174809634685516 0.35460737347602844 -0.024074383080005646
-0.23201383650302887 0.22744324803352356 0.07968828082084656
-0.270677775144577 0.22220760583877563 0.10487155616283417
0.2966254651546478 -0.1357293426990509 0.08156207203865051
0.28622838854789734 -0.215076744556427 -0.13673633337020874
0.1767047792673111 0.3921527564525604 0.07613663375377655
-0.21590982377529144 -0.35734280943870544 -0.07887277752161026
0.2061561942100525 0.15101315081119537 0.1629016250371933
-0.2084304392337799 0.22479912638664246 -0.13548406958580017
0.27743545174598694 0.1987920105457306 0.15635442733764648
0.2959420680999756 -0.21877551078796387 -0.026394536718726158
-0.27074119448661804 -0.1240633949637413 -0.009317811578512192
-0.2657927870750427 0.44042569398880005 0.03257114067673683
-0.159783735871315 0.3573087751865387 -0.00010552682215347886
-0.23609158396720886 0.1938232183456421 -0.13421876728534698
-0.04777728021144867 0.1475020945072174 0.17017224431037903
0.2858855128288269 -0.3672642707824707 0.029221361503005028
-0.2678792476654053 -0.0436117947101593 -0.138069748878479
-0.21473902463912964 0.19411882758140564 -0.13498632609844208
0.08230239897966385 -0.19138124585151672 0.15732945501804352
-0.06020563840866089 0.1560627669095993 0.16467860341072083
0.2976202964782715 -0.0400407612323761 0.015139298513531685
-0.012102967128157616 -0.09683939069509506 -0.13128504157066345
0.2955509126186371 0.18555130064487457 0.13239164650440216
-0.018771827220916748 -0.2511107921600342 0.10926198959350586
-0.18660587072372437 -0.0004282817244529724 -0.13516250252723694
-0.25469350814819336 0.43993234634399414 -0.04696151614189148
-0.13304071128368378 -0.21222545206546783 0.15685157477855682
0.21792715787887573 -0.21247407793998718 0.15650084614753723
0.21954193711280823 0.22843921184539795 -0.04315277189016342
-0.184415802359581 0.14053776860237122 0.163064643740654
-0.0223880335688591 0.018302345648407936 -0.1337669938802719
0.2998380661010742 0.16250164806842804 0.008082302287220955
0.15517182648181915 -0.23122233152389526 0.15516410768032074
-0.04987309128046036 -0.035376325249671936 0.1699875146150589
-0.16607226431369781 0.15021246671676636 0.1651611328125
0.27344009280204773 -0.10255558788776398 0.1557883471250534
0.19445163011550903 0.4718630909919739 -0.035199422389268875
-0.10371678322553635 -0.22079557180404663 0.1595388501882553
0.020791463553905487 -0.2529636323451996 -0.030416155233979225
0.04868566244840622 -0.2287062406539917 0.15329097211360931
-0.03850522264838219 -0.09511636942625046 -0.1318843513727188
-0.2723976969718933 -0.23671230673789978 0.01966010220348835
-0.26973438262939453 -0.04525567963719368 0.04658250883221626
-0.26670387387275696 -0.4718380868434906 -0.03275170177221298
0.04545550048351288 -0.22216753661632538 -0.1349051147699356
0.29002395272254944 0.4803380072116852 0.061293017119169235
0.19878655672073364 -0.3095950782299042 -0.06021922081708908
0.21225863695144653 -0.3310830593109131 -0.07601150870323181
0.2677432894706726 -0.1269368827342987 0.15447723865509033
-0.17002665996551514 -0.03494526818394661 0.17445442080497742
0.2885347306728363 0.20321114361286163 -0.13285614550113678
-0.09183503687381744 0.11882597953081131 -0.13304255902767181
-0.22399650514125824 0.22707737982273102 0.11020676791667938
-0.03462708368897438 0.22702039778232574 0.08011029660701752
0.04366552084684372 0.16147254407405853 -0.1360207349061966
0.29670870304107666 0.43036556243896484 0.0031847506761550903
0.19287075102329254 -0.23716163635253906 -0.13551628589630127
-0.26833221316337585 0.0465780645608902 -0.1372217833995819
0.18164467811584473 -0.21180438995361328 0.15378014743328094
-0.2696341872215271 -0.16654258966445923 -0.14040108025074005
0.2631342113018036 -0.24628233909606934 -0.10464604943990707
0.27010899782180786 0.5034574866294861 0.06970493495464325
-0.24810610711574554 -0.4625086784362793 0.055133555084466934
-0.25999656319618225 0.20890286564826965 -0.1356000006198883
0.2277769148349762 0.12229064106941223 0.16631612181663513
0.035817258059978485 0.23076939582824707 0.04868607595562935
0.038489822298288345 -0.20114395022392273 0.1648397296667099
0.278276652097702 0.12458474934101105 -0.13565562665462494
-0.23773296177387238 -0.3531695306301117 0.1591271311044693
-0.29263201355934143 -0.31528395414352417 0.09940201789140701
0.20606765151023865 0.4682326316833496 -0.05866744741797447
0.2245945930480957 0.22734498977661133 -0.11964401602745056
0.29605406522750854 0.2169821411371231 -0.11241986602544785
0.23013082146644592 -0.19842560589313507 0.15444929897785187
-0.15908277034759521 0.4078318476676941 0.009158741682767868
-0.08212083578109741 -0.2505491077899933 -0.06567871570587158
0.13585029542446136 -0.42063280940055847 0.043459322303533554
0.2368260771036148 -0.44144827127456665 -0.040563441812992096
0.11841504275798798 -0.2537837326526642 -0.013688040897250175
-0.2696641683578491 0.23423661291599274 -0.13674414157867432
-0.205836221575737 0.23386847972869873 -0.13489040732383728
0.0038868668489158154 -0.25063201785087585 -0.10571261495351791
-0.11572510004043579 0.04320567101240158 -0.1352626085281372
0.11367902159690857 -0.23380281031131744 -0.1391349583864212
0.06812934577465057 -0.25117844343185425 -0.08634869009256363
0.2326086014509201 0.10563550144433975 0.16986268758773804
-0.2720939815044403 -0.20424212515354156 0.0672842338681221
0.1266905665397644 0.19177734851837158 -0.13722221553325653
0.11555469781160355 -0.2520526349544525 0.08321239054203033
0.2943861782550812 -0.19553494453430176 0.1403154581785202
0.2874961197376251 -0.39004793763160706 0.03583833575248718
-0.05142154172062874 0.1425265073776245 -0.13504213094711304
-0.19567088782787323 0.21731248497962952 -0.1349569857120514
-0.10197532176971436 -0.057472001761198044 -0.13293638825416565
-0.1299315243959427 -0.2090994268655777 0.16437159478664398
0.005485113710165024 -0.22937557101249695 0.15404386818408966
0.21775096654891968 -0.25321054458618164 0.12150504440069199
0.11726577579975128 -0.04651714116334915 -0.1363295167684555
-0.12328764796257019 0.059122223407030106 -0.1326419711112976
0.29679951071739197 -0.11894439905881882 -0.018956899642944336
-0.04816954955458641 -0.09978616237640381 -0.13463111221790314
0.2567864656448364 -0.01853071339428425 0.16495941579341888
-0.2676500082015991 0.018546804785728455 -0.1397956758737564
-0.026151692494750023 -0.2532830536365509 0.05701223015785217
-0.26120343804359436 0.4053671658039093 0.09684339910745621
