-0.25660330057144165 0.09102760255336761 -0.29463157057762146
-0.20003613829612732 -0.25773629546165466 -0.05863000452518463
0.23067647218704224 -0.3085510730743408 -0.07366757839918137
-0.27009788155555725 0.10642176866531372 0.14052924513816833
-0.24107541143894196 0.354422003030777 0.10243366658687592
0.2847563624382019 0.03887138143181801 0.1582379937171936
0.27836987376213074 -0.32887646555900574 0.012114753015339375
-0.27233561873435974 -0.08606702089309692 -0.12177298963069916
-0.05203121528029442 0.2264632135629654 -0.12504693865776062
-0.25775909423828125 -0.250350683927536 0.0843047946691513
0.0654425099492073 0.17364168167114258 -0.1361374408006668
-0.2581977844238281 -0.25156140327453613 -0.024317078292369843
-0.24509581923484802 0.22382114827632904 -0.13546258211135864
0.2859199047088623 -0.10279455035924911 0.15768951177597046
0.1144140362739563 9.546801447868347e-05 -0.13680635392665863
0.2537194788455963 -0.24177947640419006 -0.13622160255908966
0.28985166549682617 -0.06227336451411247 -0.13705582916736603
0.24355870485305786 -0.41335180401802063 -0.09182816743850708
-0.22032156586647034 -0.13568034768104553 0.16482584178447723
0.232671856880188 -0.17124620079994202 0.169753298163414
-0.17600470781326294 0.13373127579689026 0.17118264734745026
-0.02691303938627243 -0.24527335166931152 -0.1347953826189041
-0.22223973274230957 -0.13887205719947815 0.1605052351951599
0.09096544235944748 -0.03546096011996269 0.16864913702011108
-0.26160815358161926 -0.039822328835725784 0.15638723969459534
-0.2859255373477936 -0.3845927119255066 0.20326487720012665
0.1982673853635788 0.4773688316345215 0.11458335816860199
0.10415217280387878 0.14486804604530334 0.16721348464488983
-0.17490315437316895 0.22645623981952667 0.03784078359603882
0.18956491351127625 -0.44295158982276917 -0.06742367893457413
-0.23353824019432068 0.09510059654712677 0.1551438570022583
-0.026018014177680016 -0.13481780886650085 -0.1357569843530655
-0.27081555128097534 0.08296343684196472 0.14424964785575867
0.1405244618654251 -0.4423285126686096 0.03495321050286293
0.2961111068725586 0.014536552131175995 -0.13121885061264038
0.23407939076423645 -0.334597647190094 -0.08314275741577148
-0.2342173010110855 0.30336543917655945 0.028382647782564163
-0.24521872401237488 0.22702494263648987 -0.13312603533267975
0.28762924671173096 -0.0454443134367466 0.1568739116191864
-0.197441965341568 0.3540596067905426 -0.06566884368658066
0.29834771156311035 0.007554156240075827 0.14450949430465698
0.12844525277614594 -0.25155726075172424 -0.12265356630086899
0.09090912342071533 -0.14754618704319 -0.13564403355121613
0.26923733949661255 -0.4393633008003235 -0.061339326202869415
-0.2059391885995865 0.4567255675792694 0.09014718979597092
-0.2489757090806961 -0.33301597833633423 -0.08432192355394363
0.2366470992565155 -0.12759748101234436 0.16850732266902924
-0.2700684368610382 0.0017931237816810608 -0.1340045928955078
-0.27024170756340027 -0.24884310364723206 -0.13049429655075073
0.19249531626701355 0.3897232711315155 0.11378809064626694
0.1490718126296997 -0.2493828982114792 0.15051011741161346
-0.258463591337204 -0.37203505635261536 0.1981087476015091
-0.26153087615966797 -0.2513863742351532 -0.044600196182727814
0.18564988672733307 -0.43508678674697876 -0.07093929499387741
-0.27264153957366943 -0.16656023263931274 0.1202281266450882
-0.08674581348896027 0.22598528861999512 -0.12675011157989502
-0.159115731716156 0.17201483249664307 -0.13355311751365662
0.1852671056985855 -0.43776801228523254 -0.07086028158664703
0.22685948014259338 -0.4166730046272278 0.2047726809978485
-0.3356710374355316 -0.3559236526489258 0.11059261113405228
-0.2114303708076477 0.22729213535785675 0.0564296655356884
0.22911323606967926 0.45938217639923096 -0.07882699370384216
-0.23857924342155457 0.45705685019493103 -0.058517999947071075
0.26418745517730713 0.5042122602462769 0.0019967579282820225
-0.2109900861978531 -0.41319945454597473 0.16111674904823303
-0.27203404903411865 -0.24392379820346832 -0.0773649662733078
-0.15522581338882446 -0.19245675206184387 0.1595620959997177
-0.04135126620531082 0.2257474809885025 0.12985050678253174
0.25983351469039917 -0.25260278582572937 0.04583270847797394
-0.249965637922287 -0.3091941177845001 -0.0692831352353096
-0.3041672110557556 -0.33278608322143555 0.19125083088874817
0.23253639042377472 -0.29488545656204224 0.09004275500774384
0.2916732728481293 0.2109535038471222 -0.13824427127838135
-0.1805896759033203 0.21766552329063416 -0.1333511769771576
0.29108622670173645 -0.4380226135253906 0.04937570169568062
0.15460968017578125 -0.44753578305244446 -0.01807180419564247
-0.06097978353500366 -0.24450062215328217 -0.1360924392938614
-0.0006072297692298889 0.21968288719654083 -0.13392646610736847
0.22096185386180878 -0.24938182532787323 -0.13634173572063446
0.044283635914325714 -0.2503145635128021 0.14536717534065247
0.2875973582267761 0.20709726214408875 -0.13645097613334656
-0.2591848373413086 -0.16930823028087616 -0.13669827580451965
0.1846592277288437 0.4065583646297455 0.10430539399385452
0.24107706546783447 -0.09545162320137024 0.16765817999839783
-0.18122072517871857 0.22879022359848022 0.04396890848875046
0.14602285623550415 0.08963249623775482 0.16852661967277527
-0.26853540539741516 -0.24461181461811066 -0.10336470603942871
0.27002230286598206 -0.4426559805870056 -0.06304630637168884
-0.18636208772659302 -0.37547802925109863 -0.04826606810092926
0.2475568801164627 0.03551221638917923 0.16098159551620483
0.29981905221939087 -0.1817505955696106 0.13480614125728607
0.281819611787796 0.0023462623357772827 -0.136881485581398
-0.132783442735672 0.21631991863250732 -0.1366971880197525
0.2819191813468933 -0.4434519410133362 0.0075405314564704895
-0.22392842173576355 0.22661620378494263 -0.132887601852417
-0.2367030680179596 -0.43040716648101807 0.17745377123355865
0.29098913073539734 -0.2318127304315567 -0.13520210981369019
-0.26878270506858826 0.43110087513923645 0.03227816894650459
-0.03570814058184624 0.1662241369485855 -0.13798192143440247
-0.26267796754837036 -0.13912609219551086 -0.1352968066930771
-0.3139428496360779 -0.359579473733902 0.20212234556674957
0.23171313107013702 -0.42801517248153687 -0.09317369014024734
-0.2937285006046295 -0.31543874740600586 0.15923726558685303
0.24575388431549072 -0.1522762030363083 0.16463293135166168
-0.23892052471637726 -0.2667957842350006 0.01077741477638483
0.29134827852249146 0.2105107605457306 -0.1368115246295929
-0.0437496043741703 0.2263081967830658 -0.11443042755126953
0.1245434433221817 -0.1851341277360916 0.165718674659729
-0.08972124755382538 0.1537543088197708 0.17051813006401062
-0.2747694253921509 0.2148781716823578 -0.07967662066221237
-0.21015691757202148 -0.10105575621128082 0.16994233429431915
0.25902754068374634 0.29978108406066895 -0.017103977501392365
-0.03264281898736954 -0.2479381412267685 0.15404415130615234
0.29802224040031433 -0.23819014430046082 -0.008520659059286118
-0.2709861695766449 -0.012879865244030952 0.14674463868141174
0.2885623574256897 -0.04994264617562294 0.15642881393432617
-0.26037678122520447 -0.251987099647522 -0.04983851686120033
0.30090397596359253 -0.028133366256952286 0.14710667729377747
0.0883321613073349 0.1725696176290512 0.15530230104923248
0.28951653838157654 0.16215158998966217 -0.1356993168592453
0.2992671728134155 0.09624212980270386 0.15150395035743713
0.0453580841422081 -0.2513186037540436 0.14721554517745972
0.292804479598999 -0.040242843329906464 0.15628638863563538
-0.26889970898628235 -0.13134905695915222 -0.12536214292049408
-0.2915119528770447 -0.3407699763774872 0.19745105504989624
-0.2010193169116974 -0.2481316477060318 -0.13174289464950562
0.22707831859588623 0.4718165993690491 -0.07222656160593033
0.14840863645076752 -0.06959906220436096 -0.136322021484375
0.2611721456050873 -0.44366466999053955 -0.06717999279499054
-0.12113460153341293 0.21488021314144135 -0.13484540581703186
0.2811608910560608 -0.4457058012485504 0.03710571303963661
-0.2608478367328644 0.4249941110610962 0.11271601915359497
0.15310202538967133 0.15140603482723236 0.1688903570175171
0.24152927100658417 -0.40615543723106384 0.1990576535463333
0.13351622223854065 -0.1815379410982132 0.167057067155838
0.28726333379745483 0.20486848056316376 -0.1358361393213272
0.28264665603637695 0.21283966302871704 -0.13611671328544617
-0.28467682003974915 -0.44426196813583374 -0.08116709440946579
-0.254949152469635 0.4752389192581177 0.030992507934570312
0.2235306352376938 -0.2589723467826843 0.0734475776553154
0.29700013995170593 -0.06273886561393738 0.14529971778392792
0.2974930703639984 -0.12320214509963989 0.009197652339935303
0.29653793573379517 0.2142999917268753 0.10527293384075165
0.19565190374851227 0.17769894003868103 0.15566347539424896
0.2932860255241394 -0.2522251307964325 0.019830159842967987
0.27560070157051086 0.38539382815361023 -0.07673980295658112
0.296877920627594 0.21825933456420898 0.04405499994754791
0.030978133901953697 0.09997287392616272 -0.13747024536132812
0.30040767788887024 -0.22649914026260376 0.1405925452709198
-0.09739160537719727 0.22303730249404907 -0.13398680090904236
-0.022987309843301773 0.10889352113008499 -0.13526685535907745
0.2920326888561249 -0.18835297226905823 0.15717096626758575
0.2948196232318878 0.2256726622581482 0.10007622092962265
-0.17868080735206604 0.25607722997665405 0.004236271604895592
0.23481373488903046 0.04908979684114456 0.16796451807022095
0.29635506868362427 -0.16154247522354126 0.15749132633209229
0.2769411504268646 -0.3537164628505707 0.1231578141450882
-0.0029532690532505512 0.22345277667045593 -0.13258638978004456
-0.03227443993091583 -0.2447018325328827 -0.13582870364189148
-0.21566011011600494 0.04946925491094589 0.1688353419303894
-0.2631426453590393 0.10095035284757614 0.1564691960811615
-0.21043020486831665 0.32867392897605896 -0.03696034103631973
0.28301525115966797 -0.3656172752380371 0.13441112637519836
-0.20349451899528503 0.41288119554519653 -0.07931578159332275
0.08419320732355118 -0.18528327345848083 0.1648380309343338
0.18453343212604523 0.359995037317276 0.06558449566364288
0.2331671118736267 -0.4444754719734192 -0.07583827525377274
0.1683272421360016 -0.4462728798389435 -0.04109732806682587
-0.16486217081546783 0.22769016027450562 0.002189626917243004
0.29902583360671997 -0.10963894426822662 0.14752648770809174
-0.24733398854732513 -0.055959321558475494 -0.27909305691719055
-0.2254006564617157 0.2533169388771057 -0.022955499589443207
-0.01590564101934433 0.21503345668315887 -0.13460186123847961
-0.27135801315307617 0.20735186338424683 -0.1340547651052475
-0.30498313903808594 -0.3220367133617401 0.1795310229063034
0.24174107611179352 0.17255525290966034 0.15312252938747406
0.23521986603736877 -0.3150455951690674 -0.07432352006435394
0.285586416721344 0.12774057686328888 0.15860041975975037
-0.20781075954437256 0.1698807030916214 0.15503430366516113
0.1454024314880371 0.22562843561172485 0.14233803749084473
-0.05840415880084038 0.21399089694023132 -0.13492631912231445
-0.2525557577610016 -0.47699999809265137 -0.01753443107008934
0.27809208631515503 0.3363395035266876 -0.05011171102523804
-0.2260022610425949 0.23201829195022583 0.05705411732196808
-0.26658040285110474 0.051862526684999466 0.09134877473115921
-0.2728390693664551 0.06579583883285522 -0.12744073569774628
-0.15837137401103973 0.4370742738246918 -0.02736302837729454
-0.21962898969650269 -0.47147735953330994 0.03186359629034996
0.27442115545272827 -0.44584929943084717 0.18908190727233887
-0.14370155334472656 -0.2503667175769806 -0.1228511705994606
0.28956669569015503 0.2114059031009674 -0.13527077436447144
-0.09330698847770691 0.21774722635746002 0.15706515312194824
-0.23321372270584106 -0.2629695534706116 0.04721584916114807
-0.2696203887462616 -0.24322737753391266 0.026715334504842758
0.2892190217971802 0.04178040102124214 0.1581161916255951
0.10862815380096436 -0.04940931499004364 0.16841989755630493
-0.17890408635139465 0.22615039348602295 0.07104122638702393
-0.2699688673019409 0.05037440359592438 0.1472732126712799
0.19266629219055176 -0.24979449808597565 0.15524783730506897
-0.19290423393249512 -0.39733821153640747 -0.0545584000647068
0.29874998331069946 0.043809354305267334 0.1490890383720398
0.22526748478412628 -0.3463807702064514 -0.08505158871412277
-0.2323523759841919 -0.47527605295181274 -0.011097597889602184
-0.04321598634123802 -0.24264223873615265 -0.1361277848482132
-0.1404418647289276 -0.25514456629753113 -0.014359875582158566
0.21513855457305908 -0.44757792353630066 -0.024708818644285202
-0.09231305122375488 -0.251259446144104 0.14237838983535767
0.004812140949070454 0.22610487043857574 -0.028713097795844078
0.2710869610309601 -0.4473108649253845 0.1654442548751831
0.23999975621700287 0.42004597187042236 -0.09284152835607529
0.2577212452888489 -0.10033395886421204 0.15235723555088043
-0.26413947343826294 0.44064971804618835 0.09865988790988922
-0.2975463569164276 -0.3177565932273865 0.16522401571273804
-0.27038875222206116 0.05783401057124138 -0.13111531734466553
-0.042509689927101135 0.2173427790403366 -0.1304212510585785
0.2792450487613678 0.33261945843696594 0.05951930582523346
-0.24644693732261658 0.409766286611557 -0.06783655285835266
0.2965437173843384 -0.14260917901992798 -0.12134861201047897
-0.2593514919281006 0.2011362612247467 -0.13449181616306305
0.012584716081619263 -0.20340748131275177 0.15517108142375946
0.09122257679700851 0.06662681698799133 -0.13632681965827942
0.2347313016653061 0.050089046359062195 0.16972306370735168
0.2431652992963791 0.22230027616024017 0.15643492341041565
0.20945490896701813 0.48336848616600037 -0.04892925173044205
0.28925877809524536 -0.23217521607875824 0.15666240453720093
0.2919672727584839 -0.13870298862457275 -0.13637827336788177
0.28398969769477844 0.48769843578338623 0.09416358172893524
0.2850744128227234 0.22397717833518982 0.10143920034170151
-0.010388999246060848 0.0968349277973175 -0.13588447868824005
0.2684995234012604 0.45917749404907227 -0.06501418352127075
-0.27173659205436707 -0.19315695762634277 0.14716069400310516
-0.25726738572120667 0.342218279838562 0.04932638257741928
-0.26214560866355896 -0.46026572585105896 -0.06359890848398209
0.2802249491214752 0.481935977935791 -0.014767914079129696
-0.18306386470794678 -0.19275632500648499 0.1582297682762146
-0.287885844707489 -0.41142964363098145 -0.09512394666671753
-0.2717612683773041 -0.24511133134365082 0.12127231061458588
0.2959766089916229 -0.15121491253376007 -0.1207742691040039
0.2958085238933563 0.022579200565814972 0.15167343616485596
0.28989553451538086 -0.07610268145799637 0.1568928360939026
-0.24131889641284943 0.22297440469264984 -0.13344533741474152
-0.08357177674770355 -0.20840352773666382 -0.13464957475662231
0.22500644624233246 0.170220285654068 0.14912049472332
0.29593008756637573 0.39729076623916626 -0.03145243972539902
0.21609166264533997 0.35775628685951233 -0.08014704287052155
0.14490363001823425 -0.42657577991485596 0.16798226535320282
-0.15081828832626343 0.1073092445731163 0.1695551872253418
0.2516440749168396 -0.4415507912635803 -0.07368412613868713
-0.29201510548591614 -0.45702648162841797 -0.06810498237609863
0.18762105703353882 0.22736994922161102 -0.00034508854150772095
-0.23614658415317535 0.22653356194496155 -0.13131779432296753
-0.23365388810634613 -0.0011328710243105888 0.15506598353385925
0.24189509451389313 0.5061516761779785 0.11615017801523209
0.23582905530929565 -0.0937252789735794 0.17202535271644592
0.24842862784862518 0.5131372809410095 0.0069924285635352135
-0.24156662821769714 0.23331046104431152 0.043521881103515625
0.17336012423038483 0.22578036785125732 -0.05472817271947861
-0.1318243145942688 -0.07894867658615112 -0.1330939680337906
-0.27651336789131165 -0.4278227984905243 0.10371968150138855
-0.2019471824169159 0.3295770585536957 0.060523033142089844
0.011416260153055191 0.09314782917499542 -0.13591988384723663
0.025119291618466377 0.23662398755550385 -0.19110305607318878
-0.18755270540714264 -0.07187776267528534 0.16888950765132904
-0.12367471307516098 0.1768426150083542 0.15704655647277832
-0.21202194690704346 0.24103349447250366 -0.029390761628746986
-0.2824776768684387 -0.4618995785713196 -0.06961356848478317
0.275420606136322 -0.34159231185913086 0.11451028287410736
-0.26917266845703125 -0.14165419340133667 -0.13358423113822937
-0.2687489986419678 -0.24442994594573975 0.012769877910614014
-0.21600410342216492 -0.42135366797447205 0.1646941900253296
0.21152858436107635 0.2967531085014343 -0.009213326498866081
-0.1332763284444809 0.21438467502593994 0.15699084103107452
-0.024789754301309586 0.10501382499933243 -0.139931783080101
0.20507687330245972 0.22786568105220795 -0.0036285370588302612
0.1318673938512802 0.22710031270980835 0.14209255576133728
0.26201343536376953 0.2075977623462677 -0.13717147707939148
-0.14158211648464203 0.21979141235351562 -0.13585524260997772
0.19756996631622314 0.46637678146362305 0.11525912582874298
0.22062629461288452 0.22013479471206665 0.15723133087158203
-0.26762884855270386 0.13408268988132477 -0.13289791345596313
0.19699469208717346 -0.11035600304603577 0.16765336692333221
-0.14447037875652313 0.16487504541873932 0.15912775695323944
0.14967262744903564 -0.4074191749095917 0.16401328146457672
0.27930548787117004 -0.2475222647190094 -0.13641728460788727
0.29763084650039673 0.214628666639328 -0.12089574337005615
0.29949355125427246 0.22001442313194275 0.08772798627614975
0.15889689326286316 -0.30301758646965027 0.01316455565392971
0.23517277836799622 -0.3842094838619232 -0.09007316827774048
0.11290577799081802 0.2158871293067932 0.1580348163843155
0.22915874421596527 0.22390851378440857 -0.13578017055988312
-0.2273654192686081 -0.31690821051597595 0.09566355496644974
0.09351436793804169 -0.18081247806549072 0.16853560507297516
-0.28593990206718445 0.08858096599578857 -0.3085537850856781
0.2865089774131775 -0.423269659280777 0.18789556622505188
-0.33326998353004456 -0.4140873849391937 -0.04153232276439667
0.29757508635520935 0.18145667016506195 -0.06789232790470123
-0.026872171089053154 -0.24969132244586945 -0.12788088619709015
-0.17174294590950012 0.2266770750284195 0.03699648380279541
0.2715902030467987 -0.44771820306777954 -0.03622421622276306
-0.26954054832458496 0.41937920451164246 0.02009003981947899
0.22894014418125153 0.3924160301685333 0.10545224696397781
0.28685492277145386 0.20620301365852356 -0.13590236008167267
-0.2002444714307785 0.21983559429645538 -0.13268466293811798
0.1507900059223175 -0.44661641120910645 0.0861867368221283
-0.19061417877674103 0.48405957221984863 -0.04152049496769905
-0.22905664145946503 -0.20339424908161163 0.15543921291828156
-0.2686217427253723 0.13713498413562775 -0.1325531303882599
-0.270587682723999 -0.2485247701406479 -0.01998632401227951
-0.10508137196302414 -0.24526506662368774 -0.1324562430381775
0.14681310951709747 -0.44301748275756836 0.06462715566158295
0.2219507247209549 -0.07183654606342316 -0.1371799111366272
0.29162442684173584 0.21286050975322723 -0.13580447435379028
0.26768767833709717 0.3629910945892334 0.12913286685943604
0.2488756775856018 -0.01524130068719387 0.16057245433330536
-0.14708134531974792 -0.25554919242858887 -0.030041320249438286
0.28676873445510864 0.08041325211524963 0.15843039751052856
-0.013196639716625214 0.25143304467201233 -0.20731650292873383
0.2746403217315674 -0.250508576631546 -0.1219790056347847
0.21287809312343597 0.2910405397415161 -0.0007710298523306847
0.20819321274757385 -0.24513167142868042 0.15596458315849304
0.03420083597302437 -0.2021332085132599 -0.1341567486524582
0.29411038756370544 0.08427882194519043 0.15292024612426758
0.2460307478904724 0.39384931325912476 -0.09263384342193604
0.2671486437320709 0.3686569035053253 -0.08034668862819672
-0.27214160561561584 0.10733141005039215 -0.1270856112241745
0.1875784546136856 0.4794548749923706 0.007706783711910248
-0.23067183792591095 -0.24666845798492432 0.15586408972740173
0.2561355233192444 -0.3648456037044525 0.1560719609260559
-0.27158322930336 0.16673535108566284 0.12008433043956757
-0.24228550493717194 0.4059845209121704 -0.0715089812874794
-0.2699128985404968 0.07443173229694366 -0.13270975649356842
0.24163103103637695 0.45555752515792847 -0.08579079061746597
-0.17678186297416687 -0.2521573305130005 0.08552169799804688
-0.2728908360004425 0.1279301643371582 -0.033947817981243134
0.2980439066886902 0.21291223168373108 0.07885134965181351
-0.2537804841995239 0.22740134596824646 0.13554196059703827
-0.16061948239803314 0.21573644876480103 0.15686355531215668
0.13724568486213684 0.2270509898662567 0.1438829004764557
-0.16625508666038513 0.3462906777858734 0.04247063398361206
0.1836077868938446 0.442192405462265 0.10834213346242905
0.20350322127342224 -0.1569700390100479 0.16915732622146606
0.2925192713737488 0.02144770137965679 0.15720582008361816
-0.26409733295440674 0.12592710554599762 -0.13396967947483063
-0.02158769778907299 -0.09809292107820511 0.16794653236865997
0.07753802835941315 -0.07896565645933151 0.1677163690328598
0.2972124218940735 0.22482112050056458 0.06349273771047592
-0.294807106256485 -0.43230509757995605 -0.09093938767910004
-0.27676355838775635 0.22124962508678436 -0.062703438103199
-0.05924205482006073 0.2252385914325714 -0.13077108561992645
0.16483812034130096 -0.2567560374736786 0.031500495970249176
-0.21466989815235138 0.015275083482265472 0.17035476863384247
0.23626606166362762 0.5043519139289856 -0.03502381220459938
-0.12899526953697205 -0.1770085245370865 0.17191800475120544
0.29738253355026245 0.13184475898742676 0.15593571960926056
0.16070343554019928 0.22376558184623718 -0.13198654353618622
-0.2206699550151825 -0.37062424421310425 -0.0830569788813591
-0.2696916460990906 0.006748948246240616 -0.13164979219436646
0.21115201711654663 -0.2700687646865845 0.07700462639331818
0.2534993886947632 -0.04327234625816345 0.15080676972866058
0.047461897134780884 0.18088656663894653 -0.13647577166557312
-0.3074530065059662 -0.3407873213291168 0.19900725781917572
0.1539033055305481 -0.020454561337828636 0.1684408187866211
-0.27145740389823914 0.07797984778881073 -0.11983199417591095
-0.2405819296836853 -0.21226604282855988 0.15687879920005798
-0.27126550674438477 -0.08704113215208054 -0.12589114904403687
-0.08053065836429596 0.16894309222698212 0.1538054198026657
-0.2712320387363434 -0.06759165972471237 0.1433306485414505
0.14182589948177338 0.16842666268348694 0.15334856510162354
-0.22380900382995605 -0.3337101936340332 -0.08325889706611633
-0.022839076817035675 0.17383290827274323 -0.13557741045951843
-0.1667519211769104 -0.24413980543613434 0.15565788745880127
0.21407590806484222 0.2450295090675354 0.009171579033136368
-0.18774281442165375 0.2158525586128235 0.1584356427192688
0.05419537425041199 -0.18216466903686523 0.1671057939529419
0.1716037392616272 -0.25246670842170715 0.14702638983726501
-0.2641286849975586 -0.03765764832496643 -0.1343390941619873
-0.07696738094091415 -0.25124797224998474 0.14229074120521545
0.258017897605896 0.2266281545162201 -0.13069194555282593
-0.21979375183582306 0.14162179827690125 0.16341407597064972
0.1592523455619812 -0.2527921795845032 0.0069287922233343124
-0.2719081938266754 -0.016861503943800926 0.14786788821220398
0.3009440004825592 -0.19116535782814026 0.14686638116836548
-0.26843488216400146 -0.47198402881622314 -0.05472114682197571
0.2349546104669571 -0.3039471507072449 -0.07081660628318787
-0.27095046639442444 -0.24163301289081573 0.0079067163169384
0.2702502906322479 0.23970651626586914 -0.013645734637975693
-0.2508207857608795 0.4740213453769684 0.10321329534053802
0.2855105400085449 0.058240197598934174 -0.13610559701919556
-0.18912705779075623 -0.2493613362312317 -0.11087711900472641
-0.19390717148780823 0.22576436400413513 0.055432919412851334
-0.25003111362457275 -0.4788842499256134 -0.015437507070600986
-0.16319060325622559 0.22077171504497528 -0.13436825573444366
-0.19991298019886017 0.43015256524086 0.08676275610923767
0.28388699889183044 -0.4459928274154663 0.05172920972108841
-0.27198290824890137 -0.17046771943569183 0.0626470297574997
0.28604763746261597 0.20824000239372253 -0.13613361120224
0.2993483543395996 0.20712053775787354 0.15655939280986786
-0.10019755363464355 0.16824999451637268 0.15587125718593597
-0.21761363744735718 -0.43057894706726074 0.16551601886749268
-0.07582858949899673 -0.24185459315776825 0.15761132538318634
0.29786884784698486 -0.09644310176372528 -0.12670022249221802
-0.2788507342338562 -0.3950953781604767 0.1949063241481781
-0.2313755750656128 -0.1947905570268631 0.1512262374162674
0.0195182953029871 0.23188546299934387 -0.18784895539283752
0.2411610186100006 -0.04071184992790222 -0.13700899481773376
0.004950840026140213 0.15336543321609497 0.16831208765506744
0.2974574863910675 0.2220475822687149 0.1012164056301117
0.2540042996406555 0.501506507396698 -0.037448350340127945
-0.2688632905483246 -0.17228367924690247 -0.13364854454994202
0.20953112840652466 0.22945909202098846 0.026581009849905968
-0.2718839645385742 -0.0710555762052536 -0.1317577213048935
-0.002641599625349045 0.1482180804014206 0.16970905661582947
0.29527974128723145 -0.24442905187606812 0.15345847606658936
-0.2643316090106964 -0.4202827513217926 0.1496371030807495
-0.2704750597476959 -0.08653496205806732 -0.12652042508125305
0.25044718384742737 0.2460871785879135 -0.024325039237737656
-0.2660405933856964 -0.24918541312217712 -0.09410315006971359
0.2829549312591553 0.13870352506637573 -0.13585807383060455
-0.270492821931839 -0.08210483193397522 0.1421450972557068
-0.22191008925437927 0.14544633030891418 0.1645052134990692
0.25879624485969543 -0.10149194300174713 0.15055356919765472
-0.2205493301153183 0.4182521104812622 -0.08354364335536957
-0.17878130078315735 0.35147130489349365 -0.051988109946250916
0.2741774916648865 -0.25113967061042786 -0.010798953473567963
0.2902074456214905 -0.21136118471622467 -0.1350133866071701
0.17631351947784424 -0.26220136880874634 0.03343864902853966
0.2931114435195923 0.4515232741832733 0.11721287667751312
0.2863187789916992 -0.09953640401363373 -0.1362990438938141
0.29119765758514404 0.20307910442352295 -0.13679294288158417
0.2859678864479065 0.23025017976760864 0.03866497799754143
-0.22744052112102509 -0.20249533653259277 0.15442022681236267
-0.17862316966056824 0.22983261942863464 0.04497237876057625
0.26386508345603943 0.4831713140010834 0.1275031566619873
-0.2444400042295456 0.43108630180358887 0.10907327383756638
0.08074226975440979 -0.25109153985977173 0.01677049696445465
-0.01489383727312088 0.1916416436433792 -0.13661429286003113
0.268693745136261 0.3200092911720276 0.047540631145238876
-0.24338705837726593 0.3840976059436798 0.11744414269924164
0.23986172676086426 -0.36356207728385925 -0.08721199631690979
-0.27321287989616394 0.2281619757413864 0.03504162281751633
-0.07637356221675873 -0.24317918717861176 0.15592512488365173
0.19203084707260132 -0.24244840443134308 -0.13700120151042938
-0.07179320603609085 -0.181077241897583 -0.13661985099315643
0.2588168680667877 -0.13699334859848022 0.14948859810829163
0.18337371945381165 -0.2462025284767151 -0.13522882759571075
-0.22471430897712708 -0.24908578395843506 -0.12739203870296478
-0.07892967015504837 0.14756932854652405 0.17062611877918243
0.1980077624320984 -0.19024579226970673 0.16044966876506805
0.2972990870475769 0.18282222747802734 0.1495053768157959
0.28802162408828735 0.16735248267650604 -0.13462486863136292
0.21554245054721832 0.47557079792022705 -0.06358057260513306
-0.26712802052497864 -0.2502839267253876 -0.08674195408821106
-0.269547700881958 -0.2013021558523178 -0.13498654961585999
0.28995707631111145 0.11747653037309647 -0.13547645509243011
-0.22412213683128357 0.22980426251888275 0.06076677143573761
0.027144230902194977 0.2532212436199188 -0.20322467386722565
0.05964567884802818 0.20437392592430115 -0.13617150485515594
0.18120889365673065 -0.16030925512313843 0.1689862608909607
0.20506229996681213 -0.1964099109172821 0.15374766290187836
-0.16384777426719666 0.22776129841804504 -0.02818685583770275
0.2052125334739685 -0.20054113864898682 0.15420086681842804
0.20304083824157715 0.5007297396659851 0.09822534024715424
-0.15410150587558746 0.1517183482646942 0.16802188754081726
0.02835213392972946 0.10314784944057465 -0.13610641658306122
-0.07366897165775299 -0.22192835807800293 -0.13455313444137573
-0.10440138727426529 0.14999452233314514 0.1684780716896057
0.29615920782089233 0.16594001650810242 -0.04240232706069946
-0.21532365679740906 0.06272489577531815 0.1694921851158142
-0.1850009560585022 -0.022057322785258293 0.1694025993347168
-0.19287323951721191 -0.38326406478881836 0.09748663008213043
-0.05096973478794098 -0.25134703516960144 -0.12139112502336502
0.20571421086788177 0.31356754899024963 -0.019792377948760986
0.27018940448760986 -0.447900652885437 0.16766947507858276
0.28617966175079346 0.04515980929136276 -0.13588647544384003
-0.19307222962379456 0.22649863362312317 0.14196698367595673
-0.14826799929141998 -0.2620903253555298 6.070360541343689e-05
-0.2565234899520874 0.3391891419887543 0.03935167193412781
0.24626067280769348 -0.3463069200515747 0.137564018368721
-0.18559730052947998 0.34634456038475037 0.08172895014286041
-0.2613721489906311 -0.24964597821235657 -0.11371506750583649
-0.16131095588207245 -0.2697243094444275 0.04666686803102493
-0.23246003687381744 0.0013350872322916985 0.1544354110956192
-0.03217049315571785 0.15371495485305786 -0.1375531703233719
0.23290976881980896 -0.1648140400648117 0.16845253109931946
0.20070889592170715 -0.4475223422050476 0.19794045388698578
-0.2396935224533081 -0.27306434512138367 -0.0296053234487772
0.137055903673172 -0.24385978281497955 0.15606683492660522
-0.2725081741809845 0.09935972094535828 0.06428056955337524
0.03506305068731308 0.09646469354629517 -0.13796448707580566
-0.17399746179580688 0.22811171412467957 -0.024252790957689285
0.2907755374908447 0.22406898438930511 0.1336338222026825
0.0359426848590374 -0.2461896538734436 -0.1346263587474823
-0.11572055518627167 -0.0979301854968071 -0.13599543273448944
0.3019956648349762 0.024961914867162704 0.14780914783477783
-0.23770372569561005 -0.47107312083244324 0.05727725848555565
0.219585582613945 -0.4286814332008362 -0.09048488736152649
0.03836328536272049 -0.24070864915847778 -0.13594889640808105
0.14613401889801025 -0.4334218204021454 -0.014092253521084785
-0.02241560071706772 0.2258739322423935 0.1339532732963562
0.29783737659454346 -0.01573164016008377 -0.12136915326118469
0.19088555872440338 0.1672280877828598 0.1529698669910431
0.29450535774230957 0.18147121369838715 0.15866991877555847
-0.2696513235569 0.20080098509788513 0.14591866731643677
0.2842176854610443 0.005698680877685547 -0.1360420286655426
0.2065107822418213 -0.24823704361915588 -0.1370668262243271
-0.06432192772626877 0.22231890261173248 -0.13050583004951477
0.29659610986709595 0.04157104715704918 -0.11945661157369614
0.1418212205171585 -0.4346255660057068 0.021260995417833328
0.018636362627148628 -0.18328545987606049 0.1679701805114746
0.2792019248008728 -0.3529645800590515 0.12440840899944305
0.2568173110485077 -0.001251179724931717 0.15435363352298737
-0.17120520770549774 0.2285478413105011 0.14970135688781738
-0.24334022402763367 -0.35368815064430237 -0.09162119030952454
0.29746153950691223 0.19330519437789917 0.15499988198280334
0.2869645059108734 -0.09134265780448914 -0.13618862628936768
0.07620938122272491 0.2264474332332611 -0.12450708448886871
0.07541422545909882 -0.18440815806388855 0.165220707654953
-0.26812154054641724 -0.16467858850955963 -0.13401995599269867
-0.22006694972515106 -0.05692606419324875 0.1612473875284195
0.025468483567237854 -0.07955513894557953 0.16684071719646454
0.12188845127820969 -0.08367091417312622 -0.13606426119804382
0.2885483205318451 0.4185296595096588 0.13138240575790405
0.04105635732412338 0.20410995185375214 -0.22972571849822998
-0.2210615873336792 0.022801361978054047 0.164063960313797
0.19896449148654938 -0.26512494683265686 -0.04351849481463432
-0.27476975321769714 0.21699237823486328 -0.1333279013633728
0.2905076742172241 0.21238163113594055 -0.1354389488697052
-0.33527421951293945 -0.3659372627735138 0.058416709303855896
0.21192926168441772 0.1962047815322876 -0.13574211299419403
-0.2738090455532074 0.20390696823596954 -0.035342201590538025
0.025091394782066345 0.25530532002449036 -0.21051636338233948
-0.33754122257232666 -0.38146090507507324 0.008296054787933826
-0.01351923868060112 -0.24271295964717865 0.15780407190322876
-0.27122440934181213 -0.22870191931724548 0.0008784765377640724
-0.14219623804092407 -0.24448974430561066 -0.13511109352111816
0.04000554233789444 0.13026876747608185 -0.13690078258514404
0.0006593922153115273 0.22054649889469147 -0.13483400642871857
0.1910516619682312 -0.2520500421524048 0.14149847626686096
0.29263439774513245 0.21248650550842285 -0.1357189416885376
0.2955752909183502 0.16363146901130676 -0.04110046848654747
-0.07222601771354675 0.22511526942253113 -0.053137894719839096
0.14822891354560852 -0.10768286883831024 0.16763539612293243
-0.24119029939174652 0.22593232989311218 0.15441782772541046
-0.2686479687690735 0.21965612471103668 0.13980402052402496
-0.09666499495506287 -0.24776875972747803 -0.13270734250545502
-0.09439964592456818 0.2281121015548706 -0.008301932364702225
0.2906572222709656 0.21420525014400482 -0.13353388011455536
0.17745661735534668 0.44762930274009705 0.03396017849445343
0.16134628653526306 -0.25455841422080994 0.04965720325708389
0.1694638729095459 -0.4466761350631714 0.17939244210720062
0.2963625192642212 0.22619330883026123 0.08697386831045151
0.24208509922027588 -0.27513059973716736 0.07551257312297821
0.08114875853061676 -0.24580539762973785 0.1567385345697403
0.03500746935606003 0.22431544959545135 0.09780123829841614
0.24607402086257935 -0.28133317828178406 -0.05633413791656494
0.2104245275259018 0.508753776550293 0.02743242122232914
-0.2992297410964966 -0.3136356472969055 0.1390388011932373
0.29881805181503296 0.10641313344240189 0.06123026832938194
-0.015769392251968384 0.2180575579404831 -0.13535544276237488
0.0024102539755403996 0.1813681721687317 -0.13398462533950806
0.2242625504732132 0.4978688359260559 -0.04619937390089035
-0.06584197282791138 0.15201984345912933 0.16846910119056702
0.008913323283195496 0.2598660886287689 -0.267341673374176
0.21847003698349 0.16855254769325256 0.15085193514823914
0.28933122754096985 0.20957425236701965 -0.13476169109344482
0.1263483315706253 -0.19360333681106567 0.15556947886943817
0.2653653621673584 0.4793311357498169 -0.055658310651779175
0.22611944377422333 0.21451495587825775 -0.13596045970916748
-0.19944407045841217 -0.32477715611457825 -0.06918191909790039
0.2501794993877411 -0.27839988470077515 0.07343518733978271
0.09457072615623474 -0.08143562078475952 -0.1360502392053604
-0.2110423743724823 -0.4283832609653473 0.15959304571151733
-0.04590316861867905 0.22086945176124573 -0.13736476004123688
0.29019272327423096 -0.16034053266048431 0.15812699496746063
0.2990134656429291 -0.13472919166088104 0.1449509859085083
0.2666483223438263 -0.36447247862815857 0.15653684735298157
0.21191386878490448 0.35169684886932373 0.10776685178279877
0.3013913929462433 -0.19341972470283508 0.1509619802236557
-0.19793272018432617 -0.1770733892917633 0.16885696351528168
-0.18258148431777954 0.22652041912078857 0.04784578084945679
0.13349951803684235 0.22730790078639984 0.14187932014465332
-0.015697352588176727 0.10048486292362213 -0.1377396434545517
-0.2092941701412201 0.08016008883714676 0.17023594677448273
0.07791159301996231 -0.2509394586086273 0.1470290720462799
0.25025591254234314 0.22482909262180328 -0.13133932650089264
-0.2029646784067154 0.45090430974960327 -0.07235532999038696
-0.2416614592075348 -0.27024075388908386 0.04142514243721962
-0.26357290148735046 -0.2532833516597748 0.024068497121334076
-0.2655703127384186 0.0879756510257721 -0.13310478627681732
-0.00680456031113863 0.18936754763126373 -0.22527393698692322
-0.16584207117557526 0.2296081930398941 0.02302081324160099
0.29156750440597534 0.1556759476661682 -0.1352611929178238
0.04875420033931732 -0.23941874504089355 -0.13541355729103088
-0.24005126953125 -0.25007152557373047 0.08882744610309601
-0.3182761073112488 -0.3255462646484375 0.15941017866134644
0.2934792935848236 0.21732577681541443 0.06268985569477081
-0.19669651985168457 -0.249052494764328 -0.12452159821987152
0.2962771952152252 -0.06986452639102936 0.1512978971004486
0.26151561737060547 -0.2680263817310333 0.006703879684209824
-0.18204137682914734 0.32051390409469604 -0.013744009658694267
0.12520815432071686 0.17857816815376282 -0.13435333967208862
0.24258464574813843 0.30560868978500366 -0.028416063636541367
-0.2723255455493927 -0.1964893639087677 0.14559833705425262
0.041494064033031464 -0.19134129583835602 0.1592792123556137
0.28284788131713867 -0.3513144254684448 0.07846083492040634
0.29190927743911743 0.21064642071723938 -0.1353757381439209
-0.1585882604122162 0.2262037992477417 0.0029089339077472687
-0.1734519749879837 0.22451740503311157 0.15726865828037262
-0.33039364218711853 -0.34487414360046387 0.1531917303800583
-0.2708284556865692 0.12669166922569275 0.14887873828411102
0.2974892854690552 0.210566908121109 0.15407145023345947
0.297341912984848 -0.23797202110290527 0.03715119510889053
-0.27505388855934143 -0.40375444293022156 0.17876532673835754
-0.17879675328731537 0.2199086993932724 -0.13220085203647614
-0.27050575613975525 0.2231491655111313 -0.01982540637254715
-0.25151392817497253 -0.2083936333656311 0.15703105926513672
-0.18601621687412262 0.4929424822330475 -0.0020046159625053406
0.0651223212480545 0.22574855387210846 -0.12252001464366913
-0.27031707763671875 -0.24818286299705505 -0.07196580618619919
-0.2760232090950012 0.20923706889152527 -0.1327529102563858
0.27220818400382996 -0.021033085882663727 -0.13643288612365723
-0.16648682951927185 -0.19220229983329773 0.15816859900951385
0.2743532955646515 -0.45041194558143616 0.0007309485226869583
0.23931150138378143 -0.03914792090654373 0.16789086163043976
-0.17419368028640747 0.332735538482666 0.0009486433118581772
0.29342034459114075 -0.14284007251262665 0.15731963515281677
-0.2914843261241913 -0.4207949936389923 -0.09153223037719727
0.28351500630378723 -0.2415730059146881 -0.13568945229053497
0.29519855976104736 0.2277117371559143 0.006538312882184982
-0.006855271756649017 -0.2522244155406952 -0.12220703065395355
-0.25786375999450684 -0.43252336978912354 -0.08255257457494736
-0.3382590711116791 -0.3661012053489685 0.1294848769903183
-0.05021778121590614 -0.07529214024543762 0.17085298895835876
0.0008434467017650604 -0.2502993643283844 -0.12941907346248627
0.23638418316841125 0.30633288621902466 -0.028808340430259705
-0.04134692624211311 0.21353287994861603 -0.13544215261936188
-0.2123180627822876 -0.27138879895210266 0.07501954585313797
-0.27007293701171875 -0.04852912575006485 -0.13095027208328247
0.007873859256505966 -0.08120514452457428 0.16490884125232697
-0.24739685654640198 0.22551964223384857 -0.13167759776115417
0.2876513600349426 0.21194696426391602 -0.13563041388988495
0.008033839985728264 0.1020200327038765 -0.17766138911247253
-0.021153409034013748 -0.2460668981075287 -0.13334710896015167
0.29769402742385864 0.19840487837791443 -0.12041378766298294
0.29685792326927185 0.20427024364471436 0.152196004986763
-0.28896668553352356 0.08778351545333862 -0.3026490807533264
-0.08916940540075302 0.15508583188056946 0.1680031716823578
0.2967989146709442 0.18733085691928864 0.15513764321804047
-0.17043501138687134 0.22420494258403778 0.15530484914779663
0.2430984228849411 0.18334762752056122 0.1546022891998291
-0.2678106427192688 0.033119138330221176 -0.1341852992773056
0.295137494802475 0.11022143065929413 0.15658408403396606
0.29907914996147156 0.15838149189949036 0.14738091826438904
-0.2704835832118988 -0.16423191130161285 -0.1281251609325409
0.21529549360275269 0.355336993932724 -0.0775073915719986
0.2955358624458313 0.16363957524299622 -0.1310354620218277
0.25840598344802856 -0.24647881090641022 -0.13732962310314178
0.07147616147994995 0.11368372291326523 -0.13526961207389832
-0.2887689769268036 -0.31401583552360535 0.15461423993110657
0.22612053155899048 -0.0816723182797432 -0.13741666078567505
0.2765025794506073 0.48361077904701233 0.12223028391599655
-0.09729630500078201 0.1644664704799652 0.15934017300605774
0.28352195024490356 0.34585249423980713 -0.05451412498950958
0.2954595386981964 0.2280496507883072 0.08695103228092194
-0.2190260887145996 -0.25034525990486145 -0.10031881928443909
0.2653799057006836 0.5099127292633057 0.05607441067695618
-0.24742603302001953 0.36329159140586853 -0.06442421674728394
0.281768798828125 0.22609837353229523 -0.13102304935455322
0.20998312532901764 -0.07904746383428574 -0.1368173509836197
-0.27170252799987793 0.21480408310890198 -0.1299399882555008
0.289963036775589 -0.43614357709884644 0.046474192291498184
-0.14515656232833862 0.15536734461784363 0.16670766472816467
0.2646273374557495 0.4583633542060852 -0.07468908280134201
0.2761733829975128 -0.3584143817424774 0.12347155809402466
0.28378617763519287 0.2264329344034195 0.1472286731004715
0.2988087236881256 -0.1562880575656891 0.1496630609035492
0.1894901990890503 -0.4476355016231537 -0.0610252246260643
0.2970612347126007 -0.23237460851669312 0.05736730992794037
0.1778896450996399 -0.2525891065597534 0.12367123365402222
0.11151324212551117 -0.17699341475963593 0.1704130321741104
0.2958574593067169 -0.043078795075416565 -0.1295064389705658
0.2431812286376953 0.4093593955039978 -0.09446167200803757
-0.2728717029094696 0.2148556113243103 -0.13152968883514404
0.14898209273815155 -0.4473050534725189 0.09248678386211395
0.22701025009155273 -0.16941983997821808 0.1700984686613083
-0.2945626974105835 -0.37974733114242554 0.20560315251350403
0.29783567786216736 0.21212854981422424 -0.03436638414859772
-0.19108058512210846 -0.2452276349067688 -0.13528373837471008
0.18837293982505798 0.2224746197462082 -0.1339266300201416
-0.2689337134361267 -0.05747080594301224 0.14577102661132812
0.15074236690998077 -0.4340917766094208 -0.023954346776008606
-0.3067568838596344 -0.3998936712741852 -0.08469262719154358
-0.27144691348075867 -0.15654052793979645 0.15371274948120117
0.2904413640499115 0.08737919479608536 -0.13653871417045593
-0.26644840836524963 0.11645222455263138 -0.13267211616039276
0.2874774932861328 0.20685023069381714 -0.13604046404361725
-0.21036368608474731 0.22696499526500702 -0.08706091344356537
0.26804208755493164 0.2279932051897049 -0.03785454481840134
0.24951201677322388 -0.11396585404872894 0.1579654961824417
0.24498602747917175 -0.29512590169906616 0.08965493738651276
-0.24961382150650024 -0.34076353907585144 -0.08710672706365585
0.1368856579065323 -0.43452975153923035 0.08714733272790909
-0.2725820541381836 0.09055391699075699 -0.13175250589847565
0.1797410547733307 -0.4470995366573334 -0.049775656312704086
0.2853327691555023 0.48360204696655273 0.08188365399837494
0.2928723990917206 -0.014265120029449463 0.1576491892337799
0.29778793454170227 0.21663960814476013 -0.044151607900857925
-0.27001073956489563 -0.1937810629606247 -0.13085028529167175
0.2984909415245056 0.09391681104898453 0.12931087613105774
0.1256016194820404 -0.2494601011276245 0.15297353267669678
0.29021206498146057 -0.4363861680030823 0.06723672896623611
-0.04860980808734894 0.16982784867286682 0.15430137515068054
-0.06519313901662827 0.22449932992458344 0.15421290695667267
0.261506050825119 0.5121656060218811 0.04132233187556267
0.1312732845544815 0.2076384574174881 -0.13459815084934235
0.014616744592785835 0.12235511839389801 -0.20934055745601654
-0.08338424563407898 0.21567487716674805 0.15756915509700775
0.19959305226802826 -0.26227667927742004 0.06445911526679993
-0.24348339438438416 0.3248334527015686 0.03702555596828461
-0.16986261308193207 0.358072966337204 0.07148545235395432
-0.15107911825180054 -0.17435887455940247 0.17067113518714905
0.29621654748916626 0.009364359080791473 0.15593037009239197
0.24627715349197388 -0.3710642158985138 0.1655089259147644
0.18147552013397217 -0.2679664194583893 -0.0239944476634264
-0.19320940971374512 -0.28577765822410583 0.07141682505607605
-0.21486800909042358 -0.2492932230234146 0.15018564462661743
-0.2594914734363556 0.15755689144134521 0.15669909119606018
-0.07996460795402527 -0.2524580955505371 -0.03807207942008972
-0.05531400442123413 0.16908234357833862 0.15323998034000397
0.19300100207328796 0.4707545340061188 0.11137563735246658
-0.15920856595039368 -0.33488941192626953 -0.006184065248817205
0.2555888593196869 -0.26724734902381897 0.044054944068193436
0.29109102487564087 0.20923776924610138 -0.1356234848499298
-0.23836225271224976 0.34418708086013794 0.07988225668668747
0.058579590171575546 -0.18971940875053406 0.16056087613105774
-0.2339247167110443 -0.32278943061828613 -0.0812995433807373
0.299709290266037 0.1653381586074829 0.1527336835861206
-0.07703938335180283 0.22494332492351532 -0.06537394225597382
0.2297302931547165 -0.27386942505836487 -0.05721017345786095
-0.22093352675437927 -0.34006115794181824 -0.08275128901004791
-0.09826881438493729 -0.17076796293258667 0.17228910326957703
0.29141533374786377 -0.25157061219215393 -0.09697612375020981
0.2953181862831116 0.010616251267492771 0.15717193484306335
-0.33174726366996765 -0.35201549530029297 0.17568102478981018
-0.15756802260875702 0.21584776043891907 0.1567756086587906
-0.20210188627243042 0.4635636806488037 -0.06398534774780273
0.2928255796432495 0.44583749771118164 0.12188306450843811
0.2328294962644577 0.3946393132209778 -0.09198804199695587
-0.2700766623020172 -0.12287314236164093 -0.12438257038593292
-0.22392909228801727 -0.45519277453422546 0.123024582862854
-0.0785309374332428 -0.23214250802993774 -0.13497795164585114
0.22928442060947418 -0.05557383596897125 0.16715863347053528
-0.24291694164276123 -0.47099769115448 -0.044400230050086975
0.2896488308906555 0.1917008012533188 -0.13539743423461914
0.021456584334373474 0.2228892743587494 -0.13208651542663574
0.28876417875289917 0.20856058597564697 -0.1358013153076172
0.29053327441215515 0.2022957056760788 -0.13316458463668823
0.2517319619655609 -0.25123220682144165 0.14493224024772644
-0.2712080478668213 -0.1650024801492691 0.14009234309196472
0.07870525121688843 -0.2530766427516937 0.13413187861442566
-0.2702285349369049 -0.24180063605308533 0.06119290739297867
-0.27064090967178345 0.05434190109372139 -0.1344430148601532
-0.24028512835502625 0.3611961305141449 0.1070471704006195
0.29014351963996887 0.14741332828998566 -0.13516545295715332
0.1867639124393463 0.3558468520641327 0.08796326071023941
-0.273288756608963 0.19890938699245453 0.14326857030391693
-0.10978734493255615 0.17540349066257477 0.15772299468517303
-0.19081416726112366 0.34837856888771057 0.09087400138378143
0.2955585718154907 0.13792335987091064 0.15360303223133087
-0.2662697732448578 0.41711461544036865 0.07261527329683304
-0.26470324397087097 0.05411786958575249 0.15662100911140442
0.20226165652275085 0.1523418426513672 0.16894271969795227
-0.1816239058971405 -0.25439345836639404 0.10294432193040848
-0.27028051018714905 -0.16543139517307281 -0.12778577208518982
-0.2867025136947632 0.07945577800273895 -0.2710435688495636
-0.10089272260665894 -0.001843756064772606 0.16815148293972015
0.28803759813308716 0.20838597416877747 -0.13662414252758026
0.28915777802467346 0.20862895250320435 -0.13631197810173035
-0.2615968883037567 0.4433603286743164 0.1133197471499443
0.08390582352876663 0.021941926330327988 -0.13625648617744446
-0.23597590625286102 -0.29033106565475464 -0.06450116634368896
0.23198029398918152 -0.20428620278835297 0.1541573852300644
0.23562735319137573 -0.031343888491392136 0.1695624738931656
0.1981172114610672 -0.25337496399879456 -0.05273521691560745
0.2973089814186096 0.20671981573104858 -0.12307188659906387
-0.2735179364681244 -0.45469576120376587 -0.07828148454427719
-0.15028582513332367 -0.29594144225120544 -0.003835003823041916
0.17923980951309204 -0.3079003095626831 0.07632717490196228
-0.2703816890716553 0.03249909728765488 0.1403084397315979
0.286530077457428 0.22738933563232422 -0.027757510542869568
-0.031827185302972794 0.12678022682666779 -0.13436995446681976
