0.1811753213405609 -0.2524244487285614 -0.03765985742211342
-0.2707396447658539 0.1727769821882248 -0.12734411656856537
0.2962556779384613 0.42617443203926086 0.11215513944625854
-0.05056464672088623 0.11824542284011841 -0.13382528722286224
-0.13478133082389832 0.20305486023426056 -0.13384033739566803
0.25162237882614136 0.41405850648880005 0.10619664192199707
-0.16653376817703247 -0.374245285987854 0.0015695663169026375
-0.19801685214042664 -0.40107324719429016 0.14507047832012177
0.26304891705513 -0.2492741495370865 -0.131815567612648
-0.2682897448539734 0.032864611595869064 0.1556449830532074
0.24401918053627014 0.3265990912914276 -0.048356711864471436
0.20107194781303406 -0.3177008628845215 0.1001472994685173
0.2943766713142395 -0.19966164231300354 0.15915194153785706
0.2961946129798889 -0.2508208155632019 0.0650765672326088
0.2976105213165283 0.0990777313709259 0.1457372009754181
-0.2902202010154724 -0.02046814374625683 -0.26410579681396484
-0.12385951727628708 0.22324416041374207 -0.1346922069787979
-0.2097257673740387 0.15988829731941223 0.1637464165687561
0.07946845144033432 -0.2511986196041107 -0.12858636677265167
0.020348848775029182 0.13665568828582764 -0.13471154868602753
0.2959382236003876 0.006649630144238472 0.15240752696990967
-0.2724568247795105 -0.33801963925361633 0.1630653291940689
-0.17409713566303253 -0.36536115407943726 0.06231554597616196
0.00045679148752242327 0.22886478900909424 -0.1264445036649704
-0.07146554440259933 0.2253856211900711 -0.12041517347097397
-0.255534291267395 0.4662107229232788 -0.003905566642060876
0.2953031361103058 0.21755090355873108 -0.13086766004562378
-0.27101802825927734 -0.1250663697719574 0.04646378755569458
0.19210410118103027 -0.19172438979148865 -0.12788237631320953
-0.253640741109848 -0.1998284012079239 0.15453515946865082
0.05541292577981949 0.22774016857147217 0.08409000933170319
-0.2897029519081116 -0.43162763118743896 -0.08305588364601135
-0.12845085561275482 0.2072828710079193 0.1574346274137497
0.14873120188713074 0.23055694997310638 0.012051068246364594
-0.27132293581962585 -0.05244821310043335 -0.13411639630794525
0.29613059759140015 -0.2181098461151123 -0.11726005375385284
-0.01684943214058876 -0.23241403698921204 -0.1327517032623291
0.29452627897262573 -0.10038501024246216 0.14981338381767273
0.29717734456062317 -0.1984260082244873 -0.11350171267986298
-0.2419007569551468 -0.2486136108636856 -0.1286843866109848
-0.02370193973183632 -0.11417186260223389 0.1702251136302948
0.21454229950904846 0.45368069410324097 -0.06805741041898727
-0.2680279612541199 -0.14511042833328247 -0.1310751736164093
0.2855445444583893 -0.194074809551239 -0.13371802866458893
-0.08503667265176773 0.21977968513965607 -0.1335546225309372
0.20584802329540253 0.503200352191925 -0.015573134645819664
-0.21516792476177216 0.22493450343608856 -0.12297380715608597
0.04915955290198326 -0.19299042224884033 0.15334023535251617
0.06005627661943436 -0.2490520179271698 -0.1268491894006729
0.16625405848026276 0.15237103402614594 0.16916562616825104
-0.26898863911628723 0.2071262001991272 0.14365708827972412
0.23462241888046265 0.1727237105369568 0.15940120816230774
-0.32561159133911133 -0.3318157494068146 0.17662285268306732
0.20141854882240295 0.15494857728481293 0.16969826817512512
0.2388891726732254 -0.2871864140033722 -0.05866782367229462
0.009009413421154022 0.13056522607803345 -0.21255004405975342
0.2978706955909729 0.12245172262191772 -0.12160544097423553
-0.26855966448783875 0.1497635841369629 -0.1210395023226738
-0.06332598626613617 0.22962456941604614 0.12739022076129913
0.2968636453151703 0.11261589825153351 0.14814063906669617
0.19972389936447144 -0.19644352793693542 0.15282022953033447
-0.22405418753623962 0.3425641655921936 0.08652590215206146
-0.03452996537089348 0.16576054692268372 0.16336573660373688
-0.24062703549861908 0.22623904049396515 0.11142341792583466
0.23311981558799744 -0.1642676144838333 0.16812092065811157
-0.10832321643829346 0.17483694851398468 0.15685518085956573
0.28841671347618103 -0.008148619905114174 -0.13222412765026093
-0.2311076521873474 -0.21402429044246674 0.155893012881279
0.25901079177856445 -0.15557610988616943 0.1603439599275589
0.1943863332271576 -0.24879083037376404 -0.12995098531246185
-0.24052491784095764 -0.37126433849334717 0.18738770484924316
0.21212805807590485 0.22722886502742767 0.05592109635472298
-0.26982805132865906 0.14160746335983276 -0.13185840845108032
-0.07275423407554626 0.22806411981582642 -0.1261996179819107
-0.2408159375190735 0.2272748500108719 -0.10063975304365158
0.2506256699562073 0.3346792459487915 0.09262639284133911
0.0642487183213234 0.2259342521429062 -0.11873465031385422
0.21708320081233978 0.23079539835453033 0.005461434833705425
0.2561359107494354 -0.3362829089164734 0.12673677504062653
-0.23848481476306915 0.26875656843185425 0.017035696655511856
0.0039022695273160934 0.178117036819458 0.16035805642604828
0.2897588908672333 -0.024855192750692368 -0.13294517993927002
0.14356300234794617 -0.41252636909484863 0.15977630019187927
0.27110034227371216 -0.3961459696292877 -0.06763200461864471
0.29043760895729065 0.3244748115539551 0.02801268920302391
-0.2690863311290741 -0.16190463304519653 0.15866029262542725
-0.2847370505332947 -0.4152791500091553 -0.08621111512184143
-0.3289918303489685 -0.4075806438922882 -0.041180528700351715
0.28727784752845764 -0.38011059165000916 0.13794741034507751
-0.2699151635169983 0.20076125860214233 -0.1324475258588791
0.1898362934589386 0.21554332971572876 -0.13445061445236206
0.14396286010742188 -0.18846699595451355 0.15455316007137299
0.27236422896385193 0.3794324994087219 -0.07881217449903488
0.2854372262954712 -0.24800468981266022 -0.12000872194766998
0.1749172955751419 -0.24987082183361053 0.05369981378316879
-0.20979613065719604 0.4221394956111908 0.08794938027858734
0.26490017771720886 -0.33279547095298767 -0.0632115975022316
0.055341146886348724 -0.13109813630580902 -0.131478950381279
-0.2590349614620209 0.35366716980934143 0.07444377988576889
-0.10022898763418198 0.1701304316520691 0.15625663101673126
0.24200217425823212 -0.21782062947750092 0.1559036374092102
-0.2706058919429779 -0.24374601244926453 -0.13830922544002533
-0.008449234068393707 -0.2329835295677185 -0.13317109644412994
0.1595860719680786 -0.44633743166923523 0.1005067527294159
0.2923762798309326 0.1305398792028427 -0.13258866965770721
-0.2675093412399292 -0.2380479872226715 0.06104688718914986
0.14068186283111572 -0.40718886256217957 0.10848790407180786
0.2971486449241638 0.2218504548072815 0.13493594527244568
-0.20894044637680054 0.156924307346344 0.16591522097587585
0.26989978551864624 -0.13424645364284515 -0.13370563089847565
0.054623737931251526 -0.2515498697757721 0.011588849127292633
0.22965039312839508 0.16900135576725006 0.16157513856887817
-0.22076338529586792 -0.3964349031448364 0.18504270911216736
0.0593431331217289 0.22242118418216705 -0.11749836802482605
0.22694522142410278 0.041503895074129105 0.16697558760643005
0.16246484220027924 -0.44405072927474976 0.049865320324897766
0.1288861632347107 -0.14477364718914032 0.17061826586723328
0.26031479239463806 -0.40193262696266174 0.1980249285697937
-0.04126347601413727 0.15434730052947998 -0.16220709681510925
0.2882010340690613 -0.15094023942947388 -0.13349173963069916
-0.2696225941181183 0.004991356283426285 0.025630582123994827
-0.08746899664402008 -0.23524561524391174 -0.13388685882091522
-0.21799281239509583 -0.4537394940853119 0.0992819219827652
-0.3283891975879669 -0.42065149545669556 -0.04488764703273773
-0.2820265293121338 -0.42837297916412354 -0.08085931837558746
0.2968287169933319 0.006311316043138504 0.1513899564743042
-0.037510793656110764 0.1742153912782669 0.15634995698928833
-0.05486760661005974 -0.18594156205654144 -0.1355903297662735
-0.16786108911037445 -0.24766527116298676 -0.12746421992778778
0.048199594020843506 0.22340725362300873 -0.12346569448709488
0.2262386977672577 -0.1742534041404724 0.17089053988456726
-0.049250777810811996 0.22598722577095032 0.021134525537490845
-0.2691062092781067 -0.23821888864040375 -0.13760583102703094
0.18228085339069366 0.4623381197452545 -0.012033991515636444
-0.2681291103363037 -0.4509578347206116 0.03238895907998085
0.289427250623703 0.3336332142353058 0.03834778442978859
0.14459891617298126 -0.34878483414649963 0.0502404049038887
0.19805990159511566 0.22896596789360046 -0.09686151146888733
0.08778712898492813 -0.24838663637638092 -0.12727612257003784
-0.02037275768816471 0.16403965651988983 0.1633845716714859
0.216129869222641 -0.44536739587783813 0.19075146317481995
-0.17226111888885498 -0.2341139316558838 -0.13399915397167206
0.16619986295700073 -0.3531043231487274 0.12897740304470062
0.18355098366737366 -0.2465028613805771 -0.13829663395881653
0.0032451048027724028 0.15614338219165802 0.1688317209482193
0.27288007736206055 -0.23207662999629974 -0.13117122650146484
-0.05929287523031235 0.16817788779735565 0.1611468344926834
-0.036245644092559814 0.08430096507072449 -0.13446860015392303
0.16990165412425995 -0.44327661395072937 0.023798301815986633
-0.27236780524253845 -0.21874554455280304 -0.12421277910470963
-0.2691698372364044 -0.24387460947036743 0.009175550192594528
0.29642173647880554 -0.13223429024219513 -0.12418334186077118
-0.26311326026916504 -0.021302519366145134 0.15623056888580322
0.049433235079050064 -0.2469915896654129 -0.13210105895996094
0.29205426573753357 -0.22180138528347015 0.15344180166721344
0.28563812375068665 -0.44326743483543396 0.09083835780620575
-0.25154560804367065 0.2067107856273651 -0.1345195174217224
0.026454469189047813 -0.18020637333393097 0.16156530380249023
-0.16088208556175232 -0.3274649977684021 -0.0006764018908143044
-0.09034164249897003 -0.2349804937839508 -0.1329103708267212
0.29469552636146545 -0.1866302788257599 0.1537700742483139
0.29508718848228455 -0.16366370022296906 0.15635661780834198
-0.2695773243904114 0.15982729196548462 -0.1348227560520172
-0.14044296741485596 -0.25353893637657166 0.06768129020929337
0.29624199867248535 -0.23342955112457275 -0.03346744924783707
0.2619507312774658 0.2260354906320572 -0.12490858137607574
-0.18899524211883545 0.22534917294979095 -0.1090172827243805
0.22384321689605713 0.40309664607048035 0.10256265848875046
0.2681674063205719 0.14555788040161133 0.15577173233032227
0.16628044843673706 -0.25154709815979004 0.006245662458240986
-0.08110035955905914 0.1669909507036209 0.16089193522930145
-0.11526961624622345 -0.10243581235408783 -0.13328704237937927
-0.12931908667087555 -0.24763235449790955 -0.11519835889339447
0.029753390699625015 0.15777987241744995 -0.2219003438949585
-0.2620232105255127 -0.37098437547683716 -0.09157107770442963
-0.2441108226776123 -0.047704070806503296 -0.2682943046092987
0.2909523844718933 -0.2493545413017273 -0.09494894742965698
-0.061795301735401154 0.22505533695220947 -0.11610288918018341
0.0295364148914814 -0.0204007551074028 -0.1315203160047531
-0.20784945785999298 0.16126351058483124 0.16126839816570282
0.00368966581299901 0.22695685923099518 -0.12242358922958374
-0.26249802112579346 0.17522990703582764 -0.1333988606929779
-0.26072046160697937 0.43622636795043945 -0.008578367531299591
0.1781167984008789 0.4124756157398224 0.08880604803562164
0.30026766657829285 -0.09397413581609726 0.1498875468969345
-0.2314869910478592 0.49562305212020874 -0.019922569394111633
0.1599111706018448 0.22541610896587372 -0.12447922676801682
-0.2880231738090515 -0.41868215799331665 -0.08698158711194992
0.26734915375709534 -0.39934760332107544 -0.07331649959087372
-0.2723506689071655 0.10836583375930786 -0.13699814677238464
0.2835187315940857 -0.24675330519676208 -0.11986124515533447
-0.16454125940799713 0.47846388816833496 0.05104442685842514
0.0064719002693891525 0.16183170676231384 -0.13652028143405914
0.2978176772594452 0.2250661551952362 0.08529242873191833
-0.27048343420028687 0.19091440737247467 -0.11465826630592346
-0.21513265371322632 0.38555970788002014 -0.07789253443479538
0.2690953314304352 0.22566474974155426 0.11471132189035416
0.13881531357765198 -0.4328916370868683 0.05601247027516365
-0.09647980332374573 0.22625504434108734 -0.12448228895664215
0.00672396644949913 -0.250183641910553 -0.11215060949325562
0.25863808393478394 -0.34329983592033386 0.12786777317523956
0.09228092432022095 0.1446974277496338 -0.13420319557189941
0.21828703582286835 0.4658285975456238 -0.06281057000160217
-0.22224408388137817 -0.20404571294784546 -0.1363801807165146
-0.04823809117078781 -0.24774077534675598 0.150340735912323
-0.19943785667419434 0.06674136966466904 0.171138197183609
-0.15675558149814606 -0.19229967892169952 0.1556311696767807
-0.26744502782821655 -0.24087928235530853 0.10081199556589127
-0.284656822681427 -0.30798912048339844 0.11052270233631134
-0.2501585781574249 0.48552343249320984 0.018388967961072922
0.25596317648887634 -0.23847410082817078 -0.13178163766860962
-0.2697698175907135 0.06967650353908539 -0.12589943408966064
0.2953341603279114 0.2162957787513733 0.1494838148355484
-0.19570311903953552 -0.4332389533519745 0.005293107591569424
0.09558075666427612 0.15456612408161163 -0.13458313047885895
-0.21237438917160034 -0.29206451773643494 -0.06306453049182892
0.18322870135307312 -0.21846544742584229 -0.13186296820640564
0.28943315148353577 -0.18543782830238342 -0.1310102641582489
0.23413285613059998 0.018090929836034775 0.16742314398288727
-0.2556796371936798 0.12503117322921753 -0.13489891588687897
-0.18674838542938232 -0.3583536148071289 0.0847921222448349
0.29194849729537964 -0.06220146268606186 -0.13108550012111664
-0.2991430163383484 -0.4480452537536621 -0.07534582912921906
-0.18277466297149658 0.22636006772518158 -0.12515376508235931
0.2968410849571228 0.3758038580417633 -0.011716004461050034
-0.11425577104091644 0.21187087893486023 -0.13381938636302948
-0.19540804624557495 -0.04318849369883537 0.16935475170612335
-0.2690369188785553 -0.2322302609682083 -0.11204352974891663
0.23056581616401672 0.32198020815849304 -0.04256690293550491
0.22761550545692444 -0.44337764382362366 -0.07565275579690933
0.01567750796675682 -0.24692872166633606 0.14938215911388397
-0.2723197340965271 0.042229048907756805 -0.1270153522491455
0.1870262771844864 0.33486485481262207 0.020233143121004105
-0.2741889953613281 -0.10463257879018784 0.14948591589927673
0.18081630766391754 0.3770345449447632 -0.019689492881298065
0.20301887392997742 -0.2265632152557373 0.15636064112186432
0.19498389959335327 -0.04645204916596413 0.17343303561210632
-0.2052116096019745 0.2190522849559784 -0.13398052752017975
0.266402930021286 -0.34505096077919006 -0.06726277619600296
-0.2576070725917816 0.4649921953678131 0.008632301352918148
0.2510395646095276 -0.2502214014530182 0.07219041138887405
0.19959889352321625 -0.06059809774160385 0.17201368510723114
-0.15697357058525085 0.2265644073486328 -0.06009301543235779
-0.16433893144130707 -0.24969954788684845 0.1527090072631836
0.28479164838790894 -0.17989231646060944 -0.13007064163684845
0.28487950563430786 -0.44277504086494446 0.14571475982666016
0.2844086289405823 -0.24638253450393677 -0.11987876147031784
0.2985084056854248 0.18017393350601196 0.15749427676200867
0.29431840777397156 0.46053656935691833 0.07291412353515625
-0.2578945457935333 0.36907193064689636 -0.0375964380800724
-0.27076640725135803 0.001284690573811531 0.10849370062351227
-0.22113986313343048 -0.2743992805480957 -0.05849849060177803
-0.270454466342926 -0.1421564519405365 0.1535874605178833
0.12507383525371552 0.21068257093429565 -0.13418251276016235
0.0933704748749733 -0.23889455199241638 -0.13487592339515686
0.19710245728492737 0.22798170149326324 -0.03926114737987518
0.11145282536745071 -0.2343713343143463 -0.13169220089912415
-0.22652983665466309 -0.47588852047920227 0.02728893794119358
0.2922919690608978 -0.20683979988098145 -0.12766800820827484
0.25666046142578125 -0.2389908730983734 -0.1319115310907364
0.22401054203510284 -0.23854820430278778 -0.1311933696269989
-0.2729421555995941 -0.24361960589885712 0.014159328304231167
0.027614030987024307 0.19190476834774017 0.15920522809028625
0.0020903064869344234 0.2267284244298935 -0.24559088051319122
-0.19593575596809387 -0.24801364541053772 -0.13152123987674713
-0.25902464985847473 0.047824978828430176 -0.13220298290252686
0.08799324929714203 -0.2397156059741974 -0.1328096240758896
0.28862300515174866 -0.21209120750427246 -0.13202394545078278
0.29801109433174133 0.05997379124164581 0.14902524650096893
0.24144163727760315 0.05936839058995247 0.16742214560508728
0.2997666001319885 0.2224787175655365 0.11961967498064041
0.1530781388282776 -0.24775418639183044 -0.12718458473682404
-0.0581563264131546 -0.25475946068763733 0.09252703934907913
-0.16307832300662994 0.15300583839416504 -0.13510340452194214
0.29325321316719055 0.04506094753742218 0.1482393443584442
-0.24948832392692566 -0.4668639898300171 0.011433042585849762
-0.10864896327257156 -0.23890632390975952 -0.1328105628490448
0.027012962847948074 -0.24711669981479645 -0.13083545863628387
0.2023763358592987 -0.09140869975090027 0.17156687378883362
-0.27008968591690063 0.02099050208926201 -0.13518814742565155
0.26632413268089294 0.5107793807983398 0.09194163978099823
0.29683181643486023 -0.046380311250686646 -0.11614836752414703
-0.21213917434215546 -0.45509883761405945 0.0037449009250849485
-0.27028441429138184 -0.2418738454580307 0.052714668214321136
0.001968029886484146 0.2282247096300125 -0.12559357285499573
0.1992318332195282 0.3427387475967407 -0.04785371571779251
-0.33392268419265747 -0.3727352023124695 0.08733373880386353
0.24369996786117554 -0.311802476644516 -0.07475423067808151
-0.06520725786685944 0.1675352305173874 0.15774855017662048
0.18551070988178253 0.4761826992034912 -0.010946674272418022
-0.2691548764705658 -0.2027299702167511 -0.13690143823623657
-0.30607685446739197 -0.4030209481716156 -0.08361038565635681
0.1424582451581955 -0.23347574472427368 -0.1334581822156906
-0.0012402068823575974 -0.24950462579727173 0.15795926749706268
0.025724798440933228 0.22679533064365387 -0.12061958760023117
-0.17746084928512573 0.021722037345170975 -0.13118426501750946
0.2089410275220871 -0.3030391335487366 0.08476974070072174
-0.11621125787496567 0.22374743223190308 -0.1330510526895523
0.2649930417537689 0.13516931235790253 0.15582068264484406
-0.18640999495983124 -0.21762537956237793 0.15588676929473877
-0.26724639534950256 -0.2402714639902115 -0.13880018889904022
0.044907908886671066 -0.23249825835227966 -0.13296054303646088
-0.08990544080734253 0.2270577847957611 0.11951431632041931
-0.1860407441854477 0.4271436333656311 -0.07658964395523071
-0.22638726234436035 -0.4477408826351166 0.15389584004878998
-0.26133596897125244 0.002116929739713669 -0.13351887464523315
-0.27307993173599243 0.1301434338092804 -0.08564718812704086
-0.28884562849998474 -0.4428844451904297 -0.07768804579973221
0.26019781827926636 -0.23700042068958282 -0.132998526096344
0.07189557701349258 0.11698826402425766 -0.13436751067638397
0.18772634863853455 0.22550058364868164 -0.08622131496667862
-0.16269847750663757 0.2289501577615738 0.08389516174793243
0.29700469970703125 0.09444825351238251 0.15004229545593262
-0.23830273747444153 0.2083429992198944 -0.1364935040473938
-0.12416978180408478 -0.24882400035858154 0.13782036304473877
-0.11417251825332642 -0.23434410989284515 -0.133686825633049
0.28110066056251526 0.38798412680625916 -0.07192034274339676
0.28722354769706726 -0.1522040218114853 -0.1344698667526245
0.20866140723228455 -0.24821464717388153 -0.13313427567481995
0.10229499638080597 -0.2493537962436676 -0.12954653799533844
0.18400676548480988 -0.23870506882667542 -0.13250157237052917
-0.03894054889678955 -0.24603143334388733 -0.12357642501592636
-0.2186991572380066 -0.46830785274505615 0.02954888343811035
-0.21140609681606293 0.4429754912853241 0.0909896045923233
0.1729179471731186 -0.2862097918987274 -0.03106110543012619
0.277416467666626 -0.2232416719198227 -0.1314244270324707
0.15944156050682068 -0.32453635334968567 -0.03252054750919342
-0.1561008095741272 0.4223513603210449 0.07883527129888535
0.24711424112319946 -0.0834808424115181 0.15729890763759613
-0.017804570496082306 0.13247311115264893 -0.13523712754249573
0.21635635197162628 0.4441043436527252 -0.06896384805440903
-0.09453490376472473 0.07352371513843536 -0.13396874070167542
-0.26463136076927185 0.3922281265258789 0.07309441268444061
-0.26388776302337646 -0.21120458841323853 -0.13233622908592224
0.2959836721420288 0.22165393829345703 -0.062935471534729
0.24252928793430328 -0.21677739918231964 0.15519750118255615
0.2490723431110382 -0.25004544854164124 -0.08683406561613083
-0.3253302276134491 -0.3706490993499756 0.1299598664045334
-0.18023866415023804 0.2257579118013382 -0.1278339922428131
0.13461866974830627 -0.22086049616336823 -0.12926602363586426
0.23661278188228607 -0.15054070949554443 0.1655823290348053
0.1675642877817154 0.23076996207237244 -0.11644253134727478
0.09867827594280243 0.05162450298666954 0.17125122249126434
-0.2967758774757385 -0.45204585790634155 -0.07476241886615753
0.21753497421741486 -0.3788549304008484 -0.08427534997463226
-0.24299755692481995 -0.27551326155662537 0.04145611822605133
-0.2609221339225769 0.012443408370018005 -0.13292300701141357
-0.2945495843887329 -0.34262561798095703 0.19733905792236328
0.2795241177082062 -0.44141414761543274 0.0015172876883298159
0.07773968577384949 -0.24940970540046692 -0.12787625193595886
0.12286749482154846 -0.13244064152240753 -0.1301792412996292
-0.06358415633440018 0.21807637810707092 -0.13182403147220612
-0.19850429892539978 -0.0694311186671257 0.17075136303901672
-0.21200954914093018 -0.15118953585624695 0.16708044707775116
-0.309908390045166 -0.36424556374549866 0.20665156841278076
0.2844994068145752 0.0204518623650074 -0.1325722187757492
0.03727560117840767 -0.021609649062156677 0.17264990508556366
0.21198266744613647 -0.2379094958305359 -0.1331464797258377
-0.11884890496730804 -0.24565958976745605 0.15798142552375793
0.26296520233154297 -0.3939688205718994 0.1908724308013916
0.0837138369679451 -0.25368595123291016 0.14746281504631042
0.24886173009872437 -0.05281459912657738 0.1578080654144287
-0.05752565711736679 -0.23784925043582916 -0.1342865526676178
-0.16677889227867126 0.23158499598503113 0.04351511597633362
0.22568711638450623 -0.44736647605895996 0.17344416677951813
0.28919798135757446 -0.2001277506351471 -0.1333218663930893
-0.2103883922100067 0.16105127334594727 0.16214320063591003
0.0964820384979248 0.22159312665462494 -0.12717191874980927
0.2952527403831482 -0.10214777290821075 0.1554754227399826
0.2931957542896271 0.21891477704048157 -0.13186199963092804
0.28997817635536194 0.1122392863035202 -0.1345338374376297
0.28583723306655884 -0.16343748569488525 -0.13198599219322205
0.18415124714374542 0.4570460021495819 -0.010530516505241394
0.09154820442199707 0.1701076626777649 0.15817274153232574
0.24848335981369019 -0.24974815547466278 0.08539028465747833
0.06500345468521118 -0.25214481353759766 -0.03768591955304146
-0.24022126197814941 -0.25038471817970276 0.12307655066251755
-0.27083542943000793 -0.17429867386817932 -0.13482460379600525
-0.33201268315315247 -0.3952982425689697 0.010584959760308266
0.16905555129051208 -0.19170111417770386 0.1598353236913681
-0.21553495526313782 0.11135023832321167 0.1719582974910736
0.21783295273780823 0.4165652096271515 -0.08236435800790787
0.2987020015716553 -0.19087816774845123 -0.12739376723766327
-0.20712268352508545 0.02942325919866562 0.1649276167154312
0.22646787762641907 0.4616241455078125 -0.07106371223926544
-0.1892058104276657 0.22720558941364288 0.1302357017993927
-0.26639091968536377 -0.17143726348876953 0.16027045249938965
-0.2696065902709961 0.11497741937637329 0.03212500363588333
-0.14017663896083832 0.22802892327308655 0.0007107444107532501
0.2796148359775543 -0.4475782811641693 0.16242623329162598
0.2876496911048889 -0.12328828871250153 -0.13416200876235962
0.03423816338181496 0.1647942066192627 -0.13500218093395233
0.298249214887619 0.2138749212026596 -0.12082935869693756
-0.2880673408508301 -0.027428315952420235 -0.27918049693107605
0.2845781147480011 -0.10796209424734116 -0.13189388811588287
-0.16571609675884247 0.38068097829818726 0.08235695958137512
-0.24861975014209747 0.07545652240514755 -0.1325543224811554
-0.00793745368719101 0.17637410759925842 0.1598922461271286
-0.018644925206899643 0.08555881679058075 -0.12980327010154724
0.26924070715904236 0.222974494099617 -0.11471506953239441
-0.21417388319969177 0.11651842296123505 0.16903692483901978
0.1350475549697876 0.2254706174135208 -0.12645524740219116
-0.2932591736316681 0.045384932309389114 -0.28105428814888
0.29774799942970276 0.10743232071399689 0.15430617332458496
0.24701540172100067 -0.3164457380771637 0.11165572702884674
0.20160271227359772 0.22237153351306915 -0.12450437247753143
0.2963945269584656 0.411178320646286 0.11523528397083282
-0.2638380825519562 0.43430668115615845 0.1014171615242958
0.24209238588809967 0.15477216243743896 0.16508635878562927
-0.2642882466316223 -0.352275013923645 0.1877785325050354
-0.27083513140678406 -0.001789875328540802 0.0829910859465599
0.2862459421157837 -0.2182893306016922 -0.13165757060050964
0.29198989272117615 0.15678177773952484 -0.13625302910804749
-0.18354956805706024 0.3413289189338684 0.06832879036664963
0.2991557717323303 0.12972745299339294 0.05122458189725876
-0.27168017625808716 0.011363059282302856 -0.12897281348705292
0.2990718483924866 0.21859608590602875 -0.08330763876438141
0.1819518506526947 -0.2487543374300003 -0.12736791372299194
0.2286931276321411 -0.15805961191654205 0.16741716861724854
0.06878141313791275 0.10410647094249725 -0.13588127493858337
0.2968684434890747 0.02783709391951561 0.15695616602897644
0.10045802593231201 -0.17920726537704468 0.16471226513385773
0.18921351432800293 -0.23502381145954132 -0.12998098134994507
0.29017162322998047 0.04793241620063782 -0.13256753981113434
0.26010823249816895 0.5123742818832397 -0.00208328478038311
0.23292222619056702 0.1426609307527542 0.17174512147903442
0.2594948410987854 -0.44242823123931885 -0.06454319506883621
-0.2428905963897705 -0.2507908344268799 -0.08455076813697815
0.2695449888706207 0.22841617465019226 -0.12358862906694412
0.2967625856399536 0.20097866654396057 -0.12634392082691193
0.22540737688541412 0.23199383914470673 0.07172968238592148
0.22046113014221191 -0.2251109629869461 0.15432853996753693
-0.2649785578250885 0.21427279710769653 -0.1332961469888687
-0.22058400511741638 0.21825619041919708 -0.12951087951660156
-0.270455926656723 0.18189428746700287 0.15185001492500305
0.013393173925578594 0.2562688887119293 -0.20485131442546844
-0.30025771260261536 -0.33973050117492676 0.19299915432929993
0.24185551702976227 0.22766228020191193 0.10026975721120834
0.2637328803539276 -0.36733728647232056 0.16139239072799683
0.26115846633911133 -0.3378056585788727 -0.0676124095916748
-0.29233983159065247 0.05840955302119255 -0.3039770722389221
0.29364705085754395 -0.194566547870636 0.15102599561214447
0.2846272587776184 -0.2000974863767624 -0.13006535172462463
-0.236537903547287 -0.24994146823883057 -0.04941106587648392
-0.07691333442926407 -0.24975010752677917 -0.12604092061519623
0.10554174333810806 0.17018212378025055 -0.13558776676654816
0.2950966954231262 -0.05307326465845108 0.14598563313484192
-0.005450703203678131 -0.2353838086128235 -0.1339537501335144
0.22497710585594177 -0.08384985476732254 -0.13372802734375
-0.26793989539146423 -0.1558411419391632 0.0877065509557724
0.2991575300693512 -0.052155449986457825 0.14779996871948242
0.09926891326904297 0.2257501631975174 -0.11832526326179504
-0.13865002989768982 -0.2505306005477905 -0.09648030251264572
-0.22716042399406433 -0.35913509130477905 -0.08106818050146103
0.24692852795124054 -0.31496408581733704 0.11039547622203827
-0.20833267271518707 -0.3798217475414276 0.15935571491718292
0.2657937705516815 -0.3642072379589081 -0.06886517256498337
-0.12064759433269501 0.22749736905097961 -0.12400399148464203
-0.26738420128822327 0.11223003268241882 -0.1351371854543686
-0.27400335669517517 -0.3128914535045624 -0.01983543671667576
0.2936563193798065 0.36378180980682373 0.07821658998727798
-0.1879199594259262 0.46911415457725525 -0.05818580090999603
-0.3200973868370056 -0.4175543487071991 -0.021688567474484444
-0.2091716229915619 0.031848639249801636 0.16994871199131012
0.25245097279548645 0.4136786460876465 -0.0904688686132431
0.23247651755809784 0.5189900398254395 0.01064727921038866
0.17034082114696503 -0.3966289460659027 -0.06241825968027115
-0.01740283891558647 -0.22508791089057922 0.15587885677814484
0.1969759464263916 0.17246301472187042 0.15525159239768982
-0.21314266324043274 -0.4442808926105499 0.12677976489067078
-0.11597966402769089 -0.24840523302555084 -0.12748350203037262
0.1756231188774109 -0.06204405426979065 0.172209694981575
-0.16054780781269073 0.3733821213245392 0.07587825506925583
-0.11781806498765945 0.17655353248119354 0.16109171509742737
-0.2719610035419464 -0.19182088971138 -0.13614338636398315
-0.26987889409065247 -0.1666557937860489 -0.12613725662231445
-0.2675841450691223 -0.2316458821296692 -0.13654181361198425
-0.15191073715686798 -0.25128698348999023 -0.043420158326625824
0.021352572366595268 0.22886723279953003 0.012218661606311798
0.1383683830499649 0.1875184178352356 0.15625862777233124
-0.21167826652526855 -0.43870264291763306 0.1506134420633316
0.22598522901535034 -0.24766017496585846 0.12571647763252258
0.18246586620807648 0.35325130820274353 0.08889022469520569
0.17330843210220337 -0.05560840666294098 0.17286619544029236
-0.18334132432937622 -0.24670250713825226 -0.1292463093996048
-0.26307356357574463 -0.42280179262161255 0.12720954418182373
-0.32836592197418213 -0.36313802003860474 0.03542124480009079
-0.23435679078102112 -0.11301787942647934 0.15442194044589996
0.1390632838010788 -0.043628618121147156 -0.1337652951478958
-0.09960003942251205 0.23073385655879974 -0.1247495785355568
-0.060739900916814804 0.12652839720249176 -0.13235364854335785
-0.2674417197704315 -0.24515925347805023 -0.0003216266632080078
0.1809488981962204 0.1920771300792694 0.15722039341926575
-0.2298363596200943 0.22339732944965363 -0.12472090870141983
-0.2682543694972992 -0.14296112954616547 0.15681368112564087
0.014802302233874798 0.09670599550008774 -0.15770620107650757
0.2636461555957794 0.49614208936691284 -0.049923550337553024
-0.26120010018348694 -0.29314249753952026 0.07610175758600235
0.21572867035865784 -0.2475462406873703 0.0999777615070343
0.2319745272397995 -0.16002225875854492 0.16695041954517365
-0.18057650327682495 -0.2330009490251541 -0.13305498659610748
-0.23327769339084625 -0.2506422996520996 -0.046881865710020065
-0.2601754069328308 -0.03657171130180359 -0.13407815992832184
0.297124981880188 0.22320440411567688 0.06596089899539948
-0.22260640561580658 -0.41825979948043823 -0.0600196048617363
-0.18190555274486542 0.2245733141899109 -0.12288332730531693
-0.045947615057229996 0.21618759632110596 -0.13030783832073212
0.29475176334381104 0.21409174799919128 0.137443408370018
-0.07747159153223038 -0.2471039593219757 -0.1323629766702652
0.11982555687427521 0.22436310350894928 0.07600691169500351
-0.2461623102426529 0.3699004650115967 -0.06100844964385033
0.28652673959732056 0.32515040040016174 0.03457297757267952
0.29784393310546875 0.12212859094142914 -0.12294963747262955
0.28536924719810486 -0.3696567714214325 0.16066670417785645
0.19820532202720642 -0.24793148040771484 -0.12939037382602692
-0.27116718888282776 0.060721222311258316 -0.1320585012435913
0.09584115445613861 0.1567312777042389 -0.13505223393440247
0.27758103609085083 -0.44067755341529846 0.04146585240960121
-0.19904452562332153 -0.28095516562461853 -0.056546907871961594
0.2194456160068512 -0.3087949752807617 -0.07244246453046799
-0.03037777543067932 0.14368951320648193 -0.13529758155345917
-0.1859036087989807 0.22132909297943115 -0.1323901265859604
-0.2677624225616455 0.020467054098844528 0.15561524033546448
0.07178964465856552 -0.2517617344856262 -0.12951083481311798
-0.05171619728207588 0.21520671248435974 -0.13038270175457
-0.2678997218608856 0.05477255582809448 0.15517057478427887
-0.12644654512405396 -0.12065741419792175 -0.13152188062667847
-0.1842162162065506 0.4994690716266632 0.03009568713605404
0.2084500640630722 0.309040367603302 -0.008699946105480194
-0.2860349416732788 -0.4306691288948059 -0.08206459879875183
-0.05745064839720726 0.17336410284042358 -0.1368541270494461
0.26159796118736267 -0.25101518630981445 0.08377104252576828
0.20003286004066467 -0.19322021305561066 -0.13607490062713623
0.062473103404045105 0.2241733968257904 -0.1199236512184143
0.2965642213821411 0.38107526302337646 0.09997323900461197
-0.04434625431895256 0.2274806946516037 -0.1232118159532547
0.16112342476844788 0.16161756217479706 0.1667979508638382
-0.26712387800216675 -0.4055308997631073 -0.08452849835157394
0.06140361353754997 0.17640547454357147 -0.18994346261024475
0.2499464601278305 -0.35259005427360535 -0.08018157631158829
0.29038938879966736 -0.419852614402771 0.1592870056629181
0.23278149962425232 -0.06312698125839233 0.16825592517852783
-0.27272605895996094 -0.057226646691560745 0.0684504359960556
-0.33122754096984863 -0.3995395600795746 0.004088912159204483
0.2702479362487793 0.30083829164505005 0.00481892004609108
0.2975545823574066 0.07178590446710587 0.14874695241451263
0.25922977924346924 -0.23889587819576263 -0.1355319619178772
0.1312084197998047 -0.2522026598453522 0.15108999609947205
0.26772260665893555 -0.2513478398323059 -0.034726325422525406
0.04196260869503021 0.2240104079246521 -0.11952748894691467
0.29886114597320557 -0.09661084413528442 0.02085857465863228
-0.20708325505256653 -0.4242587089538574 0.1744779348373413
0.07138767838478088 -0.23766526579856873 -0.13265512883663177
0.2973051369190216 -0.247917041182518 0.05168744549155235
0.27722179889678955 -0.2458667904138565 -0.12685231864452362
0.1807100772857666 -0.05336887389421463 -0.1343272626399994
-0.27005311846733093 -0.21861767768859863 -0.12194191664457321
-0.28651776909828186 -0.02041361853480339 -0.28674551844596863
0.29681602120399475 0.1950148344039917 0.15333619713783264
-0.24262318015098572 -0.2523830235004425 0.0762329176068306
0.27156293392181396 0.4510498046875 -0.07327093929052353
-0.005321318283677101 -0.17521721124649048 0.1681380420923233
-0.24310050904750824 -0.2500532567501068 0.1391122192144394
0.275887131690979 -0.2384941279888153 -0.13159142434597015
-0.19539333879947662 0.14340147376060486 -0.13323383033275604
-0.24439382553100586 0.02312876656651497 0.15667091310024261
0.19217003881931305 -0.23831802606582642 -0.13319973647594452
0.018630821257829666 -0.18604201078414917 0.1615111380815506
0.2958439290523529 0.2125338315963745 -0.11945102363824844
0.2049562633037567 0.37554097175598145 -0.06633032858371735
0.2508714199066162 -0.03986790403723717 -0.13150359690189362
0.28578469157218933 0.183792844414711 -0.1334189474582672
-0.206150621175766 -0.3496236503124237 -0.06814450770616531
0.21873053908348083 -0.40721237659454346 -0.08495382219552994
0.20401638746261597 0.036558929830789566 -0.13320617377758026
0.2255491316318512 -0.17617015540599823 0.16734136641025543
-0.27055200934410095 0.02775241807103157 -0.12238650023937225
-0.004920131526887417 0.2265414148569107 -0.11823765933513641
-0.2538566589355469 -0.008261818438768387 -0.13199935853481293
0.2972562313079834 -0.017055492848157883 -0.08374188840389252
-0.27941274642944336 -0.39046281576156616 -0.08949196338653564
0.2975027561187744 0.3946613073348999 0.019121024757623672
-0.27135810256004333 0.14016760885715485 -0.1356467306613922
0.06139364838600159 -0.17582975327968597 0.16869044303894043
0.13193541765213013 -0.2373843640089035 -0.1322343498468399
-0.22627006471157074 -0.2462013065814972 0.1548619270324707
0.028746111318469048 0.139388769865036 -0.21038095653057098
-0.27013304829597473 0.20314593613147736 -0.06664076447486877
-0.2585432529449463 -0.03824122995138168 -0.13450437784194946
-0.12244315445423126 0.22674976289272308 0.06337811052799225
0.09157627820968628 -0.2286994457244873 -0.13185609877109528
0.2308889776468277 -0.1695355474948883 0.16626787185668945
-0.2677839398384094 0.12728917598724365 -0.13416101038455963
0.1399906426668167 0.2295672744512558 0.07956099510192871
-0.15495531260967255 0.15392109751701355 0.16895054280757904
0.09752897918224335 0.18441985547542572 -0.1351519227027893
0.20504805445671082 0.23039448261260986 -0.004096752032637596
-0.21081823110580444 -0.3460245132446289 0.11130368709564209
0.22162608802318573 0.22846905887126923 0.10730350017547607
-0.16320426762104034 0.22629188001155853 -0.1259700208902359
0.05092712119221687 -0.24818497896194458 -0.06806652247905731
0.04116152226924896 -0.17397834360599518 -0.1299363225698471
0.22399359941482544 -0.2362043261528015 -0.1324460357427597
-0.3195825517177582 -0.35165297985076904 0.05725915729999542
0.2909433841705322 -0.1802004873752594 -0.13334214687347412
0.2952336072921753 0.08058009296655655 0.04152192920446396
-0.19352783262729645 -0.3697127103805542 0.10432294756174088
0.2478186935186386 -0.22998802363872528 -0.13398326933383942
0.2881036698818207 -0.39483439922332764 0.01625770889222622
0.09441011399030685 -0.19934064149856567 0.15159431099891663
0.23072360455989838 -0.13465318083763123 0.16698504984378815
0.06358813494443893 0.17647048830986023 0.15225401520729065
0.2783844769001007 0.22644156217575073 -0.10332316160202026
0.26045817136764526 0.4184284508228302 0.11111672222614288
0.23689121007919312 -0.1710619330406189 -0.13649557530879974
-0.25733646750450134 0.20156018435955048 -0.13279542326927185
0.10719496011734009 0.2241441160440445 -0.12649360299110413
0.18222583830356598 0.43123507499694824 0.10861629247665405
-0.1457521915435791 0.22245463728904724 -0.13064980506896973
0.2971125841140747 0.21943782269954681 0.12882238626480103
-0.2701263129711151 -0.23660434782505035 0.12680542469024658
-0.21748147904872894 -0.07915639877319336 0.16447201371192932
0.06993815302848816 -0.21910709142684937 0.15631437301635742
0.016236256808042526 0.20829953253269196 -0.23907507956027985
0.23074442148208618 -0.2789962887763977 0.08056049048900604
-0.23181110620498657 0.18869082629680634 0.1577395349740982
-0.27033957839012146 0.10169227421283722 -0.13581085205078125
-0.21066167950630188 -0.40599286556243896 0.17827898263931274
0.2970367968082428 0.22037038207054138 0.07620833069086075
-0.21977688372135162 -0.10408151894807816 -0.1343393623828888
-0.1925857663154602 0.2298443615436554 0.1285543441772461
0.010591626167297363 -0.24901479482650757 -0.1269635409116745
-0.14858967065811157 0.2265012413263321 -0.011460095643997192
-0.08990652859210968 -0.23367461562156677 -0.1324741542339325
0.12916234135627747 -0.24866554141044617 -0.09128689765930176
-0.23776602745056152 -0.24991339445114136 -0.06010989844799042
0.20264342427253723 0.5094915628433228 0.030763525515794754
0.2526306211948395 -0.44608137011528015 0.202562153339386
-0.1706087738275528 0.4776647686958313 0.07428879290819168
0.1850605010986328 0.47793376445770264 0.0011844784021377563
-0.26103129982948303 0.16135743260383606 -0.13352571427822113
0.2135378122329712 0.4387657642364502 -0.07671622186899185
0.2912636697292328 0.3446293771266937 -0.03657284379005432
0.29137730598449707 -0.4399590790271759 0.09388810396194458
0.0037490110844373703 -0.18723759055137634 0.16023513674736023
0.19579724967479706 0.227714404463768 0.055225711315870285
-0.23700456321239471 0.22730177640914917 -0.036328066140413284
0.2983117997646332 0.4078834354877472 0.016054265201091766
0.2624032497406006 -0.3485596776008606 0.13877877593040466
-0.3290015757083893 -0.37550288438796997 0.0974109023809433
0.25229838490486145 0.06525573134422302 0.1675053983926773
0.17985466122627258 0.36478734016418457 0.005297768861055374
0.041013870388269424 -0.145501509308815 -0.13177365064620972
-0.02491483837366104 0.1753241866827011 0.15479043126106262
-0.26425763964653015 0.43372032046318054 0.050866927951574326
-0.08326541632413864 0.22726991772651672 -0.12248419225215912
-0.034999024122953415 0.06532453000545502 -0.13363097608089447
0.1946503221988678 0.4999629855155945 0.06107710674405098
0.06472433358430862 -0.2486238181591034 -0.1301477700471878
-0.2711872160434723 -0.10065166652202606 -0.11673549562692642
-0.29650357365608215 -0.319499671459198 0.15417428314685822
0.28894540667533875 0.19194240868091583 -0.13239680230617523
-0.02873348258435726 0.22637933492660522 -0.11963800340890884
0.20145250856876373 -0.44573861360549927 0.2012646347284317
0.04367745295166969 -0.23549897968769073 -0.13243460655212402
0.18762362003326416 0.46782150864601135 -0.014726731926202774
0.29493042826652527 0.21641279757022858 0.062797412276268
-0.028110679239034653 0.22680824995040894 -0.11377717554569244
0.2966406047344208 0.14545612037181854 0.0783357322216034
-0.0925147756934166 0.22700366377830505 -0.12432940304279327
-0.25772038102149963 -0.08429966121912003 -0.13304102420806885
-0.23686029016971588 -0.44426625967025757 0.12907753884792328
0.22296154499053955 -0.23925939202308655 -0.1326420158147812
0.22362945973873138 0.517327070236206 -0.0016567260026931763
-0.2906801104545593 -0.33647507429122925 -0.035349536687135696
-0.25291207432746887 0.08962918817996979 -0.13390251994132996
0.29787224531173706 -0.15242987871170044 0.15584388375282288
0.29837802052497864 0.2206811159849167 0.12477052211761475
0.27063459157943726 -0.4463168978691101 0.060921721160411835
0.15388351678848267 -0.31124159693717957 0.009759643115103245
-0.26367661356925964 0.05804673954844475 -0.13530714809894562
-0.17246386408805847 0.22798192501068115 0.09215780347585678
0.26721304655075073 -0.41353824734687805 -0.07573193311691284
0.28737813234329224 0.4203698933124542 -0.04224061965942383
-0.32324159145355225 -0.32982340455055237 0.1753605306148529
0.22771596908569336 -0.3095496892929077 -0.07274676859378815
0.225445955991745 -0.24677398800849915 0.11433149874210358
-0.12641963362693787 0.2264980971813202 -0.12473654747009277
0.29213282465934753 -0.15395544469356537 0.07021686434745789
0.23050399124622345 0.003973433282226324 0.1684630662202835
-0.20078754425048828 0.216556116938591 -0.13502368330955505
-0.10439490526914597 0.17586952447891235 0.1557614654302597
-0.1402655988931656 0.2269250452518463 -0.12358921766281128
0.29771673679351807 -0.23029354214668274 0.14714662730693817
0.028177078813314438 -0.24755875766277313 0.15689705312252045
0.28553563356399536 -0.020145980641245842 -0.12962521612644196
-0.08791220188140869 -0.24592633545398712 -0.12352966517210007
-0.1402462273836136 -0.25099560618400574 -0.010412734001874924
0.2915595769882202 0.21189798414707184 -0.13308805227279663
-0.20764753222465515 -0.0016405461356043816 0.17187529802322388
-0.1681358963251114 -0.25207772850990295 -0.07663862407207489
0.26752525568008423 -0.1261148750782013 0.15622025728225708
0.18416351079940796 -0.3820291757583618 0.17129552364349365
0.2951430380344391 0.21825000643730164 -0.1216050237417221
-0.24521295726299286 -0.04133325070142746 -0.25545692443847656
0.29837656021118164 0.2154829204082489 0.11525632441043854
-0.006593239028006792 -0.17165282368659973 0.16966462135314941
0.2705812156200409 0.22789810597896576 -0.030769675970077515
0.262795627117157 -0.3386213183403015 -0.0695222020149231
-0.02174479328095913 -0.25391799211502075 -0.08485370129346848
0.14862439036369324 0.22664551436901093 0.1416628509759903
0.18448367714881897 -0.40860021114349365 0.1927141398191452
0.2283819168806076 0.19773627817630768 0.15553374588489532
-0.2676407992839813 0.4013509154319763 0.04512384906411171
-0.08454111963510513 -0.23390398919582367 -0.13561515510082245
0.14233671128749847 -0.4190545976161957 0.15276309847831726
0.164309561252594 -0.20297996699810028 0.15359385311603546
0.29718688130378723 0.22322197258472443 0.11112402379512787
0.06294999271631241 0.16891981661319733 -0.1751919835805893
0.2979106307029724 0.10912492871284485 0.14577952027320862
0.285592257976532 -0.16347751021385193 -0.13023290038108826
-0.09254131466150284 0.22834867238998413 -0.12181225419044495
0.20309099555015564 -0.25025680661201477 0.14242203533649445
0.25502416491508484 -0.23034095764160156 0.15730400383472443
-0.13339516520500183 -0.2547083795070648 0.007946091704070568
-0.2690455913543701 -0.09976515173912048 0.15806204080581665
0.13213427364826202 0.22658079862594604 -0.11870301514863968
-0.035229284316301346 -0.2528752386569977 0.0008030273020267487
0.2930382192134857 -0.4145238399505615 0.041006289422512054
-0.11965177953243256 -0.17114819586277008 0.1692045032978058
-0.25789397954940796 0.34535956382751465 -0.018550220876932144
-0.27345535159111023 -0.3829750120639801 -0.09514611959457397
-0.1612674742937088 0.4180119037628174 -0.02802468091249466
0.12207427620887756 -0.24880310893058777 -0.1255127638578415
0.1258740872144699 -0.2515082061290741 0.13628265261650085
0.2962924838066101 -0.09563791751861572 0.14755070209503174
-0.1899963915348053 0.5004002451896667 0.025215160101652145
-0.20547577738761902 -0.4304230213165283 0.14910191297531128
0.2836036682128906 -0.34161216020584106 0.016647711396217346
-0.2655899226665497 -0.19735606014728546 0.15645936131477356
0.02414133958518505 -0.23313114047050476 -0.13456453382968903
-0.27033185958862305 -0.10345453768968582 -0.13435029983520508
-0.2639077603816986 -0.17852644622325897 0.1570490598678589
0.26659440994262695 -0.3925977051258087 0.18838149309158325
0.29945096373558044 0.21932415664196014 0.11175861954689026
0.2886733412742615 -0.04446683079004288 -0.13325141370296478
0.20389622449874878 -0.39421847462654114 -0.08126477897167206
-0.2696647047996521 -0.2238355576992035 0.12856465578079224
-0.19839361310005188 0.46886205673217773 -0.06410592049360275
-0.29291778802871704 0.02753804810345173 -0.2753589451313019
-0.26698845624923706 -0.23507237434387207 0.07715265452861786
-0.2422020137310028 -0.3798340857028961 0.19803836941719055
-0.2662142217159271 -0.09186328947544098 0.15925650298595428
0.1831730306148529 0.04722633585333824 -0.13358305394649506
-0.23532775044441223 -0.2483111321926117 -0.12995776534080505
-0.2640409469604492 0.19965267181396484 -0.1335485726594925
0.15014353394508362 -0.1862456500530243 -0.13223733007907867
-0.2719331383705139 -0.05897125229239464 -0.13513506948947906
0.21470507979393005 0.22948819398880005 -0.0664002001285553
-0.18200215697288513 0.3455451726913452 0.07692703604698181
0.2831878066062927 -0.060886576771736145 -0.13344193994998932
0.18245072662830353 0.36061981320381165 0.06512708216905594
0.03885756433010101 0.22503353655338287 -0.12262751907110214
0.18752753734588623 0.4425883889198303 -0.038805074989795685
0.2177058309316635 0.2266271710395813 -0.05556979775428772
0.2895331382751465 0.42546147108078003 -0.029022876173257828
-0.18631352484226227 -0.24620121717453003 -0.11883290857076645
-0.3339429199695587 -0.3826828598976135 0.051579028367996216
0.10984103381633759 0.2264324128627777 -0.12635326385498047
-0.2918150722980499 -0.453643798828125 -0.07219699025154114
0.14405588805675507 -0.25572147965431213 0.01297506783157587
0.2968268096446991 -0.07699714601039886 -0.12669692933559418
-0.020762305706739426 0.2257155328989029 -0.12131396681070328
-0.0668402910232544 -0.17961615324020386 0.1651923954486847
0.28713148832321167 -0.15571355819702148 -0.13594552874565125
0.26425597071647644 -0.28303441405296326 0.049624424427747726
0.284286230802536 -0.24047322571277618 -0.13487397134304047
-0.22369791567325592 -0.39256173372268677 -0.07462972402572632
-0.22791901230812073 -0.4456104636192322 0.14975497126579285
-0.06212553009390831 0.19940461218357086 0.16015349328517914
0.2736174464225769 -0.45049798488616943 0.18975083529949188
0.032219916582107544 -0.25140997767448425 0.15227705240249634
-0.2897494435310364 -0.01430202554911375 -0.28001073002815247
0.2982649803161621 -0.22269901633262634 -0.09600818902254105
0.2987024784088135 0.044963736087083817 0.15544335544109344
0.24560664594173431 -0.23293332755565643 -0.13452252745628357
-0.22492578625679016 -0.3161136209964752 -0.0733439028263092
-0.08451704680919647 0.227283775806427 -0.12282168865203857
-0.010895086452364922 0.08116555958986282 -0.13446550071239471
