0.08736912161111832 -0.017065446823835373 -0.13115067780017853
-0.01718996837735176 -0.2504712641239166 0.061662208288908005
0.16712605953216553 0.1432550698518753 0.1692846566438675
0.2994515299797058 0.36912500858306885 0.061668578535318375
0.14293311536312103 0.04358978942036629 0.17248943448066711
0.10674705356359482 0.22581854462623596 0.0597432404756546
-0.17323322594165802 0.013732182793319225 0.16979581117630005
-0.2579677700996399 -0.4251371920108795 0.14763496816158295
0.05267152935266495 -0.13459016382694244 0.16931748390197754
-0.17632505297660828 -0.25431445240974426 -0.06938669830560684
-0.3322322964668274 -0.3533039689064026 0.09538236260414124
0.1959674060344696 0.05478716641664505 0.16590262949466705
-0.3181133270263672 -0.32160064578056335 0.13672669231891632
0.29767176508903503 0.024689629673957825 0.004787537269294262
0.10297021269798279 -0.056532666087150574 -0.13439276814460754
0.1445377916097641 -0.4023599922657013 -0.012606584466993809
0.29755687713623047 -0.028545094653964043 -0.043511271476745605
0.21507349610328674 -0.40840545296669006 0.20011146366596222
-0.23514455556869507 -0.11960276961326599 -0.13806849718093872
0.01750827580690384 0.06404341757297516 -0.1326061636209488
-0.22472746670246124 -0.13563339412212372 -0.13628843426704407
0.14764244854450226 -0.35159215331077576 0.07373914122581482
0.28972092270851135 0.33073610067367554 0.03433137387037277
0.014563999138772488 0.2284276932477951 0.032399874180555344
-0.24958278238773346 0.4124715030193329 -0.06030688062310219
-0.2587655782699585 0.46455442905426025 0.02906719036400318
0.21374477446079254 -0.2513282001018524 -0.08897978812456131
0.1780080944299698 -0.12111108750104904 -0.13355565071105957
0.18567325174808502 -0.026098256930708885 -0.1388700306415558
-0.10843423008918762 -0.025415314361453056 -0.13445913791656494
0.21957996487617493 0.10802652686834335 -0.1358143538236618
0.282897412776947 0.32622504234313965 -0.009350432083010674
0.19677862524986267 -0.384468138217926 -0.07788463681936264
-0.2803817391395569 -0.31024232506752014 0.038367222994565964
0.2972559630870819 -0.08558231592178345 -0.08409169316291809
-0.07934318482875824 -0.23441143333911896 -0.1357896476984024
-0.16663944721221924 -0.10257048904895782 -0.13368412852287292
0.004304223693907261 0.22419598698616028 0.02769172564148903
0.1421767622232437 0.22623440623283386 0.10437413305044174
0.2772561311721802 0.38867712020874023 -0.07329803705215454
-0.20287369191646576 -0.30450549721717834 0.08262930810451508
0.09210118651390076 -0.2506631314754486 0.07807376235723495
-0.16767123341560364 -0.04560920596122742 -0.1338346302509308
-0.09146450459957123 -0.24952803552150726 -0.06420622020959854
-0.08852745592594147 0.005988681688904762 -0.13348831236362457
0.2258043885231018 0.19141072034835815 -0.13539887964725494
-0.14341779053211212 -0.2533165216445923 -0.027907654643058777
0.056106872856616974 0.22747951745986938 -0.11080615967512131
0.2933250069618225 -0.0800696611404419 0.09782138466835022
-0.16123968362808228 -0.02476140670478344 -0.1325168013572693
0.0076711284928023815 0.1656017005443573 -0.13508842885494232
0.0660841166973114 -0.24930211901664734 0.04290973022580147
-0.26998084783554077 -0.14532864093780518 0.10917467623949051
0.21023698151111603 -0.15229183435440063 0.16964873671531677
-0.15511350333690643 0.4084003269672394 0.003181766951456666
-0.05542873591184616 0.22556349635124207 -0.005877955816686153
-0.1982862651348114 0.18933714926242828 -0.1356067657470703
-0.20503400266170502 -0.25310513377189636 -0.11147662252187729
0.23084326088428497 -0.4470052719116211 0.12578964233398438
-0.29415208101272583 -0.0010566774290055037 -0.27754679322242737
-0.22570154070854187 0.4139217436313629 0.09230910241603851
0.26813867688179016 0.12870988249778748 0.1576935052871704
-0.2732274532318115 0.1402626633644104 0.12426264584064484
-0.18812650442123413 -0.24882444739341736 -0.10191424190998077
0.2856830358505249 0.32901567220687866 0.02944360487163067
0.24052849411964417 -0.20360416173934937 -0.13378089666366577
0.26411646604537964 -0.02073075994849205 -0.13401296734809875
0.29567667841911316 -0.04869508370757103 0.11871099472045898
0.23808211088180542 -0.16002397239208221 0.17094269394874573
0.21776925027370453 -0.4524899125099182 -0.048761576414108276
0.03820500150322914 0.110043965280056 -0.1345214545726776
0.22456663846969604 -0.3801262378692627 -0.0904298946261406
-0.11709155142307281 -0.2518174648284912 -0.06854403764009476
0.08745092898607254 -0.2502431869506836 0.09365949034690857
-0.21410015225410461 -0.4631071984767914 0.038968391716480255
0.29873913526535034 -0.2255762368440628 -0.03153771534562111
0.12953953444957733 -0.09861510246992111 0.17178688943386078
0.02321908436715603 -0.025689156726002693 0.1690906435251236
-0.2678913176059723 -0.03745148703455925 -0.0862317830324173
0.29616183042526245 0.06924045085906982 0.1051027923822403
-0.1159447655081749 0.12138891965150833 0.17035812139511108
-0.2099817544221878 0.10618140548467636 -0.13458168506622314
0.26602938771247864 -0.08335873484611511 0.15749523043632507
-0.2651826739311218 -0.1031075119972229 0.025270989164710045
-0.32691872119903564 -0.3389204740524292 0.15081188082695007
-0.19160443544387817 -0.3601514399051666 0.08524827659130096
-0.28260496258735657 -0.32139700651168823 -0.002836181316524744
-0.0033215670846402645 -0.2519516050815582 -0.06818494200706482
0.20393922924995422 0.036218978464603424 -0.13387849926948547
-0.2496619075536728 0.05448012799024582 -0.13578864932060242
0.02245817892253399 -0.039569251239299774 0.1680241972208023
-0.26231318712234497 0.4556293785572052 0.0237383134663105
-0.2684171795845032 -0.15948842465877533 0.10444941371679306
0.2686302959918976 0.32880058884620667 0.07022467255592346
-0.2643324136734009 0.35865095257759094 0.003936550579965115
-0.2693340480327606 0.07466793805360794 -0.07665560394525528
-0.2649109363555908 0.38226041197776794 0.06650596112012863
0.23215065896511078 -0.4441587030887604 -0.035929448902606964
0.2978033125400543 -0.1644885540008545 -0.0785709023475647
-0.2286795973777771 -0.36521679162979126 -0.08757618814706802
-0.3028011620044708 -0.4134819209575653 0.07257631421089172
-0.2706737816333771 -0.22852498292922974 0.06445388495922089
-0.16948279738426208 0.0364840067923069 0.1697290688753128
0.2962596118450165 -0.22836920619010925 0.11995979398488998
0.21933861076831818 -0.44790634512901306 0.18376301229000092
-0.14100664854049683 -0.2526138722896576 -0.05772366747260094
0.20052798092365265 0.226023867726326 -0.004215507302433252
0.1152053028345108 0.22743619978427887 0.03048039600253105
0.2960359454154968 0.1999756395816803 0.07369561493396759
0.15717469155788422 -0.44641202688217163 0.14955410361289978
-0.1344982534646988 -0.19281677901744843 -0.13275624811649323
0.1464001089334488 -0.2244381606578827 0.15586727857589722
-0.26999396085739136 0.10970291495323181 0.09207857400178909
-0.26994141936302185 0.08458048850297928 0.07618062198162079
0.03272738307714462 -0.2508831024169922 0.10684182494878769
0.19316217303276062 0.48838549852371216 -0.014258523471653461
-0.2605953514575958 0.3463803827762604 0.017023324966430664
-0.0936797708272934 0.22564823925495148 0.03710096701979637
-0.1413157880306244 0.1986905336380005 -0.13737612962722778
0.1887694001197815 -0.21636027097702026 -0.1335315853357315
0.29831966757774353 0.10199448466300964 0.10193266719579697
0.17437255382537842 -0.35628068447113037 -0.056230612099170685
0.033093325793743134 0.17027512192726135 -0.13241331279277802
-0.26668092608451843 0.17019280791282654 0.06983527541160583
-0.1652316153049469 -0.3584457337856293 0.01828143745660782
-0.26565131545066833 -0.12302970141172409 0.038427602499723434
0.21195058524608612 -0.37366414070129395 0.16772980988025665
0.12742076814174652 0.22277183830738068 0.009220998734235764
-0.16686822474002838 -0.17639616131782532 -0.13378781080245972
-0.16045606136322021 0.22601911425590515 -0.0815267488360405
0.2947719395160675 0.392915815114975 -0.00869982223957777
-0.08287534862756729 -0.2471013218164444 -0.010597220622003078
-0.2696441411972046 -0.192634716629982 -0.05888720601797104
-0.23643459379673004 0.2271234393119812 -0.11360952258110046
0.008185501210391521 0.1306370347738266 -0.13461534678936005
0.2755195200443268 0.49767860770225525 0.07010062783956528
-0.016385404393076897 0.14387091994285583 -0.1350727081298828
0.20142120122909546 0.22906994819641113 0.07933986186981201
-0.028584398329257965 -0.246469646692276 0.061604343354701996
-0.17192555963993073 -0.3026033341884613 0.05613967403769493
0.20950613915920258 0.4345189034938812 -0.07862890511751175
0.04576271027326584 -0.09697862714529037 -0.1342550367116928
-0.0208189208060503 0.22769339382648468 0.04045999422669411
0.13517677783966064 -0.39361029863357544 0.08624028414487839
0.0553981177508831 0.07721766084432602 0.16901721060276031
-0.2621438205242157 -0.29844382405281067 0.02029099315404892
0.25699153542518616 -0.23630261421203613 -0.13259969651699066
-0.12411534786224365 -0.05636266618967056 0.17167581617832184
-0.22046343982219696 0.22720390558242798 0.10324559360742569
0.17978104948997498 -0.1581617295742035 -0.13543134927749634
0.27182653546333313 -0.384990394115448 0.1794356107711792
0.2955518960952759 0.019450413063168526 -0.08545893430709839
0.296235054731369 -0.2280852198600769 0.01651257835328579
-0.19198313355445862 -0.4336923062801361 0.023857153952121735
0.2871702313423157 -0.3785184323787689 0.08900413662195206
0.25859716534614563 -0.36608466506004333 0.16174572706222534
-0.29104486107826233 -0.4340125024318695 0.022927049547433853
0.2020096629858017 -0.25023210048675537 0.10415469110012054
-0.0028476493898779154 0.17994582653045654 -0.13338933885097504
0.2107442021369934 0.19828006625175476 -0.1354314684867859
0.19110041856765747 0.08479457348585129 -0.137394517660141
0.1334342509508133 0.11377380043268204 -0.1316365897655487
0.17493271827697754 -0.31535962224006653 -0.04206864535808563
-0.021061545237898827 0.229609414935112 -0.11523208767175674
-0.20352700352668762 -0.33753570914268494 -0.07323635369539261
-0.15578638017177582 -0.27349942922592163 -0.00803567934781313
0.17030954360961914 0.22902388870716095 -0.00681333290413022
0.2991828918457031 -0.06963983178138733 -0.11465765535831451
-0.25110501050949097 0.16397753357887268 0.1580129861831665
-0.06775017082691193 -0.2518875002861023 -0.012227167375385761
-0.29333189129829407 -0.34710898995399475 -0.04105296730995178
-0.3190706670284271 -0.38762184977531433 -0.05044590309262276
0.2974230945110321 -0.011424809694290161 0.08152199536561966
0.2855665385723114 -0.37401849031448364 0.02809945121407509
-0.27139946818351746 -0.12134578824043274 0.004405488725751638
0.2948068380355835 0.1713964194059372 -0.008749295957386494
0.035005196928977966 0.22647546231746674 0.0472174808382988
-0.162899911403656 0.22850143909454346 -0.0091777965426445
-0.19438627362251282 -0.0969526544213295 -0.13482441008090973
0.15438659489154816 0.11786402761936188 -0.1344192624092102
0.06304576992988586 -0.15237915515899658 -0.13044913113117218
-0.2712329030036926 0.18234090507030487 0.029716724529862404
0.05216086283326149 -0.2514319121837616 -0.0724262222647667
-0.15824110805988312 0.44093841314315796 0.00362497684545815
0.26246485114097595 -0.4462963342666626 0.10261663794517517
0.24912957847118378 -0.44872668385505676 0.1278190165758133
-0.26882562041282654 -0.22651179134845734 0.10423167794942856
0.22274957597255707 -0.3838803172111511 0.18192048370838165
0.2901012599468231 0.3343849778175354 -0.0014682027976959944
-0.15301062166690826 -0.119694784283638 0.1705975979566574
-0.17968490719795227 0.0001169620081782341 0.1697009950876236
0.06587725132703781 0.2259875386953354 0.07388774305582047
-0.26980674266815186 -0.07311598211526871 0.08790720254182816
-0.2701072096824646 -0.16168992221355438 0.07779007405042648
0.29762136936187744 0.017978763207793236 -0.11149708926677704
0.29089033603668213 0.36162275075912476 -0.03019591234624386
-0.14858314394950867 -0.01597222313284874 0.17003799974918365
-0.1531614065170288 0.44681844115257263 0.04906034469604492
0.039970722049474716 0.14585010707378387 -0.21044301986694336
0.2945244312286377 -0.18450596928596497 -0.038690559566020966
0.2965344190597534 -0.13829395174980164 -0.030194081366062164
-0.130585178732872 -0.251926064491272 0.046173591166734695
-0.01958589069545269 -0.2483297884464264 0.03459116071462631
0.057052817195653915 -0.22096937894821167 0.15755535662174225
0.20157793164253235 -0.4422515034675598 -0.04641406983137131
0.13450483977794647 0.22644679248332977 0.12657247483730316
-0.2691226005554199 0.0366913266479969 0.00869777612388134
-0.21645739674568176 -0.35857611894607544 -0.07898646593093872
-0.245247945189476 -0.25139597058296204 -0.09524980187416077
-0.10526291280984879 0.14847934246063232 -0.1346319317817688
-0.27422255277633667 -0.40339815616607666 0.19069156050682068
0.27180933952331543 0.21227529644966125 -0.1367662400007248
0.17127260565757751 -0.2881305515766144 0.0444338321685791
-0.15700076520442963 -0.25242868065834045 -0.08718499541282654
0.19036650657653809 -0.1014794334769249 -0.13205772638320923
-0.0838872492313385 -0.046197984367609024 -0.13424919545650482
-0.18366223573684692 0.48847001791000366 -0.014898190274834633
0.23802413046360016 -0.44708767533302307 0.0131250424310565
-0.2695504426956177 0.011820564977824688 0.1331598311662674
-0.20746883749961853 -0.06061100214719772 -0.13307185471057892
0.11508680135011673 -0.25513991713523865 -0.11546120792627335
0.2967262864112854 0.001258491538465023 0.05241136625409126
0.29329991340637207 -0.06867924332618713 0.08304694294929504
0.27982228994369507 -0.3520694971084595 0.09875446557998657
0.20440684258937836 -0.22364845871925354 -0.13432280719280243
-0.12090721726417542 0.22585301101207733 0.0024695945903658867
-0.22592714428901672 0.22500410676002502 0.11149382591247559
0.16704551875591278 -0.3781806230545044 -0.05171285197138786
-0.13290737569332123 -0.11893729120492935 -0.13365551829338074
-0.2694401443004608 0.20729267597198486 0.025979751721024513
-0.09652835875749588 -0.15238238871097565 -0.1314433366060257
-0.1513293981552124 0.11741337180137634 0.17194990813732147
-0.16212502121925354 0.22577907145023346 -0.02200540341436863
-0.20416581630706787 -0.39090126752853394 -0.062377769500017166
-0.24733367562294006 -0.22411681711673737 -0.13709783554077148
0.04126449301838875 0.1489081233739853 -0.13484017550945282
-0.2932634651660919 -0.4200204610824585 0.07816487550735474
0.14380954205989838 0.03728055953979492 0.16798943281173706
0.07237344235181808 0.1130361258983612 0.16879302263259888
0.08948233723640442 -0.010428091511130333 -0.13331419229507446
-0.26758506894111633 -0.04637395590543747 -0.08406362682580948
0.2033930867910385 0.11168838292360306 -0.13237664103507996
-0.2266116589307785 0.15959878265857697 -0.13327239453792572
0.14952631294727325 -0.20598891377449036 -0.13586434721946716
0.22333192825317383 0.22660216689109802 0.11566359549760818
-0.1191287711262703 -0.017515774816274643 0.16794821619987488
-0.19792097806930542 0.22626149654388428 -0.1035020723938942
0.2441205382347107 0.20816804468631744 0.15429671108722687
-0.17883217334747314 0.48433807492256165 -0.013707252219319344
-0.24338088929653168 0.4638638496398926 -0.0482124388217926
-0.02482277899980545 -0.25019213557243347 -0.014686882495880127
-0.005288827233016491 0.11521273106336594 -0.1344420164823532
0.2732904255390167 -0.4013441205024719 -0.0625825896859169
-0.26984256505966187 0.024553736671805382 -0.05543704330921173
-0.2812693119049072 -0.3146917223930359 0.011996106244623661
0.2135583609342575 0.08684154599905014 0.16805920004844666
0.11489167809486389 0.045591577887535095 -0.13350732624530792
-0.3129799962043762 -0.3891521990299225 -0.06160174682736397
-0.2701435387134552 0.08695526421070099 0.1102806031703949
-0.18474406003952026 0.49724435806274414 0.02879246138036251
0.13971880078315735 0.018796822056174278 -0.13471563160419464
-0.2956017851829529 -0.31518831849098206 0.07953758537769318
-0.27273836731910706 0.09446433186531067 0.08512506633996964
-0.242652028799057 0.4920573830604553 0.06608770042657852
0.09484130144119263 -0.21894077956676483 -0.13381609320640564
0.12695196270942688 0.034566499292850494 0.16912463307380676
0.07087475061416626 0.22578725218772888 -0.06018345057964325
0.070755235850811 -0.2141585648059845 0.15416774153709412
-0.24046336114406586 -0.15114949643611908 0.1567828208208084
0.24174566566944122 0.2055356353521347 0.15846087038516998
0.2611786723136902 -0.25157782435417175 -0.09163536131381989
-0.2622661888599396 0.37796729803085327 -0.020747026428580284
-0.23653791844844818 -0.061669785529375076 -0.1388131082057953
-0.030864179134368896 0.2002284824848175 -0.13644927740097046
0.04216805100440979 0.2272680103778839 0.08693067729473114
-0.26675254106521606 0.3904133141040802 0.06437939405441284
-0.04364153742790222 0.0204367246478796 -0.13772639632225037
0.2684827446937561 0.32672569155693054 0.06664875149726868
0.08242316544055939 -0.06704295426607132 -0.13543450832366943
-0.288510799407959 -0.43469446897506714 0.03207588195800781
-0.27078482508659363 0.0556693971157074 -0.017742279917001724
0.22283802926540375 -0.035645898431539536 -0.1338849514722824
0.2511359453201294 0.18948471546173096 -0.13771483302116394
-0.2245270311832428 0.22679884731769562 0.08938418328762054
-0.05301380157470703 -0.22486872971057892 0.1575237214565277
0.14324495196342468 -0.38578757643699646 0.114486925303936
-0.2677435576915741 0.3654167056083679 0.020015444606542587
0.07538492232561111 -0.24911314249038696 0.10337007790803909
0.2962145209312439 0.2105640470981598 0.038071710616350174
0.270210862159729 0.47590044140815735 -0.06185672804713249
0.29742154479026794 0.033987857401371 -0.05246495455503464
0.26221925020217896 0.07888363301753998 -0.13311177492141724
0.1842522919178009 0.3822391629219055 -0.04083647578954697
0.20214033126831055 -0.3331625163555145 -0.07339095324277878
-0.19978637993335724 0.15184082090854645 -0.1358550637960434
0.19983074069023132 -0.4473762512207031 0.18522675335407257
-0.19456443190574646 0.10242018103599548 -0.1342429369688034
-0.04971659556031227 -0.037776652723550797 -0.13309058547019958
-0.19235505163669586 -0.37862199544906616 -0.05572614073753357
-0.3154899477958679 -0.35767224431037903 0.0012909549986943603
-0.18092374503612518 -0.3237963914871216 -0.0456596203148365
0.29680007696151733 -0.11826694011688232 0.037756457924842834
0.2572595477104187 -0.20013898611068726 -0.13388009369373322
-0.2715971767902374 -0.17038065195083618 -0.11987388879060745
-0.32134726643562317 -0.3789713680744171 -0.0318244993686676
0.23023150861263275 0.0721907913684845 0.16853713989257812
-0.2719707190990448 -0.06287937611341476 0.009162411093711853
0.2967536747455597 0.09148330986499786 0.04022233188152313
-0.15242744982242584 0.039559148252010345 0.17011170089244843
0.16545014083385468 -0.373904824256897 0.14810235798358917
0.296980082988739 -0.12468615919351578 0.009863355197012424
-0.27889618277549744 -0.39922723174095154 0.17441079020500183
0.19251742959022522 -0.3106231689453125 -0.05616263300180435
-0.139749214053154 -0.25166529417037964 0.10701822489500046
-0.005820395424962044 0.16047726571559906 -0.13455544412136078
0.29725179076194763 -0.11733514070510864 0.13549105823040009
-0.28937777876853943 -0.3332681953907013 -0.009253161028027534
-0.048093345016241074 0.016387727111577988 0.16981366276741028
0.264875203371048 -0.3129565715789795 -0.039256151765584946
0.15154051780700684 0.05726175382733345 0.16812074184417725
-0.3276529014110565 -0.3359724283218384 0.1603177785873413
-0.15734471380710602 0.38714954257011414 -0.013365349732339382
0.27387887239456177 0.1711921989917755 0.15701310336589813
0.11316893249750137 -0.2514277398586273 -0.05250680819153786
0.07832937687635422 -0.09895335137844086 0.16958709061145782
-0.15616564452648163 0.436247318983078 0.030571430921554565
-0.2693609595298767 0.07672766596078873 -0.07365554571151733
-0.0967983826994896 0.16400493681430817 -0.13856229186058044
-0.0005161629524081945 -0.2501126229763031 -0.07846363633871078
0.21053698658943176 0.44320163130760193 -0.07499993592500687
-0.3218948245048523 -0.3592965006828308 0.0228740107268095
0.010795130394399166 0.19464503228664398 0.15984804928302765
-0.14141976833343506 -0.25247207283973694 0.05537564679980278
-0.12994055449962616 0.044886305928230286 0.1698276400566101
-0.06323149055242538 -0.03289739787578583 0.1698911339044571
-0.18674711883068085 -0.25230705738067627 -0.10928749293088913
0.2711145281791687 -0.30079910159111023 -0.03388148918747902
-0.32864829897880554 -0.3449917137622833 0.10061212629079819
-0.17517460882663727 -0.25426119565963745 -0.10960498452186584
0.10896127671003342 -0.13070762157440186 0.1694496124982834
-0.16202153265476227 0.3714831471443176 0.08562584966421127
0.20240561664104462 -0.35734689235687256 -0.07829782366752625
-0.2988552451133728 -0.3197278678417206 0.0902920588850975
-0.11876378208398819 0.13830985128879547 -0.1344461292028427
0.15721218287944794 -0.30546334385871887 0.0032796338200569153
-0.0826880931854248 -0.24836888909339905 0.001553920446895063
0.11050929129123688 0.2045344114303589 0.15660817921161652
-0.18705667555332184 0.18680351972579956 0.15872132778167725
-0.11937111616134644 -0.2507646977901459 0.09364408999681473
-0.270963579416275 -0.00336307380348444 0.03364742547273636
0.2682727873325348 -0.1923569291830063 -0.1303999125957489
0.2661186456680298 -0.12157242745161057 -0.1327938586473465
0.23656772077083588 -0.09534487873315811 -0.13446401059627533
0.19998261332511902 -0.289904922246933 -0.05592364817857742
-0.06104167178273201 0.10114264488220215 -0.13456134498119354
-0.2694595754146576 0.20071019232273102 -0.030994052067399025
-0.27228590846061707 0.1471390575170517 -0.10379309952259064
-0.19523927569389343 0.21226075291633606 -0.13564403355121613
-0.20646174252033234 -0.0038033928722143173 0.17063964903354645
0.2937743663787842 0.09191350638866425 0.039871491491794586
0.1970156878232956 -0.23001709580421448 -0.13411296904087067
-0.3057088851928711 -0.36422041058540344 -0.04296247661113739
-0.22731976211071014 -0.335342139005661 0.11890042573213577
0.03636254742741585 -0.250990629196167 0.10924302786588669
-0.2701912224292755 0.14796201884746552 -0.09330642968416214
-0.14392301440238953 0.04263557493686676 -0.13277600705623627
-0.2658471465110779 -0.29733404517173767 0.048438910394907
-0.2613646984100342 0.3942470848560333 -0.0502280555665493
-0.27890199422836304 -0.36049196124076843 -0.08059713989496231
-0.21894532442092896 -0.22573067247867584 -0.13379675149917603
0.2237655222415924 -0.4026867747306824 0.19507087767124176
0.15723638236522675 -0.38523751497268677 0.15632469952106476
0.17630057036876678 -0.06063137203454971 -0.1343832015991211
-0.2141859084367752 0.15129491686820984 -0.13883478939533234
-0.1716504544019699 -0.37107229232788086 -0.008006269112229347
0.2904372811317444 0.33722174167633057 -0.00483266357332468
-0.24864591658115387 0.019989365711808205 -0.29288819432258606
-0.12929096817970276 0.10687947273254395 -0.13306006789207458
0.006627791095525026 -0.24987269937992096 -0.06459920853376389
-0.24175448715686798 -0.04296204820275307 0.15811511874198914
0.29801732301712036 0.17106719315052032 -0.01760704815387726
0.0061395359225571156 0.06622257828712463 0.16754408180713654
0.21002356708049774 0.22684670984745026 0.053618889302015305
0.12315789610147476 0.12793739140033722 -0.13299983739852905
0.18980596959590912 0.48122844099998474 0.06882693618535995
-0.17931334674358368 -0.2161465287208557 -0.13434547185897827
0.28520137071609497 -0.3883678615093231 -0.0035983575507998466
0.2968983054161072 -0.10589920729398727 0.0019530414137989283
0.2115800678730011 -0.44812577962875366 0.14428922533988953
0.296205997467041 -0.15405379235744476 0.05880223959684372
0.2747381031513214 -0.2499430626630783 0.08405742794275284
0.2971533238887787 -0.13582909107208252 -0.04426728934049606
-0.26907777786254883 0.11864331364631653 -0.08426143229007721
-0.2997462749481201 -0.3748425841331482 0.19363291561603546
0.29636937379837036 0.3709622621536255 0.07694502919912338
0.13682490587234497 -0.2516876459121704 -0.07503410428762436
0.29597344994544983 0.1429784744977951 0.13755115866661072
0.2588508725166321 -0.25162187218666077 0.10520954430103302
0.2793295085430145 -0.25065526366233826 0.07435696572065353
0.14075052738189697 -0.3757053017616272 0.0693301185965538
0.04990702494978905 -0.1327008754014969 0.17121648788452148
0.10867553949356079 0.22664663195610046 0.07331965863704681
0.17206892371177673 0.06795865297317505 0.1669798046350479
-0.04103771224617958 0.16337484121322632 -0.17726457118988037
-0.1307060569524765 -0.24993976950645447 -0.014741575345396996
-0.15362533926963806 -0.2924635112285614 0.0008325375383719802
0.026146478950977325 -0.12977643311023712 -0.13397489488124847
-0.23693829774856567 -0.2538660764694214 -0.11076870560646057
-0.09518710523843765 0.1185685321688652 -0.13299649953842163
-0.22269751131534576 0.2066020667552948 -0.13331696391105652
-0.269172728061676 0.16267432272434235 0.10706103593111038
0.15826210379600525 0.0642012506723404 0.16716481745243073
-0.04549691453576088 0.06605207920074463 -0.1342162936925888
0.0727197527885437 -0.005742894951254129 -0.13379590213298798
0.19426962733268738 0.46640685200691223 -0.03844064846634865
-0.1744469702243805 -0.1276414841413498 0.16894139349460602
0.2635902464389801 -0.3125934898853302 -0.0533146858215332
0.2256813794374466 0.18248677253723145 -0.13492245972156525
0.03623237833380699 -0.10553857684135437 0.1663258820772171
0.2962596118450165 -0.16653792560100555 -0.004152103792876005
0.23250596225261688 0.16450031101703644 -0.13667356967926025
-0.13589225709438324 0.2039586305618286 -0.13849012553691864
-0.17950960993766785 -0.3810034990310669 -0.030900001525878906
-0.24734382331371307 0.22741366922855377 -0.09522935748100281
0.2755869925022125 -0.25242939591407776 0.0330340750515461
-0.2704482972621918 -0.156873881816864 0.1344885230064392
-0.2702685296535492 0.1895006150007248 -0.09910174459218979
0.13288746774196625 -0.2509274482727051 0.09565842151641846
-0.028999056667089462 0.22494010627269745 -0.09838303178548813
-0.00010543328244239092 -0.2507963478565216 0.1439148485660553
-0.15575586259365082 -0.2847122550010681 -0.009464586153626442
-0.20902583003044128 0.08740948140621185 -0.13442115485668182
0.23021414875984192 0.22612881660461426 0.07359447330236435
-0.27019670605659485 -0.10084261000156403 0.0755627229809761
-0.05865642800927162 0.22552937269210815 0.10215023159980774
-0.27585381269454956 -0.3039323091506958 0.03728478401899338
-0.18765585124492645 -0.346731960773468 -0.053332988172769547
-0.2455248087644577 0.16347825527191162 0.15778368711471558
-0.08642338216304779 0.1336130052804947 -0.13436324894428253
0.14406630396842957 0.09749608486890793 0.1674761027097702
0.23535895347595215 0.19277259707450867 0.15413203835487366
0.0216519795358181 -0.2509734034538269 0.119597889482975
0.2160719931125641 0.01722678355872631 -0.138242706656456
0.019714731723070145 0.21387223899364471 -0.2378561794757843
0.06889278441667557 -0.13113941252231598 -0.13371481001377106
0.2209329605102539 -0.2355048954486847 -0.13151510059833527
-0.27497443556785583 -0.4060909152030945 0.16715770959854126
0.29605117440223694 0.10996663570404053 0.14205814898014069
-0.16618245840072632 -0.25267988443374634 -0.08190874755382538
-0.06305908411741257 -0.25369369983673096 0.02973492071032524
0.08346432447433472 -0.2517737150192261 0.05624636262655258
-0.27240824699401855 -0.4531056582927704 0.010946845635771751
0.23307766020298004 0.4221135079860687 -0.08991209417581558
-0.2701798677444458 0.11622209846973419 0.044908761978149414
-0.2258434146642685 0.22611643373966217 -0.08904669433832169
-0.1549089401960373 -0.30107396841049194 0.023425165563821793
0.17377790808677673 -0.3667548596858978 -0.05587553605437279
-0.1473512500524521 -0.16877171397209167 0.16971510648727417
-0.16264602541923523 0.04365819692611694 0.1668761968612671
0.18079409003257751 0.22539280354976654 0.09154432266950607
0.1866982877254486 0.4745771884918213 0.011280682869255543
-0.2622247040271759 0.45383796095848083 0.041095320135354996
-0.2625652849674225 0.4471754729747772 0.0761144682765007
0.18690310418605804 0.20516498386859894 0.16020014882087708
-0.18917471170425415 -0.39066118001937866 -0.042979415506124496
-0.25136807560920715 -0.28462153673171997 0.046660613268613815
-0.18360672891139984 -0.2932927906513214 -0.05113731697201729
0.19234775006771088 0.4823191463947296 -0.004806497134268284
-0.24660030007362366 -0.2524939477443695 0.1026102602481842
0.19727551937103271 0.2279089391231537 0.05507393181324005
-0.021318024024367332 -0.2301013320684433 0.1559511423110962
-0.17096802592277527 -0.3874303698539734 0.030352488160133362
-0.07371219992637634 0.12749257683753967 0.16747604310512543
0.041579220443964005 0.0674418956041336 -0.1327991783618927
0.29290512204170227 -0.07931803166866302 -0.018005777150392532
0.25068199634552 -0.3564998507499695 -0.08654157817363739
-0.26690104603767395 -0.4031434655189514 -0.09487556666135788
-0.11041418462991714 -0.13810117542743683 -0.13447441160678864
0.11757498234510422 0.13539913296699524 0.16965265572071075
-0.08743652701377869 0.2271214872598648 0.08199223130941391
-0.2993423342704773 -0.350788950920105 -0.026103321462869644
0.19605182111263275 0.19444793462753296 0.1596422642469406
0.03192752227187157 0.008184175938367844 -0.13398532569408417
0.24517464637756348 -0.44463101029396057 -0.046061400324106216
0.21228164434432983 -0.25083649158477783 0.09691888093948364
-0.2718706429004669 0.10213209688663483 0.12701734900474548
0.2636449635028839 0.22414037585258484 -0.0778094083070755
0.27863362431526184 0.37753430008888245 -0.06191067397594452
-0.010700262151658535 0.12572398781776428 0.17063000798225403
0.2941693067550659 0.17034617066383362 0.054794542491436005
-0.04324871301651001 0.022783422842621803 -0.13399361073970795
-0.27010631561279297 0.1883750855922699 -0.06676575541496277
-0.21473516523838043 0.3430710434913635 0.09487734735012054
0.2950163781642914 0.3716159164905548 0.05124686285853386
-0.3218788504600525 -0.39186999201774597 0.08310756832361221
0.2756875157356262 -0.3277924954891205 -0.019173890352249146
-0.23735642433166504 -0.3620557487010956 0.1696763038635254
0.05787861719727516 -0.019351620227098465 0.16799794137477875
0.2933896780014038 0.1553940773010254 0.08623221516609192
0.17473559081554413 -0.35009539127349854 0.11986027657985687
-0.03649303689599037 0.22549612820148468 -0.030110007151961327
-0.13883543014526367 0.22730110585689545 -0.013200483284890652
0.024068079888820648 0.14871209859848022 -0.2154303640127182
-0.1086040511727333 0.0695575550198555 -0.13458779454231262
0.20556505024433136 0.32874998450279236 0.06620357930660248
-0.19497884809970856 -0.25283244252204895 0.0938333049416542
0.2990811765193939 0.15381057560443878 -0.04346062242984772
0.1986832171678543 -0.17478351294994354 0.17036642134189606
-0.16233593225479126 -0.24994537234306335 0.11843429505825043
0.29648926854133606 -0.0816870853304863 0.039668116718530655
-0.23913124203681946 -0.44057923555374146 0.13402985036373138
-0.10724054276943207 0.22929950058460236 -0.013404162600636482
0.19067002832889557 0.48138532042503357 0.08960612118244171
0.2933119833469391 0.34957224130630493 -0.021764352917671204
-0.26924988627433777 -0.05596587434411049 -0.04371054843068123
0.17030610144138336 -0.39186611771583557 -0.05769196152687073
-0.09889950603246689 -0.2164895385503769 -0.13448770344257355
0.1353873908519745 0.2284565269947052 -0.016335265710949898
0.1790083795785904 0.35789236426353455 0.04524223133921623
0.020195327699184418 0.22551584243774414 -0.05720284581184387
-0.031480573117733 0.033221594989299774 0.16996194422245026
-0.19859515130519867 0.13460098206996918 0.17072361707687378
0.2786363959312439 0.3808208107948303 -0.07260765880346298
-0.001121809589676559 0.25246185064315796 -0.20348398387432098
0.09061605483293533 -0.25460824370384216 -0.06602060049772263
0.13920263946056366 -0.3953160047531128 0.0798596441745758
-0.04861149564385414 -0.1596764326095581 -0.1334604024887085
-0.2699050307273865 -0.0933896154165268 -0.11236067116260529
0.08705592155456543 0.0029159262776374817 0.16981340944766998
-0.1400356888771057 0.001009649597108364 0.17017599940299988
-0.0012545353965833783 0.1018097847700119 -0.15861736238002777
-0.0715060755610466 -0.10442812740802765 0.16943825781345367
0.10299965739250183 0.22569787502288818 0.0030477680265903473
-0.26714885234832764 0.11697498708963394 -0.09390626847743988
0.02303512580692768 0.011285793967545033 0.16967277228832245
-0.21483196318149567 0.06276309490203857 -0.13446137309074402
-0.24429956078529358 -0.4472418427467346 -0.06667742878198624
0.26847654581069946 -0.10983478277921677 0.15878011286258698
0.27819496393203735 0.05809896066784859 -0.13670437037944794
-0.02029217593371868 0.2255096137523651 0.12287010997533798
-0.13824737071990967 0.22581522166728973 -0.07798676192760468
0.12424684315919876 -0.24868996441364288 0.04833986982703209
0.23571686446666718 -0.4451850652694702 -0.06209193170070648
0.20385217666625977 -0.44697073101997375 0.05916038900613785
0.2977138161659241 0.011728765442967415 0.12963014841079712
0.1623203009366989 0.22661073505878448 -0.08936797827482224
-0.2057030200958252 -0.4457751512527466 -0.017626464366912842
-0.025614501908421516 0.2254294753074646 -0.024240870028734207
-0.28102022409439087 -0.313908189535141 0.06290941685438156
-0.010743544436991215 0.0024167154915630817 -0.13388299942016602
0.04929330572485924 0.08761726319789886 0.1689460724592209
0.15537653863430023 -0.13911272585391998 0.1671053022146225
0.1744949370622635 -0.02278820239007473 -0.13665078580379486
-0.16158871352672577 0.40902698040008545 -0.013282581232488155
-0.30562591552734375 -0.38174721598625183 0.16607478260993958
-0.26606321334838867 -0.009289998561143875 -0.08867386728525162
-0.2692827880382538 0.2097262293100357 0.11246826499700546
0.29519206285476685 0.04399091750383377 -0.0395478829741478
0.2794668674468994 0.08389196544885635 -0.1347881406545639
-0.3316670358181 -0.4060879349708557 0.0013569684233516455
-0.1561955213546753 0.44149231910705566 0.028220413252711296
0.04756367951631546 -0.15071216225624084 -0.13095901906490326
-0.20634832978248596 0.3364534080028534 -0.0506194531917572
0.2779555022716522 -0.3230636417865753 0.04906287416815758
-0.11524896323680878 -0.24626867473125458 -0.05876237154006958
-0.27088215947151184 -0.17578712105751038 0.023186087608337402
-0.2700599133968353 -0.12454836815595627 0.1344529241323471
0.11823142319917679 -0.0900840312242508 0.17286565899848938
0.29451897740364075 0.45174145698547363 -0.023452909663319588
-0.2731287479400635 -0.04630955308675766 0.09952448308467865
0.20280447602272034 -0.2541375756263733 -0.06756548583507538
0.2982461154460907 -0.16840937733650208 -0.11698529124259949
0.2940334677696228 0.14208446443080902 -0.08161565661430359
-0.09077722579240799 0.22547774016857147 0.015783971175551414
-0.3287218511104584 -0.4193883240222931 -0.032780226320028305
-0.1660664975643158 0.22570987045764923 -0.11658687889575958
0.17975226044654846 0.36503612995147705 0.06293913722038269
-0.052296221256256104 -0.24986322224140167 0.007973309606313705
0.035201411694288254 0.1957840621471405 0.1582760363817215
-0.22433775663375854 -0.3762858510017395 -0.0832023173570633
0.12529873847961426 0.22591078281402588 0.013058612123131752
0.05035746842622757 -0.012744266539812088 0.1676713079214096
0.057334911078214645 0.22782084345817566 0.05906352773308754
-0.17969904839992523 0.4752005934715271 -0.035285934805870056
0.2529515027999878 0.12722359597682953 -0.13502012193202972
-0.1818731725215912 0.34243351221084595 0.07559680938720703
0.04836934059858322 0.2249661386013031 -0.00587785430252552
0.1873469352722168 0.19020605087280273 -0.1349351406097412
0.29955729842185974 0.06383398175239563 -0.02698652260005474
0.08980772644281387 0.1329909861087799 -0.13434553146362305
-0.2697919011116028 -0.18085166811943054 -0.01751810871064663
-0.2614273130893707 0.38048163056373596 -0.0054879747331142426
-0.09183847904205322 0.2254202663898468 0.11795642971992493
0.18502984941005707 -0.25119316577911377 -0.09392070025205612
-0.24483832716941833 0.010175774805247784 -0.27893543243408203
-0.19941446185112 -0.09397801756858826 -0.13384053111076355
-0.03865594044327736 0.15479105710983276 -0.18496307730674744
-0.12904883921146393 0.17199057340621948 -0.13495738804340363
0.18563023209571838 -0.4461497962474823 -0.017563829198479652
-0.26976442337036133 0.1958334594964981 -0.06119155511260033
-0.016860535368323326 -0.059390779584646225 -0.12945832312107086
-0.045327410101890564 -0.1830572932958603 -0.1353587955236435
-0.23967505991458893 0.49072450399398804 0.09016572684049606
-0.12231318652629852 0.22552356123924255 0.1024644523859024
-0.08878160268068314 -0.08085382729768753 -0.13359640538692474
0.156950443983078 -0.3371562659740448 -0.022348133847117424
0.25003427267074585 -0.3451773524284363 0.14075064659118652
0.29878678917884827 -0.1881864368915558 -0.10826471447944641
0.01739087514579296 0.2256470024585724 0.12271001189947128
-0.2776893377304077 -0.31985172629356384 -0.008750179782509804
-0.237644225358963 -0.27506035566329956 -0.021309617906808853
-0.13100461661815643 -0.12529700994491577 0.16905483603477478
0.2226201444864273 9.528896771371365e-05 0.1690036654472351
-0.006450159475207329 0.22758765518665314 -0.05367056652903557
-0.12604498863220215 0.13324663043022156 -0.13198469579219818
0.23995596170425415 -0.44834718108177185 0.14399859309196472
0.212215855717659 -0.24897925555706024 0.10463593155145645
0.20217952132225037 -0.08504855632781982 -0.13387368619441986
0.294718474149704 -0.10091111063957214 -0.11382392048835754
-0.1783333271741867 -0.39480310678482056 -0.011144991964101791
-0.26989662647247314 0.040172237902879715 0.1030600517988205
-0.27007466554641724 0.14125752449035645 -0.018240369856357574
-0.268097460269928 -0.1152518019080162 -0.005768155679106712
0.2587001919746399 -0.4157847762107849 -0.08828908205032349
0.0850357785820961 -0.08802100270986557 -0.1328541338443756
0.22653502225875854 -0.36418038606643677 -0.0886211022734642
0.18891394138336182 0.4613839387893677 -0.02554599568247795
-0.17239362001419067 -0.1694575399160385 -0.13370685279369354
-0.255199670791626 0.2301696538925171 -0.05536743253469467
-0.12661875784397125 0.051675666123628616 -0.13398461043834686
0.25682762265205383 -0.12053954601287842 -0.13215011358261108
0.23693905770778656 0.22713598608970642 0.10958939045667648
0.2814825475215912 -0.17770211398601532 -0.13672849535942078
-0.20565424859523773 0.4050448536872864 0.08889973163604736
0.014665844850242138 0.10133001208305359 0.16879040002822876
0.1752970814704895 0.09730377793312073 0.16666561365127563
0.29335445165634155 0.09353874623775482 0.006153500638902187
0.2930823564529419 0.13542112708091736 0.11550352722406387
0.08143185079097748 -0.022374510765075684 0.1696474701166153
-0.03232819586992264 -0.04162111133337021 0.17248372733592987
-0.22057358920574188 0.5023530125617981 0.07008186727762222
-0.0698801577091217 0.005024471785873175 -0.13387081027030945
-0.2571497857570648 -0.2890956699848175 0.05363696813583374
0.19286160171031952 -0.2512394189834595 0.09121599793434143
-0.1990860253572464 -0.37568992376327515 0.11048626899719238
-0.11559629440307617 -0.17380689084529877 0.17071229219436646
-0.1550259292125702 -0.07922995835542679 0.16947944462299347
-0.014568500220775604 -0.17131003737449646 -0.13606424629688263
-0.2663184106349945 0.0063569676131010056 0.07594706118106842
0.22443650662899017 -0.4467375576496124 0.1493399739265442
-0.33116742968559265 -0.33930498361587524 0.1517404317855835
0.2004895806312561 0.021141842007637024 0.16876305639743805
0.11592143028974533 0.19448889791965485 -0.1375456303358078
-0.18474213778972626 -0.2543485164642334 -0.08600509166717529
0.2706794738769531 -0.3043937683105469 0.04879922792315483
0.27873367071151733 0.10807693749666214 -0.1358318328857422
0.12477298080921173 -0.0635412186384201 0.17079280316829681
0.22717469930648804 -0.447495698928833 0.09804264456033707
-0.17812399566173553 0.1912214756011963 -0.13560283184051514
-0.10166841745376587 -0.24989496171474457 -0.03587193042039871
-0.324529230594635 -0.4063466489315033 0.02465330809354782
-0.28239089250564575 -0.401153028011322 0.16047681868076324
-0.2701210379600525 -0.03663257509469986 -0.1220114678144455
0.02439306303858757 -0.04683532193303108 0.17294655740261078
-0.09594405442476273 0.12338736653327942 -0.13297629356384277
-0.02073606662452221 -0.013367690145969391 -0.13274657726287842
-0.10717647522687912 0.22279629111289978 -0.05076698213815689
-0.051609333604574203 -0.03886963427066803 0.17225277423858643
0.0001915565662784502 0.21134206652641296 -0.16410814225673676
0.09770487248897552 0.22597023844718933 -0.08368022739887238
0.2958184480667114 -0.1488516628742218 0.09121092408895493
0.0861065611243248 -0.0062911007553339005 -0.1338520646095276
0.23519505560398102 0.20238056778907776 0.15634584426879883
0.29491981863975525 0.3908632695674896 0.11058272421360016
0.12346909940242767 -0.25258171558380127 -0.019322657957673073
-0.26946061849594116 0.1777518093585968 0.06099086254835129
-0.19155406951904297 -0.16818971931934357 -0.13617809116840363
-0.18500204384326935 0.496336430311203 0.013340099714696407
0.18316376209259033 -0.08649559319019318 0.17107659578323364
-0.29229632019996643 0.04242594167590141 -0.2959776818752289
0.2240498811006546 0.14930106699466705 -0.13780540227890015
0.23074105381965637 0.47040584683418274 -0.07220512628555298
0.09956590086221695 0.05976495146751404 -0.13510246574878693
-0.2705804109573364 -0.03377002477645874 -0.1211225613951683
0.2948678731918335 0.10253162682056427 0.07307393103837967
-0.13223138451576233 0.1905665546655655 0.15620946884155273
0.011860862374305725 0.01761038973927498 0.16861343383789062
-0.19724582135677338 0.43846407532691956 -0.07514680922031403
0.010803908109664917 0.2255888283252716 0.10984699428081512
0.25532302260398865 0.3314187228679657 0.08424229919910431
-0.03613052889704704 -0.25424328446388245 -0.11061493307352066
0.1596377044916153 -0.38026711344718933 -0.04134953022003174
-0.030336838215589523 -0.2524127662181854 -0.05867047607898712
0.20754927396774292 -0.37640973925590515 0.17235685884952545
-0.25814875960350037 -0.33414721488952637 0.15898063778877258
-0.27109494805336 0.1876543164253235 0.0020869080908596516
-0.00851974356919527 -0.13229042291641235 -0.13356977701187134
0.2631739675998688 -0.2793404161930084 0.04106871783733368
-0.19295932352542877 -0.32213398814201355 0.07885103672742844
-0.269664466381073 0.16359780728816986 0.08201586455106735
0.2964979410171509 0.1330464482307434 -0.02190713956952095
0.2983874976634979 -0.15919983386993408 0.07798877358436584
0.29665738344192505 0.12194458395242691 -0.03548998385667801
-0.024008341133594513 -0.00033212732523679733 0.17117546498775482
0.1355195939540863 -0.08020049333572388 0.16978846490383148
-0.26742997765541077 -0.18014638125896454 -0.11522302031517029
-0.25095000863075256 0.47759750485420227 0.013772973790764809
0.17538252472877502 0.10521075129508972 0.17084579169750214
-0.033370085060596466 -0.25294217467308044 -0.07894031703472137
0.15816879272460938 -0.014995917677879333 0.16933374106884003
0.2912762761116028 0.3527756631374359 -0.00782826915383339
0.17882943153381348 0.40653112530708313 -0.02195158414542675
-0.12665051221847534 -0.040378790348768234 -0.13557010889053345
-0.183501198887825 -0.16037167608737946 0.16885307431221008
0.2317054569721222 -0.2549735903739929 0.09576408565044403
0.16197466850280762 -0.06957832723855972 -0.1341630518436432
0.2973947525024414 -0.009428047575056553 0.07815253734588623
0.18543119728565216 0.4466116428375244 -0.03430304303765297
0.18150784075260162 -0.37856122851371765 0.16366878151893616
-0.08473420888185501 -0.05918295308947563 0.1690666675567627
0.27149730920791626 -0.13160254061222076 0.15675655007362366
-0.1682494431734085 -0.3645017445087433 0.007473543751984835
-0.3017878830432892 -0.4397040605545044 -0.0243133082985878
0.2913180887699127 0.338045209646225 0.02988935075700283
0.10352898389101028 0.22435297071933746 -0.01651894859969616
0.1857958734035492 -0.09968949854373932 -0.13382990658283234
-0.08488109707832336 -0.2511950433254242 -0.024464920163154602
-0.0679527074098587 0.0235560592263937 -0.13395065069198608
-0.2679643929004669 -0.16863830387592316 0.11553739011287689
0.20169803500175476 0.2247007191181183 0.03914482146501541
-0.26104140281677246 -0.2947496473789215 0.011620859615504742
-0.12452594935894012 -0.25428393483161926 -0.0925479307770729
-0.2701934576034546 -0.13408660888671875 0.10858375579118729
0.08716866374015808 -0.1829979121685028 -0.13588882982730865
-0.20684082806110382 0.1411568820476532 -0.13686488568782806
-0.16954204440116882 -0.30878114700317383 -0.03519067168235779
-0.24516284465789795 0.22683808207511902 -0.06936345249414444
-0.16602970659732819 -0.25095388293266296 0.13232971727848053
-0.03750546649098396 0.12927676737308502 -0.1701112985610962
-0.24543237686157227 -0.450356662273407 0.11030334234237671
0.297581285238266 0.12468035519123077 0.04005161672830582
0.035272836685180664 0.031831320375204086 0.1715223491191864
-0.15862572193145752 0.22565732896327972 0.015120996162295341
-0.2015163004398346 -0.01765967719256878 0.17004966735839844
0.11695308238267899 -0.23585844039916992 -0.13299155235290527
0.2766554355621338 -0.3207738995552063 0.021804172545671463
-0.12354804575443268 -0.22712738811969757 -0.1324828565120697
-0.1613602489233017 -0.32459133863449097 -0.006339816376566887
-0.26971107721328735 -0.09104642271995544 -0.10267961025238037
-0.2661382853984833 0.17937205731868744 -0.09725330024957657
-0.2681550979614258 0.1360832303762436 -0.08708619326353073
-0.24799205362796783 -0.2511042356491089 0.11965936422348022
0.1442253142595291 -0.3443148136138916 0.022786470130085945
0.09109775722026825 -0.13937318325042725 -0.13127177953720093
-0.2708771824836731 0.05690810829401016 -0.06707748025655746
0.16125209629535675 -0.14917483925819397 -0.13278506696224213
0.23339387774467468 -0.25366517901420593 -0.1134888157248497
0.28257766366004944 0.45199474692344666 -0.04970646649599075
-0.12102675437927246 0.22569794952869415 -0.06784557551145554
0.23993752896785736 0.05345388129353523 -0.13637326657772064
-0.27053213119506836 0.0016092476435005665 0.11960575729608536
-0.16488197445869446 0.22760911285877228 -0.010180422104895115
-0.12702225148677826 -0.2558988630771637 -0.0423184409737587
-0.11159719526767731 0.2221556454896927 -0.004509833175688982
0.23920707404613495 0.15374714136123657 -0.13575966656208038
-0.2199227213859558 -0.4709332287311554 0.021726077422499657
-0.29577040672302246 -0.4054788053035736 0.1095612496137619
-0.1791159063577652 -0.29847851395606995 -0.047918759286403656
0.20202937722206116 -0.11234603077173233 0.16873526573181152
-0.05968691036105156 -0.24848026037216187 0.13145384192466736
0.23759174346923828 -0.0959208533167839 -0.13384488224983215
0.3001532554626465 0.10864097625017166 -0.06951086223125458
-0.20134779810905457 -0.43420425057411194 -0.02597207762300968
0.08855746686458588 0.08872386068105698 0.1711081713438034
0.10531794279813766 -0.04603041708469391 -0.1339103728532791
-0.1858050674200058 -0.39585480093955994 -0.03182394057512283
0.06429318338632584 -0.25076425075531006 -0.007953955791890621
0.29615363478660583 0.19832859933376312 -0.024803413078188896
-0.2678106129169464 -0.31618955731391907 -0.034859005361795425
-0.17723529040813446 0.4185301661491394 -0.06308969110250473
0.21595968306064606 0.2256605476140976 -0.035034842789173126
-0.04679478332400322 -0.24725978076457977 0.09662003070116043
-0.18609607219696045 0.22622552514076233 -0.04372721537947655
-0.10280726850032806 -0.22599220275878906 -0.13754424452781677
-0.19884616136550903 -0.36178311705589294 0.10396727919578552
-0.2090231478214264 0.19395914673805237 -0.13564102351665497
