0.24570132791996002 0.49399855732917786 -0.06243995949625969
-0.2620197534561157 0.3482186198234558 0.0356547050178051
-0.2792726755142212 -0.347453236579895 0.19924575090408325
0.30075812339782715 0.0025089550763368607 -0.13233695924282074
0.24971696734428406 0.09966754913330078 0.1557224541902542
0.2594091594219208 -0.166337251663208 0.15404871106147766
-0.03419116139411926 0.15552154183387756 -0.19724111258983612
-0.08198962360620499 0.2109384685754776 0.15742991864681244
0.20438368618488312 0.465458482503891 0.10940486192703247
0.17984679341316223 -0.2502909004688263 0.024999039247632027
-0.26034048199653625 0.231382355093956 0.05395342782139778
0.2808864116668701 -0.4102502763271332 0.1902185082435608
0.2520585060119629 -0.25544679164886475 0.040578678250312805
-0.11859409511089325 -0.2438838928937912 0.15836642682552338
0.27564316987991333 0.49710506200790405 0.10781467705965042
0.3036888837814331 -0.20616866648197174 -0.13498139381408691
-0.07997400313615799 -0.19069629907608032 0.15980057418346405
-0.23560161888599396 0.0879421979188919 0.155877023935318
0.2890428602695465 0.3468793034553528 0.0896185114979744
-0.23875826597213745 0.48459839820861816 0.11831139028072357
-0.3189079463481903 -0.396794855594635 -0.06207600608468056
0.28994277119636536 0.3479888439178467 0.06717858463525772
-0.26267755031585693 -0.22410446405410767 0.15436626970767975
-0.26160165667533875 0.15193922817707062 0.16248953342437744
-0.19825972616672516 0.17432624101638794 0.15024949610233307
-0.2011718600988388 0.39883673191070557 0.09048222005367279
-0.25175100564956665 0.475996196269989 0.04593577980995178
0.2961537539958954 0.12379973381757736 0.1501736342906952
0.28402969241142273 0.22825594246387482 0.08252107352018356
-0.20248261094093323 0.3237055242061615 0.051653094589710236
0.1614113599061966 -0.24507741630077362 0.16148243844509125
0.2644554376602173 0.27778515219688416 0.028175219893455505
0.2762904167175293 0.22819826006889343 0.14108805358409882
0.27901676297187805 0.47026047110557556 0.131681889295578
0.2599239945411682 0.48739710450172424 -0.05985086411237717
-0.2125885784626007 0.3920556604862213 0.09308706969022751
0.17971892654895782 0.2132476419210434 0.15750035643577576
0.301235169172287 -0.2341366410255432 -0.13476784527301788
-0.02656443789601326 0.1236436665058136 -0.19080820679664612
-0.233850359916687 -0.3996015191078186 0.19369015097618103
-0.23356136679649353 0.21643000841140747 0.1584283709526062
-0.3285275399684906 -0.34548625349998474 0.19443011283874512
0.29850178956985474 0.007061765529215336 -0.1312158852815628
0.04963872954249382 0.18864670395851135 -0.2198946624994278
-0.24053235352039337 -0.25525638461112976 -0.017049629241228104
0.26418447494506836 -0.2575245499610901 -0.13412733376026154
-0.2572827935218811 -0.24885009229183197 0.1077507808804512
0.26453256607055664 -0.30977606773376465 0.09294762462377548
0.2572503685951233 0.15930360555648804 0.1514495462179184
0.11829769611358643 0.17804042994976044 0.1554223895072937
0.026691487058997154 0.09516604989767075 -0.13695171475410461
-0.1877906173467636 0.30956146121025085 -0.00046911370009183884
-0.02443435974419117 0.12969259917736053 -0.1959162950515747
-0.21656183898448944 0.3613540828227997 0.11468079686164856
-0.2356920689344406 -0.4816942512989044 -0.011844205670058727
-0.25988635420799255 0.21308866143226624 -0.3190019726753235
0.19958128035068512 0.22109709680080414 -0.13682807981967926
-0.2907727062702179 0.07349500805139542 -0.27974414825439453
-0.26448357105255127 0.14422281086444855 0.16025123000144958
-0.04224380850791931 0.2885826528072357 -0.2587011158466339
-0.05187388136982918 0.2963203489780426 -0.28907400369644165
0.25460097193717957 0.14977945387363434 0.15028557181358337
-0.28607335686683655 0.1396937519311905 -0.3177596926689148
-0.2695287764072418 0.13650423288345337 0.15626323223114014
0.2238759845495224 0.18499964475631714 0.15101218223571777
0.20084397494792938 0.4982328712940216 0.007497844286262989
-0.28546518087387085 0.14308564364910126 -0.3097035884857178
-0.23194590210914612 -0.26308614015579224 -0.016847940161824226
0.2517891824245453 0.3076721429824829 0.049805738031864166
0.2878821790218353 -0.19779609143733978 0.15763640403747559
-0.2687106132507324 -0.25491613149642944 -0.11705601215362549
-0.33551061153411865 -0.4017975628376007 -0.021251078695058823
0.21434183418750763 0.2274169772863388 0.04281759634613991
0.29494309425354004 -0.11117750406265259 0.1587904989719391
0.27447402477264404 0.24896526336669922 0.016859371215105057
-0.2561153173446655 -0.2510260045528412 -0.13191930949687958
0.24942390620708466 -0.3810608386993408 -0.08683527261018753
0.19072243571281433 0.3325861990451813 0.04598909616470337
-0.020168107002973557 0.19610321521759033 -0.14143039286136627
-0.26910242438316345 0.09645596891641617 0.15877273678779602
-0.2683486342430115 -0.20680445432662964 0.15954561531543732
0.25267529487609863 0.11250411719083786 0.14713789522647858
0.008292945101857185 -0.24676041305065155 0.1575617492198944
-0.2427230328321457 0.41421884298324585 0.10269580036401749
-0.22838926315307617 0.2845807373523712 0.0352572500705719
-0.07838764786720276 -0.18993328511714935 0.1645413339138031
-0.23036718368530273 -0.1875084936618805 0.14800167083740234
-0.10159757733345032 0.1550784856081009 0.1698799580335617
0.23810581862926483 0.47876110672950745 0.1067533791065216
-0.3292706310749054 -0.3903711140155792 -0.02632885053753853
0.30076631903648376 -0.16508935391902924 -0.13829119503498077
0.29677021503448486 0.07667543739080429 0.15120893716812134
-0.2332766205072403 -0.4803531765937805 -0.020055288448929787
0.10149120539426804 -0.24014434218406677 0.15936510264873505
0.17218700051307678 -0.4462531805038452 -0.05015981197357178
-0.2599731981754303 -0.007346752565354109 -0.22827331721782684
-0.19911858439445496 0.3246116638183594 -0.3231787085533142
-0.21820876002311707 0.503775954246521 0.040752049535512924
-0.20431998372077942 0.34463536739349365 -0.05832932889461517
-0.27168992161750793 -0.2432425171136856 0.15293118357658386
0.12018126249313354 0.2292611300945282 -0.13508427143096924
0.11465360224246979 0.15619608759880066 0.16940438747406006
-0.3392272889614105 -0.3801739513874054 0.051906995475292206
-0.00044274330139160156 0.2114356905221939 0.15621866285800934
-0.21384157240390778 0.26383599638938904 -0.025925615802407265
-0.2704084515571594 0.13981348276138306 0.160829558968544
-0.3350057005882263 -0.3975868225097656 -0.020538032054901123
0.296471506357193 0.13985732197761536 0.15132592618465424
0.20075809955596924 -0.25005945563316345 0.15271109342575073
-0.20172511041164398 -0.2455153614282608 -0.12707588076591492
0.13314016163349152 0.22139550745487213 -0.13643434643745422
-0.27101635932922363 -0.08928579837083817 -0.235748291015625
-0.04394720494747162 0.16509956121444702 0.1614653617143631
0.25348031520843506 -0.16808542609214783 0.1544840931892395
-0.2711181640625 -0.06233719363808632 -0.21916146576404572
-0.22976969182491302 -0.48518022894859314 0.0012190230190753937
0.054518911987543106 0.19113709032535553 -0.1609349399805069
0.1729530245065689 -0.4405074715614319 0.1944328099489212
0.005276118405163288 0.11215255409479141 -0.20223389565944672
-0.16131427884101868 -0.18821294605731964 0.16304907202720642
-0.18922847509384155 0.25545117259025574 -0.011198698543012142
-0.1679290235042572 0.3701639771461487 0.09358986467123032
-0.2653593420982361 0.03697103634476662 0.15851230919361115
0.26698172092437744 -0.3751472532749176 -0.07325209677219391
-0.17463815212249756 0.3706279993057251 0.10067664831876755
0.2950150966644287 0.22373555600643158 0.10325398296117783
-0.23438353836536407 0.2795282006263733 0.013977358117699623
-0.2660079300403595 0.1788390427827835 -0.3416486978530884
0.08327393233776093 -0.24881991744041443 0.15754234790802002
0.29280713200569153 -0.17431949079036713 0.14802737534046173
0.05006997659802437 0.22904863953590393 -0.19755975902080536
0.2338723987340927 0.22708755731582642 -0.12960387766361237
0.0007547343848273158 0.1984160989522934 -0.14622431993484497
0.21082383394241333 0.2883095145225525 0.01977989263832569
0.2608954608440399 0.0855303406715393 0.15514397621154785
-0.2528174817562103 0.01010688953101635 -0.303629606962204
0.10460737347602844 -0.25905361771583557 -0.13206878304481506
0.29519709944725037 -0.24623356759548187 0.1143699586391449
-0.228732630610466 -0.2518235445022583 -0.06171943247318268
-0.24819904565811157 -0.251246839761734 -0.0559782050549984
-0.1413896381855011 0.34097447991371155 -0.3227754831314087
0.16528785228729248 -0.19085736572742462 0.1666916012763977
-0.18508058786392212 0.4910728931427002 0.09611142426729202
0.1406010538339615 -0.23965683579444885 0.1587655395269394
-0.2188640832901001 -0.46954256296157837 0.10004814714193344
-0.17007511854171753 0.4525248408317566 -0.03635311871767044
-0.33930763602256775 -0.38433870673179626 0.059349000453948975
-0.20027489960193634 -0.1882576197385788 0.15650613605976105
-0.02719007059931755 0.2049010992050171 -0.16675329208374023
-0.21769686043262482 -0.06720197200775146 0.16475196182727814
-0.19156289100646973 0.2708529829978943 -0.009211355820298195
0.2678021192550659 0.5013549327850342 0.10637500882148743
0.2252400666475296 -0.251569002866745 -0.04444275051355362
-0.23665815591812134 -0.394739031791687 0.19584909081459045
-0.12479058653116226 -0.2458801567554474 0.15741075575351715
-0.0660828948020935 0.3057785928249359 -0.2815682590007782
0.28475385904312134 -0.24990224838256836 0.02175062522292137
0.28880393505096436 -0.08535289764404297 0.15457840263843536
-0.2329520732164383 0.2988797128200531 -0.013349468819797039
-0.22873614728450775 -0.15762221813201904 0.1570855677127838
-0.2736654579639435 -0.3889964818954468 -0.08744291961193085
0.20734061300754547 0.2278824746608734 0.035311613231897354
-0.23302514851093292 -0.3312205970287323 -0.07858259975910187
0.29000768065452576 -0.44009432196617126 0.06505142152309418
0.2522229552268982 0.26685142517089844 -0.018310679122805595
0.039594318717718124 0.1049974262714386 -0.1746024489402771
-0.24197961390018463 -0.4178088307380676 0.20560277998447418
-0.23735560476779938 0.23791152238845825 -0.023732557892799377
-0.1731625199317932 0.36637571454048157 -0.05676460266113281
-0.24388554692268372 -0.3774515390396118 -0.08305960893630981
0.2459874451160431 -0.321024090051651 -0.07844232767820358
0.17635869979858398 0.40588808059692383 -0.00542665459215641
-0.1026972085237503 0.13008612394332886 0.16915614902973175
0.027302149683237076 -0.2486865222454071 0.12396158277988434
0.25106266140937805 -0.1849195659160614 0.15302011370658875
0.08187173306941986 0.1563948094844818 -0.13487930595874786
0.29755285382270813 0.08955255895853043 0.09683531522750854
0.005949478596448898 -0.05046968162059784 0.16906295716762543
0.13355539739131927 -0.20413774251937866 0.16190674901008606
-0.26892557740211487 0.05577661097049713 -0.12952199578285217
-0.24488113820552826 0.013123124837875366 -0.2706773281097412
0.15814396739006042 -0.29300782084465027 0.0014693662524223328
0.14189618825912476 -0.36663007736206055 0.04291117563843727
-0.26656395196914673 0.38905689120292664 -0.0070098512805998325
0.2380364090204239 -0.25573933124542236 -0.13245369493961334
-0.01645221933722496 -0.2568932771682739 -0.1339753270149231
0.2943672239780426 -0.06302531063556671 -0.13328319787979126
0.01871492899954319 0.09924857318401337 -0.16729627549648285
0.21526096761226654 -0.32712098956108093 -0.06980273872613907
-0.031759049743413925 -0.250034362077713 0.11391539126634598
0.281657338142395 0.3919003903865814 -0.0673707127571106
-0.1678006649017334 0.2285970151424408 0.06381993740797043
0.18930917978286743 0.48435524106025696 0.07648608088493347
0.05681902915239334 -0.2253275364637375 -0.1347225457429886
-0.26147395372390747 -0.17829583585262299 -0.13113823533058167
-0.2718862295150757 0.18295443058013916 0.15232355892658234
0.29650241136550903 -0.1459023356437683 -0.13066256046295166
0.2983380854129791 -0.07806293666362762 0.13846492767333984
0.049673523753881454 0.15668107569217682 -0.1355159878730774
0.29592934250831604 0.08583135902881622 0.15853433310985565
0.18695726990699768 0.22742198407649994 -0.13388893008232117
0.29626888036727905 -0.005652301013469696 0.15437661111354828
0.29591482877731323 -0.0425463430583477 -0.13768765330314636
0.06972470134496689 -0.24930645525455475 -0.11941176652908325
0.17860423028469086 0.37198466062545776 -0.019700083881616592
0.28896886110305786 -0.38332656025886536 0.12688614428043365
-0.2533505856990814 0.13640660047531128 -0.1329360008239746
0.2892884612083435 0.026187481358647346 -0.13437792658805847
0.21373683214187622 -0.30807816982269287 -0.06399040669202805
0.2806781530380249 -0.4153675138950348 -0.04162861034274101
-0.26177549362182617 0.35490357875823975 0.03330789878964424
0.2966015338897705 -0.01121644489467144 0.14116884768009186
0.11999306082725525 0.2282751202583313 -0.13248471915721893
0.21909072995185852 -0.2500253915786743 -0.11912801861763
0.2643248438835144 -0.28067946434020996 0.04123051464557648
0.2639271914958954 -0.2927630841732025 -0.019008507952094078
0.297363817691803 -0.15979605913162231 -0.08267025649547577
0.2953577935695648 0.22260782122612 0.09613648802042007
0.24993567168712616 -0.44682052731513977 0.19968920946121216
-0.26835599541664124 -0.24450469017028809 -0.03034888207912445
-0.16478002071380615 0.35746920108795166 -0.03194634988903999
0.18520253896713257 -0.37190449237823486 0.16523069143295288
0.19839966297149658 -0.20351383090019226 0.16077011823654175
0.23505151271820068 -0.4458750784397125 0.1995013952255249
0.23115146160125732 0.22745081782341003 -0.1342124342918396
0.252777636051178 -0.30310165882110596 0.0979093611240387
0.2645246386528015 -0.32551684975624084 0.11970888823270798
0.22676396369934082 -0.41498544812202454 -0.08527343720197678
-0.29726508259773254 -0.38892486691474915 0.14968684315681458
0.2202075868844986 -0.2788635194301605 -0.05893322825431824
0.2612663507461548 -0.07709213346242905 0.15103720128536224
0.2560853362083435 -0.3613775074481964 0.15214267373085022
-0.1625247448682785 0.4678407907485962 0.07415249943733215
-0.2282826006412506 -0.3777598440647125 -0.07272687554359436
0.2828367352485657 -0.38544711470603943 -0.03712383657693863
0.14548733830451965 -0.21441251039505005 0.1529017686843872
-0.143965482711792 -0.208945170044899 0.1608407348394394
-0.27055543661117554 -0.2345678061246872 0.12458965182304382
-0.24469292163848877 -0.2544742524623871 0.09773000329732895
0.03463997691869736 0.2293304055929184 0.12901172041893005
0.08482804894447327 -0.07142218947410583 -0.1372046023607254
-0.0535801500082016 -0.2514004707336426 -0.13457442820072174
0.24192170798778534 -0.44791993498802185 -0.04169749468564987
0.29798880219459534 0.009746469557285309 -0.06570146232843399
-0.19255506992340088 -0.4445216655731201 0.011177820153534412
-0.03745433688163757 -0.23000161349773407 0.15611547231674194
-0.2688831090927124 0.049798861145973206 -0.13112583756446838
0.2038373202085495 -0.2498677372932434 0.11770124733448029
-0.023861132562160492 0.19197876751422882 0.15929222106933594
-0.2092316597700119 0.010302633047103882 0.1674211621284485
-0.26712802052497864 -0.0390927828848362 -0.13268110156059265
-0.006169890984892845 0.1943790763616562 0.15765289962291718
0.2915104031562805 -0.24673783779144287 -0.13320215046405792
0.0549071803689003 -0.2489456683397293 -0.1204340010881424
0.2902016043663025 -0.41868823766708374 0.12424449622631073
-0.270028680562973 -0.12293320894241333 -0.12775202095508575
0.23925074934959412 -0.21252116560935974 0.15946754813194275
0.27892401814460754 -0.13052469491958618 0.1568886935710907
-0.2195754051208496 0.45067861676216125 0.09372542798519135
-0.24055436253547668 -0.4712503254413605 0.005074510350823402
-0.26819270849227905 0.14199616014957428 -0.12852482497692108
-0.11470875889062881 -0.2533205449581146 -0.13390545547008514
-0.2804819643497467 -0.36742448806762695 -0.07836494594812393
0.07218616455793381 -0.2630968689918518 -0.1326349824666977
-0.2730668783187866 -0.17640960216522217 0.14674395322799683
0.027963735163211823 0.06199055165052414 -0.1361922174692154
0.29443052411079407 0.06676822155714035 0.15169398486614227
-0.27101945877075195 0.04808226600289345 0.1452915072441101
0.2530093789100647 -0.2019648253917694 0.15436695516109467
0.2220400720834732 0.22886693477630615 0.14083032310009003
-0.322501003742218 -0.3584035336971283 0.028376247733831406
-0.26885005831718445 -0.20470218360424042 -0.12437159568071365
-0.17587418854236603 -0.3662557303905487 0.06296000629663467
-0.1787320375442505 0.22587355971336365 -0.13163678348064423
0.2946139872074127 0.19897978007793427 -0.13387082517147064
0.28235936164855957 -0.44619008898735046 0.17213496565818787
0.29071664810180664 -0.4216488003730774 0.11598123610019684
-0.2990994155406952 -0.43089759349823 0.0196877121925354
0.016081534326076508 0.21532435715198517 -0.16288098692893982
0.25822949409484863 -0.1681489646434784 0.15878210961818695
-0.2690999507904053 -0.010772084817290306 -0.12121056020259857
0.011632412672042847 0.16377706825733185 0.16256026923656464
-0.21616396307945251 0.019321653991937637 0.17175012826919556
0.10398618876934052 0.08502310514450073 -0.13718223571777344
-0.08210275322198868 0.22839370369911194 -0.12844975292682648
0.2595183253288269 -0.4434187114238739 -0.059886254370212555
0.2298993319272995 -0.4474496841430664 -0.045092854648828506
0.19784943759441376 -0.3020423352718353 -0.05496230721473694
0.296600341796875 -0.4432046711444855 0.07450549304485321
-0.18818558752536774 -0.1829596757888794 0.16695034503936768
-0.035700563341379166 -0.18592748045921326 0.16881947219371796
0.13532477617263794 -0.4235168397426605 0.08473972976207733
0.2962431311607361 -0.10899913311004639 0.12874609231948853
0.25338417291641235 -0.2099514603614807 0.15438449382781982
-0.2597855031490326 0.04229988157749176 -0.12777435779571533
0.17405329644680023 -0.4007619321346283 -0.06106658652424812
-0.10663089901208878 0.11684955656528473 -0.13306944072246552
0.28854089975357056 -0.44345012307167053 0.1247754916548729
-0.2751266360282898 0.21803325414657593 0.13105791807174683
0.28419286012649536 -0.37908750772476196 0.13490207493305206
0.21003219485282898 -0.3748469054698944 -0.0809583067893982
0.2912520170211792 -0.2562544345855713 -0.1333567351102829
0.29941922426223755 0.3797151446342468 0.04303736239671707
0.16270911693572998 -0.39355844259262085 0.1679077446460724
-0.2690451145172119 0.22218742966651917 -0.09807204455137253
0.09568753093481064 0.2251005917787552 -0.13081279397010803
-0.26687192916870117 0.21815694868564606 -0.12255434691905975
-0.03782996907830238 0.22951151430606842 0.01744573563337326
0.13785719871520996 0.22631968557834625 0.0653490498661995
0.036166395992040634 0.18415552377700806 -0.13273809850215912
0.14447705447673798 -0.36094313859939575 0.02224470116198063
0.2933615744113922 0.017841072753071785 -0.13442744314670563
-0.26913249492645264 -0.014524628408253193 -0.12957020103931427
-0.26115942001342773 0.13493658602237701 -0.13300591707229614
-0.3026854395866394 -0.38216432929039 -0.06908311694860458
0.2823345959186554 -0.41401877999305725 0.19489651918411255
0.2939450740814209 -0.2127935290336609 0.1437801718711853
0.26005735993385315 -0.25178974866867065 0.09613965451717377
-0.24264276027679443 0.22816574573516846 -0.03684108331799507
0.2872236669063568 -0.052174489945173264 -0.13128440082073212
0.0003212336450815201 -0.24971763789653778 -0.10791784524917603
-0.2640320360660553 -0.019925344735383987 -0.13023275136947632
-0.03421032056212425 0.12720149755477905 -0.16648706793785095
0.17890116572380066 -0.28988322615623474 -0.03398286551237106
0.28024718165397644 -0.44442227482795715 0.12700486183166504
0.19364924728870392 -0.4041564464569092 0.19167430698871613
0.1535326987504959 -0.34613439440727234 0.07609167695045471
0.26746198534965515 -0.2495369166135788 -0.06882116198539734
-0.1538563370704651 0.4173007011413574 0.02685541659593582
-0.006981343030929565 -0.0640735775232315 0.1707167774438858
-0.26891881227493286 0.21895115077495575 0.03742855042219162
0.1083863377571106 0.22749164700508118 -0.13131600618362427
0.2769300639629364 0.3148176074028015 0.022528760135173798
0.002004041103646159 0.1004469245672226 -0.173282653093338
-0.2663326561450958 0.1987655907869339 -0.13250790536403656
-0.2685621678829193 -0.24584323167800903 -0.12793461978435516
-0.24357496201992035 0.19643068313598633 -0.13438594341278076
-0.1224176287651062 0.22426679730415344 -0.1285470575094223
0.03680839389562607 -0.25120794773101807 0.012385682202875614
0.17397087812423706 0.44438111782073975 0.03688393160700798
0.29289984703063965 0.14303068816661835 -0.13397671282291412
0.2949942350387573 0.15342757105827332 0.15235969424247742
-0.26573890447616577 0.09804635494947433 -0.13142900168895721
-0.26339197158813477 -0.32203811407089233 0.14394541084766388
0.21304082870483398 -0.444733589887619 -0.05507673695683479
0.2421671748161316 -0.13193443417549133 0.16820219159126282
-0.3025469183921814 -0.4303884208202362 -0.004220016300678253
-0.2720794379711151 -0.357704222202301 0.2018691748380661
0.12749148905277252 0.22703345119953156 -0.1304464489221573
0.2756827175617218 0.14470632374286652 0.1566888988018036
-0.27347657084465027 0.06057192012667656 0.15147073566913605
0.29122036695480347 -0.0898827314376831 -0.13141392171382904
-0.2681921720504761 0.146079882979393 -0.13227713108062744
-0.24400204420089722 -0.30934056639671326 -0.06604678183794022
0.1395614594221115 -0.250150203704834 0.14635959267616272
-0.12081584334373474 -0.24990619719028473 0.049156296998262405
0.13613058626651764 0.22745320200920105 -0.12872223556041718
-0.25416919589042664 0.22467637062072754 -0.1317603886127472
-0.16427826881408691 0.3894183933734894 -0.033023953437805176
-0.18208305537700653 -0.415158748626709 0.07082018256187439
0.032971885055303574 0.19690924882888794 -0.2260456532239914
-0.2004944235086441 0.33706560730934143 -0.049615465104579926
0.24229645729064941 0.10451716929674149 0.16629759967327118
0.17902064323425293 0.22683727741241455 -0.1315169483423233
0.236271932721138 0.22694791853427887 -0.1211688369512558
-0.2683107554912567 -0.23804226517677307 -0.12832485139369965
0.26608994603157043 0.4980567693710327 -0.026015501469373703
0.25499284267425537 -0.17321215569972992 0.15535947680473328
0.14952918887138367 -0.40504392981529236 0.13870644569396973
0.29489371180534363 -0.0988030731678009 0.1488582342863083
0.2522895336151123 0.22855763137340546 0.07488389313220978
0.2939399480819702 -0.07260628044605255 -0.1369713842868805
-0.2694855034351349 0.1623774915933609 -0.13245946168899536
0.2960026264190674 -0.19380350410938263 0.1455816924571991
-0.13387438654899597 0.21752282977104187 -0.13474561274051666
-0.27146103978157043 -0.0027340874075889587 0.09406600892543793
0.23895849287509918 -0.20068776607513428 0.15220782160758972
-0.3050745725631714 -0.3972223699092865 0.10305559635162354
0.030986905097961426 -0.26095616817474365 -0.12888050079345703
-0.2708675265312195 0.221877321600914 0.04549161344766617
0.16384930908679962 0.22662527859210968 -0.1346655786037445
0.2944813370704651 -0.1393105834722519 -0.13938423991203308
0.28108519315719604 -0.2592906951904297 -0.13319271802902222
0.24009999632835388 -0.29753339290618896 0.09390873461961746
0.010008344426751137 0.06336502730846405 -0.1375039517879486
-0.22571593523025513 -0.3134077489376068 0.09827470034360886
-0.26945164799690247 -0.2104138433933258 0.02025594934821129
0.2712441384792328 0.4914354383945465 -0.03264946863055229
-0.2490472048521042 -0.28175675868988037 0.025609157979488373
0.27571436762809753 0.32823285460472107 0.06887029111385345
0.03503870964050293 0.1975885033607483 0.15777845680713654
-0.2678077518939972 -0.1089152842760086 -0.12598387897014618
0.0181571077555418 0.18211601674556732 0.14955443143844604
0.2970215976238251 0.21601687371730804 0.08469212800264359
0.29037532210350037 -0.4464873671531677 0.09507165849208832
-0.009889290668070316 0.2706768214702606 -0.2216256856918335
0.29681092500686646 -0.1845804750919342 -0.1327340304851532
-0.23841962218284607 -0.4689413011074066 -0.03862909600138664
-0.08618288487195969 0.18049103021621704 0.15353798866271973
0.23829428851604462 -0.014167403802275658 0.16442419588565826
0.294833242893219 -0.19568103551864624 -0.13213026523590088
-0.17054930329322815 0.22835363447666168 -0.12709668278694153
-0.11132892966270447 0.2278674691915512 -0.12957586348056793
-0.2605080008506775 0.43569329380989075 -0.016825996339321136
0.28083208203315735 0.32148733735084534 -0.0023711510002613068
-0.2705128490924835 -0.09880875051021576 -0.10870726406574249
-0.21304097771644592 0.015602879226207733 0.1687929928302765
-0.2666029632091522 0.16357269883155823 -0.0036797896027565002
0.20623724162578583 0.17648600041866302 0.1565578132867813
-0.2684301435947418 0.21944311261177063 0.03963155299425125
-0.29127222299575806 -0.0065423413179814816 -0.2829660475254059
0.22181099653244019 0.2283053696155548 0.07809028029441833
-0.26683899760246277 -0.20790068805217743 -0.1325940638780594
0.23536142706871033 0.11670050024986267 0.16716590523719788
0.19172295928001404 0.22864215075969696 0.03729282319545746
0.16048382222652435 -0.2961249351501465 -0.015569617971777916
-0.0031932364217936993 -0.2504832446575165 0.028093498200178146
-0.16448213160037994 0.4587008059024811 -0.011361651122570038
-0.2525617778301239 0.040788862854242325 -0.13418306410312653
-0.24418431520462036 0.46087294816970825 -0.0430121086537838
0.15898030996322632 -0.20844244956970215 0.1561298966407776
-0.26693230867385864 -0.13731126487255096 -0.13145405054092407
0.17659346759319305 0.39913395047187805 0.0631142407655716
0.2927659749984741 0.06057487055659294 0.15386809408664703
-0.1992047131061554 -0.3305980861186981 -0.060974568128585815
-0.024709274992346764 -0.22136318683624268 0.1555415242910385
-0.2179541289806366 -0.25046342611312866 0.11160482466220856
-0.1764182448387146 0.4899485409259796 0.03199603781104088
0.06147017329931259 -0.25104567408561707 -0.12034834176301956
0.29563185572624207 0.18594768643379211 0.14282527565956116
0.29840368032455444 -0.06045360118150711 -0.11048343777656555
0.2507393956184387 -0.20725910365581512 0.15606814622879028
-0.2614918351173401 -0.34614381194114685 -0.08187554031610489
-0.18218787014484406 -0.3164050281047821 0.06848971545696259
-0.19916096329689026 0.22814388573169708 -0.12800848484039307
-0.2642385959625244 0.13799118995666504 -0.1314355880022049
0.017339859157800674 0.2231135219335556 -0.17144300043582916
0.1452200561761856 0.22588340938091278 0.11386528611183167
0.13580098748207092 0.1865795999765396 -0.13652878999710083
-0.268598347902298 0.14777863025665283 -0.13237394392490387
-0.19718366861343384 0.3937695026397705 -0.08022039383649826
-0.27065226435661316 0.1855873465538025 -0.132794588804245
0.2958063781261444 0.1488274335861206 0.13686531782150269
-0.23771502077579498 -0.4161835014820099 -0.0682341530919075
0.16257613897323608 -0.21881818771362305 0.15166352689266205
-0.2664814293384552 0.11228670924901962 -0.13167613744735718
0.2269408255815506 -0.32416754961013794 -0.0804949551820755
-0.26844075322151184 0.049392446875572205 -0.13319706916809082
0.2978591322898865 0.06744322180747986 -0.04618791863322258
-0.24593235552310944 -0.0547775998711586 -0.2656432092189789
-0.2682710289955139 0.05054005980491638 -0.1292707622051239
0.29732879996299744 0.2142210155725479 0.1339508295059204
0.26566094160079956 -0.24975256621837616 -0.12148211896419525
-0.008152789436280727 -0.2495366930961609 -0.11682382225990295
-0.08385755866765976 -0.25316402316093445 -0.11879119277000427
-0.26947951316833496 -0.1891624480485916 -0.13385844230651855
-0.27073514461517334 0.054820578545331955 0.14752990007400513
0.021726612001657486 0.1987636685371399 -0.23152822256088257
0.2826681137084961 -0.3621138632297516 -0.008165370672941208
-0.27041882276535034 -0.03503599017858505 -0.12144773453474045
-0.17101038992404938 0.40376681089401245 -0.0491521954536438
-0.2692525386810303 0.1612647920846939 0.06638079136610031
-0.258461594581604 0.08849307149648666 -0.13185955584049225
0.1658637523651123 -0.25117120146751404 0.08598477393388748
0.05199739709496498 0.1269305944442749 -0.1337466686964035
0.09778309613466263 0.15126796066761017 0.1702670454978943
0.23602908849716187 0.46006667613983154 -0.08256738632917404
0.2959738075733185 -0.12072204798460007 0.14133332669734955
0.29930949211120605 0.14571690559387207 -0.12433765828609467
-0.26615282893180847 0.45278283953666687 0.06961900740861893
0.2614874541759491 -0.11864812672138214 0.15451061725616455
0.1807105541229248 -0.20925286412239075 0.15868313610553741
0.2946954667568207 -0.051923301070928574 -0.13499268889427185
-0.17561748623847961 0.2219184786081314 -0.1326310634613037
0.17945216596126556 0.4013040065765381 0.08910536020994186
-0.24685212969779968 -0.05700470879673958 -0.268968790769577
-0.20640820264816284 -0.16919344663619995 0.16759827733039856
-0.06335952877998352 -0.22728922963142395 0.15470410883426666
-0.17214031517505646 -0.25080224871635437 0.12188149243593216
0.23892273008823395 -0.029263459146022797 0.1680428832769394
-0.2084461748600006 -0.2868901491165161 0.07992163300514221
0.10434772819280624 0.14088481664657593 -0.13468192517757416
0.14302009344100952 0.15423256158828735 -0.13425187766551971
0.2960890531539917 -0.05808672681450844 0.14665240049362183
-0.26833757758140564 -0.21069779992103577 -0.048147231340408325
0.04338715970516205 0.15727153420448303 0.1634405106306076
-0.2537570297718048 -0.2066858559846878 -0.13623172044754028
-0.2648502588272095 -0.25320756435394287 -0.09720449149608612
0.20148536562919617 0.16300936043262482 0.16178302466869354
0.29631176590919495 -0.10283081233501434 0.15375086665153503
0.17545169591903687 0.3971284329891205 0.004023510031402111
0.16768980026245117 -0.2521931529045105 0.1552102118730545
0.08833510428667068 0.17717480659484863 0.15130561590194702
-0.1740514189004898 0.20715387165546417 -0.13716506958007812
-0.22690491378307343 0.22126588225364685 -0.13328121602535248
0.29735466837882996 0.21664011478424072 0.07477444410324097
0.1739943027496338 -0.25466060638427734 0.14063376188278198
0.2790289521217346 -0.3408225178718567 0.06360549479722977
-0.2617203891277313 0.4399672746658325 0.07857268303632736
0.2711676359176636 -0.24874380230903625 0.10313497483730316
0.20596100389957428 -0.27297574281692505 -0.0441838800907135
0.022418005391955376 0.13469161093235016 -0.2081523835659027
-0.26978570222854614 -0.12814083695411682 -0.1291520744562149
0.20153743028640747 -0.38933831453323364 0.18637603521347046
0.18925929069519043 0.15232586860656738 0.17114444077014923
-0.012527292594313622 0.22230155766010284 0.1265212744474411
-0.24569496512413025 -0.0023136641830205917 -0.26304468512535095
-0.1165982037782669 -0.24864183366298676 0.132627472281456
0.29614585638046265 0.44193413853645325 0.09231920540332794
0.27792125940322876 -0.24894292652606964 0.016464337706565857
0.2989673614501953 0.21239379048347473 0.15399466454982758
0.2904527485370636 0.10603755712509155 0.1527545303106308
-0.2544211745262146 0.4110245406627655 -0.05721832811832428
0.07202417403459549 0.22714534401893616 -0.12759047746658325
0.18937961757183075 0.4884401857852936 0.0393037311732769
0.25643593072891235 -0.3243061602115631 0.11445138603448868
0.2959888279438019 -0.03119860589504242 0.1520075500011444
0.29631471633911133 0.21989935636520386 0.052518025040626526
-0.09200422465801239 -0.2514587938785553 -0.12511567771434784
0.2034924328327179 -0.20128172636032104 0.16368521749973297
-0.3082520067691803 -0.35520291328430176 -0.01636315882205963
-0.2399037927389145 -0.2538111209869385 -0.07643190771341324
0.1988573968410492 -0.3025346100330353 -0.05501045286655426
-0.2712510824203491 0.14025960862636566 -0.06817877292633057
0.09873955696821213 0.16026932001113892 -0.1329687535762787
0.2923065721988678 -0.44033312797546387 0.05116806924343109
-0.24697688221931458 -0.4359387755393982 0.13813643157482147
0.27986428141593933 -0.4070618152618408 0.19676102697849274
-0.20398816466331482 0.221184641122818 -0.13335582613945007
-0.26022452116012573 -0.23017518222332 -0.1311648190021515
0.25128546357154846 0.22899559140205383 0.08438074588775635
-0.26911604404449463 -0.20190246403217316 -0.12506672739982605
0.28022998571395874 -0.44662871956825256 -0.003303244709968567
0.052845101803541183 0.22715172171592712 -0.13008588552474976
0.2930542826652527 -0.0789719745516777 0.14329028129577637
-0.15054067969322205 0.38576602935791016 0.01923847757279873
0.18548305332660675 -0.17736859619617462 0.16603393852710724
0.23982511460781097 0.14743445813655853 0.16506029665470123
-0.26812490820884705 -0.07921148091554642 -0.12831221520900726
-0.06742145866155624 -0.24602296948432922 0.05880076065659523
-0.24683311581611633 0.1938561052083969 -0.13424402475357056
0.14085569977760315 -0.018617168068885803 0.17017729580402374
-0.24332422018051147 -0.013631777837872505 -0.265431672334671
-0.12155701220035553 0.22786648571491241 0.12173932790756226
-0.26763299107551575 -0.1474124640226364 -0.1347285360097885
-0.26876598596572876 -0.21270275115966797 -0.08661338686943054
0.2959403693675995 0.21940752863883972 0.1417369246482849
-0.03209510073065758 0.22772987186908722 -0.1283332258462906
-0.26110202074050903 0.1578214168548584 -0.13351744413375854
-0.04975328594446182 0.22442179918289185 0.14084063470363617
0.18418604135513306 0.4645695686340332 0.020257936790585518
0.29465818405151367 0.15628594160079956 0.15608565509319305
0.2307315468788147 -0.2271626591682434 0.15562179684638977
0.26979878544807434 -0.4401428997516632 0.009411399252712727
-0.21992827951908112 0.22567199170589447 0.10777094215154648
0.2949966490268707 0.03370210528373718 0.158875972032547
0.19290004670619965 0.48610565066337585 0.08738412708044052
-0.2699352502822876 0.208677738904953 -0.10971693694591522
-0.23809456825256348 -0.37333303689956665 -0.07808426022529602
-0.10794657468795776 -0.26101112365722656 -0.12977305054664612
0.23957538604736328 0.11641184240579605 0.16778473556041718
-0.06554936617612839 -0.18567690253257751 0.16838939487934113
0.24680224061012268 -0.11570192873477936 0.1676713526248932
-0.2602805495262146 0.4210027754306793 -0.024992063641548157
0.22604498267173767 0.16963538527488708 0.15863598883152008
0.22668471932411194 -0.44453635811805725 -0.05700954049825668
-0.183172807097435 -0.3797118365764618 -0.031900662928819656
-0.07586829364299774 -0.2503262162208557 -0.0800359845161438
-0.15509283542633057 0.3705708980560303 0.001552441855892539
-0.24610589444637299 -0.02416054531931877 -0.26088929176330566
-0.2704387307167053 0.16585500538349152 -0.11579874157905579
-0.17851383984088898 0.49194204807281494 0.02193373441696167
-0.17477138340473175 0.1576158106327057 0.1654512882232666
-0.26521047949790955 -0.23747695982456207 0.05686783790588379
0.20803706347942352 -0.4452166259288788 0.1876946985721588
-0.2717607617378235 -0.0015592379495501518 -0.13087940216064453
-0.25656959414482117 -0.17856307327747345 -0.1316114366054535
-0.09794723987579346 -0.2601117491722107 -0.13290944695472717
-0.2684008479118347 -0.3481571078300476 -0.0779198408126831
-0.24968786537647247 0.3772061765193939 -0.05952857434749603
-0.23417915403842926 -0.4688609540462494 0.030089575797319412
0.2953623831272125 0.20774468779563904 0.05863407999277115
-0.2722472548484802 0.21379771828651428 0.12261371314525604
0.2894715964794159 -0.44447487592697144 0.14802077412605286
-0.09031295031309128 -0.25128698348999023 -0.0438242182135582
0.019759805873036385 0.22936144471168518 -0.13299605250358582
-0.006181696429848671 -0.25056904554367065 -0.1233365386724472
-0.2682824432849884 -0.18084567785263062 -0.13128767907619476
0.26539164781570435 0.08075602352619171 -0.13734985888004303
-0.2651471793651581 -0.22007247805595398 -0.1326175332069397
0.26943159103393555 -0.321673184633255 0.08317283540964127
-0.17591948807239532 0.3385898768901825 0.04110616073012352
-0.2953493595123291 -0.4347539246082306 0.002665078267455101
-0.04446947202086449 -0.2618449628353119 -0.13366946578025818
0.29828551411628723 0.0273563414812088 0.14409992098808289
0.29965564608573914 0.02002575993537903 0.06997257471084595
0.16241557896137238 0.15506890416145325 0.16718807816505432
0.1791239082813263 0.1816372275352478 0.156633660197258
0.11425727605819702 -0.24838905036449432 -0.12442590296268463
-0.2598935663700104 -0.3437032699584961 0.17371772229671478
-0.2719135880470276 0.17985279858112335 0.14845271408557892
0.29711732268333435 0.2279110997915268 -0.056271761655807495
-0.03918777406215668 0.14623278379440308 -0.18430587649345398
0.297410249710083 -0.1852431744337082 -0.13384535908699036
0.027077816426753998 0.18922872841358185 -0.22622425854206085
0.27840521931648254 -0.4097711145877838 0.1928424835205078
0.24618634581565857 -0.05370999500155449 0.16623848676681519
0.29817119240760803 -0.19708900153636932 -0.014513149857521057
-0.14583538472652435 0.16361139714717865 0.1638461798429489
-0.24183495342731476 -0.3850066065788269 0.1923263520002365
0.1268082857131958 0.22651280462741852 -0.12795378267765045
0.29143673181533813 0.07868263125419617 -0.13521327078342438
0.00765897985547781 0.0696558728814125 -0.13862287998199463
0.24725869297981262 -0.05700716748833656 0.16477759182453156
-0.1389670968055725 -0.24833311140537262 -0.12341218441724777
0.2951800227165222 -0.23932456970214844 -0.13473907113075256
0.2945447266101837 0.11679495871067047 0.15466298162937164
-0.26992177963256836 -0.20707330107688904 0.04339425265789032
0.23872242867946625 0.022472558543086052 0.16554220020771027
-0.26363420486450195 -0.3320251703262329 -0.07271255552768707
-0.28115981817245483 -0.315822571516037 0.016754399985074997
0.05571960657835007 -0.2583184540271759 -0.1326545625925064
0.18032874166965485 0.3523883819580078 0.03487657010555267
0.24489432573318481 -0.07895637303590775 0.16234827041625977
0.2931458055973053 0.45904552936553955 0.10933774709701538
-0.1584615856409073 0.3922123908996582 -0.0003621366049628705
0.013873232528567314 0.17269015312194824 -0.22176618874073029
0.2541409432888031 0.22500400245189667 -0.12975403666496277
0.25373587012290955 -0.2630513608455658 -0.13190887868404388
-0.07539854943752289 0.16902366280555725 0.1594126671552658
-0.12305809557437897 -0.06866032630205154 0.17043495178222656
-0.27249813079833984 -0.16751235723495483 0.1504105180501938
0.09298115968704224 0.2274392694234848 0.03958955407142639
-0.01985270529985428 -0.20132990181446075 0.1621900349855423
-0.2938988506793976 0.027531882748007774 -0.2751336395740509
0.287769615650177 0.4738045632839203 0.0028689480386674404
0.2713961899280548 -0.37677067518234253 0.1749933809041977
-0.023980461061000824 -0.24816760420799255 -0.12602151930332184
0.25184139609336853 0.43101412057876587 0.10510068386793137
-0.030653642490506172 -0.25203385949134827 -0.014325981959700584
-0.2699042856693268 -0.0025523994117975235 0.14859119057655334
0.1128806322813034 0.16443683207035065 0.16012974083423615
-0.13067583739757538 -0.25270721316337585 0.010354002937674522
0.21760794520378113 -0.24898971617221832 0.09679694473743439
-0.2672237157821655 -0.13249871134757996 -0.12835407257080078
-0.2613877058029175 0.17221564054489136 -0.1345144808292389
0.2923813760280609 0.20497314631938934 0.14883145689964294
-0.3216169476509094 -0.33930227160453796 0.10498548299074173
-0.29253271222114563 0.06357403844594955 -0.2750948369503021
-0.2659723162651062 0.16124261915683746 -0.13212113082408905
-0.1059923768043518 0.23084086179733276 -0.1251562386751175
0.24252545833587646 -0.04303450137376785 0.1678604930639267
0.30004632472991943 -0.23918083310127258 -0.13213300704956055
0.20954449474811554 0.2155648171901703 -0.1325923204421997
0.1839512139558792 0.3487546741962433 -0.014898678287863731
0.09056192636489868 -0.24901151657104492 -0.12109264731407166
0.039884768426418304 -0.2099166214466095 0.15662133693695068
0.29721131920814514 0.1023867130279541 0.04092999920248985
-0.25353917479515076 0.2152894288301468 -0.13354840874671936
0.2986365854740143 -0.14944930374622345 0.14539436995983124
-0.27272042632102966 0.21923571825027466 0.12268909066915512
-0.1093783751130104 0.22837747633457184 0.11363928765058517
-0.26906776428222656 0.13026927411556244 -0.13113074004650116
0.1108124703168869 0.1509387493133545 0.16925348341464996
-0.26487696170806885 0.006990998983383179 -0.12968476116657257
-0.15897107124328613 0.43940436840057373 0.06769610196352005
0.29425519704818726 -0.15784373879432678 -0.1336812824010849
0.08390972018241882 0.22698572278022766 -0.12944623827934265
0.18491382896900177 -0.3468541204929352 -0.06250206381082535
0.06164022162556648 -0.2222810983657837 -0.13129892945289612
-0.2599409818649292 -0.3926806151866913 -0.08609960973262787
0.20936256647109985 0.3471256196498871 0.10120924562215805
-0.26915931701660156 -0.23551373183727264 0.05125558748841286
0.22680285573005676 -0.18130454421043396 0.17153021693229675
0.010832758620381355 0.18968427181243896 -0.2297801822423935
0.26067644357681274 -0.09588709473609924 0.1542288362979889
0.22273167967796326 -0.034071553498506546 0.1650959700345993
-0.2698987126350403 -0.0687360092997551 0.14997920393943787
0.29519280791282654 0.22117505967617035 0.062036626040935516
-0.26802024245262146 -0.2361086905002594 0.09931566566228867
0.18651176989078522 0.4781613051891327 0.06802660971879959
-0.24956931173801422 0.11209579557180405 0.1580442190170288
-0.26778292655944824 0.042526938021183014 -0.1331680715084076
0.18912222981452942 -0.2548801302909851 -0.1138957068324089
-0.15178224444389343 -0.2501957416534424 0.09642712026834488
0.20550593733787537 0.4989190399646759 -0.00965746957808733
0.19400182366371155 -0.2564430236816406 -0.1338278204202652
0.29992857575416565 -0.175539031624794 -0.13347820937633514
0.22858035564422607 0.40560752153396606 0.1013219803571701
-0.03910716623067856 0.16253603994846344 -0.1783183515071869
-0.22576788067817688 -0.24950996041297913 -0.10114072263240814
-0.16203832626342773 0.22841213643550873 -0.13307742774486542
-0.1951088309288025 -0.12231937050819397 0.17119695246219635
-0.26603731513023376 -0.08348829299211502 -0.1281503438949585
0.22575463354587555 -0.41082072257995605 -0.09117934852838516
0.21441970765590668 -0.4463771879673004 0.1987268626689911
0.2828877866268158 -0.44052985310554504 0.004021934233605862
0.14023302495479584 0.22929057478904724 -0.13203594088554382
-0.2633858323097229 0.37345758080482483 -0.007583248429000378
0.2944532036781311 -0.221218079328537 -0.1368732750415802
-0.2687388062477112 0.09758348762989044 -0.1348612904548645
0.29504358768463135 0.21415376663208008 -0.09161227941513062
-0.13457617163658142 -0.2524176836013794 0.02472490817308426
0.05175362899899483 0.11757153272628784 0.17097748816013336
0.27474889159202576 -0.45004454255104065 0.17838717997074127
0.17664583027362823 0.1735677868127823 -0.13599324226379395
-0.18645209074020386 0.21593926846981049 -0.13505898416042328
0.19724076986312866 -0.25035029649734497 0.13874629139900208
-0.26816412806510925 0.19123826920986176 -0.13225191831588745
0.28978919982910156 -0.4402000308036804 0.03313526138663292
0.29621219635009766 -0.023522447794675827 -0.06587609648704529
-0.010118869133293629 0.2246638536453247 -0.13502776622772217
0.28287580609321594 0.48102670907974243 0.028902016580104828
0.2175368219614029 -0.26161491870880127 -0.1326829493045807
0.23287749290466309 0.16752450168132782 0.16033880412578583
0.29763510823249817 -0.10245660692453384 -0.12888281047344208
-0.06984980404376984 0.22842714190483093 -0.13244277238845825
-0.2685571014881134 -0.2056519091129303 0.15037666261196136
-0.1861993372440338 -0.09564046561717987 -0.13441625237464905
-0.1664348840713501 0.21843194961547852 -0.1332850158214569
-0.26437637209892273 0.4072759747505188 0.013977459631860256
-0.26515382528305054 -0.036109790205955505 -0.1333673745393753
0.14051935076713562 -0.38664180040359497 0.009358884766697884
-0.174611434340477 0.32463324069976807 -0.0015135083813220263
0.19258102774620056 0.15260273218154907 0.17330780625343323
-0.26984167098999023 0.1342368870973587 -0.13234524428844452
-0.23663105070590973 0.23228247463703156 -0.09772271662950516
0.2953803539276123 0.09730492532253265 -0.13602763414382935
-0.2699139416217804 -0.19323138892650604 -0.024310432374477386
0.21136581897735596 0.185811385512352 0.15683293342590332
0.24558715522289276 0.22861072421073914 0.12512730062007904
-0.23811103403568268 -0.025061581283807755 0.15564319491386414
-0.2687242329120636 0.09316334128379822 -0.12967142462730408
-0.3264785706996918 -0.34078249335289 0.17290163040161133
0.2916530668735504 0.09417679905891418 -0.1357245296239853
-0.12281565368175507 0.2280409038066864 0.10964385420084
-0.18928366899490356 0.500704288482666 0.0455259270966053
0.10076481103897095 -0.20032349228858948 -0.13506382703781128
-0.0674707293510437 -0.24791327118873596 0.15426382422447205
0.2483852207660675 -0.323556125164032 0.10761068761348724
-0.21079283952713013 -0.2733374834060669 -0.05639636516571045
0.03401584178209305 0.22390107810497284 -0.13382573425769806
0.2963763177394867 -0.021431080996990204 0.15651649236679077
-0.1925264298915863 0.22488436102867126 -0.12448959797620773
0.14425890147686005 -0.09911813586950302 0.17060069739818573
-0.2536718249320984 0.22314612567424774 -0.13317595422267914
-0.2609495520591736 0.1381463259458542 -0.13341334462165833
0.29557153582572937 0.20010662078857422 0.1476917266845703
-0.27306655049324036 -0.1809399127960205 0.1605466902256012
-0.2732798457145691 -0.0029593799263238907 0.14703015983104706
-0.23843228816986084 -0.3117441236972809 0.10331292450428009
-0.2674543261528015 0.016904586926102638 -0.13244827091693878
0.0003800271078944206 0.22688926756381989 -0.13369214534759521
-0.1743776947259903 -0.24902616441249847 -0.11982850730419159
-0.07490816712379456 0.20647795498371124 -0.13604192435741425
-0.23349931836128235 -0.35619327425956726 -0.07897194474935532
-0.08108857274055481 0.007154420018196106 -0.13524386286735535
0.12724947929382324 0.07852160185575485 -0.1394708901643753
0.20081937313079834 -0.2595449686050415 -0.1333659291267395
0.24388627707958221 -0.009508482180535793 0.16389994323253632
0.23736971616744995 -0.19000190496444702 0.1641688048839569
-0.06913787871599197 0.23116730153560638 -0.1298704743385315
-0.264625608921051 -0.11276920139789581 -0.12722894549369812
-0.0286860391497612 0.22977624833583832 0.030277758836746216
-0.24746188521385193 -0.20156356692314148 0.1563023030757904
0.29552140831947327 -0.11378730088472366 -0.12160569429397583
0.2959693968296051 0.023449279367923737 0.05980272218585014
0.2964973449707031 -0.2507646679878235 -0.1326441913843155
0.28961431980133057 -0.062461137771606445 -0.132345050573349
-0.21913009881973267 0.22587966918945312 -0.13299809396266937
0.17257510125637054 -0.18785540759563446 0.16839013993740082
0.2968318462371826 0.21820326149463654 0.046021126210689545
-0.2673015296459198 0.18297851085662842 -0.11861233413219452
0.2691415846347809 -0.423315167427063 -0.07071475684642792
0.21817295253276825 -0.2490609586238861 -0.12415731698274612
0.22079519927501678 -0.24855992197990417 0.10861118137836456
0.1795661598443985 0.4352686107158661 0.06142943724989891
-0.2712860703468323 -0.30982398986816406 -0.027114249765872955
0.2933029234409332 -0.11979958415031433 -0.13246022164821625
-0.21895691752433777 -0.46590369939804077 -0.010525930672883987
-0.26853498816490173 -0.24806493520736694 -0.13032567501068115
0.027528800070285797 -0.18262988328933716 0.1681986302137375
0.22059912979602814 0.45228493213653564 0.10008063912391663
-0.24985165894031525 -0.25043147802352905 0.07797429710626602
0.19895526766777039 0.32883089780807495 -0.031760457903146744
0.26982834935188293 -0.3228984773159027 -0.04379996284842491
0.17059344053268433 -0.2546539604663849 0.11968298256397247
0.2978516221046448 0.11767684668302536 0.1528065800666809
-0.24531352519989014 0.21956747770309448 -0.1383017748594284
0.12611842155456543 0.22985044121742249 0.10913653671741486
