-0.21963725984096527 -0.23514090478420258 0.15612614154815674
0.29026728868484497 0.16603943705558777 0.15653319656848907
0.11155004799365997 -0.1030019074678421 -0.13659073412418365
0.28697922825813293 0.07187116146087646 -0.13590356707572937
-0.2707248628139496 -0.010198714211583138 -0.1259719282388687
0.29337382316589355 0.22927241027355194 0.005211077630519867
0.02185077965259552 0.09771556407213211 -0.1376955509185791
-0.15742433071136475 0.17325928807258606 0.15618638694286346
0.2982117235660553 -0.2275194525718689 0.141822949051857
0.29470011591911316 -0.24548804759979248 0.1324584186077118
-0.1876247674226761 -0.4225565791130066 0.055519312620162964
-0.21745926141738892 0.14009059965610504 0.16725435853004456
-0.16428382694721222 0.40392008423805237 0.10249122232198715
0.006791879888623953 0.17397812008857727 0.15264767408370972
0.29901018738746643 -0.05305921658873558 0.1442272961139679
0.061321306973695755 0.13272178173065186 -0.1367916613817215
0.2806805372238159 0.2312694638967514 -0.008946359157562256
0.22700047492980957 0.469096839427948 -0.07348684221506119
0.18611128628253937 -0.4455614984035492 0.18765634298324585
0.2452302873134613 -0.26798927783966064 -0.04976882040500641
-0.3338530361652374 -0.36021125316619873 0.1301725208759308
-0.050669148564338684 -0.1752883344888687 0.17010793089866638
-0.2177601158618927 0.22851860523223877 -0.05245009437203407
-0.26789095997810364 0.45043277740478516 0.04942336678504944
-0.08331143856048584 -0.24658067524433136 0.15454743802547455
0.27484071254730225 -0.37842509150505066 0.16992349922657013
-0.27077850699424744 0.164918914437294 -0.12703871726989746
0.2219027578830719 0.22728537023067474 -0.13311867415905
-0.2711711823940277 -0.0866338312625885 0.1558775156736374
0.19630783796310425 0.46509456634521484 0.11427216231822968
0.16110071539878845 -0.25207385420799255 0.14081087708473206
-0.27041834592819214 -0.24065089225769043 0.03628496080636978
0.2145577222108841 -0.23806187510490417 0.15757891535758972
-0.2510799467563629 0.43732699751853943 -0.057098135352134705
0.2625548243522644 0.22778744995594025 0.06581905484199524
0.2902143597602844 0.21864095330238342 -0.13708065450191498
0.28768253326416016 -0.040876999497413635 -0.13509590923786163
0.22284846007823944 0.44354408979415894 -0.08393176645040512
-0.0130243469029665 0.22334793210029602 -0.1378413438796997
0.13668812811374664 -0.4236299395561218 0.09723291546106339
0.2606545388698578 0.09774953126907349 0.1541576385498047
-0.21147532761096954 0.22387832403182983 -0.1333978921175003
0.2646067142486572 0.4459051787853241 0.11054115742444992
0.21850913763046265 -0.27039670944213867 0.07890055328607559
0.1856536567211151 0.17082445323467255 0.1523958295583725
-0.22249147295951843 0.17006850242614746 0.15520772337913513
-0.2752234935760498 -0.4381205439567566 0.06152862682938576
-0.2567218542098999 0.046702347695827484 -0.13456645607948303
-0.27114206552505493 0.22019657492637634 0.019976498559117317
0.0719955638051033 0.11204054206609726 -0.13667209446430206
0.2699640393257141 0.3772429823875427 -0.0819053202867508
0.2859973907470703 0.22476671636104584 -0.13253748416900635
0.18027901649475098 0.17593741416931152 0.15290047228336334
-0.270819753408432 -0.17969706654548645 -0.13144314289093018
0.29242512583732605 -0.4279628396034241 0.09236225485801697
-0.03166584670543671 0.12017267197370529 -0.17066290974617004
0.08756302297115326 0.2264401912689209 0.14605337381362915
-0.060372043401002884 0.22810940444469452 -0.12637852132320404
-0.09025409817695618 -0.19703638553619385 0.15106211602687836
-0.2558530569076538 -0.16455064713954926 -0.13232605159282684
0.12727124989032745 -0.24925550818443298 0.15192775428295135
0.30129778385162354 0.1903698444366455 0.015284717082977295
0.30173274874687195 -0.16300222277641296 0.12601330876350403
-0.2727851867675781 -0.3087303936481476 0.09516119211912155
0.29293087124824524 -0.43763989210128784 0.12203587591648102
-0.21372154355049133 -0.0554012730717659 0.1681610345840454
0.14499790966510773 0.22840280830860138 -0.12248921394348145
-0.26934295892715454 0.16615714132785797 0.09726820886135101
-0.0874721109867096 0.22727751731872559 -0.004231270402669907
-0.24255678057670593 -0.32510554790496826 0.12422963976860046
0.24322815239429474 0.4310474395751953 -0.09023755043745041
0.2590304911136627 -0.4428083002567291 -0.07895880937576294
0.21262183785438538 0.41493186354637146 -0.08097116649150848
-0.32947999238967896 -0.3436650335788727 0.18597617745399475
-0.2712469696998596 -0.15565691888332367 -0.13078409433364868
-0.25821125507354736 -0.4109402596950531 0.19286362826824188
0.29623597860336304 -0.2234971523284912 0.15301905572414398
-0.21001265943050385 0.03576827421784401 0.16991057991981506
-0.2637860178947449 -0.1983741819858551 -0.13541197776794434
-0.1477949023246765 0.22665131092071533 -0.0843953788280487
0.1353745460510254 -0.4301244616508484 0.07023239880800247
0.2958871126174927 0.08727313578128815 -0.13490162789821625
-0.270414799451828 -0.2492109090089798 -0.1315518170595169
-0.011191165074706078 0.22975003719329834 -0.02311119996011257
-0.0547889806330204 -0.08732768893241882 0.1703910231590271
0.2992319166660309 0.39707326889038086 0.07525317370891571
0.09259963780641556 -0.08434253931045532 -0.13598847389221191
0.2769332230091095 -0.4475480616092682 -0.0035994183272123337
0.293226033449173 -0.11727020889520645 0.15535084903240204
0.2418874353170395 -0.1287587285041809 0.16923047602176666
0.2560495138168335 0.48674842715263367 -0.05738820880651474
0.2569717764854431 -0.039226844906806946 0.15093927085399628
0.0015477279666811228 -0.23988167941570282 -0.1332400143146515
-0.09489469230175018 -0.18693134188652039 0.1622738242149353
-0.20808306336402893 0.4511673152446747 0.086503766477108
-0.11647230386734009 0.1571526825428009 0.16904932260513306
0.2296467125415802 -0.28213900327682495 0.086487777531147
-0.2514112591743469 -0.213650181889534 0.15498808026313782
0.28128117322921753 -0.42942988872528076 -0.045551203191280365
-0.23943185806274414 0.22764787077903748 -0.13481666147708893
-0.21918363869190216 -0.2466830611228943 -0.13483978807926178
0.29040807485580444 0.198574036359787 0.15598337352275848
-0.26812073588371277 -0.17714229226112366 0.15549378097057343
-0.025596534833312035 0.22279450297355652 -0.13786979019641876
-0.331916481256485 -0.350469708442688 0.12298572063446045
-0.2517341077327728 0.23384806513786316 0.027209002524614334
0.28953009843826294 -0.040295056998729706 0.1545373499393463
-0.057904187589883804 -0.24864831566810608 0.14456024765968323
0.2843734920024872 -0.4460776448249817 0.17406466603279114
-0.2357560098171234 0.3654156029224396 0.10978806763887405
-0.07074105739593506 -0.2548275589942932 0.13453109562397003
0.30291226506233215 -0.061753176152706146 0.1459379345178604
0.04311385005712509 0.19605804979801178 -0.22814616560935974
-0.2552761435508728 0.08191336691379547 -0.13466447591781616
-0.3050486743450165 -0.4344433546066284 -0.017901934683322906
0.2728559076786041 0.23066505789756775 -0.1287413239479065
0.020485855638980865 0.22713859379291534 -0.1313914805650711
0.2937464714050293 0.057201750576496124 -0.13669481873512268
-0.18930009007453918 -0.24653232097625732 -0.1335521787405014
-0.05793750286102295 0.21554608643054962 -0.1358366459608078
0.2117602378129959 -0.12770508229732513 -0.13620944321155548
-0.28863027691841125 -0.01859983243048191 -0.24208645522594452
0.2421998232603073 -0.25886499881744385 0.07281285524368286
-0.21168112754821777 -0.43349510431289673 0.1425521969795227
0.296524316072464 0.0038053765892982483 -0.13450247049331665
0.2652260661125183 -0.24674092233181 -0.13408789038658142
-0.1418539434671402 0.17260581254959106 0.15467581152915955
-0.26361334323883057 0.1680217683315277 0.15737593173980713
0.19557633996009827 -0.23794475197792053 0.15648247301578522
-0.13716983795166016 0.2267559915781021 0.14633744955062866
0.006299993023276329 0.23617906868457794 -0.18833273649215698
0.2097589373588562 -0.44076454639434814 -0.0740792378783226
0.28637659549713135 0.14950263500213623 -0.13820941746234894
-0.18984632194042206 0.17792633175849915 0.15390770137310028
0.2919580936431885 0.014080793596804142 0.15523052215576172
-0.273273766040802 -0.02855178900063038 -0.12602148950099945
0.2899901568889618 0.04298420622944832 -0.13674022257328033
0.06299039721488953 0.22879327833652496 -0.13378682732582092
-0.1793276071548462 0.17505240440368652 0.1545603722333908
-0.25040575861930847 -0.2139626294374466 0.15499970316886902
0.2981520891189575 -0.2415306568145752 0.10697665065526962
-0.20584070682525635 -0.0466170534491539 -0.13167427480220795
-0.0025007366202771664 0.15933778882026672 -0.21804280579090118
0.23965582251548767 -0.1353202909231186 0.16925658285617828
-0.08588047325611115 0.2267235517501831 -0.1336856484413147
0.22713109850883484 0.2259589433670044 -0.13580647110939026
0.2962160110473633 0.008706104010343552 0.15542447566986084
-0.21947431564331055 -0.09744302928447723 0.16451403498649597
0.14653459191322327 -0.44518008828163147 0.08608097583055496
0.24810029566287994 0.00025852303951978683 0.1637789011001587
-0.23544195294380188 -0.45171257853507996 0.1292341947555542
0.2958577573299408 0.2257537543773651 0.06071021780371666
-0.2669702172279358 0.001822514459490776 -0.13365185260772705
-0.15979313850402832 -0.25243303179740906 -0.04793141409754753
0.13577359914779663 -0.3791932165622711 0.05581613630056381
0.28734105825424194 -0.3823722302913666 0.11647117882966995
-0.1793329119682312 0.23048846423625946 0.03804749995470047
0.28415995836257935 0.166272833943367 -0.1384352296590805
-0.14049293100833893 -0.17469432950019836 0.16940253973007202
0.22425250709056854 0.3570972681045532 -0.08121469616889954
-0.2803807556629181 -0.3874299228191376 0.20033885538578033
0.2928161025047302 0.22711260616779327 -0.12259039282798767
-0.20029495656490326 0.2268623262643814 0.14152207970619202
-0.06075013801455498 -0.2384820580482483 0.15707460045814514
-0.022148054093122482 0.21176576614379883 -0.13672299683094025
-0.27186012268066406 -0.05486757308244705 -0.12596184015274048
0.18813052773475647 0.4340115189552307 0.11202380061149597
-0.13863682746887207 -0.2525383532047272 0.008945503272116184
0.2824769616127014 0.22719061374664307 -0.05065043643116951
0.28029996156692505 -0.4425550401210785 0.08311197906732559
-0.012698406353592873 0.26933905482292175 -0.21981316804885864
-0.013315336778759956 0.09640233218669891 -0.1398950070142746
0.09931723028421402 -0.24285157024860382 -0.1362352818250656
0.22802932560443878 -0.3766307830810547 -0.08987783640623093
-0.22334104776382446 -0.31530842185020447 -0.07979468256235123
0.2544485926628113 -0.24720485508441925 -0.1327255219221115
-0.1588718742132187 0.3548017740249634 0.006606807000935078
0.16943669319152832 -0.26294776797294617 -0.0015897124540060759
-0.26946231722831726 -0.017280418425798416 -0.13336732983589172
-0.12776055932044983 0.227619931101799 -0.08213411271572113
0.29792094230651855 -0.0681033581495285 0.14572086930274963
-0.1741456389427185 -0.2518366575241089 -0.058599263429641724
0.2971334159374237 -0.20548124611377716 -0.13309204578399658
0.28862035274505615 0.22349724173545837 -0.1344534307718277
0.040291059762239456 0.10578247904777527 -0.13862407207489014
-0.18788932263851166 0.22173967957496643 -0.13495618104934692
0.29465481638908386 -0.2407405525445938 0.1417129635810852
0.2986539900302887 -0.12540918588638306 0.15706810355186462
-0.0014106407761573792 -0.25061091780662537 0.06153079494833946
-0.2702953517436981 -0.24129173159599304 -0.0994281992316246
-0.23718208074569702 -0.2649419903755188 0.02737407386302948
-0.14987866580486298 0.22485984861850739 -0.13673506677150726
-0.2693790793418884 0.22184965014457703 -0.13278307020664215
-0.2366938591003418 0.4397214651107788 -0.0705026164650917
-0.2627573609352112 0.1675916314125061 -0.13395455479621887
-0.2699959874153137 -0.24019494652748108 0.04637238755822182
0.14185327291488647 0.23000970482826233 -0.12205895036458969
0.29882314801216125 -0.037392646074295044 0.14443142712116241
0.29843759536743164 -0.2466309517621994 0.0905187651515007
-0.291778564453125 -0.3112706243991852 0.1305519938468933
0.16791394352912903 -0.13529600203037262 0.16995418071746826
-0.2069721519947052 0.43522027134895325 -0.07481031119823456
-0.2705497145652771 -0.09269421547651291 -0.12743906676769257
0.2915819585323334 0.22142904996871948 -0.13634563982486725
-0.268420547246933 0.14075914025306702 -0.13159124553203583
0.2669059634208679 0.4992838501930237 0.11970122158527374
0.23881615698337555 -0.12628036737442017 0.17123554646968842
0.20744213461875916 -0.4425989091396332 -0.07205912470817566
0.29861393570899963 0.0950111448764801 -0.12851323187351227
-0.27104148268699646 0.21480008959770203 0.03352731838822365
-0.1975778043270111 0.16642549633979797 0.15620659291744232
0.2876344323158264 0.22846479713916779 -0.053308285772800446
-0.33851340413093567 -0.39594754576683044 0.007838742807507515
0.2441338151693344 0.1165800467133522 -0.13786931335926056
-0.20898839831352234 -0.1783563494682312 0.16718947887420654
0.2393871396780014 0.010009318590164185 0.1694141924381256
-0.26622724533081055 -0.37808945775032043 -0.09678898751735687
-0.055076226592063904 0.05022644251585007 -0.1361158937215805
0.22317712008953094 0.2302306890487671 -0.13574397563934326
-0.1709463745355606 0.4624720811843872 0.1014576405286789
0.17093656957149506 -0.39977604150772095 0.18419915437698364
0.23710691928863525 -0.24425888061523438 -0.1353265792131424
0.20459100604057312 -0.1740986704826355 0.16974914073944092
0.157903254032135 0.2267988920211792 -0.1306224912405014
-0.21306262910366058 -0.25472837686538696 -0.05822863429784775
0.2859216332435608 0.22559165954589844 -0.13518843054771423
0.2836611866950989 -0.42855188250541687 -0.02823283150792122
-0.26093730330467224 -0.2504614293575287 -0.05457597225904465
0.05586819723248482 0.17804132401943207 0.15405957400798798
-0.15479876101016998 0.1269111931324005 -0.13719508051872253
0.12836970388889313 -0.14575937390327454 0.17078956961631775
-0.20853547751903534 0.08370189368724823 0.17139779031276703
-0.23259645700454712 -0.288814902305603 0.08147416263818741
0.29512542486190796 0.06346393376588821 0.15500697493553162
-0.02878953516483307 0.23047713935375214 -0.1351332813501358
0.2897075414657593 -0.22021794319152832 -0.13502664864063263
0.29720765352249146 0.12656269967556 0.1538829654455185
0.2959335446357727 0.07359258085489273 0.1548764407634735
0.17811886966228485 -0.19876305758953094 0.15203115344047546
0.29083681106567383 0.22040428221225739 -0.13528916239738464
-0.16807770729064941 0.4012073576450348 0.10082555562257767
-0.19798822700977325 -0.4398155212402344 -0.008376723155379295
-0.18491347134113312 0.4968358874320984 0.05643226578831673
0.2336421012878418 -0.3662932813167572 -0.08862306922674179
0.26086270809173584 0.34336531162261963 -0.06859961152076721
-0.19878605008125305 0.4064978063106537 0.08742794394493103
-0.18205863237380981 -0.39471012353897095 0.0677727609872818
0.3009989857673645 -0.22223225235939026 -0.11795788258314133
0.22785931825637817 0.2298264503479004 0.11714116483926773
-0.27033722400665283 0.21510711312294006 0.12792401015758514
0.22743263840675354 -0.23538684844970703 -0.13587507605552673
0.1394406110048294 -0.4342871606349945 0.01800873689353466
-0.26308298110961914 -0.24992097914218903 -0.11181754618883133
-0.17160838842391968 -0.24282757937908173 0.15595005452632904
0.287392258644104 0.33196017146110535 -0.02773982100188732
-0.18635322153568268 -0.2655426561832428 -0.050926584750413895
0.01286434754729271 -0.12248484790325165 -0.1351999044418335
-0.18378952145576477 0.31833416223526 -0.004762514028698206
-0.019231434911489487 0.06512995064258575 0.1682659238576889
0.2907395660877228 0.2198265790939331 -0.13741137087345123
0.034301646053791046 0.22277741134166718 -0.13594236969947815
-0.31725308299064636 -0.43363243341445923 -0.061956487596035004
-0.25284817814826965 0.2285284399986267 -0.13275320827960968
0.29102396965026855 0.22269470989704132 -0.13576963543891907
-0.2457449734210968 0.22835148870944977 -0.03346022218465805
0.2742021679878235 0.40690478682518005 -0.07996197789907455
-0.2590319514274597 -0.1307687610387802 0.15808293223381042
0.29718834161758423 0.07502083480358124 0.15578193962574005
0.2579737603664398 -0.2490188628435135 0.13897234201431274
0.29188209772109985 0.22059527039527893 -0.13700416684150696
0.21509745717048645 0.23255139589309692 -0.028324943035840988
0.2682725489139557 0.22939492762088776 -0.037116099148988724
0.25748637318611145 -0.02624054066836834 0.15318310260772705
-0.26968222856521606 -0.2399650663137436 0.06064717099070549
-0.20225080847740173 0.2281288355588913 -0.03375381603837013
0.037778839468955994 0.09888951480388641 -0.13808508217334747
0.1478191316127777 -0.4278610050678253 -0.014462643302977085
-0.03528677299618721 -0.2501772344112396 -0.0949462503194809
-0.26367953419685364 -0.20180940628051758 -0.13715368509292603
0.27600204944610596 0.23613139986991882 0.01764284446835518
0.25657954812049866 -0.18520434200763702 0.15441051125526428
-0.18288977444171906 0.23281744122505188 0.038249820470809937
-0.2299729585647583 -0.43471086025238037 0.17530764639377594
0.2646213173866272 0.2268768548965454 0.06584209203720093
0.1291990578174591 0.2169550061225891 -0.13658173382282257
-0.2523552179336548 0.36198168992996216 0.08858232945203781
0.1841968148946762 -0.065187968313694 -0.13513751327991486
-0.3387182354927063 -0.37205770611763 0.045949067920446396
-0.2571938633918762 0.12891702353954315 -0.13450607657432556
0.2993217408657074 -0.15112358331680298 0.15366122126579285
0.20024585723876953 -0.25466233491897583 -0.04096569865942001
0.2497149556875229 -0.01124083437025547 0.16183069348335266
-0.17380736768245697 0.3647468686103821 -0.06252403557300568
-0.2708736062049866 -0.04325571656227112 -0.12570111453533173
-0.22848045825958252 -0.10554273426532745 0.153826504945755
-0.21243970096111298 -0.13784873485565186 0.1703222543001175
-0.2690238952636719 0.22544899582862854 -0.09934817999601364
-0.271476149559021 -0.10240468382835388 -0.1266595721244812
0.28405430912971497 -0.43978822231292725 0.07383602857589722
0.2964600622653961 -0.11899928003549576 0.15518462657928467
0.18772479891777039 -0.44252917170524597 0.19270753860473633
-0.11860090494155884 -0.17741942405700684 0.1687437891960144
0.1965496987104416 -0.44308415055274963 0.1967214196920395
-0.03795546665787697 0.18150950968265533 -0.13830241560935974
-0.07727919518947601 -0.1977558732032776 0.15170367062091827
0.29122036695480347 -0.14398308098316193 -0.13572536408901215
-0.2704398036003113 -0.12026149034500122 -0.12613922357559204
-0.20057983696460724 -0.2340586930513382 0.1559455543756485
0.2854115068912506 0.4825952351093292 0.019995814189314842
0.2915477156639099 0.22929103672504425 -0.07493285834789276
0.2948642671108246 -0.24382981657981873 0.15082040429115295
0.2990126609802246 0.031144995242357254 0.09057575464248657
-0.1866520196199417 0.2542519271373749 0.02681693434715271
-0.26989802718162537 -0.08617764711380005 -0.12567023932933807
-0.0337652824819088 0.1738906353712082 -0.13706330955028534
-0.2710656225681305 0.05095970630645752 -0.1289353370666504
0.0195905938744545 -0.23998670279979706 -0.13421078026294708
0.2458895444869995 -0.3337380290031433 -0.08102575689554214
-0.23325248062610626 0.2295341044664383 0.13648931682109833
0.009151764214038849 -0.24978378415107727 0.1441025286912918
0.29237687587738037 -0.03267967700958252 -0.1364639699459076
0.12012475728988647 0.1286957561969757 -0.13905227184295654
0.24261516332626343 -0.14454318583011627 0.16778898239135742
0.17875654995441437 0.16281679272651672 0.1589052379131317
0.25742268562316895 -0.22688862681388855 0.15473759174346924
0.2551723122596741 0.016796009615063667 0.1542656123638153
0.29833441972732544 -0.0673607587814331 0.14619511365890503
-0.26822420954704285 -0.2409248799085617 0.04723397642374039
-0.03743548318743706 0.12720145285129547 -0.13969868421554565
0.19024823606014252 0.4879794716835022 0.10981245338916779
-0.27065354585647583 -0.2518521249294281 -0.12469428032636642
-0.2652287185192108 0.22367939352989197 -0.1348150074481964
-0.17117665708065033 0.4343726634979248 -0.05064653605222702
0.2997666597366333 0.21308040618896484 0.13334591686725616
0.01953650638461113 0.19036920368671417 -0.13679060339927673
-0.22615960240364075 0.056471873074769974 -0.1359274536371231
0.2543630599975586 0.0883798897266388 0.15152844786643982
0.22958727180957794 -0.28270941972732544 -0.06472199410200119
0.2968837022781372 -0.07769621908664703 0.15149429440498352
0.29784923791885376 0.17857377231121063 -0.05986205115914345
-0.3367796838283539 -0.3976973295211792 -0.02166873775422573
0.2217695415019989 0.47674182057380676 -0.06705287098884583
-0.2663770616054535 -0.14366048574447632 0.15753531455993652
-0.2404753863811493 -0.4329979419708252 0.16330677270889282
0.2975772023200989 -0.2368735671043396 0.13681763410568237
-0.23960557579994202 -0.3216289281845093 -0.0823095291852951
-0.23055484890937805 -0.11173499375581741 0.1546517312526703
-0.2683028280735016 -0.24918252229690552 0.054943859577178955
0.24200770258903503 -0.18373259902000427 0.1676533967256546
-0.17923937737941742 0.24052929878234863 -0.005130864679813385
-0.15811948478221893 -0.24166050553321838 0.15680557489395142
-0.2604324221611023 -0.22581113874912262 0.1540014147758484
0.05746924877166748 0.17182835936546326 -0.16002345085144043
-0.26994460821151733 0.08229042589664459 -0.1315942406654358
-0.16980025172233582 -0.24951718747615814 -0.12674446403980255
-0.29212307929992676 -0.37856975197792053 0.20243816077709198
-0.04204985499382019 -0.25143590569496155 -0.12626810371875763
-0.2586091160774231 -0.09005337208509445 -0.13474054634571075
0.030983636155724525 -0.2466842234134674 -0.1384454369544983
-0.33123645186424255 -0.3433787524700165 0.15085290372371674
-0.2702217996120453 -0.30956947803497314 -0.008888594806194305
0.04514951631426811 -0.25063416361808777 -0.04234983026981354
0.19738087058067322 0.22720591723918915 -0.06548450887203217
-0.26793134212493896 0.14840497076511383 -0.13335038721561432
0.02589176967740059 0.22266432642936707 -0.1826379895210266
0.29830724000930786 0.10796920210123062 0.15292422473430634
0.2985621988773346 0.010865733027458191 -0.06931048631668091
0.0737033486366272 0.03269109129905701 -0.13401497900485992
-0.2837841808795929 -0.38539746403694153 0.2061939835548401
-0.27074819803237915 -0.21949157118797302 -0.1254309117794037
0.297495037317276 -0.24371621012687683 0.12274038046598434
-0.27159687876701355 -0.1491883248090744 -0.0713488757610321
0.2913917899131775 -0.4273226261138916 0.0179318655282259
0.15086513757705688 0.22685720026493073 -0.12177721410989761
-0.13317129015922546 0.21743232011795044 0.156349316239357
0.09123288094997406 0.14378733932971954 -0.1403600424528122
-0.19284303486347198 0.23177243769168854 0.045456815510988235
-0.19301286339759827 0.4920215904712677 -0.024333640933036804
-0.13773658871650696 0.1664460152387619 0.1600620150566101
0.17433300614356995 0.08666586130857468 -0.1361735314130783
0.2002638578414917 0.2342287003993988 0.026563400402665138
0.26261818408966064 0.22945722937583923 0.06545320153236389
0.24105940759181976 0.09470095485448837 0.16980379819869995
0.250044047832489 -0.025232069194316864 0.16090504825115204
-0.05926475673913956 0.10360851138830185 0.1703888326883316
-0.27052441239356995 0.20557385683059692 -0.00046222563832998276
0.2033214569091797 0.24554161727428436 0.008689560927450657
0.2902270555496216 0.3418721854686737 0.013470376841723919
0.21123574674129486 0.29238471388816833 0.003918565809726715
0.28693872690200806 -0.4287470281124115 0.18167909979820251
0.18755848705768585 0.3541405200958252 0.07493110001087189
0.28483155369758606 0.03481224924325943 0.15504053235054016
0.04230980947613716 0.1076313927769661 -0.135221466422081
0.006853800266981125 -0.025464054197072983 -0.1353633552789688
-0.22740693390369415 -0.38484835624694824 0.17816974222660065
0.2969125807285309 -0.05162762105464935 0.15391305088996887
0.18627189099788666 -0.19921736419200897 0.15298856794834137
0.29338428378105164 -0.09804842621088028 0.15589399635791779
0.29777881503105164 0.02892380952835083 -0.10021977871656418
-0.2588203549385071 -0.24875245988368988 -0.058764707297086716
0.25445443391799927 -0.24746397137641907 -0.133334219455719
0.2995093762874603 0.10770245641469955 -0.0803690105676651
-0.2721804976463318 -0.19375315308570862 -0.13086652755737305
-0.266851544380188 0.03042643517255783 -0.1338716447353363
-0.2299676239490509 -0.2660108208656311 0.05700311437249184
0.30058223009109497 0.19063955545425415 0.06386658549308777
0.27268385887145996 0.4915197491645813 -0.015483222901821136
0.25648462772369385 -0.2674488127231598 0.03797663748264313
-0.2588198482990265 0.220561683177948 -0.13454100489616394
-0.27037549018859863 -0.06812865287065506 -0.1303497552871704
0.26396071910858154 0.31065818667411804 0.04478834569454193
-0.14262427389621735 -0.25339388847351074 -0.02164478227496147
0.2908869981765747 -0.39202916622161865 0.15566924214363098
-0.03505006432533264 0.22693666815757751 -0.12472396343946457
-0.055871427059173584 -0.24455171823501587 -0.13538005948066711
-0.02534794993698597 0.14769446849822998 -0.20767882466316223
0.25405028462409973 -0.11034967750310898 0.15723226964473724
-0.2682866156101227 0.17256182432174683 0.15777099132537842
0.18675535917282104 -0.08660034090280533 -0.13569457828998566
-0.15611965954303741 0.22594428062438965 -0.1368078887462616
0.2997313439846039 -0.13359439373016357 -0.03055393323302269
-0.2499486207962036 -0.24789157509803772 -0.12800054252147675
-0.27067506313323975 -0.3289276957511902 -0.05612078309059143
0.2990066111087799 0.22094616293907166 0.02923634648323059
-0.30665066838264465 -0.4009423553943634 -0.08126439154148102
-0.0146015714854002 0.1884905993938446 -0.22502501308918
0.16966545581817627 0.10277627408504486 0.16879665851593018
0.0939103290438652 0.22727636992931366 -0.1235196441411972
0.29866671562194824 -0.07581328600645065 0.14402569830417633
0.1864137500524521 0.37080255150794983 0.10188353806734085
0.2995005249977112 0.4540010988712311 0.07108644396066666
-0.16445180773735046 0.22512127459049225 0.04683251306414604
-0.19053393602371216 -0.25002917647361755 -0.12914782762527466
-0.14755651354789734 -0.2497541755437851 0.14632411301136017
-0.09489971399307251 -0.24794334173202515 -0.13389337062835693
-0.2695775330066681 -0.19191187620162964 -0.13239005208015442
0.26619744300842285 0.21251899003982544 -0.1349020153284073
-0.19219498336315155 -0.11083810776472092 0.1683148592710495
-0.1878376603126526 0.23486529290676117 -0.022535718977451324
0.2969205677509308 -0.08535617589950562 0.1551716923713684
-0.11346526443958282 0.17274624109268188 0.15252459049224854
0.2986215651035309 0.13641232252120972 0.15770626068115234
0.2938542664051056 0.22425854206085205 -0.13194799423217773
-0.25144174695014954 0.013696077279746532 -0.30012091994285583
0.21423426270484924 0.3312751054763794 -0.04305151104927063
0.24401113390922546 0.3123473525047302 -0.03311442583799362
-0.2652130722999573 -0.2147577852010727 -0.13410398364067078
-0.17813515663146973 0.24030475318431854 0.019346041604876518
0.15717817842960358 -0.41495463252067566 0.18090830743312836
-0.26786667108535767 0.09712822735309601 -0.13381026685237885
0.21078455448150635 -0.4465417265892029 -0.07102013379335403
0.28195008635520935 -0.44129690527915955 0.11613911390304565
0.019260242581367493 -0.24130764603614807 -0.13633601367473602
0.00975317507982254 0.18979524075984955 -0.1388568878173828
0.29595863819122314 0.19556324183940887 0.15808001160621643
0.14474235475063324 0.22302863001823425 0.15716877579689026
-0.224068745970726 -0.24581478536128998 -0.1355949342250824
0.2992567718029022 -0.0008327215909957886 0.014711901545524597
-0.26123106479644775 -0.04785800725221634 -0.13395211100578308
0.009116374887526035 -0.24363739788532257 -0.13435322046279907
0.1379271298646927 -0.44031786918640137 0.10048530250787735
0.2499513477087021 -0.27324947714805603 -0.04916544258594513
-0.18566089868545532 0.2503141760826111 0.033409081399440765
-0.23463934659957886 -0.26389622688293457 -0.015377580188214779
-0.2100077122449875 -0.24606266617774963 0.15656645596027374
0.26171600818634033 0.4346335828304291 0.10809865593910217
0.28468963503837585 -0.1487947255373001 0.15574145317077637
0.24709999561309814 0.08365072309970856 0.16334940493106842
-0.057621683925390244 -0.23632165789604187 -0.13638822734355927
-0.26825544238090515 -0.25110721588134766 -0.1025102511048317
-0.18833129107952118 0.23335446417331696 0.04515499621629715
0.29285910725593567 -0.42788994312286377 0.0858977884054184
-0.2851022481918335 0.0817285031080246 -0.3119444251060486
0.05460604652762413 0.10856558382511139 -0.1393750160932541
0.2534996271133423 -0.24701189994812012 0.15243101119995117
-0.24326078593730927 0.3607567548751831 0.10504897683858871
-0.03129015117883682 -0.2514748275279999 0.14231325685977936
0.23048262298107147 -0.2885691225528717 -0.06800253689289093
-0.27075251936912537 -0.09041165560483932 0.016298487782478333
-0.2540667653083801 0.35262757539749146 0.06854942440986633
0.22050508856773376 0.44246706366539 -0.08237955719232559
-0.26979997754096985 -0.1824556589126587 -0.13206379115581512
0.02846618741750717 0.23996512591838837 -0.19396255910396576
0.2585389316082001 -0.13226008415222168 0.1536780744791031
-0.2688819468021393 0.22372937202453613 -0.13404487073421478
-0.07929617166519165 -0.18306905031204224 0.16646873950958252
0.05613446608185768 -0.23709304630756378 0.15589061379432678
0.18263310194015503 -0.24507969617843628 -0.1358216255903244
-0.13593679666519165 0.049459200352430344 -0.13662965595722198
0.2948288321495056 0.2194555550813675 -0.13556145131587982
0.2571183145046234 -0.1608436107635498 0.15459658205509186
-0.22068747878074646 0.08290375769138336 0.16584913432598114
-0.2517322301864624 -0.2520512044429779 -0.009995691478252411
0.25611430406570435 0.007975958287715912 0.1522228866815567
-0.03683336079120636 0.21921588480472565 -0.13315102458000183
0.16007834672927856 -0.37086057662963867 -0.03593183681368828
-0.16855528950691223 0.1583041250705719 -0.13629162311553955
-0.2563701868057251 0.225504532456398 -0.13396389782428741
0.2854911684989929 -0.09099075198173523 -0.1367693543434143
0.18459215760231018 0.4660530686378479 0.10685299336910248
0.2138184756040573 -0.44452187418937683 -0.07481736689805984
0.2842080295085907 0.07694528996944427 -0.13593368232250214
-0.2618783414363861 0.08406504988670349 -0.2906425893306732
-0.26980793476104736 -0.16739368438720703 -0.12900632619857788
-0.24498964846134186 0.43617215752601624 0.10276646167039871
-0.25258493423461914 0.3370593786239624 0.03478219732642174
0.22924736142158508 0.3239675760269165 0.058040641248226166
-0.034820862114429474 0.19036957621574402 -0.20043379068374634
0.29469814896583557 0.13432848453521729 0.1496482789516449
0.20906560122966766 0.41448861360549927 0.1033111959695816
-0.19401425123214722 0.23464615643024445 -0.025916853919625282
0.2907356917858124 -0.16832850873470306 -0.1354999542236328
-0.17016708850860596 0.2231658399105072 -0.13672222197055817
-0.045577824115753174 0.2241048812866211 -0.1368396282196045
-0.23857802152633667 0.2765096127986908 0.014220614917576313
-0.23637032508850098 -0.3658880889415741 -0.09085234999656677
-0.044980138540267944 -0.2502303719520569 0.14456480741500854
0.28667372465133667 -0.24853572249412537 -0.11494870483875275
0.2111942023038864 -0.11135677993297577 -0.13752587139606476
-0.2222415804862976 0.16249753534793854 0.1586637943983078
-0.2190689593553543 0.14634501934051514 0.17030704021453857
-0.2622748911380768 0.011064986698329449 -0.13445760309696198
-0.24417611956596375 -0.304914653301239 0.09667709469795227
0.22132229804992676 0.15202507376670837 -0.1383192241191864
-0.27246007323265076 -0.24466535449028015 -0.12737096846103668
0.24532264471054077 0.519036054611206 0.06220907345414162
-0.14085590839385986 0.22879689931869507 0.14304423332214355
0.2908930778503418 -0.24894149601459503 -0.10685118287801743
0.23868508636951447 0.2335982322692871 0.05333524942398071
0.1851046085357666 -0.24816876649856567 0.15192361176013947
0.29792797565460205 0.22023510932922363 0.14049844443798065
0.16989775002002716 -0.44623664021492004 0.00725930742919445
0.29082217812538147 0.17972300946712494 -0.13853301107883453
0.10443906486034393 0.2142120897769928 -0.1373574286699295
-0.2704838812351227 0.04866507276892662 -0.13287198543548584
-0.11492345482110977 -0.18484079837799072 0.16385042667388916
0.2867514491081238 0.22214801609516144 -0.13638895750045776
-0.21551513671875 -0.1779571920633316 0.16675719618797302
0.15826274454593658 -0.2505069375038147 -0.133880153298378
0.29830899834632874 -0.2424924373626709 0.13326126337051392
-0.2683051526546478 0.061495255678892136 -0.133445143699646
0.2931970953941345 0.21824496984481812 -0.134840726852417
-0.270012766122818 -0.10885798931121826 -0.12715835869312286
0.2927761971950531 -0.4261922240257263 0.030436040833592415
-0.10717789083719254 -0.25029417872428894 -0.12299811840057373
0.255013644695282 0.23113439977169037 -0.03387843072414398
0.2978600561618805 -0.24259959161281586 0.0010214969515800476
0.17063361406326294 0.15444312989711761 0.16771537065505981
0.26184964179992676 -0.014191986992955208 0.15474900603294373
-0.1939624547958374 -0.2391221970319748 0.1561947464942932
-0.25305673480033875 0.22839957475662231 -0.13546423614025116
-0.3400587737560272 -0.40149247646331787 -0.01787448488175869
0.17660149931907654 -0.2531731426715851 0.035653579980134964
-0.14002415537834167 -0.24769695103168488 -0.13193130493164062
-0.2699049115180969 -0.07394752651453018 -0.13267755508422852
0.20248401165008545 -0.4470873475074768 0.08496563881635666
0.22111454606056213 -0.25089338421821594 -0.1329822540283203
0.18338821828365326 -0.2535701394081116 -0.022641200572252274
-0.060698509216308594 -0.18290236592292786 0.16828742623329163
0.16123263537883759 -0.3911091685295105 0.16754336655139923
0.2883354723453522 0.22275951504707336 -0.13393394649028778
-0.26978716254234314 -0.13649031519889832 0.14622116088867188
0.29347631335258484 0.10426173359155655 -0.13411147892475128
-0.2681224048137665 0.223175048828125 0.11446640640497208
-0.22380989789962769 -0.4082551598548889 0.1799224317073822
-0.07039688527584076 0.22736673057079315 -0.1321180909872055
-0.2622067928314209 -0.3410833179950714 -0.08254475146532059
-0.2660895586013794 -0.38020414113998413 0.2029198557138443
0.1675381362438202 -0.2431144416332245 -0.13530059158802032
0.16800551116466522 -0.24214789271354675 -0.1348884254693985
-0.041457075625658035 0.17419351637363434 -0.16941209137439728
0.2982894480228424 0.20369361340999603 0.14838938415050507
0.009603450074791908 0.1523573100566864 0.1679125428199768
-0.02029944211244583 0.16536344587802887 -0.13710074126720428
0.28746601939201355 0.35850727558135986 0.09854625910520554
0.12750640511512756 0.1575123369693756 -0.1398307830095291
0.29213857650756836 0.220537930727005 -0.13734909892082214
0.09438592940568924 0.2299828827381134 -0.050425413995981216
-0.2587663531303406 0.1304241269826889 0.15824073553085327
0.2576766610145569 0.11289787292480469 0.15375536680221558
-0.2698703110218048 -0.24240164458751678 -0.08059592545032501
-0.21503904461860657 0.1377783864736557 0.17000602185726166
-0.1604718416929245 0.4526557922363281 -0.01487454678863287
-0.022159747779369354 0.19241343438625336 -0.13452337682247162
0.29760169982910156 0.02632986195385456 0.15670934319496155
-0.1543063521385193 -0.31274762749671936 -0.0012496344279497862
-0.2724253237247467 0.22225666046142578 0.14843055605888367
0.2108689397573471 0.4568570554256439 0.10120320320129395
-0.26999175548553467 -0.251041442155838 -0.07023242861032486
0.2983482778072357 0.1345686912536621 0.152299702167511
0.2965126633644104 0.07844100892543793 0.15497319400310516
-0.09206593781709671 0.16500096023082733 0.16104984283447266
0.27000126242637634 0.22837768495082855 -0.03622881695628166
0.12613710761070251 0.23035533726215363 -0.024080805480480194
0.2060622274875641 0.4262552261352539 0.09958421438932419
0.2049054056406021 0.15163946151733398 0.16906075179576874
0.019792307168245316 0.09836248308420181 -0.1383037269115448
0.01990288496017456 -0.24804136157035828 -0.1346513330936432
0.24585068225860596 -0.3026135265827179 0.10176853090524673
0.29276418685913086 -0.053878918290138245 -0.13571882247924805
0.035154640674591064 0.1867668777704239 -0.2251913845539093
-0.2702237665653229 -0.23945403099060059 0.04080141708254814
0.1542700082063675 -0.38788869976997375 0.1604219526052475
0.292998731136322 -0.13882724940776825 -0.13409258425235748
0.057921748608350754 -0.131358802318573 -0.1351945400238037
-0.1388966143131256 -0.24596895277500153 0.15450537204742432
0.2105378657579422 0.44586890935897827 -0.07783233374357224
0.2929374575614929 -0.2503003776073456 -0.05719638243317604
0.0059340763837099075 0.22590625286102295 0.14321330189704895
-0.2710738778114319 -0.0009811893105506897 -0.12900374829769135
-0.2480820119380951 -0.3905066251754761 0.19892428815364838
0.2720288336277008 -0.2539289593696594 -0.009036265313625336
0.1968172937631607 0.3345620334148407 -0.043369587510824203
0.2513289749622345 -0.25107866525650024 0.0715564414858818
0.29379114508628845 0.21964605152606964 -0.1353892832994461
-0.18918731808662415 -0.026004567742347717 0.16958537697792053
-0.16301356256008148 0.43871548771858215 0.0968647226691246
-0.02967073768377304 0.16751518845558167 -0.1358979344367981
0.2258845567703247 -0.24138066172599792 -0.13679714500904083
-0.1653107851743698 0.36549481749534607 0.08006256818771362
-0.2709595561027527 0.1611715406179428 -0.12140332907438278
-0.17368890345096588 -0.17398498952388763 0.16849318146705627
0.18762578070163727 0.1550358682870865 0.16817404329776764
-0.27084600925445557 0.1330544352531433 0.14743179082870483
0.21598435938358307 -0.252008318901062 -0.066807821393013
-0.2563323974609375 -0.3971107006072998 -0.09346415847539902
-0.27052736282348633 0.2180265635251999 0.12313930690288544
0.29997241497039795 0.06629730761051178 0.07924968004226685
0.2989712357521057 0.20974580943584442 -0.02758687362074852
0.2867339253425598 -0.032320063561201096 -0.1373380720615387
0.24949848651885986 0.21888919174671173 -0.13434922695159912
0.28789716958999634 -0.4264277517795563 0.0022392566315829754
-0.04456997662782669 0.07611487060785294 0.17010995745658875
0.2962007522583008 -0.04669491946697235 -0.13421979546546936
-0.26762455701828003 -0.24552267789840698 -0.023956138640642166
-0.2835554778575897 -0.05072532221674919 -0.28467389941215515
0.020999226719141006 -0.2478993982076645 0.14779524505138397
-0.20133337378501892 -0.2592636048793793 -0.05625152215361595
0.2896207571029663 0.44510501623153687 -0.018065063282847404
-0.2725253701210022 0.199446439743042 0.13043436408042908
-0.2708851397037506 -0.2458820641040802 -0.07135266810655594
0.28675124049186707 0.2292122095823288 0.048116087913513184
-0.2706625461578369 0.2188347578048706 0.031054817140102386
0.2900155186653137 -0.25259923934936523 -0.08126454055309296
0.2934976816177368 0.024357236921787262 -0.13735145330429077
-0.02290399558842182 -0.24924887716770172 -0.1345587968826294
-0.19806641340255737 0.11754846572875977 0.16773167252540588
0.2602492570877075 0.24243906140327454 0.042633526027202606
-0.2685333490371704 0.053758688271045685 -0.12723809480667114
-0.14541085064411163 -0.2393631488084793 0.15642330050468445
-0.30897194147109985 -0.4373435974121094 -0.07176864147186279
-0.16195909678936005 0.15407289564609528 0.16837573051452637
0.28997868299484253 0.22123384475708008 -0.136239156126976
-0.09891727566719055 -0.24456951022148132 -0.1349373757839203
-0.04272391274571419 0.12977802753448486 -0.137779101729393
0.29598748683929443 -0.03048606589436531 -0.13410894572734833
-0.27112552523612976 -0.15243622660636902 -0.1287607103586197
-0.2676996886730194 -0.07523426413536072 0.15779010951519012
0.2986762523651123 0.22000882029533386 0.14809951186180115
0.2972176969051361 -0.03888667747378349 -0.13268393278121948
-0.10696069151163101 0.1683724820613861 0.15779344737529755
0.2024027407169342 0.22668765485286713 -0.13261443376541138
-0.27153047919273376 0.1630718857049942 -0.12470078468322754
0.2644425332546234 -0.2552591562271118 -0.026862826198339462
-0.21965065598487854 -0.1617962121963501 0.16344603896141052
-0.01782488450407982 0.1449870616197586 0.16842098534107208
-0.27021917700767517 -0.19486133754253387 -0.13135020434856415
0.09299887716770172 0.22448886930942535 0.08384205400943756
-0.32188332080841064 -0.42119815945625305 -0.05081464350223541
0.1740155816078186 -0.23693686723709106 0.15739069879055023
-0.14168015122413635 -0.25532373785972595 -0.03987058997154236
0.22497285902500153 0.45682311058044434 -0.07793553918600082
0.2920907437801361 0.20455072820186615 -0.1370202898979187
-0.149841770529747 -0.24367009103298187 0.15629273653030396
-0.28800979256629944 -0.36770573258399963 -0.07566580176353455
0.2913970351219177 0.2148844599723816 -0.1356969177722931
0.29187124967575073 0.21890148520469666 -0.13481053709983826
0.24894092977046967 0.2292078733444214 0.06159378960728645
-0.12127642333507538 0.22659054398536682 0.14454501867294312
0.2534744143486023 0.22870682179927826 -0.12669764459133148
-0.2570129930973053 0.10392142832279205 0.1577581912279129
-0.16463735699653625 0.15429221093654633 0.1678742617368698
0.2867523431777954 0.044137805700302124 -0.1364108771085739
-0.14936792850494385 -0.25772735476493835 0.03987590968608856
0.29774636030197144 0.08385121822357178 0.14922869205474854
0.28698796033859253 0.12158161401748657 -0.13806398212909698
-0.03157399222254753 0.22275826334953308 -0.13826730847358704
-0.04216167330741882 0.14996370673179626 -0.1376274973154068
-0.031787026673555374 0.17188413441181183 0.15116843581199646
0.20257137715816498 0.22844238579273224 0.08701877295970917
-0.27007684111595154 -0.23518046736717224 0.1084710955619812
-0.2645937502384186 0.20249736309051514 -0.13347305357456207
0.29968133568763733 0.09122395515441895 0.01392555981874466
0.27839741110801697 0.23824331164360046 0.019786542281508446
-0.33790531754493713 -0.35841450095176697 0.11470021307468414
-0.1934286653995514 -0.25012966990470886 -0.13439670205116272
0.2928597033023834 0.4543098509311676 0.12554585933685303
0.14463087916374207 0.22715149819850922 0.013669971376657486
0.0604369193315506 0.15759196877479553 0.1678161323070526
-0.2831318974494934 0.00034640729427337646 -0.3057369887828827
-0.16770192980766296 0.46276208758354187 0.0999985858798027
0.043419595807790756 0.17105427384376526 0.15076150000095367
-0.26426801085472107 0.4519420564174652 0.09184417873620987
-0.2558540105819702 0.06043599545955658 -0.13500401377677917
0.07271888852119446 -0.19734331965446472 -0.13573677837848663
0.29196691513061523 0.4128343462944031 0.11764645576477051
-0.18658030033111572 0.024878136813640594 -0.13628047704696655
0.09612686932086945 0.226128488779068 0.15441939234733582
-0.21401476860046387 -0.045000769197940826 0.17045481503009796
-0.22330543398857117 0.1747598946094513 0.15341012179851532
0.23438067734241486 -0.411972314119339 0.2005304992198944
-0.34175819158554077 -0.38649627566337585 0.03072705864906311
0.2976943552494049 -0.1638260781764984 -0.10404174774885178
-0.25047650933265686 0.22606080770492554 -0.13394242525100708
0.18381580710411072 -0.4103480577468872 0.19153138995170593
-0.26909536123275757 -0.2466908097267151 0.0029451586306095123
-0.2702147662639618 -0.030227994546294212 0.14427652955055237
0.28623101115226746 -0.4464122951030731 0.10445486754179001
0.25787797570228577 -0.11251907050609589 0.152950257062912
-0.10279757529497147 -0.2516862452030182 0.04824282228946686
-0.2688581943511963 0.09891606867313385 -0.13347873091697693
-0.2682378590106964 0.08126282691955566 0.1565673053264618
0.09771236032247543 -0.1928538829088211 0.156460240483284
0.1937190443277359 0.3796287178993225 0.11078831553459167
0.0103860292583704 0.1435384601354599 -0.13728727400302887
0.24565821886062622 -0.24840548634529114 -0.1336810439825058
0.2645757794380188 -0.3267326056957245 -0.06643038243055344
-0.1544530689716339 0.4203760325908661 0.07114623486995697
0.23216256499290466 -0.2511537969112396 0.1518898904323578
-0.07706990092992783 -0.25120624899864197 0.1458480805158615
0.0013240058906376362 0.17303071916103363 -0.13784915208816528
0.27810138463974 -0.4413778483867645 -0.0017504245042800903
0.19118721783161163 -0.182137131690979 0.16768024861812592
0.03875179961323738 -0.24714843928813934 -0.1340286135673523
-0.03958895802497864 -0.24360264837741852 0.15628449618816376
0.025515474379062653 0.10221967846155167 -0.17975616455078125
-0.10664784908294678 -0.24408473074436188 -0.13473932445049286
0.07151087373495102 0.1543576717376709 0.16849243640899658
0.29616403579711914 0.20314784348011017 0.1495012491941452
-0.2510906457901001 0.22113698720932007 -0.13241949677467346
-0.2642219364643097 -0.1990727335214615 -0.1332918256521225
-0.15388235449790955 -0.2528104782104492 -0.03897210955619812
0.24632517993450165 0.5124434232711792 0.10585414618253708
-0.12585079669952393 -0.24805577099323273 0.15252378582954407
0.20050384104251862 0.22833314538002014 0.026430025696754456
-0.10864289849996567 0.22151678800582886 0.15596291422843933
0.26660868525505066 0.41976919770240784 0.10926379263401031
-0.27028486132621765 -0.2127198427915573 0.15595273673534393
-0.2709624469280243 0.1935238093137741 0.03696659952402115
0.18090951442718506 -0.44280746579170227 0.19309331476688385
-0.27538469433784485 -0.3084048628807068 0.09985731542110443
0.28338801860809326 0.0449126698076725 -0.13578040897846222
-0.2640201449394226 0.22573454678058624 0.14561869204044342
-0.17972347140312195 0.2250993847846985 -0.13695931434631348
-0.21451221406459808 -0.015404945239424706 0.17016634345054626
-0.2697889804840088 -0.12970969080924988 -0.12560249865055084
0.26301905512809753 -0.32372143864631653 -0.06418173760175705
0.19642160832881927 0.33995991945266724 -0.04622273147106171
0.29356780648231506 -0.015396617352962494 -0.13633841276168823
0.2925993502140045 -0.15499842166900635 -0.13555081188678741
-0.23370131850242615 0.22722242772579193 -0.09630825370550156
-0.30528849363327026 -0.3261367976665497 0.08887971937656403
-0.2647646963596344 0.43795937299728394 0.09745020419359207
0.19289346039295197 0.4753027558326721 0.10676273703575134
-0.1433870792388916 -0.24721787869930267 -0.13441091775894165
-0.2642055153846741 0.22913192212581635 0.11016131937503815
0.2903432846069336 0.22562140226364136 0.14260265231132507
0.2691382169723511 0.2272787243127823 0.05467164143919945
-0.26798415184020996 -0.020175473764538765 0.15633462369441986
0.20226600766181946 0.5029889941215515 -0.0038516465574502945
-0.1116936132311821 0.17422695457935333 0.1528388261795044
0.2540597915649414 -0.27529609203338623 -0.04522645100951195
-0.21116198599338531 -0.2565399408340454 -0.059755388647317886
-0.12240597605705261 -0.17434273660182953 0.1691208928823471
-0.2837105989456177 -0.0026558823883533478 -0.24204121530056
-0.09278042614459991 -0.24540598690509796 0.1486019492149353
0.28798210620880127 0.2282080501317978 -0.13507968187332153
-0.06666237115859985 0.22896665334701538 -0.13491950929164886
0.06000446528196335 0.10827646404504776 -0.13828136026859283
0.29703161120414734 0.1048462986946106 0.14426672458648682
0.17989598214626312 0.4427916705608368 0.11492812633514404
-0.1659957468509674 -0.2519378066062927 -0.05305624380707741
0.018200285732746124 -0.25012269616127014 0.14278538525104523
-0.16536517441272736 0.4380192160606384 0.10057675093412399
-0.2704213857650757 -0.14070579409599304 -0.12457442283630371
0.2836691737174988 -0.22120609879493713 -0.13497059047222137
-0.27159300446510315 0.42532727122306824 0.03103073686361313
0.25157713890075684 -0.24634940922260284 -0.13308322429656982
0.2025698721408844 -0.4335055351257324 -0.07805195450782776
0.23602676391601562 -0.2815502882003784 0.08705906569957733
0.27462249994277954 0.41365763545036316 -0.08133724331855774
