0.030289052054286003 0.20328021049499512 -0.23053668439388275
-0.26935335993766785 0.09684273600578308 -0.12569162249565125
-0.20012670755386353 -0.22729672491550446 -0.13744667172431946
0.2898466885089874 -0.42143943905830383 0.09912926703691483
-0.027714423835277557 0.023231375962495804 -0.13914233446121216
0.18223579227924347 0.3462173640727997 0.043998945504426956
0.3109786808490753 -0.20202654600143433 -0.13451337814331055
0.29581281542778015 -0.17707780003547668 0.09417930990457535
0.13757361471652985 -0.3935891091823578 0.029289066791534424
-0.15752892196178436 -0.2507774829864502 -0.10578107833862305
0.2988501191139221 0.17973864078521729 0.09393217414617538
-0.26287874579429626 0.17367839813232422 -0.1346377730369568
-0.26853126287460327 -0.16655921936035156 -0.1388542354106903
0.1776563823223114 -0.1938508152961731 0.15366846323013306
-0.20856206119060516 0.15984877943992615 0.16406375169754028
0.284017950296402 -0.3534886837005615 0.03181586414575577
-0.21065612137317657 -0.37893232703208923 -0.07423831522464752
0.29979851841926575 0.23342642188072205 -0.009329408407211304
-0.21446241438388824 -0.460319846868515 -0.01174071617424488
0.30418264865875244 -0.15578605234622955 -0.1344265341758728
0.29463595151901245 -0.020204801112413406 0.04780294746160507
-0.2683355212211609 0.17022031545639038 -0.1357857882976532
0.30323004722595215 -0.03393927589058876 -0.13349471986293793
0.23111404478549957 0.44736161828041077 0.10018058121204376
-0.12337490171194077 0.2292204350233078 0.05380559712648392
-0.24886630475521088 0.12950164079666138 -0.1390381157398224
0.22006328403949738 0.23030732572078705 -0.13379760086536407
0.25531408190727234 -0.44442978501319885 0.03859459236264229
0.2418949007987976 -0.31894156336784363 -0.08469684422016144
0.27839985489845276 -0.3272761404514313 0.04479182884097099
-0.1129513680934906 0.23106180131435394 -0.13111867010593414
0.2053607553243637 0.22778750956058502 0.08734943717718124
-0.2680540084838867 -0.19548523426055908 -0.1446005254983902
-0.18693627417087555 -0.1696924865245819 0.16641530394554138
-0.26941928267478943 -0.13231512904167175 -0.08774252235889435
0.06028811261057854 0.21764713525772095 -0.13642098009586334
0.1866215020418167 -0.24319054186344147 -0.13466787338256836
0.1953083574771881 0.49439021944999695 0.01844453439116478
0.19212108850479126 0.1672668755054474 0.16414296627044678
0.2980125844478607 -0.03618168830871582 -0.03042813390493393
-0.3053250312805176 -0.4354422390460968 -0.027028551325201988
0.2705152630805969 0.05969426780939102 -0.13483034074306488
0.3032006621360779 -0.06297532469034195 0.15225230157375336
-0.26904696226119995 -0.008491657674312592 -0.1371985673904419
0.056790947914123535 -0.011171098798513412 -0.13699215650558472
-0.2704620361328125 -0.15177147090435028 -0.13984732329845428
0.26770442724227905 0.23250943422317505 0.07948190718889236
-0.292136549949646 -0.004887322895228863 -0.28394317626953125
0.10358604788780212 0.026770997792482376 0.16908800601959229
-0.04984481632709503 -0.2482890635728836 -0.042136624455451965
-0.18420623242855072 -0.3845856785774231 0.08535753935575485
0.22481629252433777 -0.24823178350925446 -0.09927347302436829
0.2633674740791321 -0.19082263112068176 0.1515963077545166
-0.29616469144821167 0.038934171199798584 -0.29086312651634216
0.29558148980140686 0.21963711082935333 0.12653861939907074
-0.27185192704200745 0.027768678963184357 -0.13258931040763855
0.2949311435222626 0.3779257535934448 -0.00659538758918643
0.1717359721660614 -0.3967934548854828 -0.06410496681928635
0.29798623919487 0.17177709937095642 -0.013586185872554779
0.14460502564907074 -0.33847469091415405 0.02363872155547142
0.18050327897071838 -0.34561964869499207 0.13099899888038635
0.1787170022726059 0.3590223789215088 0.03089466504752636
0.09026545286178589 0.13699065148830414 -0.13514916598796844
-0.25305166840553284 -0.21914927661418915 -0.13624271750450134
-0.2672969102859497 0.22500665485858917 -0.13441024720668793
-0.20670858025550842 -0.4294142723083496 -0.037518225610256195
0.3004772961139679 0.20234715938568115 -0.10331296920776367
-0.196160227060318 0.18782782554626465 0.15756118297576904
-0.2497878074645996 -0.10849563777446747 0.15497691929340363
-0.045387011021375656 0.22737912833690643 0.12234529107809067
0.298073947429657 0.029547449201345444 0.15263143181800842
0.2316841334104538 -0.24101890623569489 -0.13351476192474365
-0.06182166934013367 0.16376632452011108 0.16118720173835754
0.2147015631198883 -0.23899176716804504 -0.13301895558834076
-0.26030826568603516 0.4516744017601013 0.001114715589210391
-0.08637332916259766 0.22938238084316254 0.12176454067230225
0.29482781887054443 0.44309574365615845 0.03355924040079117
-0.22331932187080383 0.017280608415603638 0.16780799627304077
0.23297607898712158 -0.11502330005168915 0.17123878002166748
0.29724377393722534 0.21228069067001343 0.09660591185092926
-0.21671292185783386 0.22651514410972595 -0.1298629343509674
-0.2753951847553253 0.07111289352178574 -0.13931243121623993
-0.15379104018211365 0.42691999673843384 0.04743141308426857
0.3019128739833832 0.09297329187393188 -0.13658525049686432
0.29596757888793945 -0.1614076793193817 0.13885793089866638
-0.27250418066978455 -0.08269648253917694 -0.13795077800750732
0.2738269865512848 0.1523905098438263 0.15247781574726105
0.27410611510276794 0.22584563493728638 -0.05411400645971298
-0.26792043447494507 0.09517157077789307 -0.1340361386537552
0.1876060664653778 0.1862328052520752 0.15657278895378113
-0.04325886815786362 0.1513502448797226 0.16788530349731445
0.02635635808110237 0.22955980896949768 -0.1787012219429016
-0.20025640726089478 -0.25033479928970337 -0.1147422045469284
-0.2695721983909607 0.04201295226812363 -0.1343049556016922
-0.223622664809227 0.4420100450515747 0.09166304022073746
-0.24624653160572052 0.09575794637203217 -0.13377299904823303
-0.25302067399024963 0.4147619307041168 -0.0597991943359375
0.21391700208187103 0.23011992871761322 -0.11115080863237381
-0.2238357961177826 0.5032849907875061 0.05437808111310005
-0.2844875454902649 -0.31331464648246765 0.027625050395727158
0.29745250940322876 0.12714096903800964 0.13779456913471222
0.03669183328747749 0.19513307511806488 0.15802763402462006
0.29926952719688416 0.18090751767158508 0.11695267260074615
-0.2530980706214905 -0.2500680387020111 -0.10942625999450684
-0.2659761905670166 0.13624398410320282 -0.1341283768415451
-0.26122215390205383 0.3582015037536621 -0.011175677180290222
-0.07232561707496643 0.23398035764694214 -0.13335411250591278
-0.24656246602535248 -0.03663097321987152 0.15411382913589478
0.012360439635813236 0.15330804884433746 -0.135493203997612
0.25257930159568787 -0.3590586185455322 -0.09549032896757126
-0.2653878927230835 0.12137334793806076 -0.13639582693576813
0.05508149042725563 -0.2508524954319 0.0067160483449697495
-0.16990533471107483 -0.05145919322967529 0.1722608357667923
0.29684412479400635 0.16748225688934326 0.14143586158752441
-0.21848955750465393 0.24089282751083374 -0.13475164771080017
0.17632906138896942 -0.25115299224853516 0.09184951335191727
0.29500895738601685 0.12465838342905045 0.09393875300884247
-0.27249130606651306 0.22354987263679504 0.028187276795506477
-0.2075340300798416 -0.24953079223632812 0.13293473422527313
0.0566338412463665 0.16749180853366852 -0.13452403247356415
0.2993396818637848 0.04403527081012726 0.10739786922931671
0.0633242204785347 0.17396172881126404 -0.1803172379732132
-0.01573333516716957 0.22887510061264038 -0.10034828633069992
0.2683512568473816 -0.2505815625190735 0.13123254477977753
-0.267702579498291 0.1643625944852829 -0.13693580031394958
-0.25559762120246887 0.20531213283538818 -0.13591450452804565
-0.2627311646938324 0.19452300667762756 -0.13552498817443848
-0.2670474946498871 -0.020644331350922585 -0.13625742495059967
0.28590863943099976 -0.23865197598934174 -0.13177184760570526
-0.16873972117900848 0.3358268737792969 0.022311188280582428
0.009647028520703316 0.23590709269046783 -0.18409836292266846
-0.2681289613246918 -0.22474165260791779 -0.11153808981180191
0.09176450967788696 0.14448735117912292 0.16280674934387207
0.00570782832801342 -0.25025394558906555 -0.05224062129855156
0.3034687340259552 0.016205057501792908 0.13423608243465424
-0.26229870319366455 0.2027227282524109 -0.1362435668706894
-0.2609548270702362 0.454895943403244 0.06476268917322159
0.29650530219078064 0.22206950187683105 0.12626586854457855
-0.038641609251499176 -0.16760142147541046 0.1664412021636963
-0.2723604142665863 0.16277524828910828 -0.1360289603471756
-0.08533643931150436 -0.2517692744731903 0.003953506704419851
0.2943456470966339 -0.03892240673303604 -0.08310497552156448
0.28798210620880127 0.06618260592222214 0.15602165460586548
0.29707494378089905 -0.017764590680599213 0.14733825623989105
-0.26891395449638367 0.06661032140254974 -0.13814817368984222
0.07251162081956863 -0.2389947474002838 -0.1357109248638153
-0.17834465205669403 0.23834970593452454 -0.13335435092449188
-0.08462438732385635 0.14957153797149658 0.16340595483779907
-0.2519606351852417 -0.47490179538726807 -0.002128586173057556
0.06592558324337006 -0.25082990527153015 -0.12169790267944336
-0.27220579981803894 0.059688255190849304 -0.13828594982624054
-0.2696104049682617 0.012602517381310463 -0.13697955012321472
-0.26861125230789185 -0.03509209677577019 -0.13590270280838013
0.2737811803817749 -0.36543628573417664 -0.05311129242181778
-0.24776969850063324 0.22968991100788116 -0.13241979479789734
0.1570296287536621 -0.19967520236968994 0.15107177197933197
0.2690220773220062 0.22729308903217316 0.08365731686353683
-0.1567041128873825 0.420705109834671 0.0712931677699089
-0.021807434037327766 0.23072408139705658 0.08637931942939758
-0.26939213275909424 0.12386637181043625 -0.13772349059581757
-0.3321755826473236 -0.3522629737854004 0.10018309950828552
-0.19009746611118317 -0.2911471724510193 -0.05517280846834183
-0.2671130299568176 0.08940774947404861 -0.13846758008003235
0.19053864479064941 -0.19138872623443604 0.15603549778461456
-0.2665867507457733 0.1925099492073059 0.12949968874454498
0.1926262229681015 -0.27087485790252686 -0.04025278612971306
0.2548878490924835 -0.3119388222694397 -0.07110784202814102
0.007388491183519363 0.22768838703632355 0.1118837520480156
-0.08249123394489288 -0.2513468563556671 0.005422319285571575
-0.29383614659309387 0.02138902246952057 -0.2633969187736511
0.3014802634716034 0.22188903391361237 -0.07916630804538727
0.0779682919383049 -0.20110785961151123 0.1494770348072052
0.1353352665901184 -0.42017123103141785 0.05659565329551697
-0.09688672423362732 -0.1524471640586853 -0.135458841919899
0.27441132068634033 -0.3225342035293579 -0.036251116544008255
-0.11340980231761932 0.22811703383922577 0.07230143249034882
-0.220071941614151 -0.21151325106620789 -0.13314691185951233
0.3064011335372925 -0.15075191855430603 -0.1334710568189621
0.27509796619415283 -0.31466835737228394 0.04646741598844528
-0.26976606249809265 -0.21176296472549438 0.10059796273708344
-0.26950007677078247 0.05979328602552414 -0.13096997141838074
-0.21313971281051636 -0.39067548513412476 -0.07034198939800262
0.3006773591041565 -0.18351033329963684 -0.11606591939926147
-0.24108147621154785 0.22931477427482605 -0.13453848659992218
0.31113654375076294 -0.18872275948524475 -0.13508562743663788
0.2587378919124603 0.06679496169090271 0.16574417054653168
0.30619198083877563 -0.0896117240190506 -0.13112740218639374
0.09564785659313202 0.22767864167690277 0.0015623196959495544
-0.26949480175971985 0.19323357939720154 0.06802192330360413
0.300358384847641 -0.15041904151439667 0.1425342559814453
-0.26877492666244507 0.13964295387268066 0.12931375205516815
-0.26970013976097107 -0.30952295660972595 -0.01505034975707531
0.2757822573184967 -0.31705737113952637 0.037205442786216736
-0.2688843011856079 -0.07778286188840866 -0.13757306337356567
0.2985006868839264 -0.18615256249904633 0.005474697798490524
0.13492047786712646 -0.40813446044921875 0.12142230570316315
0.14676332473754883 -0.25169068574905396 0.10641858726739883
0.08673737943172455 0.19559019804000854 0.15674594044685364
0.29683932662010193 -0.019138146191835403 0.1474897265434265
-0.21779665350914001 -0.4027572274208069 -0.06961482763290405
0.2175084501504898 -0.37592312693595886 0.18005585670471191
0.1850939393043518 -0.2516214847564697 0.13154953718185425
0.18988709151744843 -0.27743440866470337 -0.043219923973083496
-0.22802256047725677 0.4422844350337982 0.09357631206512451
-0.006476981565356255 0.23215816915035248 -0.12545335292816162
-0.2576580345630646 0.21879331767559052 -0.13296779990196228
-0.13046157360076904 0.07996753603219986 -0.13980935513973236
0.29388293623924255 -0.11108757555484772 -0.13578926026821136
-0.2654573321342468 0.35482677817344666 0.009814217686653137
0.296772301197052 0.35512369871139526 0.0027530421502888203
0.21250063180923462 0.22780843079090118 0.07430815696716309
0.20445296168327332 -0.4525112211704254 -0.03908456861972809
-0.23120853304862976 -0.39362961053848267 0.19249635934829712
-0.2686007022857666 0.22046607732772827 -0.13478374481201172
-0.10905656218528748 -0.24639379978179932 -0.03353431820869446
-0.2253853976726532 0.2283928394317627 0.09802857786417007
-0.18286655843257904 -0.4050794541835785 0.0562761053442955
-0.20470914244651794 0.13509100675582886 -0.13721442222595215
0.29963940382003784 0.1085723266005516 0.14164942502975464
0.29739272594451904 -0.016527529805898666 0.1472708284854889
0.29988688230514526 0.21604183316230774 -0.07097990065813065
0.2887720465660095 0.4741983115673065 0.09949944168329239
0.18140096962451935 -0.4483863413333893 0.03182589262723923
-0.1872657835483551 0.22623515129089355 0.08314445614814758
-0.30946585536003113 -0.3403250575065613 0.03304144740104675
-0.1591368466615677 -0.321689248085022 -0.0025352640077471733
-0.04860234260559082 -0.24600636959075928 0.08186855167150497
-0.2721906900405884 0.04011569172143936 -0.12767937779426575
0.09164823591709137 -0.17195627093315125 0.17148429155349731
-0.21428602933883667 -0.3345889449119568 -0.0756993219256401
0.2192016988992691 -0.24660420417785645 -0.1161765605211258
0.14529681205749512 -0.4050777852535248 -0.003294374095275998
-0.19549359381198883 -0.2512693405151367 -0.07777218520641327
0.10067559778690338 0.22732865810394287 -0.1351454108953476
-0.0465981662273407 -0.25281527638435364 -0.007174708880484104
0.29423072934150696 0.46307480335235596 0.08642739057540894
-0.2656312882900238 -0.023944485932588577 -0.09660907834768295
-0.10806814581155777 -0.24988161027431488 -0.09896767884492874
0.19002699851989746 -0.19836899638175964 0.15210771560668945
-0.26715782284736633 0.22497621178627014 -0.04794199764728546
-0.27103033661842346 0.054945435374975204 -0.13574224710464478
-0.2685871124267578 -0.060346074402332306 -0.13843616843223572
-0.16778507828712463 -0.2464454174041748 -0.08422356843948364
-0.26480960845947266 0.1839827299118042 -0.13748106360435486
-0.0033022649586200714 -0.24035018682479858 -0.13798445463180542
0.22639799118041992 -0.2345162332057953 -0.13507898151874542
-0.17528820037841797 -0.308885782957077 0.06235375627875328
0.26728564500808716 -0.3542306125164032 -0.06430166959762573
-0.032865650951862335 0.22878624498844147 0.08095918595790863
-0.10090459883213043 0.1988925039768219 0.1539638340473175
-0.12606486678123474 -0.25166329741477966 0.06304693967103958
0.2937648296356201 -0.09883654117584229 -0.11155927926301956
0.23499585688114166 0.22767651081085205 0.07596804201602936
0.2584967315196991 -0.2759201228618622 -0.021337131038308144
-0.17836087942123413 0.006097443401813507 -0.13534951210021973
-0.2727624475955963 0.07531687617301941 -0.13897962868213654
-0.2689233720302582 0.09073083847761154 -0.135618656873703
-0.2698027491569519 0.05266571044921875 -0.13709840178489685
-0.17583002150058746 -0.3280704617500305 -0.04397888481616974
-0.19234836101531982 0.08241000771522522 0.1687130331993103
0.26389726996421814 -0.04143668711185455 -0.13839757442474365
0.3055269420146942 -0.0972372516989708 -0.13118882477283478
0.03590529039502144 0.22083733975887299 -0.17091934382915497
-0.12748783826828003 -0.25079888105392456 -0.07512680441141129
-0.26946622133255005 0.0321466401219368 -0.1340719610452652
-0.1838758885860443 -0.40957507491111755 -0.010145246051251888
-0.2671722173690796 0.19296395778656006 -0.13678337633609772
0.2992178797721863 -0.1649087816476822 -0.11238991469144821
0.29793310165405273 0.09523074328899384 -0.13434144854545593
0.28337034583091736 -0.34795501828193665 0.01871674507856369
0.1391509473323822 0.2259110063314438 0.049973808228969574
-0.1284066140651703 -0.25070661306381226 0.05319231376051903
0.2939625382423401 0.1964436024427414 0.14073392748832703
0.0818445160984993 0.039038628339767456 -0.13385054469108582
0.20807969570159912 0.3297485411167145 0.06992091983556747
0.2758381962776184 -0.24740588665008545 -0.13463713228702545
0.25436681509017944 -0.44514143466949463 0.19171904027462006
0.0039648255333304405 -0.24823708832263947 -0.13217474520206451
0.2972833812236786 0.09140840172767639 -0.13299185037612915
0.3060442805290222 -0.23141181468963623 -0.13140952587127686
-0.05636005103588104 -0.19205763936042786 0.15740536153316498
0.16594815254211426 -0.38562631607055664 0.17287009954452515
0.2878197133541107 -0.39414986968040466 0.02376185730099678
-0.26879775524139404 0.22321215271949768 -0.08388246595859528
0.2717156708240509 0.5038844347000122 0.03939305245876312
-0.26964402198791504 -0.22070810198783875 -0.14079000055789948
-0.2821958363056183 -0.44187286496162415 0.014771165326237679
0.011217503808438778 0.20348335802555084 -0.13804100453853607
0.07421859353780746 0.2271566092967987 -0.1254275143146515
0.24154099822044373 -0.30303919315338135 -0.07881582528352737
-0.2469775229692459 -0.2518348693847656 0.12756215035915375
0.2990230917930603 0.07197244465351105 -0.134316548705101
-0.26902055740356445 0.2136945277452469 -0.13310422003269196
0.20310434699058533 -0.25084659457206726 -0.07775449752807617
-0.21090537309646606 -0.3987147808074951 0.1589692234992981
-0.20968219637870789 -0.120320163667202 0.16684064269065857
-0.17270195484161377 0.32933899760246277 0.03537264093756676
-0.004219108261168003 0.22932280600070953 -0.1812790334224701
-0.2740333080291748 -0.00015226006507873535 -0.1385037899017334
0.30868157744407654 -0.4439369738101959 0.07591003179550171
-0.26970818638801575 0.04566877335309982 -0.10124006122350693
-0.135025292634964 0.2393103539943695 -0.13164936006069183
-0.2128220647573471 0.15865880250930786 0.1627843976020813
0.26591357588768005 0.44004231691360474 -0.08006010204553604
0.022669458761811256 -0.25079938769340515 0.09711083024740219
0.2993566691875458 0.09925013780593872 -0.13305968046188354
0.2970462143421173 -0.13749735057353973 0.14047345519065857
0.13488739728927612 -0.24966596066951752 -0.017950084060430527
-0.22945642471313477 0.4999081492424011 0.014930122531950474
0.01773197203874588 0.053093358874320984 -0.13858941197395325
-0.2699551284313202 -0.11634588986635208 0.04059863090515137
0.028344325721263885 0.2290806919336319 0.11674193292856216
-0.11835026741027832 0.22747939825057983 -0.12715297937393188
0.22305472195148468 0.22703143954277039 0.13216985762119293
-0.31466662883758545 -0.4344679117202759 -0.06799129396677017
0.14380638301372528 -0.25169703364372253 0.07650334388017654
0.09223993867635727 -0.2510623037815094 0.10979510843753815
0.0803537592291832 0.23156008124351501 0.1409408003091812
-0.11743450164794922 -0.2500114440917969 0.11868004500865936
0.2981603443622589 0.16329066455364227 0.04983372241258621
0.3022867441177368 0.05326375365257263 -0.1294405460357666
-0.2199726402759552 0.22634942829608917 -0.13257533311843872
-0.2699024975299835 0.010116398334503174 0.1456451714038849
0.29810798168182373 -0.19863052666187286 0.06424732506275177
0.19772829115390778 0.4989820420742035 0.01916840299963951
-0.23690134286880493 0.49427029490470886 0.04423471912741661
0.302493155002594 -0.09711135923862457 -0.13013334572315216
-0.07023689895868301 0.22802500426769257 0.11108577251434326
0.2755899727344513 0.1410248875617981 0.160360649228096
0.1570185273885727 -0.22911593317985535 0.1605667620897293
0.21847525238990784 -0.25184839963912964 0.10767878592014313
0.29825934767723083 0.22115471959114075 0.00789177417755127
0.29833921790122986 -0.08201073110103607 0.10538512468338013
-0.26465556025505066 0.1290753036737442 -0.1331998109817505
0.29494696855545044 0.0904272198677063 0.13806408643722534
-0.2544429898262024 0.23060858249664307 -0.13544359803199768
0.2945994734764099 0.18176616728305817 0.1350131332874298
0.29620328545570374 0.1949002891778946 0.13047663867473602
0.17504824697971344 0.39847734570503235 0.010183196514844894
0.21062800288200378 -0.2500477135181427 0.0971561074256897
0.3013850152492523 -0.11580171436071396 0.0819561779499054
-0.2651863098144531 0.22492915391921997 -0.13607877492904663
0.13386224210262299 0.22464366257190704 -0.13463622331619263
0.2990987300872803 0.10717906057834625 -0.06948796659708023
0.2975921630859375 -0.15930944681167603 -0.09419455379247665
0.2768098711967468 -0.03868255019187927 0.16137664020061493
-0.2689569294452667 -0.06972548365592957 -0.13482001423835754
-0.2099754959344864 0.24208831787109375 -0.1378134936094284
0.27677661180496216 0.11494874209165573 0.1549704521894455
-0.2589222192764282 0.4637508690357208 0.07840026915073395
0.23620134592056274 -0.24235162138938904 -0.13417485356330872
-0.2638595998287201 0.4275226891040802 0.06274829059839249
0.2956867516040802 -0.16138680279254913 0.07214449346065521
-0.24909453094005585 0.20135867595672607 0.15436019003391266
-0.30645039677619934 -0.43322208523750305 9.318580850958824e-05
-0.10640349984169006 0.19068185985088348 0.15802766382694244
-0.26774862408638 -0.21010875701904297 -0.09205860644578934
0.1935553252696991 0.4234785735607147 -0.05991295725107193
0.22333866357803345 -0.4476616382598877 -0.022364690899848938
-0.15085285902023315 0.149574875831604 0.16682091355323792
0.15207891166210175 0.22692815959453583 -0.08199426531791687
0.03387823700904846 -0.19312460720539093 0.15464206039905548
-0.27023249864578247 -0.06436775624752045 -0.136915922164917
-0.001676507294178009 -0.24809890985488892 -0.11824509501457214
0.29504629969596863 0.020791251212358475 0.13476289808750153
-0.29288798570632935 0.00019118125783279538 -0.27956897020339966
-0.1256445050239563 0.16959160566329956 0.16144990921020508
-0.221627339720726 -0.24871625006198883 0.14525045454502106
0.29920583963394165 0.19364841282367706 0.13511820137500763
-0.20870721340179443 0.23216426372528076 -0.13296091556549072
0.29606372117996216 -0.15065796673297882 0.13598370552062988
0.031514208763837814 -0.25076577067375183 0.08728005737066269
0.18063373863697052 0.360196590423584 -0.006966010667383671
0.2704485356807709 0.4549959897994995 -0.07418778538703918
-0.16520704329013824 0.22805006802082062 0.11634940654039383
0.18626193702220917 0.21227866411209106 -0.13530920445919037
0.2687309682369232 -0.20260882377624512 0.15227554738521576
0.08496173471212387 0.16734884679317474 -0.13590018451213837
0.20356179773807526 0.22787226736545563 0.0025824010372161865
0.27707400918006897 0.2296026051044464 -0.1324775516986847
0.2159474939107895 -0.3675093352794647 0.16748948395252228
-0.3193123936653137 -0.369906485080719 0.16042642295360565
0.28179314732551575 -0.339377760887146 -0.008971260860562325
-0.1165323480963707 0.21258887648582458 -0.13935649394989014
0.22642385959625244 -0.24360626935958862 -0.13612531125545502
-0.26736021041870117 0.21125464141368866 -0.13021989166736603
0.10250002890825272 0.22700470685958862 -0.13314127922058105
-0.2694414258003235 0.21247906982898712 0.11935311555862427
-0.04631839692592621 -0.17262333631515503 0.16813096404075623
0.24503539502620697 -0.22961412370204926 0.15482592582702637
-0.03461863845586777 0.229751855134964 -0.13385425508022308
0.26591774821281433 0.0030445754528045654 -0.13087232410907745
-0.2093905806541443 0.2274886667728424 -0.13181072473526
0.30546221137046814 0.04411311447620392 -0.12873169779777527
0.21904505789279938 -0.44714051485061646 -0.05841797590255737
0.037764038890600204 0.125403493642807 -0.1358780711889267
-0.22639629244804382 0.34089982509613037 0.08753886818885803
-0.2645355761051178 0.384420245885849 0.0032652756199240685
-0.20157453417778015 0.1867402344942093 0.15900008380413055
-0.24788746237754822 0.07222363352775574 0.1542261689901352
0.07968707382678986 -0.2489214539527893 -0.12673242390155792
-0.29061752557754517 -0.41541463136672974 0.08103901147842407
-0.012023735791444778 -0.25049933791160583 -0.08490096777677536
-0.2715364396572113 -0.03780922293663025 0.02487485110759735
0.19495949149131775 0.32343408465385437 -0.006683384999632835
-0.2668134272098541 0.1456681191921234 -0.09353837370872498
0.031711820513010025 -0.16871625185012817 0.16668479144573212
0.21303175389766693 -0.4479787051677704 0.025129809975624084
-0.020000645890831947 0.23243437707424164 -0.13367632031440735
-0.2696957588195801 0.429098904132843 0.06999393552541733
0.29621264338493347 0.1346147060394287 0.14709097146987915
-0.24904315173625946 -0.06393840163946152 0.1538447141647339
0.16246147453784943 0.17011350393295288 -0.13559673726558685
0.3002173900604248 0.21842150390148163 -0.13149385154247284
0.25011739134788513 0.2278798520565033 -0.13742363452911377
0.23996606469154358 -0.15436896681785583 -0.137889102101326
0.1844213902950287 0.22680313885211945 -0.13974741101264954
0.17678290605545044 0.23047944903373718 -0.1336464136838913
0.17695681750774384 0.43703120946884155 0.06063764914870262
-0.01945837028324604 0.16812068223953247 -0.1371282935142517
0.08957269787788391 -0.25237149000167847 -0.034126244485378265
-0.1692638248205185 0.23093155026435852 0.13723501563072205
0.060212280601263046 -0.18728286027908325 0.15728826820850372
-0.2575635612010956 0.2313842922449112 -0.11717328429222107
0.2993399500846863 -0.12683133780956268 -0.13945192098617554
0.29741254448890686 -0.20585687458515167 0.08057814836502075
0.17738206684589386 0.1685332953929901 0.16450677812099457
-0.08475299179553986 0.19833245873451233 0.1555822491645813
0.24060167372226715 -0.17201432585716248 0.171632319688797
-0.23943834006786346 -0.2794032692909241 -0.038795020431280136
-0.24083511531352997 0.3061678409576416 0.0020324932411313057
-0.19001731276512146 0.33241206407546997 0.05999409407377243
-0.22689786553382874 0.4901409149169922 -0.03008817508816719
0.22386744618415833 0.2276718020439148 -0.13725616037845612
0.29604774713516235 0.14825749397277832 0.12029775232076645
0.20743213593959808 0.3440006673336029 0.10378871113061905
0.16617394983768463 0.22956882417201996 -0.09311570227146149
-0.015049444511532784 -0.25001004338264465 -0.0799252986907959
-0.26782745122909546 -0.08787500113248825 -0.04438169300556183
0.3033766746520996 -0.0203976072371006 -0.136677548289299
-0.27277880907058716 0.19184882938861847 -0.1375982165336609
-0.011499918065965176 -0.24960198998451233 0.10729796439409256
0.29940056800842285 0.37294554710388184 0.05797284469008446
0.26647621393203735 -0.24812927842140198 -0.1331210881471634
-0.2103041559457779 -0.11391181498765945 0.16792482137680054
0.26807695627212524 -0.24965807795524597 -0.03598016873002052
0.29503893852233887 0.4174775183200836 -0.036094315350055695
0.13860373198986053 -0.39604008197784424 0.12093806266784668
-0.2658573091030121 -0.15698300302028656 -0.13679727911949158
0.2994820475578308 -0.03695981949567795 0.008005399256944656
-0.2669563591480255 -0.010937370359897614 -0.13603471219539642
0.2500554025173187 -0.24475398659706116 -0.10394251346588135
0.03910861536860466 -0.19906939566135406 0.15754958987236023
-0.24470672011375427 0.3139491677284241 -0.0051351687870919704
-0.2689545154571533 0.05879950150847435 -0.13436120748519897
-0.2691861689090729 -0.016496045514941216 -0.13744191825389862
0.17703428864479065 0.166090190410614 0.1648252159357071
-0.14020046591758728 -0.2517111599445343 -0.04384410381317139
-0.13903868198394775 -0.2480219602584839 0.131182000041008
-0.11165368556976318 -0.176381915807724 0.1706066131591797
-0.2685738801956177 -0.024272412061691284 -0.09646395593881607
0.24570754170417786 0.4124159812927246 0.10364893823862076
-0.26853135228157043 0.13908728957176208 -0.130278080701828
0.29834285378456116 -0.1936653107404709 0.10379393398761749
0.24444830417633057 -0.31229275465011597 0.11392330378293991
0.15201124548912048 -0.19909971952438354 0.15337996184825897
0.04555162787437439 0.1824268400669098 0.15872423350811005
0.11012542247772217 -0.2443351149559021 -0.13316114246845245
-0.2660462558269501 -0.07314152270555496 -0.1361745297908783
0.0677308589220047 -0.25198182463645935 0.1412753015756607
-0.2685686945915222 0.2184617817401886 0.105647511780262
-0.2721172869205475 0.19701136648654938 0.019566334784030914
-0.26749351620674133 -0.15673193335533142 -0.14001065492630005
0.20454657077789307 0.5001605749130249 0.09642451256513596
-0.31066760420799255 -0.3839154541492462 0.13721875846385956
-0.17847929894924164 -0.32597580552101135 -0.042383767664432526
-0.127092182636261 -0.2551254332065582 0.11673588305711746
-0.27305668592453003 -0.04433763772249222 -0.13661357760429382
0.24861857295036316 -0.22057181596755981 -0.13469508290290833
0.17460273206233978 0.45618951320648193 0.03534672036767006
0.2763640880584717 -0.3366871476173401 0.08377333730459213
0.017583895474672318 0.1865803748369217 0.15539930760860443
0.28952208161354065 -0.41924425959587097 0.12470800429582596
-0.1999291479587555 -0.400023490190506 -0.06435318291187286
0.30105045437812805 -0.18250395357608795 -0.11693119257688522
-0.27009251713752747 -0.08577792346477509 -0.13893841207027435
-0.08181241154670715 -0.24929623305797577 0.07689535617828369
-0.26451560854911804 0.21197326481342316 0.11557135730981827
-0.2697658836841583 0.2057723104953766 -0.13689230382442474
-0.2669738531112671 0.1663753241300583 -0.13130450248718262
-0.21114876866340637 -0.4639546573162079 0.036111071705818176
-0.2804619371891022 -0.3188241124153137 -0.007083280477672815
0.1844535768032074 0.39069750905036926 -0.026661710813641548
-0.27168008685112 0.028772888705134392 -0.12233946472406387
-0.11338713765144348 -0.25210604071617126 -0.008224891498684883
-0.24919812381267548 -0.2886061668395996 -0.024400619789958
0.08275412023067474 -0.25120237469673157 -0.10355181992053986
0.298331618309021 -0.15326164662837982 -0.07110834866762161
-0.11405552178621292 0.2112317681312561 -0.13612864911556244
-0.24083060026168823 0.19448357820510864 -0.13868816196918488
0.2284596711397171 0.3242838382720947 -0.04360702633857727
-0.1793152093887329 -0.2289665937423706 0.16071736812591553
0.19609293341636658 0.47890418767929077 -0.02711622416973114
0.09713088721036911 0.22649691998958588 -0.13736143708229065
-0.260768324136734 0.42191433906555176 -0.02548309415578842
-0.24467149376869202 0.4911302924156189 0.08705002814531326
0.29768794775009155 0.22548766434192657 -0.05196751654148102
0.20054173469543457 0.4027178883552551 -0.07069260627031326
0.1440052092075348 -0.38343214988708496 0.13999074697494507
0.17595450580120087 0.39049550890922546 0.06839802861213684
-0.26770129799842834 -0.06529423594474792 -0.13562533259391785
0.033987097442150116 -0.21275416016578674 0.15553340315818787
0.2853246331214905 -0.36061885952949524 0.08773259073495865
0.26913902163505554 -0.3124031126499176 0.05977554991841316
-0.2639879286289215 -0.2049483358860016 -0.022694751620292664
-0.21597151458263397 0.446769118309021 0.09011148661375046
-0.2690332531929016 -0.0037128403782844543 -0.11375592648983002
0.27073073387145996 0.025081906467676163 -0.13321082293987274
-0.11145385354757309 -0.24918100237846375 -0.12786243855953217
0.27936771512031555 0.3250373303890228 0.038105402141809464
-0.11373497545719147 -0.2529403865337372 -0.09118817746639252
-0.2683360278606415 -0.3307732045650482 0.16482201218605042
0.29794636368751526 -0.011573966592550278 -0.13637247681617737
0.24346822500228882 0.15047714114189148 0.16324163973331451
0.15835720300674438 0.22722086310386658 -0.13401634991168976
-0.0004882924258708954 0.22749781608581543 -0.04431462287902832
-0.03966234251856804 -0.25044846534729004 0.0400983951985836
-0.19621118903160095 0.44063299894332886 -0.07544305175542831
-0.21715830266475677 0.22804045677185059 -0.13592545688152313
0.2967495024204254 -0.043802790343761444 0.1473352611064911
-0.183685302734375 -0.21928998827934265 0.1581823229789734
0.052393876016139984 -0.23678374290466309 -0.13658598065376282
0.10513801127672195 -0.24785369634628296 -0.13460290431976318
0.010552985593676567 -0.18498262763023376 0.157496839761734
-0.25159475207328796 -0.42501145601272583 0.17100612819194794
-0.20158085227012634 -0.3118908703327179 -0.06611160933971405
0.2980582118034363 -0.03669516742229462 0.04811866953969002
0.22034503519535065 0.18240652978420258 0.16125942766666412
0.04351838678121567 0.22460304200649261 -0.13701972365379333
0.1542922705411911 -0.2496834099292755 -0.10359829664230347
-0.1926678717136383 -0.32783713936805725 0.08612457662820816
-0.3130195140838623 -0.41891711950302124 0.007777699735015631
-0.14951233565807343 0.1952262669801712 0.15749572217464447
-0.15306606888771057 0.22779518365859985 0.061273254454135895
0.04430095851421356 -0.25227218866348267 0.14190979301929474
0.29075223207473755 0.4652799069881439 -0.0073439255356788635
0.2983626127243042 0.3622334897518158 0.04878874868154526
0.08680766820907593 0.22754117846488953 -0.1375962793827057
0.07231087237596512 -0.25174480676651 0.03765146806836128
0.19225336611270905 -0.2205462008714676 0.15587884187698364
-0.257283478975296 0.458883136510849 -0.0012504726182669401
-0.2686302065849304 0.2196614146232605 0.05427578091621399
0.24719926714897156 -0.21544978022575378 0.15438826382160187
-0.2749009430408478 -0.16862142086029053 -0.06462116539478302
0.004117547068744898 0.1591290682554245 -0.13597315549850464
-0.04353354498744011 0.22468777000904083 -0.13689793646335602
-0.1524290144443512 0.22992312908172607 0.12319103628396988
-0.16886413097381592 -0.24868591129779816 -0.12665855884552002
-0.13720226287841797 -0.25192877650260925 -0.01804642379283905
0.14950834214687347 0.22467049956321716 -0.10950054228305817
0.2408113330602646 -0.24927234649658203 -0.08361557871103287
0.29911062121391296 0.02454066276550293 0.020042255520820618
-0.19346356391906738 -0.24723726511001587 -0.07391342520713806
-0.16195163130760193 0.46467462182044983 0.026333950459957123
0.29180750250816345 -0.032197706401348114 0.15438976883888245
-0.04800526052713394 0.22807499766349792 0.06456959992647171
-0.21272434294223785 -0.10093922913074493 0.17198285460472107
0.2245256006717682 0.5151671767234802 0.01172647625207901
-0.26740577816963196 0.40493953227996826 0.025905627757310867
0.262126624584198 -0.39172443747520447 0.1932976245880127
0.1682063341140747 -0.29166480898857117 -0.02243068441748619
-0.14047059416770935 0.22883324325084686 -0.1394219994544983
0.15538658201694489 -0.3105491101741791 0.05575269088149071
0.29702675342559814 -0.1441996544599533 0.1356464922428131
0.2592518627643585 0.33087921142578125 0.08146873116493225
0.07680250704288483 0.2283756285905838 0.12982888519763947
0.1777585744857788 0.37750908732414246 0.06482567638158798
0.21451883018016815 -0.44715461134910583 0.20138604938983917
-0.21584787964820862 0.22801098227500916 -0.13910570740699768
-0.032108381390571594 0.2294367253780365 -0.1334647536277771
-0.26951438188552856 -0.05275755003094673 -0.1341300904750824
-0.27146533131599426 0.2184096872806549 0.11500372737646103
-0.23254036903381348 0.2403402477502823 -0.13400346040725708
0.1413550227880478 -0.4160368740558624 0.005045948550105095
0.20944078266620636 0.23013836145401 0.05830336734652519
-0.18987101316452026 -0.3131681978702545 -0.05781583487987518
-0.26913952827453613 0.13478180766105652 -0.13672970235347748
0.22310881316661835 0.22963576018810272 -0.13174736499786377
0.03247872740030289 0.22784240543842316 -0.13717558979988098
-0.22707107663154602 0.12705518305301666 0.16455867886543274
-0.2680475413799286 -0.21845363080501556 -0.06998705863952637
0.2548954486846924 0.1437302529811859 0.16362109780311584
0.2782595455646515 -0.2455747425556183 -0.09216498583555222
0.11472279578447342 0.22993694245815277 -0.08988551795482635
0.28417253494262695 0.22968187928199768 -0.12203303724527359
0.30045589804649353 0.15408873558044434 -0.1365203708410263
0.23030459880828857 -0.34640395641326904 0.14254936575889587
0.07351956516504288 -0.24811354279518127 -0.11618645489215851
0.13917423784732819 0.1901451051235199 0.1559087187051773
0.2949511408805847 0.18290847539901733 0.14939509332180023
0.22875455021858215 -0.23933996260166168 -0.13266336917877197
-0.17149893939495087 0.3673352599143982 -0.043153733015060425
-0.036583248525857925 -0.251678466796875 -0.0421321801841259
0.28271016478538513 -0.35758817195892334 0.09862518310546875
0.2217133343219757 0.2280171811580658 0.07791700959205627
0.29658573865890503 0.10985816270112991 0.15011803805828094
-0.17739972472190857 0.3440185487270355 0.07054674625396729
0.26205241680145264 -0.18028199672698975 -0.13660363852977753
-0.26475226879119873 0.05108640715479851 -0.1340610533952713
-0.2192331850528717 0.22849896550178528 0.07403241842985153
0.272041916847229 -0.143492192029953 0.16438663005828857
0.11156885325908661 -0.029233669862151146 0.17049099504947662
0.14531515538692474 0.2252548187971115 -0.08637011051177979
-0.3291747570037842 -0.37283578515052795 0.12527766823768616
0.29881519079208374 -0.12627193331718445 0.09257800132036209
-0.14634883403778076 0.2281012088060379 0.1344880759716034
0.18519893288612366 0.17504334449768066 0.16195529699325562
0.17368923127651215 -0.2515537142753601 -0.0925293043255806
-0.15134720504283905 0.2294154167175293 0.0409935787320137
0.20842400193214417 -0.34610021114349365 0.13816596567630768
0.3050991892814636 0.05285254120826721 -0.13348479568958282
0.06936004012823105 -0.11707964539527893 0.171614408493042
0.17110909521579742 0.2262345850467682 -0.13765615224838257
-0.26835429668426514 0.20298518240451813 -0.12838983535766602
-0.10236883163452148 0.16999737918376923 -0.13700686395168304
0.030543625354766846 0.22827400267124176 -0.1345381736755371
0.23937048017978668 0.1521064043045044 0.16744942963123322
-0.24376483261585236 -0.44111156463623047 0.14174139499664307
-0.24669583141803741 0.33391276001930237 -0.02441081777215004
0.29851028323173523 0.1342507153749466 0.12378140538930893
0.17739737033843994 -0.3566265404224396 0.14339113235473633
0.20372489094734192 -0.4477432072162628 -0.050147973001003265
0.17900075018405914 0.17057004570960999 -0.13289666175842285
-0.044921182096004486 -0.25295114517211914 -0.011593885719776154
0.04094703122973442 -0.03302028030157089 -0.13696512579917908
0.1470382958650589 0.22637127339839935 -0.13749106228351593
0.2753496468067169 -0.25103506445884705 0.07665065675973892
0.2965266704559326 0.3654770255088806 0.06762408465147018
-0.055601246654987335 -0.2412066012620926 -0.1359245926141739
0.13459403812885284 0.2279473841190338 0.07349331676959991
-0.26410990953445435 -0.23176828026771545 -0.06603723019361496
-0.15555450320243835 0.43009501695632935 0.05431925505399704
-0.18069186806678772 -0.2888854146003723 -0.05026208609342575
-0.20932365953922272 -0.42924192547798157 0.1416398286819458
0.29509633779525757 0.4580795168876648 0.08437712490558624
0.2919721305370331 0.1550803780555725 0.13583995401859283
0.13243599236011505 -0.2471177875995636 -0.13441361486911774
0.17823484539985657 0.38421422243118286 0.040780749171972275
-0.16847647726535797 0.3420407772064209 -0.01649205945432186
0.2831422984600067 -0.4217330515384674 -0.041175972670316696
-0.26907357573509216 0.013660235330462456 -0.13665246963500977
0.13626807928085327 -0.24414490163326263 -0.13617411255836487
-0.09371113032102585 0.23039117455482483 -0.13203178346157074
0.19336749613285065 0.328895628452301 -0.0036324195098131895
-0.26934438943862915 0.20546141266822815 -0.12838248908519745
0.23610037565231323 -0.44529110193252563 -0.07751408219337463
0.20151953399181366 -0.3347812592983246 -0.07548807561397552
0.2962750792503357 0.16318713128566742 0.1396256387233734
0.30380162596702576 0.2106606662273407 -0.13376685976982117
-0.09415347129106522 -0.23734824359416962 -0.1356586217880249
0.01347440853714943 0.12975528836250305 -0.1362868994474411
0.17930573225021362 -0.2496361881494522 -0.11449583619832993
0.1442815512418747 -0.15764600038528442 -0.13705983757972717
-0.25786471366882324 0.17397168278694153 -0.13612928986549377
-0.2374010980129242 -0.08803614974021912 0.15372875332832336
0.2902621626853943 -0.01768520288169384 0.1546132117509842
-0.052590806037187576 0.2273852527141571 0.076308473944664
0.26711857318878174 -0.10854422301054001 -0.13676758110523224
0.04453834146261215 0.20848490297794342 0.15590347349643707
-0.26986297965049744 0.11897660791873932 -0.13360297679901123
-0.15873248875141144 0.41433167457580566 0.06284134089946747
-0.23994818329811096 0.4403839111328125 -0.0674445852637291
-0.032535504549741745 -0.24935556948184967 -0.08625243604183197
0.29701125621795654 0.402702659368515 -0.015851594507694244
0.27177688479423523 -0.3004041612148285 0.025976717472076416
0.09033788740634918 -0.20098823308944702 0.1500971019268036
-0.26722073554992676 0.014328189194202423 -0.1356804519891739
-0.2546066641807556 -0.3639402389526367 0.18567334115505219
-0.12009979039430618 0.22954358160495758 -0.11081967502832413
0.2510506510734558 -0.374599426984787 -0.0973295122385025
0.2975355386734009 0.12221374362707138 0.13716194033622742
0.2966483235359192 0.15925981104373932 0.1431143581867218
-0.007072543725371361 0.22575820982456207 -0.01884467527270317
-0.26651298999786377 0.20475056767463684 -0.140940859913826
-0.12242938578128815 0.16275404393672943 0.16403087973594666
0.17238180339336395 0.4402719736099243 0.010710497386753559
0.30409500002861023 -0.06513214111328125 -0.13493712246418
0.30296364426612854 0.07933694124221802 -0.1340649276971817
-0.2953746020793915 -0.4086869955062866 -0.09273779392242432
-0.28840023279190063 -0.019411608576774597 -0.2853257358074188
-0.2688755393028259 -0.10540299117565155 -0.10598686337471008
0.1785966157913208 -0.1944926679134369 -0.13454100489616394
0.29749611020088196 0.2299451231956482 0.08861076831817627
0.1493963748216629 -0.38131287693977356 -0.004422944970428944
-0.12184744328260422 0.22743171453475952 0.03545214235782623
-0.26692503690719604 -0.09349434077739716 -0.1392366588115692
-0.11849949508905411 0.2289123684167862 0.024911750108003616
-0.2675940692424774 -0.13375820219516754 -0.050139881670475006
-0.033286746591329575 0.2263197898864746 -0.12283746898174286
0.17420868575572968 0.22776532173156738 0.11790614575147629
-0.22329013049602509 -0.37177109718322754 0.1601298600435257
0.190892294049263 0.4249386489391327 -0.051347486674785614
-0.31776416301727295 -0.3735820949077606 0.15204249322414398
-0.2103869467973709 -0.4523753225803375 -0.005225860979408026
-0.20123867690563202 -0.34385934472084045 0.09988442808389664
-0.26736971735954285 -0.22982706129550934 -0.15052418410778046
-0.0432090163230896 -0.2513076364994049 0.008475925773382187
0.2940122187137604 -0.036511942744255066 0.13699904084205627
0.29126712679862976 0.46029022336006165 0.0029781984630972147
0.1743050366640091 0.1529097855091095 0.16642852127552032
0.29599884152412415 0.21150502562522888 0.14160281419754028
0.23859903216362 -0.10927962511777878 -0.13478530943393707
-0.26982438564300537 0.20157447457313538 -0.11296980082988739
0.2927652597427368 0.2091110497713089 0.14148303866386414
0.257556289434433 -0.4474610388278961 0.1824570894241333
-0.15612496435642242 -0.2894471287727356 0.011254312470555305
0.23849424719810486 0.42451658844947815 -0.09591217339038849
0.0398118756711483 0.2286095768213272 -0.12220343947410583
-0.15682633221149445 0.4375663995742798 0.02977246604859829
0.29857712984085083 0.09459346532821655 0.04510603845119476
0.22888721525669098 0.16128653287887573 0.1654762625694275
0.2876105308532715 -0.44679149985313416 0.06999284029006958
-0.08392661064863205 -0.17491433024406433 0.1677599549293518
-0.2581092417240143 0.4516793191432953 -0.022772710770368576
-0.10290393233299255 -0.2147284597158432 0.15878048539161682
-0.3224624991416931 -0.4184490740299225 -0.013099814765155315
0.1557617485523224 -0.24512436985969543 -0.06393837183713913
0.2960039973258972 -0.20861192047595978 0.13164450228214264
-0.2607596814632416 0.22961188852787018 -0.13038040697574615
0.1923278421163559 0.20873132348060608 0.151251882314682
-0.10118364542722702 0.2292429804801941 -0.11809320002794266
-0.20160406827926636 0.22816801071166992 0.07918681204319
-0.02751983515918255 0.17861686646938324 -0.13591590523719788
-0.06233108788728714 0.22872303426265717 -0.13411669433116913
0.26802071928977966 -0.3061634302139282 0.07779105007648468
-0.2456800639629364 0.2322399765253067 -0.13581371307373047
0.20243868231773376 -0.09718732535839081 -0.136427640914917
0.2626171410083771 -0.29712119698524475 -0.04576048254966736
-0.2665608823299408 0.19015373289585114 0.09958107769489288
0.06936746835708618 0.1379367858171463 0.16315259039402008
-0.29377511143684387 -0.32348981499671936 0.17681258916854858
0.1747598797082901 0.39938464760780334 0.03090052120387554
-0.2672896087169647 -0.1248745322227478 -0.13080938160419464
0.13660162687301636 -0.24804732203483582 -0.1346595287322998
-0.21596837043762207 0.2292075753211975 -0.13432110846042633
-0.26913079619407654 -0.08506105840206146 -0.13494189083576202
-0.2697555124759674 0.0063588060438632965 0.1281369924545288
0.07107830047607422 -0.23749062418937683 -0.13384154438972473
-0.014383891597390175 -0.14007532596588135 0.16938479244709015
-0.3180849552154541 -0.4299725890159607 -0.0460575595498085
-0.22645625472068787 0.2284192591905594 0.11068743467330933
0.2657340168952942 -0.24269796907901764 -0.1361110508441925
-0.06635434925556183 -0.17197757959365845 0.16759158670902252
-0.15174661576747894 0.23189300298690796 -0.13670676946640015
0.030915381386876106 0.17020313441753387 -0.22093726694583893
0.27956661581993103 -0.24761471152305603 -0.09524177014827728
0.2949945032596588 0.3796102702617645 0.08779218047857285
0.18487127125263214 -0.21228604018688202 0.1577596366405487
-0.014077725820243359 -0.2507288157939911 0.06081145629286766
-0.20370931923389435 -0.4078340232372284 0.14560289680957794
0.15757536888122559 -0.19707605242729187 0.14866510033607483
-0.11168637871742249 -0.23958203196525574 -0.13829083740711212
-0.2695619761943817 0.06350283324718475 -0.1375739872455597
0.2955649495124817 0.45332688093185425 0.011682048439979553
-0.17179298400878906 0.22909508645534515 -0.12437281757593155
-0.209722101688385 -0.2809082865715027 -0.06346962600946426
0.2812822461128235 -0.05490532144904137 -0.1347966194152832
-0.037596818059682846 0.15424741804599762 0.167580708861351
0.2999725937843323 -0.07472293823957443 0.04385310411453247
0.18013405799865723 0.37241172790527344 0.07409946620464325
0.17795106768608093 -0.302609384059906 -0.046905871480703354
0.29735320806503296 0.07578393816947937 -0.11565429717302322
-0.1744997352361679 0.2276880145072937 0.049322545528411865
0.10177738964557648 0.14899088442325592 0.16702371835708618
-0.2698580026626587 -0.20086166262626648 -0.07234247773885727
-0.05503624677658081 -0.2366609275341034 -0.13566580414772034
0.022211160510778427 0.22873254120349884 0.1022830680012703
-0.22251009941101074 0.4538101255893707 0.08889106661081314
0.17794924974441528 -0.28197407722473145 0.05452074483036995
0.19463449716567993 -0.37872061133384705 0.17414075136184692
0.29527613520622253 0.3612096607685089 0.045805566012859344
-0.24838906526565552 0.23053021728992462 -0.13540390133857727
-0.04151086136698723 -0.03491752967238426 -0.13786563277244568
-0.14543096721172333 -0.24899032711982727 -0.10470738261938095
-0.2925421893596649 -0.02812695875763893 -0.2619783878326416
-0.18168911337852478 0.20483727753162384 -0.13556598126888275
-0.06724231690168381 -0.25046056509017944 0.06089969724416733
0.1723736673593521 -0.25161874294281006 0.07523933053016663
0.11479835212230682 -0.249888077378273 -0.08205073326826096
