0.2992459237575531 0.18386417627334595 0.055716902017593384
0.17448891699314117 -0.4461594820022583 0.17860086262226105
-0.21374139189720154 -0.0286574624478817 0.16813646256923676
-0.2709546387195587 -0.2380148470401764 -0.05002047121524811
0.2360374927520752 -0.23049598932266235 -0.13385406136512756
0.26223111152648926 0.2371305227279663 0.046578533947467804
-0.27257031202316284 0.21907514333724976 0.11558826267719269
0.290285587310791 0.2068689465522766 -0.1365462690591812
-0.2671769857406616 -0.2420073002576828 -0.1101948618888855
0.03973636031150818 0.20522721111774445 -0.22955891489982605
-0.04181848466396332 0.11615604162216187 -0.13613446056842804
-0.22277392446994781 -0.4702354669570923 0.05249703675508499
0.24713227152824402 0.138756662607193 0.15804357826709747
0.2956255078315735 -0.10496970266103745 -0.1250704526901245
-0.20850133895874023 0.42341724038124084 -0.07880356907844543
-0.22777287662029266 -0.47224336862564087 -0.019047372043132782
0.2977138161659241 -0.10082458704710007 0.15227290987968445
0.15929783880710602 0.22670862078666687 0.14861218631267548
-0.32808399200439453 -0.42267873883247375 -0.05638961121439934
0.18868494033813477 0.46731624007225037 -0.023258216679096222
-0.2865309715270996 0.10343751311302185 -0.2943844497203827
-0.19199517369270325 0.47904977202415466 -0.043387167155742645
-0.2613621652126312 -0.009724654257297516 0.15540221333503723
-0.2683545649051666 -0.1472443789243698 0.15592804551124573
0.03084307536482811 0.22350117564201355 -0.2407444417476654
-0.26569393277168274 -0.05959897115826607 -0.13484138250350952
0.20685209333896637 0.5010042190551758 0.0987323448061943
-0.2871994078159332 -0.4536699652671814 -0.0753261148929596
0.2630159854888916 -0.24028600752353668 -0.13393805921077728
0.18691010773181915 0.44265079498291016 -0.03361272066831589
-0.3368512988090515 -0.36411672830581665 0.057403407990932465
0.2986350953578949 -0.23660190403461456 -0.09550747275352478
0.2067488431930542 0.2256283015012741 -0.1213638186454773
-0.1706952601671219 0.48315662145614624 0.06045352295041084
0.25821006298065186 -0.059023451060056686 0.15319570899009705
0.29140162467956543 0.21883071959018707 -0.1346624493598938
-0.2726871073246002 -0.16105297207832336 -0.12653426826000214
0.2889068126678467 0.22819297015666962 0.11592857539653778
-0.019640721380710602 -0.1941705048084259 0.15244175493717194
-0.016314906999468803 -0.2506403625011444 -0.1190108135342598
0.15156102180480957 -0.37408825755119324 0.11803755909204483
0.28989073634147644 0.2299085557460785 0.10933282971382141
-0.032482825219631195 0.17879986763000488 0.1548445224761963
0.11379390209913254 0.2268056571483612 -0.12434859573841095
-0.26727449893951416 -0.2037125527858734 -0.1331361085176468
0.29836446046829224 -0.2088092714548111 0.14155468344688416
0.19933418929576874 0.01496030017733574 0.1712273359298706
-0.2405926138162613 0.23225830495357513 0.04749912768602371
0.2831677198410034 -0.4452851414680481 0.14832155406475067
0.2713412940502167 -0.25105977058410645 -0.007825419306755066
0.2635788321495056 0.20387674868106842 0.15680603682994843
-0.21828961372375488 -0.2339707762002945 -0.13461501896381378
-0.24081119894981384 0.4485777020454407 0.10233667492866516
0.17330367863178253 -0.18419989943504333 0.16117338836193085
0.2495567351579666 0.2539574205875397 -0.02166992425918579
-0.33834218978881836 -0.3579530119895935 0.12772276997566223
-0.08691561222076416 0.21416762471199036 0.1565510332584381
0.14342297613620758 -0.4080813527107239 0.14999505877494812
-0.2704831063747406 -0.17815786600112915 -0.08191964030265808
-0.18426202237606049 0.31904855370521545 -0.014386516995728016
0.2645287811756134 -0.44393399357795715 -0.05826469883322716
0.23411482572555542 -0.1281520575284958 0.1674993932247162
0.293778657913208 0.16635410487651825 -0.13476458191871643
0.2946307063102722 -0.01756252720952034 -0.13364188373088837
-0.1461118906736374 -0.2508091926574707 0.06568501889705658
-0.264324426651001 -0.005652487277984619 0.15496668219566345
0.17481355369091034 0.15248563885688782 0.16816192865371704
0.23360544443130493 -0.1798643171787262 0.16597971320152283
0.18757086992263794 0.45990943908691406 0.11211536824703217
0.29770565032958984 0.10471023619174957 0.14603771269321442
0.2028588056564331 0.17795848846435547 0.15299104154109955
0.2693421542644501 0.3892771899700165 -0.08528850972652435
-0.1791418194770813 0.24521298706531525 0.020254384726285934
-0.25683140754699707 0.2337057888507843 0.0011678189039230347
-0.034028828144073486 -0.17927518486976624 0.16490426659584045
0.28956466913223267 -0.04252097010612488 0.15701106190681458
-0.10483098030090332 0.22765108942985535 -0.12773409485816956
0.2642178535461426 -0.38965681195259094 -0.07832822948694229
-0.03845803067088127 0.15119393169879913 -0.1677028089761734
-0.26445016264915466 0.39217767119407654 0.10090591758489609
0.28918689489364624 0.22644521296024323 -0.07173438370227814
-0.1798347532749176 -0.2951890528202057 0.06624914705753326
0.2436896711587906 -0.23088279366493225 -0.13621319830417633
-0.1914989948272705 0.3905845880508423 -0.07605507224798203
-0.12240347266197205 0.22826813161373138 0.14799764752388
-0.07962502539157867 -0.026166321709752083 -0.13555367290973663
-0.23973196744918823 0.2261001467704773 -0.13218605518341064
0.29763373732566833 0.14364741742610931 0.10005374997854233
-0.029699373990297318 0.11713564395904541 -0.17501398921012878
-0.209163099527359 -0.40301916003227234 0.16001498699188232
-0.22627998888492584 -0.2810714542865753 0.08225741237401962
-0.27045896649360657 -0.2070498764514923 -0.12966226041316986
-0.22036460041999817 0.2284727692604065 0.14706702530384064
0.1633869707584381 -0.2512574791908264 0.028873194009065628
0.23445084691047668 0.0667339488863945 0.16931256651878357
0.20570077002048492 0.2271336168050766 0.03087274543941021
-0.21071043610572815 -0.177620992064476 0.16673685610294342
0.24655181169509888 0.2274501770734787 -0.12532594799995422
-0.1547112762928009 -0.2415054887533188 0.15395942330360413
-0.26245713233947754 0.2043030709028244 -0.13534344732761383
-0.22072114050388336 -0.2033790498971939 0.15275193750858307
-0.22161400318145752 0.02825661562383175 0.1625855565071106
0.0012233853340148926 -0.1990751326084137 0.15454557538032532
-0.10441131889820099 -0.2495824098587036 -0.12412424385547638
-0.27015161514282227 0.21059666574001312 -0.08802656084299088
0.13953037559986115 -0.4402657151222229 0.12937575578689575
-0.2888741195201874 0.08399322628974915 -0.2862439453601837
0.12277057766914368 -0.14114511013031006 -0.135349839925766
0.1050894632935524 -0.25116634368896484 -0.115376777946949
0.23874445259571075 -0.1031559556722641 0.16794496774673462
0.29695022106170654 0.2150059938430786 0.11607854068279266
0.1902187019586563 0.368756502866745 0.0982842817902565
0.1895693987607956 0.177965447306633 0.15391014516353607
-0.28647178411483765 -0.3360823690891266 0.18655849993228912
0.2401173710823059 -0.02419291064143181 0.16807584464550018
-0.08405330777168274 -0.23886555433273315 -0.13395467400550842
-0.03532978892326355 0.21765567362308502 -0.13405761122703552
-0.1278536021709442 0.23031094670295715 -0.1265483945608139
-0.29386064410209656 -0.404676228761673 0.11967471987009048
-0.07058333605527878 -0.2514525353908539 -0.11952933669090271
0.002442609518766403 0.02399425208568573 0.1689104288816452
0.21173259615898132 0.4143519997596741 -0.08304551243782043
0.2739035487174988 0.40642809867858887 -0.07793007045984268
-0.2008366882801056 0.2310551255941391 -0.03358351066708565
-0.06820915639400482 0.22684094309806824 0.15041741728782654
-0.02984507568180561 0.12571154534816742 0.1695398986339569
0.29106777906417847 0.1872163861989975 0.15637029707431793
-0.2707861363887787 0.057286690920591354 -0.13213567435741425
0.2905891537666321 -0.42709285020828247 0.08554379642009735
-0.2643164098262787 -0.13529454171657562 -0.13469982147216797
0.04365335404872894 0.18617600202560425 -0.13719817996025085
-0.27306780219078064 0.04019488766789436 -0.13505789637565613
0.24518252909183502 0.31547725200653076 0.050341296941041946
-0.23625129461288452 0.4438788592815399 -0.06936095654964447
-0.11988285928964615 0.03655363619327545 -0.13766206800937653
-0.25015002489089966 0.49121472239494324 0.05510631948709488
0.2193785309791565 0.4237622618675232 0.10143286734819412
-0.25833508372306824 0.35033175349235535 0.05047694966197014
-0.2631469666957855 -0.3752250671386719 -0.09218638390302658
0.2550540268421173 -0.3117057979106903 0.09994260966777802
-0.27131569385528564 -0.10916002094745636 -0.13099884986877441
0.2503875494003296 0.23314891755580902 -0.030936356633901596
-0.238876074552536 -0.33423206210136414 -0.08563639968633652
0.14865048229694366 -0.4452885389328003 0.13126909732818604
0.2440195232629776 -0.2794325649738312 0.08106152713298798
-0.1575845628976822 0.22520120441913605 0.15414884686470032
-0.24412864446640015 -0.478728711605072 -0.007668859325349331
0.06564316153526306 0.05308597534894943 0.1678965836763382
0.29870226979255676 0.195115327835083 0.14492526650428772
0.2056443691253662 0.22994960844516754 -0.013413604348897934
0.1854688972234726 0.21796143054962158 -0.1339576244354248
-0.03273908421397209 -0.14940083026885986 0.16853642463684082
0.18400350213050842 0.33973294496536255 -0.009606203064322472
-0.2604978680610657 0.22892160713672638 0.06847307831048965
0.0028260741382837296 -0.24001899361610413 -0.13364644348621368
-0.19688305258750916 -0.17473512887954712 0.16632071137428284
0.22879508137702942 0.22345197200775146 0.1557653397321701
0.2043641060590744 0.3196755647659302 -0.0144486203789711
0.20546025037765503 -0.4453834593296051 -0.07012360543012619
-0.039924416691064835 0.21337899565696716 -0.13532233238220215
0.14166563749313354 0.2239309400320053 0.15633855760097504
-0.1657118797302246 0.4075702726840973 0.09823309630155563
-0.3376537263393402 -0.37966206669807434 0.0075704618357121944
-0.23345331847667694 -0.28708013892173767 -0.061363574117422104
-0.00782846286892891 0.005986668169498444 0.16878294944763184
0.2972985506057739 -0.03823424130678177 -0.12530413269996643
0.2923418879508972 -0.0453004352748394 -0.13506026566028595
0.15710754692554474 -0.4451184570789337 0.1679631471633911
0.2966679632663727 -0.13105137646198273 -0.12515394389629364
-0.23371875286102295 -0.10152368247509003 0.153702050447464
-0.26360324025154114 -0.017799977213144302 -0.13455288112163544
0.18592312932014465 0.4783279597759247 0.0455491803586483
0.2872694134712219 -0.4229854345321655 0.0888870358467102
-0.07158888876438141 0.22281552851200104 0.15535011887550354
-0.011144101619720459 0.202789768576622 -0.13600850105285645
-0.2068052589893341 0.23855659365653992 0.049826521426439285
0.2873525023460388 0.4710988998413086 0.11588016152381897
0.2895592153072357 0.0685563012957573 -0.13556082546710968
0.29778793454170227 -0.24576224386692047 0.08750078827142715
-0.24435585737228394 -0.4806576371192932 -0.002162388525903225
-0.16918180882930756 -0.35749921202659607 0.023942090570926666
-0.21701103448867798 -0.11865159124135971 0.1646030843257904
-0.21423017978668213 -0.14784784615039825 0.1657307744026184
0.08324041962623596 -0.24529901146888733 -0.13293977081775665
0.23337823152542114 -0.23482775688171387 -0.13814422488212585
0.25343430042266846 -0.3935562074184418 0.18789683282375336
-0.24261850118637085 0.16446226835250854 -0.1350945234298706
-0.23540741205215454 -0.37112757563591003 -0.08879473805427551
-0.07406404614448547 0.22814568877220154 -0.13191866874694824
0.2952418327331543 -0.026835262775421143 0.1562483161687851
-0.16661401093006134 -0.239616259932518 -0.13547185063362122
0.11148570477962494 0.22652381658554077 0.03828432410955429
0.28017377853393555 -0.35051777958869934 -0.0337962806224823
0.2851867079734802 -0.22596320509910583 -0.1352938413619995
0.078999362885952 -0.18158942461013794 0.16460731625556946
-0.26971182227134705 -0.24573948979377747 -0.0864531546831131
-0.26324689388275146 0.2293483465909958 0.07260178029537201
-0.002907831221818924 -0.24990174174308777 0.07554323226213455
0.2820960581302643 -0.24699707329273224 0.10623770952224731
-0.13120858371257782 -0.24459008872509003 0.1514287292957306
-0.18550464510917664 0.25552937388420105 0.03042636439204216
-0.18801361322402954 0.49777382612228394 0.0204207431524992
-0.26541370153427124 0.06086096540093422 0.15501758456230164
0.281449556350708 0.4782121181488037 0.11754940450191498
0.19106057286262512 0.4877427816390991 0.07099277526140213
0.24760539829730988 -0.29165947437286377 0.09026781469583511
0.1722603291273117 -0.42614319920539856 -0.05057863891124725
-0.2672390639781952 -0.24117639660835266 -0.13126830756664276
0.2978312373161316 0.040735162794589996 -0.1259513944387436
-0.13655757904052734 0.22901968657970428 -0.12332877516746521
-0.2632756531238556 -0.03336627036333084 -0.13441026210784912
0.2898116111755371 0.21639731526374817 -0.13620799779891968
-0.2708919048309326 0.2271239161491394 0.04082363843917847
0.29836952686309814 0.47328031063079834 0.03463505581021309
-0.06958968937397003 -0.24432656168937683 0.15170831978321075
0.2989392876625061 0.008140383288264275 -0.12859924137592316
-0.26994749903678894 -0.24418090283870697 0.07597537338733673
0.2473643273115158 0.3948512077331543 -0.0944523736834526
0.2674151062965393 -0.4028090834617615 -0.07828430086374283
-0.2358182817697525 -0.4326922297477722 0.1807209998369217
0.29820626974105835 -0.24720481038093567 0.09417805075645447
0.23792977631092072 -0.23379705846309662 -0.13533930480480194
0.2937249541282654 0.17877739667892456 -0.1327860802412033
-0.2687898576259613 -0.2460412234067917 0.13224852085113525
0.2604994773864746 -0.057950109243392944 0.15655310451984406
0.1914122998714447 0.4646836519241333 0.11209387332201004
0.16513311862945557 -0.17272208631038666 0.16699586808681488
-0.27167046070098877 -0.241144061088562 -0.05193644389510155
0.29676273465156555 0.20429839193820953 -0.04488769918680191
0.13595032691955566 -0.24258896708488464 -0.13389639556407928
-0.2427704632282257 0.38373732566833496 0.11621183156967163
0.2101757526397705 0.2908734679222107 0.01874925196170807
-0.045441482216119766 0.02881414070725441 0.16634319722652435
0.2948397099971771 0.16090351343154907 0.15798290073871613
0.1474585235118866 0.22665150463581085 0.049483876675367355
-0.20881356298923492 -0.23541563749313354 -0.13545703887939453
-0.25517743825912476 -0.36463791131973267 -0.09286457300186157
0.2440670281648636 -0.4095200002193451 -0.0916290283203125
-0.1597488820552826 -0.23696963489055634 -0.13502667844295502
-0.2689688205718994 -0.23403646051883698 0.12672045826911926
0.18118347227573395 0.0625484511256218 0.17063097655773163
0.05343260243535042 0.10588222742080688 -0.13508746027946472
0.2977757155895233 -0.057942792773246765 -0.13166433572769165
-0.035872478038072586 -0.24046207964420319 -0.13568921387195587
0.010243242606520653 0.24427442252635956 -0.2544335424900055
-0.26958319544792175 0.23153656721115112 0.0538727268576622
0.16656014323234558 -0.2315296083688736 -0.13278208673000336
-0.1761646866798401 0.2398577332496643 -0.0057358937337994576
0.13353732228279114 0.21296511590480804 -0.1360839307308197
0.2842492461204529 0.15186724066734314 -0.13637948036193848
-0.27060195803642273 0.08219417184591293 -0.12840086221694946
-0.2712666988372803 -0.23052695393562317 0.11826290935277939
-0.21771788597106934 -0.14411917328834534 0.1653033345937729
0.26440438628196716 0.20519275963306427 0.15562036633491516
-0.30046263337135315 -0.3223246932029724 0.17541581392288208
0.18238407373428345 -0.243686705827713 0.1555662751197815
0.2380552440881729 -0.4158269762992859 -0.08915415406227112
0.25667956471443176 -0.26870930194854736 -0.035381022840738297
0.29749831557273865 0.14197814464569092 0.14223800599575043
0.1637381911277771 -0.24193978309631348 -0.13521109521389008
-0.2354622334241867 -0.2873431444168091 -0.06262367963790894
-0.26885759830474854 -0.1792425960302353 -0.12195669859647751
0.06969352066516876 0.05677220597863197 0.16663233935832977
-0.2440904676914215 -0.29615557193756104 -0.06288337707519531
-0.23821687698364258 -0.24980945885181427 0.0800398737192154
0.2814341187477112 -0.4450433552265167 0.10484068095684052
0.2063285857439041 0.2275245636701584 0.005004383623600006
-0.28637245297431946 -0.060071103274822235 -0.24095788598060608
-0.2059074342250824 -0.25310853123664856 -0.055094681680202484
0.29629895091056824 -0.24111582338809967 0.05939966067671776
0.1599673628807068 -0.4416676163673401 -0.02944779023528099
-0.2717755436897278 -0.24353867769241333 0.09444227069616318
0.12488004565238953 -0.19848743081092834 0.1543472558259964
0.06542059034109116 0.2142433375120163 0.1567414551973343
0.29719993472099304 0.21447709202766418 -0.0071435049176216125
-0.2704300284385681 -0.24168761074543 -0.09509208798408508
0.2828786075115204 0.4750916361808777 0.12748751044273376
0.25797706842422485 -0.2622572183609009 -0.006559617817401886
0.2741883397102356 0.3375810384750366 -0.05445518717169762
-0.11214041709899902 -0.22959747910499573 -0.13532420992851257
0.2454424500465393 -0.44274523854255676 -0.08289529383182526
-0.2650035619735718 0.361796498298645 0.02505127154290676
0.1690928041934967 0.22858627140522003 0.14408108592033386
-0.3357911705970764 -0.37332767248153687 0.0852551981806755
0.15255193412303925 0.21177366375923157 -0.13618196547031403
0.300621896982193 0.14917010068893433 -0.12508872151374817
-0.18115153908729553 0.2620009481906891 0.017190204933285713
0.2089594453573227 0.22759978473186493 -0.020735125988721848
-0.024618053808808327 0.028602512553334236 0.1689109206199646
0.26191726326942444 -0.36553093791007996 -0.07479118555784225
0.2900145947933197 0.1561417281627655 0.1571473628282547
0.187187060713768 -0.1852610856294632 0.16278254985809326
-0.08600924164056778 -0.23566164076328278 0.15489181876182556
0.03319763392210007 0.2247997671365738 0.09723947942256927
0.20773708820343018 -0.2357388138771057 0.15655013918876648
0.19673722982406616 -0.27452966570854187 0.06505508720874786
-0.2850426435470581 0.0820993036031723 -0.27243664860725403
-0.05827834829688072 0.22737227380275726 -0.13315221667289734
0.2989136874675751 0.08993294835090637 0.14298643171787262
0.2962791323661804 -0.24628707766532898 0.09484502673149109
-0.27109789848327637 0.03642961382865906 -0.12989571690559387
-0.26643985509872437 0.15339776873588562 -0.13242925703525543
-0.22378002107143402 -0.478144109249115 0.029387665912508965
0.21182706952095032 0.1216123029589653 0.1662358045578003
0.1731935441493988 0.4276195764541626 0.0703289657831192
0.024129457771778107 -0.2521399259567261 -0.12193240225315094
0.2924821376800537 0.43268030881881714 0.12558677792549133
-0.22016991674900055 0.42063990235328674 -0.08110027015209198
0.1453024446964264 0.1499321311712265 -0.13843517005443573
0.11970072984695435 0.22502993047237396 -0.1315864622592926
-0.20657575130462646 -0.14684145152568817 0.17033657431602478
0.14431807398796082 0.22619901597499847 -0.12930892407894135
0.2960363030433655 -0.17768347263336182 -0.12633565068244934
-0.2644535303115845 -0.22549568116664886 -0.13467130064964294
-0.3171951472759247 -0.42606496810913086 -0.07808685302734375
-0.22352589666843414 0.3617558479309082 -0.07375002652406693
-0.28892555832862854 -0.3392755687236786 0.18995103240013123
-0.3333114683628082 -0.3604480028152466 0.14455851912498474
0.275601327419281 -0.24068909883499146 -0.1353377401828766
0.2955094873905182 0.2212613970041275 0.05858691409230232
0.22581517696380615 -0.24065370857715607 -0.13492459058761597
-0.2684671878814697 0.22475771605968475 0.13122758269309998
0.23068232834339142 0.2264566421508789 0.15221050381660461
-0.20756462216377258 0.22795692086219788 -0.13357912003993988
0.01485256664454937 -0.08635842800140381 -0.1359456330537796
0.20708104968070984 0.314053475856781 0.028209436684846878
-0.20275622606277466 -0.40906140208244324 0.14555801451206207
-0.2334289252758026 -0.47538986802101135 0.03886457905173302
0.2511129081249237 -0.23350204527378082 -0.13512282073497772
-0.2716953456401825 -0.2442898452281952 0.08842866122722626
0.2866675555706024 0.3839196562767029 0.1281992495059967
0.28688517212867737 0.013053730130195618 -0.13525372743606567
0.21135671436786652 0.22710596024990082 -0.048436179757118225
0.22781126201152802 -0.44652998447418213 0.1938708871603012
-0.26718661189079285 0.20278191566467285 -0.13529033958911896
0.21015796065330505 0.17014577984809875 0.1556706726551056
-0.2632806599140167 -0.15897203981876373 0.15595068037509918
-0.25681599974632263 0.041754379868507385 0.15558692812919617
-0.14597851037979126 -0.05344803258776665 -0.13631218671798706
0.2599194049835205 -0.14114142954349518 0.1523006409406662
0.2955813407897949 0.2272341549396515 0.1514698565006256
0.2837294340133667 0.3449546694755554 0.09007251262664795
-0.16804617643356323 0.22749708592891693 -0.02816588059067726
-0.2119406759738922 0.07726863026618958 0.16894082725048065
-0.26212823390960693 0.2274576872587204 -0.04747846722602844
0.020790020003914833 0.22385428845882416 -0.13616728782653809
0.23839953541755676 0.2270655632019043 -0.12617060542106628
-0.27628910541534424 0.027825307101011276 0.14552444219589233
-0.08117605000734329 0.16533492505550385 0.16218388080596924
0.22312255203723907 -0.42516428232192993 -0.08720585703849792
0.2944831848144531 0.10453542321920395 0.1582127809524536
-0.21086996793746948 0.17032316327095032 0.15830938518047333
-0.10936450213193893 -0.003163173794746399 0.16862843930721283
-0.03944038227200508 -0.23709630966186523 -0.13513442873954773
-0.2560183107852936 0.3641433119773865 0.0952988862991333
-0.2542054057121277 -0.47563332319259644 -0.023416824638843536
-0.03671840950846672 -0.2403600811958313 -0.13662225008010864
0.11559958755970001 0.2266416847705841 0.10207554697990417
0.26807451248168945 0.5007749795913696 -0.012703685089945793
-0.2681943476200104 -0.07004430145025253 0.15466246008872986
-0.20959842205047607 -0.4415586292743683 0.12564271688461304
-0.2159862220287323 -0.3978107273578644 0.17139096558094025
-0.2701066732406616 0.015065137296915054 -0.13324132561683655
-0.15548615157604218 0.442909300327301 0.0009930767118930817
-0.11041180789470673 0.16078975796699524 0.16774004697799683
0.2947740852832794 0.467102587223053 0.029973816126585007
0.24489659070968628 -0.4491939842700958 0.05061475187540054
-0.009160986170172691 0.17713408172130585 -0.13871034979820251
-0.00823606550693512 0.2138366550207138 -0.23537497222423553
0.2950446903705597 -0.09089384227991104 0.15657880902290344
0.2954436242580414 0.22229565680027008 0.056902527809143066
0.28788504004478455 0.22504284977912903 -0.040055811405181885
-0.27016910910606384 -0.24021846055984497 -0.1239653006196022
0.10062920302152634 -0.15093669295310974 0.16963885724544525
-0.1153082475066185 0.2275545448064804 0.011040464043617249
-0.2477448433637619 -0.012340707704424858 -0.24479538202285767
-0.286687433719635 -0.38397350907325745 0.19721660017967224
0.286025732755661 -0.2308972179889679 -0.13523820042610168
0.2573400139808655 -0.28741902112960815 0.07660999149084091
0.23630860447883606 -0.08256867527961731 0.16961032152175903
0.23023797571659088 0.3610958755016327 -0.08429557085037231
0.2975975573062897 0.021194882690906525 0.15773995220661163
0.29291942715644836 0.09664414077997208 -0.12772653996944427
-0.28244465589523315 -0.40339747071266174 -0.09160302579402924
0.15086543560028076 -0.3917807638645172 0.15154406428337097
-0.017936142161488533 -0.23497514426708221 0.1566884070634842
-0.18815749883651733 0.23169025778770447 0.04882331192493439
-0.26713377237319946 0.12860077619552612 -0.13569045066833496
-0.1778765171766281 0.25299397110939026 0.016660412773489952
-0.27268269658088684 0.05943986400961876 0.0267108753323555
-0.05271565914154053 0.2200741469860077 0.15574517846107483
0.03334110975265503 -0.03611478582024574 -0.13536256551742554
-0.27640169858932495 -0.3630305230617523 -0.0888269916176796
0.010957516729831696 -0.25108012557029724 0.12342491745948792
0.18215744197368622 -0.19591040909290314 0.15391643345355988
-0.28985199332237244 -0.454047828912735 -0.07443542778491974
0.25892260670661926 -0.15587222576141357 0.15088461339473724
-0.12667201459407806 0.1600610762834549 0.16750997304916382
-0.264382541179657 0.44718921184539795 0.052833639085292816
-0.22708922624588013 0.23038892447948456 0.14567536115646362
0.2967514991760254 0.3424423038959503 0.02698482945561409
-0.23001636564731598 -0.46865496039390564 0.0713876485824585
-0.2892163395881653 -0.3718579411506653 -0.08358476310968399
0.22579878568649292 -0.4428906738758087 -0.08313126862049103
-0.17716403305530548 0.48160409927368164 0.0901327133178711
0.29335588216781616 -0.25191986560821533 -0.024796053767204285
-0.17546255886554718 0.16977933049201965 0.15853717923164368
0.2565094530582428 -0.26628121733665466 0.04376915097236633
-0.10022172331809998 -0.23708921670913696 -0.13540685176849365
0.29728570580482483 0.2133934646844864 0.06595028191804886
0.2910497486591339 -0.23569037020206451 -0.13550415635108948
-0.24928562343120575 -0.3409930467605591 -0.08700969070196152
0.27695250511169434 0.22831648588180542 -0.03575323522090912
0.2899182438850403 0.21787062287330627 -0.13478223979473114
-0.017418328672647476 -0.23766697943210602 0.15483012795448303
0.021193142980337143 -0.25327637791633606 -0.041598595678806305
0.28646859526634216 0.0934319943189621 -0.13627487421035767
0.1904117912054062 0.37827467918395996 0.11159171164035797
0.2984902858734131 -0.12235397100448608 -0.12641137838363647
-0.3360821306705475 -0.3572208881378174 0.14971041679382324
0.14878693222999573 0.15191024541854858 0.1681339591741562
0.21870607137680054 0.23191720247268677 0.05973464995622635
0.09385257214307785 0.2259138971567154 0.1527092456817627
0.2466447800397873 0.35518646240234375 -0.08160573244094849
0.2881331741809845 -0.11498887091875076 0.15706060826778412
0.29228347539901733 -0.25028419494628906 -0.07397133111953735
0.17429843544960022 -0.2508655786514282 -0.014295210130512714
0.2691473364830017 -0.2370341718196869 -0.13662149012088776
0.24269218742847443 -0.41881656646728516 -0.09341927617788315
-0.3289121985435486 -0.41267910599708557 -0.018604908138513565
0.18628449738025665 0.34103521704673767 -0.029189905151724815
0.2943039536476135 0.22388362884521484 0.015700023621320724
-0.1707320213317871 0.43433406949043274 0.10206940770149231
-0.33448535203933716 -0.35239899158477783 0.16389235854148865
-0.06690892577171326 0.21361346542835236 -0.1340709924697876
-0.2102106660604477 0.18104895949363708 0.15615828335285187
0.2948053777217865 -0.21356898546218872 -0.13507065176963806
-0.18675830960273743 0.3625757694244385 -0.06424666196107864
0.19473764300346375 0.34053370356559753 -0.0381232313811779
-0.23896150290966034 0.4915001690387726 0.0006389785557985306
0.29604315757751465 -0.16823729872703552 0.15500408411026
-0.20633450150489807 -0.2406182438135147 -0.13473856449127197
0.23511628806591034 0.02274487353861332 0.16940836608409882
-0.33223405480384827 -0.41506871581077576 -0.04355432838201523
-0.06062537059187889 0.21630629897117615 -0.13394591212272644
0.018990324810147285 -0.1833997368812561 0.16456325352191925
-0.21776242554187775 0.09192739427089691 0.16743656992912292
-0.28092849254608154 -0.31268182396888733 0.1343885213136673
-0.27350717782974243 -0.19935867190361023 -0.12286396324634552
-0.23733410239219666 0.37852299213409424 0.11688313633203506
0.2952515184879303 0.06875278055667877 -0.13298794627189636
-0.20319798588752747 -0.3231576979160309 0.08958408236503601
0.2902277112007141 0.13974227011203766 -0.13482648134231567
-0.2262098491191864 0.48873984813690186 -0.036401279270648956
0.2992788851261139 -0.20580874383449554 0.03666131570935249
0.29070723056793213 0.21870258450508118 -0.1346057653427124
-0.22936922311782837 -0.26216116547584534 0.058269768953323364
0.04587666317820549 -0.24797587096691132 0.14913859963417053
-0.02513274736702442 0.16212981939315796 -0.13664810359477997
-0.001167207956314087 -0.08317361772060394 -0.13475532829761505
0.09948227554559708 0.17425943911075592 0.1544058471918106
0.2877829074859619 0.22587327659130096 0.026508942246437073
0.20955036580562592 0.3908013105392456 -0.08034107089042664
-0.30903559923171997 -0.3987998962402344 -0.07916459441184998
0.20064814388751984 0.225656658411026 -0.13305605947971344
-0.16939473152160645 -0.2705113887786865 -0.035595156252384186
-0.21741007268428802 -0.4023509621620178 -0.06953945755958557
-0.26458829641342163 0.008270587772130966 -0.13614599406719208
-0.34090176224708557 -0.38061532378196716 0.011120722629129887
0.202889084815979 0.22294501960277557 0.155970498919487
0.29230567812919617 0.07100179046392441 -0.1328168511390686
0.28468015789985657 -0.23378953337669373 -0.1349586397409439
0.13891354203224182 0.15058337152004242 0.1668982356786728
0.04234660789370537 -0.17606744170188904 0.16559883952140808
-0.039431679993867874 -0.24777738749980927 -0.12274765968322754
0.26519525051116943 0.5090251564979553 0.10007630288600922
-0.016257982701063156 0.21450528502464294 -0.13470402359962463
-0.2595590651035309 0.3422832489013672 0.018846282735466957
-0.169916570186615 0.4780108332633972 -0.003110922407358885
0.2990270256996155 -0.07414919137954712 -0.004131622612476349
-0.21840614080429077 -0.4661161005496979 0.06544604897499084
0.02376433275640011 0.24499282240867615 -0.25490275025367737
-0.2801678776741028 -0.45644569396972656 -0.07487484812736511
-0.21811267733573914 0.07032118737697601 0.1680736392736435
0.29793286323547363 -0.24074655771255493 0.13521802425384521
-0.2205914855003357 -0.38362595438957214 0.16571302711963654
0.2890910804271698 -0.14412140846252441 -0.13562707602977753
0.2982081472873688 -0.15662544965744019 0.06531728804111481
0.2077784389257431 0.4267354905605316 0.09973372519016266
-0.16051948070526123 -0.24650555849075317 -0.13140769302845
0.24620896577835083 0.05324973911046982 -0.13631142675876617
0.29494279623031616 -0.2428118735551834 0.1336534321308136
-0.2617790997028351 -0.23824304342269897 -0.13435043394565582
0.2102402150630951 0.1614854335784912 0.1592019647359848
0.17418596148490906 0.4331842064857483 0.04649744927883148
-0.032048940658569336 -0.2407177984714508 -0.13659189641475677
-0.2702385187149048 -0.22918692231178284 -0.12733778357505798
-0.18288454413414001 0.16711506247520447 0.1606174111366272
-0.21811163425445557 -0.322093665599823 -0.07551401853561401
-0.2703450620174408 -0.2266799509525299 -0.1278735101222992
0.29384949803352356 0.21658560633659363 -0.12718094885349274
-0.27031850814819336 -0.18691052496433258 -0.12788516283035278
0.29360878467559814 0.20350150763988495 0.15636402368545532
-0.2703915238380432 0.015464376658201218 -0.13331200182437897
-0.3370799720287323 -0.4012462794780731 -0.01346940640360117
-0.3391599655151367 -0.3660760521888733 0.11339632421731949
0.298049658536911 -0.05142294242978096 0.13391080498695374
-0.2564907670021057 -0.36152541637420654 -0.09286738187074661
-0.21674127876758575 0.14435018599033356 0.16549880802631378
0.16145986318588257 -0.39702486991882324 0.17153042554855347
0.1658768653869629 0.22692149877548218 0.06413707137107849
0.2768591642379761 -0.44665059447288513 0.028475718572735786
0.27085959911346436 0.34280604124069214 -0.06276080757379532
-0.20764677226543427 0.23627685010433197 -0.030760640278458595
0.29946380853652954 -0.01487862877547741 -0.11761075258255005
0.29875242710113525 -0.18396714329719543 -0.06107691675424576
0.2976974546909332 0.016995612531900406 0.1486147940158844
0.29855823516845703 0.10632401704788208 -0.12989497184753418
0.2539137601852417 -0.18145525455474854 0.15096883475780487
-0.1519693285226822 -0.2736455798149109 -0.0037557650357484818
0.248758003115654 -0.4120714068412781 -0.09052478522062302
-0.2695539891719818 -0.14362813532352448 0.14089620113372803
0.2931568920612335 0.2233571708202362 0.024661822244524956
0.015863031148910522 -0.12841731309890747 0.16738535463809967
0.2551116347312927 -0.31771865487098694 0.10358089208602905
0.17348197102546692 0.4040916860103607 0.04735063388943672
0.28302091360092163 -0.4443682134151459 0.12287099659442902
0.2878880202770233 -0.44369980692863464 0.14043012261390686
0.2975124418735504 0.07728735357522964 0.14325624704360962
0.2025603950023651 -0.2391108125448227 -0.135342076420784
0.14572347700595856 -0.3773256242275238 0.10483460873365402
0.10232912749052048 -0.2357245236635208 0.15653428435325623
0.1083626002073288 -0.193155899643898 0.1521802544593811
0.23590810596942902 -0.0653841495513916 0.1698174625635147
-0.19225744903087616 -0.2621133327484131 0.07180902361869812
-0.20956727862358093 0.23887163400650024 -0.02916896715760231
-0.2319691926240921 0.22611603140830994 -0.13410547375679016
0.25954148173332214 -0.4446609914302826 -0.060705237090587616
-0.26991674304008484 0.009456461295485497 -0.13796043395996094
0.28824901580810547 0.21412310004234314 -0.13339544832706451
-0.21284794807434082 -0.1654193103313446 0.1653386801481247
-0.15339423716068268 -0.17700742185115814 0.16747021675109863
0.22954076528549194 -0.23157478868961334 -0.1354954093694687
0.2969144582748413 0.025977278128266335 0.1502103954553604
-0.05685294792056084 -0.24966073036193848 -0.11881888657808304
-0.2769455909729004 -0.3063938319683075 0.11151892691850662
0.28835707902908325 0.05462750792503357 -0.1349109560251236
-0.209451824426651 -0.24791359901428223 -0.11473961919546127
0.25744083523750305 -0.25651121139526367 0.022687800228595734
0.2883602976799011 0.15434832870960236 -0.1355767548084259
-0.053189244121313095 -0.23516647517681122 -0.1348424106836319
-0.1998365968465805 -0.4300243854522705 0.08349006623029709
-0.2710604965686798 -0.23426330089569092 0.005042009986937046
0.23976927995681763 0.22629691660404205 0.15267488360404968
-0.2909383773803711 -0.41838961839675903 -0.09076648950576782
0.16933494806289673 -0.17307724058628082 0.16766312718391418
0.14181584119796753 -0.4252583980560303 0.15597088634967804
-0.2603253126144409 0.2266930192708969 -0.13502302765846252
0.12449237704277039 0.1272221952676773 -0.13642142713069916
0.2423752248287201 0.10499436408281326 0.16436044871807098
-0.00285630626603961 0.17942455410957336 0.15113885700702667
0.15133029222488403 -0.4268542528152466 0.1648859679698944
0.2895858883857727 -0.2526499330997467 -0.022411197423934937
0.2216648906469345 -0.23360203206539154 -0.13517099618911743
-0.08412298560142517 -0.18644756078720093 0.15815795958042145
0.29741835594177246 -0.033616047352552414 0.1459825336933136
0.18757489323616028 -0.4314907193183899 -0.06764645874500275
-0.16240599751472473 0.35302668809890747 0.04660261794924736
0.28185153007507324 -0.23650585114955902 -0.13340409100055695
0.27955251932144165 -0.4451829791069031 0.05456969887018204
-0.261395126581192 -0.1968483030796051 -0.1356562227010727
0.2965163588523865 -0.24650512635707855 0.12227076292037964
0.26344630122184753 0.46878769993782043 -0.07115431129932404
-0.2708282768726349 -0.23450937867164612 0.011103266850113869
0.09961666911840439 -0.24246203899383545 -0.1342635601758957
0.05728033185005188 -0.12443485856056213 -0.13527439534664154
-0.23307161033153534 -0.46441391110420227 0.07759830355644226
0.13646145164966583 -0.4378012716770172 0.0390867181122303
0.2567848563194275 -0.25290703773498535 -0.008472448214888573
0.288871705532074 -0.1493593007326126 -0.1351398229598999
-0.2462129443883896 0.4068946838378906 -0.06790786236524582
0.19841153919696808 0.4909484088420868 0.09882340580224991
-0.27201223373413086 0.06059011071920395 0.153161883354187
0.2908920347690582 0.006528373807668686 -0.13346339762210846
0.23127713799476624 -0.20078550279140472 0.15588364005088806
-0.014360712841153145 -0.2410276234149933 -0.13310876488685608
-0.26357075572013855 -0.24364565312862396 -0.10871504247188568
-0.040864575654268265 0.2141803801059723 -0.1366957277059555
-0.21021267771720886 -0.4335838556289673 0.13531407713890076
-0.22745470702648163 -0.24873188138008118 -0.08387929201126099
-0.3013870418071747 -0.39982426166534424 0.11104634404182434
0.27924084663391113 0.3696422874927521 -0.06998080760240555
-0.09701886773109436 -0.24200692772865295 0.15143504738807678
0.24626287817955017 -0.31427305936813354 0.10595564544200897
-0.27136167883872986 -0.2356298863887787 0.1433386504650116
0.27603328227996826 0.4029618203639984 0.12164764851331711
-0.06436055898666382 -0.10021539032459259 0.16856451332569122
-0.25118234753608704 0.23022867739200592 -0.020027175545692444
0.21020683646202087 0.486530601978302 -0.04255995899438858
-0.14742374420166016 0.22715067863464355 -0.1328992396593094
-0.02712498977780342 0.09830516576766968 -0.1332521140575409
-0.10267752408981323 -0.24427537620067596 -0.12946215271949768
-0.2704542577266693 -0.24115602672100067 -0.04402657970786095
-0.19630129635334015 0.4464046061038971 0.08744315057992935
-0.2708565890789032 0.08487977832555771 -0.13249164819717407
0.28077882528305054 -0.234810471534729 -0.1352759152650833
-0.2702386975288391 -0.22276738286018372 -0.13043665885925293
0.09511905908584595 0.17439314723014832 0.15348181128501892
-0.2051464319229126 -0.04550781100988388 0.16915740072727203
-0.15966308116912842 0.4153236150741577 0.08843518793582916
0.1962197721004486 0.3329145610332489 0.046101003885269165
0.2788144648075104 -0.23980921506881714 -0.1354718655347824
0.28212493658065796 -0.4130883514881134 0.1867879033088684
-0.29473501443862915 -0.4495399594306946 -0.07934798300266266
0.24313843250274658 0.37035679817199707 -0.08924265950918198
0.22880059480667114 -0.011640265583992004 -0.1345101147890091
-0.25349166989326477 -0.3499619662761688 -0.09044523537158966
0.21444371342658997 -0.16446079313755035 -0.13532854616641998
0.26753315329551697 -0.40067440271377563 -0.07510126382112503
0.297750324010849 0.13249163329601288 0.008552920073270798
0.2976202070713043 0.17286169528961182 0.1515674889087677
0.28821486234664917 -0.42020028829574585 0.0321437306702137
0.1409568339586258 -0.19597375392913818 0.15314240753650665
-0.16662849485874176 0.40612971782684326 0.10224194079637527
0.27347081899642944 0.22830575704574585 -0.034098923206329346
-0.2733173370361328 0.022369474172592163 -0.1275055706501007
0.29246634244918823 0.03642880544066429 -0.13430601358413696
-0.06949777901172638 -0.18592417240142822 -0.13503916561603546
-0.27120813727378845 -0.2442016899585724 0.09195631742477417
0.29753029346466064 0.12137450277805328 0.10369006544351578
-0.20471030473709106 -0.07664209604263306 0.1672232747077942
0.26527702808380127 0.3296169340610504 0.06909413635730743
-0.2383381575345993 0.39983415603637695 -0.07397713512182236
-0.16076171398162842 -0.1618938446044922 -0.1346336305141449
-0.2640182375907898 -0.1432608664035797 0.15639156103134155
0.25445687770843506 -0.17920470237731934 0.15501393377780914
-0.270451158285141 -0.22495771944522858 -0.12901313602924347
0.004631762392818928 0.22412919998168945 0.1553482711315155
-0.14181500673294067 -0.25391048192977905 0.01058909296989441
0.01521715521812439 0.012630579061806202 0.17104750871658325
0.2673797309398651 0.39968204498291016 -0.08861134946346283
0.11027498543262482 0.2263224571943283 0.1540204882621765
0.04793960601091385 0.15744294226169586 -0.2103915810585022
-0.33388739824295044 -0.38575613498687744 0.0640469491481781
0.04970061779022217 -0.2478320449590683 -0.12667721509933472
0.28868839144706726 -0.1868768185377121 -0.1347643882036209
0.20834273099899292 -0.24975307285785675 0.13800175487995148
0.22304366528987885 -0.24630975723266602 0.15403538942337036
-0.12772667407989502 0.1613588035106659 0.16637897491455078
0.0385502353310585 -0.23947207629680634 -0.13565398752689362
0.24586082994937897 0.19117143750190735 0.15524174273014069
-0.2706308960914612 -0.08560711145401001 -0.13222259283065796
0.0378195159137249 0.21071122586727142 0.15704356133937836
-0.2446715533733368 0.31883206963539124 0.010483860038220882
-0.2582660913467407 0.10060860961675644 -0.13642369210720062
0.21284672617912292 0.5067397952079773 0.08971185982227325
0.28245672583580017 0.23126977682113647 -0.01872643083333969
-0.265703409910202 -0.3656576871871948 -0.09175904095172882
-0.18748325109481812 -0.17253316938877106 0.16988953948020935
0.26365914940834045 0.40665751695632935 0.1082039475440979
0.2864973843097687 0.22725100815296173 -0.02323104813694954
-0.2720201313495636 0.22413495182991028 -0.08295169472694397
0.295783132314682 0.14666208624839783 0.1429244875907898
-0.27529823780059814 0.11156809329986572 -0.13025712966918945
0.2385358065366745 0.0007053911685943604 0.168120875954628
-0.2183464765548706 -0.16080762445926666 0.16080687940120697
0.289478063583374 0.16470102965831757 -0.13631732761859894
-0.25625237822532654 -0.4047563672065735 0.2009066343307495
0.29909196496009827 -0.23736663162708282 0.1305283159017563
-0.25994595885276794 -0.24781954288482666 -0.08902481198310852
0.15475155413150787 0.2264098972082138 -0.0849509984254837
0.29719775915145874 0.06256778538227081 -0.129815012216568
-0.20518052577972412 0.23254437744617462 -0.037162840366363525
-0.20278362929821014 0.230862557888031 -0.03775715082883835
0.2883428633213043 0.4378981292247772 0.1300618201494217
0.1946963667869568 0.44244661927223206 0.11014896631240845
0.3016030192375183 0.018727168440818787 0.14428141713142395
-0.2721222937107086 -0.12413099408149719 -0.10760586708784103
0.2931622564792633 0.012340488843619823 0.15740902721881866
0.22715860605239868 0.1661047488451004 0.15995755791664124
0.29190605878829956 0.2185981124639511 -0.1351693570613861
0.2975624203681946 0.22038809955120087 0.0821128711104393
0.2729540169239044 0.2397448718547821 0.019472258165478706
-0.17069435119628906 0.4415230453014374 0.10258336365222931
0.23266716301441193 -0.25386282801628113 -0.07474339753389359
-0.08632484078407288 -0.007078405469655991 0.1682988852262497
-0.2704780697822571 -0.0012105833739042282 -0.12324606627225876
0.1784115880727768 0.4039190411567688 0.09647686779499054
-0.27032315731048584 -0.24006259441375732 0.05026901885867119
-0.21462002396583557 -0.1759205162525177 0.1647215336561203
-0.026830118149518967 -0.18673542141914368 0.1578950583934784
0.08908948302268982 0.22698143124580383 -0.11391066759824753
0.08847323060035706 -0.25015872716903687 0.1501818150281906
0.2963182330131531 0.05804811045527458 0.1546821892261505
0.2433953583240509 -0.4159545302391052 -0.09166471660137177
-0.21940352022647858 -0.07294734567403793 0.16180706024169922
0.18896165490150452 0.39550262689590454 0.11328732967376709
0.29327332973480225 -0.1781575232744217 -0.13539385795593262
0.2859209179878235 -0.0008659027516841888 -0.1362479031085968
-0.2731377184391022 -0.16809897124767303 0.15131844580173492
0.22997058928012848 0.23254568874835968 0.05356694757938385
0.2596743106842041 0.1042972058057785 0.15108585357666016
0.23198503255844116 -0.30040767788887024 -0.07342816889286041
0.2906266152858734 0.4507976174354553 0.11778749525547028
0.15428206324577332 -0.41866323351860046 0.1729181408882141
0.10368712246417999 0.2284689098596573 -0.12624748051166534
0.27157992124557495 0.22705772519111633 -0.03556060045957565
0.288260281085968 -0.22796450555324554 0.15793608129024506
-0.2549830675125122 -0.21891245245933533 0.155555859208107
0.29589834809303284 0.2112979292869568 0.019657578319311142
-0.12757235765457153 0.22174187004566193 -0.13146314024925232
-0.05301698297262192 0.22785843908786774 0.14406457543373108
-0.0685272216796875 0.21625468134880066 -0.13496389985084534
0.20744551718235016 0.24011802673339844 0.03312480449676514
-0.26996034383773804 -0.23574379086494446 0.08066317439079285
0.2569049596786499 0.15828892588615417 0.14682042598724365
-0.33295175433158875 -0.38284140825271606 0.06526105105876923
-0.2513660490512848 -0.25162672996520996 0.06610111147165298
-0.32836759090423584 -0.41600507497787476 -0.03228253498673439
0.22472992539405823 -0.3076431453227997 0.10309024900197983
0.28063949942588806 -0.2369914948940277 -0.13663160800933838
0.11547482013702393 -0.06747370213270187 0.16902270913124084
0.11365596950054169 0.16726110875606537 0.15875886380672455
-0.012412788346409798 0.2643875181674957 -0.2141941487789154
0.020889099687337875 -0.2521989047527313 -0.07294828444719315
0.15856295824050903 -0.3773886263370514 -0.044142547994852066
-0.2727603614330292 0.05520103499293327 -0.13268303871154785
-0.28315678238868713 -0.310691773891449 0.12418510764837265
0.16471266746520996 -0.2366691529750824 -0.1352212280035019
-0.061564452946186066 -0.24885034561157227 0.1448965072631836
0.29975301027297974 -0.22866401076316833 0.1411609798669815
0.20440933108329773 0.2308630496263504 0.03264259174466133
-0.04678284376859665 0.14404578506946564 -0.13655199110507965
-0.2650657296180725 -0.23766523599624634 -0.1341877579689026
-0.2514088749885559 0.4119558334350586 0.11619336158037186
-0.16400884091854095 0.4289979636669159 0.10373401641845703
0.27168595790863037 0.434282511472702 -0.07767640054225922
0.28922396898269653 0.0343475379049778 -0.13534173369407654
-0.2712980806827545 -0.23309776186943054 0.1473371386528015
0.173646479845047 -0.2507011592388153 -0.03232602775096893
-0.1404113471508026 0.22490982711315155 -0.13218098878860474
-0.2568480372428894 0.05290047079324722 -0.3075235188007355
0.27745676040649414 0.2254249006509781 0.043101780116558075
0.24022850394248962 -0.16239862143993378 0.166492760181427
-0.2723518908023834 -0.014001308009028435 0.14586657285690308
-0.2714150846004486 0.09984710812568665 -0.13333041965961456
0.2803986668586731 -0.44620412588119507 0.08505759388208389
0.29662683606147766 -0.19792824983596802 0.1550571620464325
0.29053542017936707 0.013186917640268803 -0.13516710698604584
0.29698053002357483 0.0037963432259857655 0.1488228291273117
0.2898346483707428 -0.4264881908893585 0.11267194896936417
0.29545024037361145 0.17545506358146667 -0.12535381317138672
-0.2714883089065552 0.21813300251960754 0.08899188786745071
0.24418403208255768 0.4305589199066162 -0.0932372659444809
-0.2710076570510864 -0.20163509249687195 -0.1279003620147705
-0.2710917592048645 0.04302993416786194 -0.13182389736175537
0.2514745593070984 -0.3931974470615387 0.1882171332836151
0.13014228641986847 -0.013744741678237915 0.16713958978652954
0.28984472155570984 0.21858114004135132 -0.13452395796775818
0.2623142898082733 -0.39682045578956604 -0.0801745355129242
-0.2051021158695221 0.4495314359664917 0.08974972367286682
-0.2647707164287567 -0.12657895684242249 0.15589004755020142
0.20139017701148987 0.46819251775741577 0.1113673523068428
0.28550300002098083 -0.22077114880084991 -0.13448986411094666
-0.01328369602560997 0.28650808334350586 -0.2355480045080185
0.2875509262084961 -0.42255374789237976 0.02236633375287056
0.2971993088722229 -0.06324832141399384 0.1416422575712204
-0.041436608880758286 -0.24966807663440704 0.13886995613574982
0.24000416696071625 -0.25102683901786804 0.08150731027126312
0.23130980134010315 -0.3230604827404022 -0.08018539100885391
0.06840426474809647 -0.18194499611854553 0.16306591033935547
-0.13384923338890076 0.1731462925672531 0.15406835079193115
-0.09585941582918167 0.2283293753862381 -0.12367495149374008
0.13481967151165009 -0.4356938302516937 0.06853925436735153
0.29565975069999695 -0.1516275703907013 -0.13236866891384125
0.017954401671886444 0.18587836623191833 -0.13499073684215546
0.28899550437927246 0.05925402417778969 -0.13402290642261505
-0.2729615867137909 -0.08285042643547058 -0.12428973615169525
-0.29251784086227417 -0.3877752423286438 -0.08651860803365707
-0.22921966016292572 0.22911882400512695 0.14454200863838196
-0.2157660573720932 0.3291395306587219 0.055129021406173706
-0.2128838747739792 -0.013111765496432781 0.16844171285629272
-0.2696303725242615 -0.04228973761200905 -0.1335669755935669
0.2371324896812439 0.10116883367300034 0.16768255829811096
0.2950453460216522 0.18929365277290344 0.14066556096076965
0.26003268361091614 -0.1184365451335907 0.15622062981128693
-0.23302043974399567 0.25090378522872925 0.04246757924556732
0.2616470754146576 0.22714318335056305 -0.12625491619110107
0.2911031246185303 0.12082882225513458 -0.13515622913837433
0.25479191541671753 -0.18622618913650513 0.1511813998222351
-0.10426359623670578 0.22960051894187927 -0.01330425962805748
