0.3006425201892853 0.1560458540916443 0.0059530832804739475
0.11136039346456528 -0.029247574508190155 0.16948185861110687
0.29756346344947815 -0.037292588502168655 -0.10193560272455215
0.2073155790567398 0.22842739522457123 -0.05416028946638107
-0.15506285429000854 0.4371216595172882 0.05770096555352211
-0.08207278698682785 -0.14272844791412354 0.16833443939685822
-0.271382212638855 -0.20131202042102814 -0.05901087448000908
-0.15887051820755005 -0.3147304654121399 -0.013549240306019783
-0.04746225103735924 0.20630133152008057 -0.13393989205360413
0.19353701174259186 -0.0535513237118721 -0.13527512550354004
0.2979670763015747 0.2031106948852539 0.12070992588996887
0.2965388298034668 0.13955058157444 0.06172274425625801
0.25327804684638977 0.2272559255361557 0.09123314172029495
-0.005280190147459507 -0.2507431209087372 -0.10020811855792999
-0.1984919160604477 -0.3059900104999542 0.07895676046609879
-0.18637052178382874 0.02011779509484768 -0.13250677287578583
0.26682567596435547 -0.01488428469747305 -0.13533100485801697
0.29490575194358826 -0.02437048777937889 0.08128760755062103
-0.268588662147522 -0.07305937260389328 -0.07922405749559402
-0.15984508395195007 -0.1261422336101532 -0.13564489781856537
-0.14198866486549377 0.22774718701839447 0.06185411289334297
-0.08228525519371033 -0.24730724096298218 0.10594678670167923
-0.2579914331436157 0.2286493480205536 0.0726708173751831
-0.18196417391300201 0.0839342251420021 -0.13375428318977356
0.16358128190040588 -0.25083234906196594 0.0962553471326828
0.19974729418754578 -0.33784767985343933 0.11769703030586243
-0.1784387081861496 -0.12695865333080292 -0.1356838047504425
-0.2987324595451355 -0.3803290128707886 0.18441879749298096
-0.2712146043777466 -0.16612669825553894 -0.007910670712590218
0.18196676671504974 -0.3776245713233948 -0.06380660086870193
0.29734012484550476 -0.1891900599002838 0.13192617893218994
0.3010222017765045 0.3940339684486389 0.06528449058532715
0.23898428678512573 0.47530436515808105 -0.07265661656856537
0.2456934005022049 -0.3927263021469116 0.19267842173576355
-0.15454351902008057 0.3957166075706482 -0.000555274891667068
-0.042016252875328064 0.147491455078125 -0.16423958539962769
0.0455053336918354 0.2308829128742218 -0.05921844020485878
0.10193771868944168 0.22737732529640198 0.10581369698047638
-0.1520034670829773 -0.2503606975078583 -0.04734314605593681
-0.2733844220638275 -0.19294829666614532 -0.03759455680847168
0.06124785915017128 -0.03452443331480026 -0.13523389399051666
0.2713746130466461 -0.16935734450817108 -0.1384868025779724
0.2973829507827759 0.19592754542827606 -0.06898319721221924
-0.1791532039642334 -0.053927306085824966 0.1694822609424591
0.03733035549521446 -0.25088390707969666 0.10495814681053162
-0.1534314602613449 0.1545259803533554 -0.13510768115520477
0.29756540060043335 0.37279146909713745 0.08518683910369873
0.2166835367679596 -0.25104549527168274 0.09661750495433807
-0.1545734852552414 0.420610636472702 0.0030933870002627373
0.2969284653663635 -0.01978081651031971 -0.019019460305571556
0.11568957567214966 0.0002771560684777796 -0.1378435343503952
0.1115233525633812 -0.2508080005645752 -0.019166791811585426
0.25397568941116333 -0.44555115699768066 0.0610249787569046
-0.17915081977844238 -0.39513707160949707 0.04721357300877571
-0.07157421112060547 0.2286045104265213 0.0645766481757164
0.2688084840774536 0.2289406955242157 -0.09522925317287445
0.28998038172721863 -0.4034048318862915 0.008579686284065247
-0.1807665228843689 0.001181803410872817 0.16836625337600708
-0.018533485010266304 -0.2502019703388214 -0.11509046703577042
0.29911717772483826 -0.03815365955233574 0.061865776777267456
0.2895790934562683 -0.38993117213249207 0.1230652704834938
-0.15389850735664368 0.3835608661174774 0.01058347336947918
0.15019863843917847 -0.1417997181415558 0.16667881608009338
0.1676851063966751 -0.018384676426649094 0.16950340569019318
-0.2686808705329895 0.19418907165527344 0.10750667005777359
0.1622469276189804 0.17224356532096863 -0.1353713423013687
-0.27072498202323914 0.07560286670923233 0.051194220781326294
-0.269265353679657 -0.034841932356357574 0.0354665108025074
-0.2484898567199707 0.04353390261530876 -0.2832055985927582
0.2908455729484558 -0.4116034209728241 0.08132365345954895
-0.2956392765045166 0.009548167698085308 -0.26110824942588806
0.20471160113811493 -0.2511301636695862 -0.08803334087133408
0.2114693522453308 -0.14253056049346924 0.16967524588108063
-0.2503238618373871 -0.1488931030035019 -0.1343863308429718
0.22099149227142334 -0.01197859924286604 0.1709059774875641
-0.21663179993629456 0.2264004796743393 0.1066204383969307
0.27036052942276 -0.13064034283161163 0.15645620226860046
-0.24372240900993347 -0.0009713767212815583 -0.2728056013584137
0.17440937459468842 0.44631436467170715 0.04234113544225693
0.266958624124527 -0.4459744691848755 0.09673211723566055
0.18897821009159088 0.11972091346979141 0.168882355093956
-0.270137220621109 -0.07626409083604813 -0.10251586884260178
-0.1655854731798172 -0.34269487857818604 -0.0005432862089946866
0.29823198914527893 0.15614037215709686 -0.08711162954568863
0.22752848267555237 0.22916527092456818 -0.09618113934993744
0.1692570596933365 -0.23066478967666626 0.15670068562030792
0.03329097107052803 0.11314741522073746 0.1654176115989685
0.2664899528026581 0.45436570048332214 -0.0734272375702858
-0.0067312088795006275 0.0573594905436039 0.17226073145866394
-0.2710977792739868 -0.098990298807621 -0.008207764476537704
-0.27093395590782166 0.006183607969433069 -0.025674855336546898
0.2384345382452011 -0.2544878423213959 -0.10266289860010147
0.2432674765586853 -0.2507737874984741 -0.099836066365242
0.2944580018520355 0.17719213664531708 -0.05166901648044586
0.013590647839009762 0.22867123782634735 -0.05670773610472679
0.2946053147315979 -0.14743317663669586 -0.02492060512304306
-0.009329245425760746 -0.17456555366516113 -0.1345028430223465
0.009515974670648575 -0.15601499378681183 -0.13848230242729187
0.22607789933681488 0.5001164078712463 -0.04081784933805466
-0.17446517944335938 -0.38140735030174255 -0.012550738640129566
-0.19688455760478973 -0.4070383906364441 -0.04672350734472275
-0.2734954357147217 -0.15185242891311646 -0.008014019578695297
-0.16640540957450867 -0.35938695073127747 0.032382432371377945
-0.21255141496658325 -0.17551611363887787 -0.1338275969028473
-0.15194573998451233 0.41092386841773987 0.03997497260570526
0.22670906782150269 -0.4466334283351898 0.17559212446212769
0.1260824054479599 -0.16164258122444153 -0.13461251556873322
0.2632599472999573 0.20635981857776642 0.15538279712200165
0.008845070376992226 0.04466411471366882 -0.13463392853736877
-0.26745977997779846 0.4150216281414032 0.005109790246933699
0.14611904323101044 -0.3620612323284149 0.04666134715080261
0.2972794473171234 0.03739442303776741 0.10678203403949738
0.08235406130552292 0.23156218230724335 0.10188833624124527
-0.27535906434059143 -0.4042094349861145 0.1715596616268158
0.07682813704013824 -0.09142511337995529 0.16728243231773376
-0.2862638533115387 -0.060598284006118774 -0.25517117977142334
-0.05476657301187515 -0.014204302802681923 -0.13270854949951172
0.2975004315376282 0.06245237588882446 -0.10230694711208344
-0.17294245958328247 -0.351201593875885 -0.03644009307026863
-0.13659469783306122 0.02454896830022335 -0.1335858851671219
-0.19084696471691132 0.011507140472531319 -0.1373928189277649
0.148045614361763 0.08271399140357971 0.17075985670089722
-0.1899878829717636 -0.14986082911491394 0.16983358561992645
0.14039474725723267 -0.1914910227060318 -0.13135576248168945
-0.2712405025959015 -0.1593221127986908 0.09572595357894897
-0.27124717831611633 -0.16720879077911377 0.134392648935318
-0.030056055635213852 -0.20463427901268005 -0.1386401355266571
0.29714053869247437 0.11344461143016815 0.051180530339479446
0.21658195555210114 0.4038237929344177 -0.08707038313150406
-0.2613818049430847 -0.46422263979911804 0.019446277990937233
0.29574304819107056 0.4459996223449707 -0.008779396302998066
-0.2066827416419983 0.4277499318122864 0.09010988473892212
0.2974865436553955 -0.07275871187448502 0.07612904906272888
0.17994600534439087 0.3967578709125519 0.09704657644033432
-0.27136778831481934 -0.2036062777042389 -0.10570550709962845
0.09463975578546524 -0.15893757343292236 -0.13645002245903015
0.18136824667453766 0.4729844331741333 0.03497350960969925
-0.0595688633620739 -0.11147859692573547 -0.13543884456157684
0.004413705784827471 0.16253533959388733 -0.22166034579277039
0.1746777594089508 0.23024392127990723 -0.08779364079236984
-0.23667743802070618 -0.22541649639606476 0.15584777295589447
-0.09645706415176392 -0.2514672875404358 0.08625764399766922
0.14790521562099457 0.08976379036903381 0.16881707310676575
-0.24752436578273773 -0.2508144974708557 -0.07522645592689514
0.16116365790367126 -0.2971153259277344 -0.01467322651296854
0.2111893594264984 0.08396123349666595 -0.13507433235645294
-0.27112528681755066 -0.11012185364961624 -0.0017311073606833816
-0.20144802331924438 0.2288859784603119 -0.06620201468467712
-0.14684277772903442 0.1300763487815857 -0.13421550393104553
0.12407390028238297 -0.25222378969192505 -0.11890651285648346
0.006578211672604084 0.03270326182246208 0.1698622852563858
0.30222317576408386 0.16445431113243103 0.05082610622048378
-0.29268452525138855 0.043099772185087204 -0.28944823145866394
-0.2712553143501282 -0.19715438783168793 -0.01718192547559738
0.29501938819885254 0.1795373558998108 0.0218499843031168
-0.2712668180465698 -0.18871799111366272 0.10886114090681076
0.17743057012557983 0.4366869330406189 0.061450790613889694
-0.0458185039460659 -0.2482248693704605 -0.07296878844499588
-0.23645228147506714 0.22526493668556213 -0.06630814075469971
0.08124852180480957 -0.25050145387649536 -0.07652845233678818
-0.11390296369791031 -0.25181156396865845 -0.02637430652976036
0.03663047030568123 -0.25079360604286194 0.10798772424459457
-0.08895745873451233 -0.25135698914527893 -0.04700218886137009
-0.038941554725170135 -0.09637068957090378 -0.13545164465904236
-0.17207416892051697 -0.2515428066253662 0.13059145212173462
-0.18978267908096313 -0.2319171279668808 0.15707345306873322
0.2391495704650879 -0.37154921889305115 0.17304760217666626
0.19544069468975067 0.32537296414375305 -0.02195535972714424
-0.27140116691589355 -0.08760341256856918 0.09487996995449066
0.2972458302974701 -0.03370727598667145 0.1409284919500351
-0.19978490471839905 -0.25465837121009827 -0.08122366666793823
0.12760059535503387 -0.2520640790462494 -0.010985510423779488
0.1387706995010376 -0.38593146204948425 0.03755264729261398
-0.03534042090177536 0.09243462234735489 -0.13458147644996643
-0.027414264157414436 -0.25206077098846436 0.099162757396698
0.07846315950155258 -0.17134830355644226 -0.13534177839756012
0.122120700776577 0.14888715744018555 -0.13401000201702118
-0.11867411434650421 0.22969095408916473 -0.11047807335853577
0.18670356273651123 0.23301143944263458 -0.06816255301237106
0.10378127545118332 -0.12901176512241364 0.16953706741333008
-0.27022549510002136 -0.20928996801376343 -0.05225677043199539
-0.19820202887058258 0.22437654435634613 -0.07591153681278229
-0.14221109449863434 0.22881940007209778 -0.09483419358730316
0.30092132091522217 0.17451699078083038 0.07773055136203766
-0.21783562004566193 0.3393179476261139 -0.05137716233730316
0.28250113129615784 0.4962693154811859 0.057960011065006256
0.2994496822357178 -0.21678975224494934 -0.03386588767170906
-0.04578544944524765 -0.2482234686613083 0.08755704760551453
0.2302568405866623 -0.44675251841545105 0.12032752484083176
-0.26807069778442383 -0.30045464634895325 0.022543245926499367
0.18124035000801086 0.06316740065813065 -0.13526803255081177
0.15808215737342834 0.017340803518891335 -0.13576194643974304
-0.03972683474421501 -0.15659421682357788 0.16952477395534515
0.2846781313419342 -0.3511226177215576 0.046738866716623306
-0.028237955644726753 -0.25225701928138733 -0.07079291343688965
0.13120615482330322 -0.24953927099704742 0.0895223319530487
-0.1486608237028122 0.11733833700418472 -0.13547995686531067
0.18989770114421844 0.22882618010044098 -0.04248981177806854
-0.0711890384554863 0.028870347887277603 -0.13920225203037262
-0.2684297561645508 0.06475898623466492 -0.07549962401390076
-0.09443679451942444 0.08909168839454651 0.1696745753288269
-0.042103320360183716 0.08716204762458801 0.16761836409568787
-0.1537221521139145 -0.29008737206459045 0.022578366100788116
-0.19526562094688416 0.2280529886484146 -0.08471226692199707
0.1411839872598648 0.023029854521155357 0.1706814020872116
0.2966579496860504 -0.11463431268930435 -0.00958628673106432
0.25712481141090393 -0.2094232589006424 -0.1354946494102478
0.1333058476448059 -0.12328691780567169 0.17110492289066315
-0.2692042887210846 -0.0017507669981569052 -0.03127463534474373
0.04510621726512909 -0.25100177526474 0.02938845381140709
-0.003342396579682827 -0.2506087124347687 0.13644063472747803
0.07094954699277878 0.22605964541435242 0.07043071836233139
0.06978676468133926 -0.07215855270624161 -0.13524413108825684
-0.2205706536769867 0.005084240809082985 -0.13518919050693512
0.07282278686761856 -0.17066602408885956 0.1689198911190033
-0.2709450423717499 0.0007568742730654776 0.06803671270608902
-0.2528963088989258 -0.05695507675409317 -0.1334853321313858
-0.12444132566452026 -0.2497081309556961 -0.002655803458765149
-0.031632136553525925 0.22948290407657623 0.061831310391426086
0.11341965198516846 0.2273288369178772 -0.06771527975797653
0.2993577718734741 0.41234850883483887 -0.006439649499952793
0.30004072189331055 0.13974788784980774 -0.0005905337166041136
0.18692786991596222 0.466137170791626 -0.025142457336187363
0.29731133580207825 -0.12368632853031158 0.12764793634414673
0.17760509252548218 0.43560168147087097 0.09225475788116455
-0.3091438412666321 -0.33871397376060486 0.03601686283946037
-0.2507365643978119 -0.43834739923477173 0.12908078730106354
-0.06497274339199066 -0.22104161977767944 0.15656815469264984
0.26201871037483215 -0.44356465339660645 0.10712629556655884
0.1851300299167633 0.4532897174358368 -0.030887357890605927
0.24719002842903137 -0.4462527930736542 -0.04742996394634247
-0.15545883774757385 -0.028322743251919746 -0.13555902242660522
0.2978213131427765 -0.1096263900399208 0.05106930807232857
-0.18146292865276337 -0.09529297053813934 0.17266543209552765
0.19544950127601624 -0.38924482464790344 -0.07617268711328506
-0.06692484021186829 0.2286156266927719 0.05950411409139633
-0.18803417682647705 -0.25086522102355957 -0.1075194776058197
0.15629996359348297 -0.2510753273963928 0.05199240893125534
-0.01973993144929409 0.22908763587474823 0.08863713592290878
-0.2407948523759842 0.4892866611480713 -0.0055274744518101215
0.19801215827465057 0.0908263549208641 -0.1386776715517044
-0.27201923727989197 -0.10802435874938965 0.0628243163228035
0.26341885328292847 -0.25075656175613403 0.07786682993173599
-0.28561899065971375 -0.41681158542633057 0.10460272431373596
0.19240087270736694 -0.09300994127988815 -0.13528475165367126
-0.27084463834762573 0.029363136738538742 0.012159775011241436
0.17991392314434052 0.04817976802587509 -0.13527461886405945
-0.052888717502355576 0.19528716802597046 -0.13718153536319733
-0.270912766456604 0.03030979447066784 0.14101026952266693
0.20649981498718262 0.2299930602312088 0.12254175543785095
-0.2709428668022156 0.019463617354631424 0.12257205694913864
-0.040466681122779846 -0.2511228919029236 0.09247177094221115
0.20950108766555786 0.22886817157268524 -0.07959616929292679
-0.07101932168006897 0.1290488988161087 -0.1353246420621872
0.178124338388443 0.42118093371391296 -0.024775000289082527
-0.27111178636550903 -0.07547929883003235 0.04497775807976723
0.17654436826705933 0.43165141344070435 -0.01075330562889576
0.06420134007930756 0.2286897450685501 -0.0410153903067112
-0.20617486536502838 -0.28293880820274353 -0.06193942576646805
-0.12205085903406143 0.15264058113098145 -0.1345481127500534
-0.22380253672599792 0.1844339519739151 0.15623094141483307
0.06114787608385086 0.1734682023525238 -0.17925068736076355
0.2976112961769104 -0.19015322625637054 -0.0779564380645752
-0.006617987062782049 -0.25093215703964233 0.01495486032217741
-0.271011084318161 -0.15687711536884308 0.0906611904501915
0.22014060616493225 -0.344392865896225 -0.08418510109186172
0.16867612302303314 -0.3166141211986542 0.06693675369024277
0.2895762026309967 -0.4085378348827362 0.14260515570640564
-0.2710755467414856 -0.010509643703699112 0.06015852093696594
-0.2713108956813812 -0.22760362923145294 0.06267835199832916
-0.035342395305633545 0.16308674216270447 -0.179173082113266
0.21345394849777222 -0.25107407569885254 -0.10549657791852951
0.023874778300523758 -0.16238142549991608 -0.13067960739135742
0.15605100989341736 -0.3319908082485199 0.05787749961018562
-0.11061601340770721 -0.14499503374099731 -0.13241085410118103
-0.2118520885705948 0.22859999537467957 -0.10203643888235092
0.23836655914783478 -0.25230616331100464 0.10844587534666061
-0.27066683769226074 0.08824194967746735 0.04621364548802376
-0.2624474763870239 0.4434153735637665 0.07661125808954239
0.1380932331085205 -0.09641732275485992 0.1700558215379715
-0.2092016190290451 -0.4509955048561096 -0.003306856844574213
0.006178255192935467 0.2286517471075058 -0.06826311349868774
0.11720839142799377 -0.2494717687368393 0.04192010685801506
-0.21263062953948975 0.232914000749588 0.09928293526172638
-0.21592403948307037 -0.014720206148922443 -0.13592547178268433
-0.27020004391670227 0.04980921000242233 -0.07087278366088867
0.2961478531360626 -0.023761484771966934 -0.09425926953554153
0.2730417251586914 0.1859656423330307 0.1570403277873993
0.16955828666687012 -0.295395165681839 0.05152934044599533
-0.05861930921673775 0.2285948395729065 0.11186277866363525
-0.1622563600540161 -0.34313154220581055 0.017469553276896477
-0.07826845347881317 0.14665921032428741 -0.13414709270000458
0.24818234145641327 -0.19321821630001068 -0.138494610786438
0.017699560150504112 0.1869293749332428 -0.22813968360424042
-0.31869396567344666 -0.3399287760257721 0.06583531945943832
-0.11957833170890808 -0.09773758053779602 0.16995707154273987
0.21687725186347961 -0.21464566886425018 0.15644040703773499
0.2967545986175537 0.032708581537008286 -0.07664519548416138
-0.27369335293769836 -0.15822619199752808 -0.11696881055831909
0.29891031980514526 0.21180510520935059 -0.0965648666024208
0.15419091284275055 -0.3128499388694763 -0.011444026604294777
0.1764657199382782 0.06783787906169891 -0.13525979220867157
0.29582101106643677 0.09454967826604843 0.07114749401807785
-0.009077279828488827 -0.15255606174468994 -0.13536544144153595
-0.12508663535118103 0.0042335642501711845 -0.13739065825939178
-0.14179933071136475 -0.11255998909473419 -0.13560150563716888
0.28090983629226685 -0.34504660964012146 -0.010023854672908783
-0.23363693058490753 -0.222181499004364 0.15905748307704926
0.27060627937316895 -0.30758732557296753 0.053788550198078156
0.1317702680826187 -0.1541786789894104 0.169587641954422
-0.3160930871963501 -0.39698684215545654 0.08137408643960953
-0.27095168828964233 -0.02518864907324314 -0.043187156319618225
-0.23684903979301453 -0.015504228882491589 -0.13403332233428955
0.2005380541086197 -0.4181417226791382 0.20254004001617432
-0.15920546650886536 0.18768097460269928 0.154424786567688
-0.271642804145813 0.149668887257576 -0.09634993970394135
0.10189271718263626 -0.21447283029556274 0.15587809681892395
-0.2732557952404022 -0.14690978825092316 0.10736173391342163
-0.271945983171463 -0.1856294572353363 -0.08754424750804901
-0.27181747555732727 -0.012417107820510864 0.13707269728183746
-0.27080923318862915 0.04126625135540962 -0.025337425991892815
0.1706414818763733 0.22875407338142395 0.10900779068470001
-0.1439763903617859 -0.005584772676229477 -0.1325814425945282
-0.1308099329471588 -0.03536421060562134 -0.1339510828256607
0.1997935175895691 -0.44683730602264404 0.02238188125193119
0.22646981477737427 -0.40633073449134827 -0.09306273609399796
-0.06309811025857925 -0.15283003449440002 0.16955390572547913
0.29244449734687805 0.45773375034332275 -0.02536582760512829
0.30041441321372986 -0.06267926841974258 -0.09989067912101746
-0.003333662636578083 -0.2495202124118805 -0.07061941921710968
0.2950196862220764 -0.17170439660549164 -0.05942143499851227
0.05878138914704323 0.22909016907215118 -0.0839768499135971
0.07692107558250427 -0.2507934868335724 0.020017147064208984
0.2540653645992279 0.5073954463005066 -0.012935657985508442
0.13084065914154053 0.2286793440580368 0.13204656541347504
0.24308708310127258 -0.4464055597782135 0.18107031285762787
-0.029367735609412193 -0.07583386451005936 -0.1349898874759674
0.21608200669288635 -0.25069472193717957 -0.12014704942703247
-0.18327589333057404 0.4430222809314728 -0.060158226639032364
-0.16222679615020752 0.04805948585271835 -0.13500750064849854
0.11545207351446152 -0.2502530813217163 -0.006689463276416063
0.028557728976011276 0.16952890157699585 -0.1338735818862915
0.2917870581150055 -0.4041261076927185 0.07469121366739273
0.2873656451702118 -0.35975348949432373 0.022858720272779465
-0.0855870395898819 0.22862312197685242 -0.032850366085767746
0.29877138137817383 -0.09881981462240219 0.07454805821180344
0.2972313165664673 -0.09944441169500351 -0.002546072704717517
0.1927579939365387 0.2315216213464737 0.045958951115608215
0.1604493111371994 -0.444938987493515 0.1405145227909088
0.13279230892658234 0.22532354295253754 0.09293597936630249
0.2970350980758667 -0.22446687519550323 0.06885538250207901
-0.11047887057065964 0.23000092804431915 -0.11007741093635559
0.1311492919921875 0.05184692516922951 0.1740444004535675
0.2729746997356415 -0.19916822016239166 -0.13788916170597076
-0.3204418420791626 -0.4247976243495941 -0.031004518270492554
-0.09748805314302444 0.033628907054662704 -0.13529542088508606
-0.13842637836933136 0.021936815232038498 0.16930052638053894
0.013426847755908966 0.23970890045166016 -0.18627598881721497
0.29745644330978394 0.13076066970825195 -0.09247125685214996
-0.27068695425987244 0.15241064131259918 -0.08572762459516525
0.14724093675613403 -0.2047453671693802 -0.13320377469062805
-0.2691121995449066 -0.050461385399103165 -0.043312642723321915
0.297432541847229 -0.04301328584551811 -0.03173157572746277
0.2990097403526306 0.20557618141174316 0.06839671730995178
0.018437206745147705 0.2028137743473053 0.15649664402008057
-0.2415454089641571 -0.0689464807510376 -0.13740277290344238
0.22199521958827972 0.5135879516601562 0.018816078081727028
-0.029224257916212082 0.020225100219249725 -0.13528332114219666
0.24639756977558136 -0.448018878698349 0.08853723853826523
0.011161763221025467 -0.14415398240089417 -0.1353255659341812
-0.2724100649356842 0.025200622156262398 -0.037274882197380066
-0.2728770971298218 -0.21449415385723114 0.026971379294991493
-0.11330084502696991 -0.15204918384552002 -0.13378113508224487
0.21844898164272308 -0.09239857643842697 0.16722331941127777
0.011434515938162804 0.2530986964702606 -0.20237204432487488
-0.12086720764636993 0.08459844440221786 -0.13668547570705414
0.025663040578365326 -0.05234987288713455 -0.133941650390625
-0.1685575246810913 -0.08919940143823624 0.167031392455101
-0.2706051170825958 0.18745312094688416 -0.05789937078952789
0.295541375875473 0.45499369502067566 0.08055169880390167
-0.27285584807395935 0.21121008694171906 -0.037916216999292374
-0.2724043130874634 -0.03765314444899559 -0.00541332783177495
0.2836154103279114 -0.3440364599227905 0.013570268638432026
-0.21380750834941864 -0.3460458219051361 0.10257551819086075
0.13545118272304535 -0.4008278250694275 0.052718374878168106
-0.270867258310318 -0.07674949616193771 -0.05076547712087631
-0.3048938810825348 -0.44658544659614563 -0.044610824435949326
-0.27065563201904297 0.18042680621147156 -0.1019372045993805
0.22578896582126617 -0.4463036060333252 -0.04725363850593567
-0.17566995322704315 -0.391139954328537 0.036535512655973434
0.2698700726032257 -0.06854380667209625 0.1573924720287323
0.24670904874801636 0.517601490020752 0.038670510053634644
-0.24386940896511078 0.11815726011991501 -0.1356709599494934
0.16565857827663422 -0.3062857985496521 0.04777251183986664
-0.23661260306835175 0.025754908099770546 -0.1346418261528015
0.01364083681255579 0.10574889183044434 0.17237210273742676
0.2976599633693695 -0.12099950760602951 -0.1152816116809845
-0.02845098450779915 0.07444046437740326 0.1694805771112442
-0.21434275805950165 -0.25007790327072144 -0.09597544372081757
0.06310513615608215 0.13504411280155182 0.16811679303646088
0.20163944363594055 0.20032285153865814 0.15619423985481262
0.18465615808963776 0.34964945912361145 0.06240709498524666
0.22875285148620605 -0.246497243642807 0.11698178201913834
0.19769901037216187 0.4211493134498596 -0.07033857703208923
0.2733788788318634 -0.2512170076370239 -0.07307486236095428
0.26339104771614075 0.2288307547569275 0.0972333550453186
-0.220582515001297 -0.018241390585899353 -0.1341659128665924
-0.27057531476020813 0.12443853914737701 0.05838959664106369
-0.22591717541217804 0.4316968321800232 0.09095805883407593
0.17469991743564606 0.44116637110710144 0.014928266406059265
0.1783689260482788 0.3930627405643463 -0.02951674908399582
0.2084217518568039 -0.10338594764471054 0.16918917000293732
-0.27102378010749817 -0.025389598682522774 0.13669615983963013
-0.2694382071495056 -0.1567075401544571 0.10300133377313614
0.29737013578414917 -0.04367971792817116 0.032472748309373856
-0.24313780665397644 0.22983355820178986 0.08315953612327576
-0.21908599138259888 -0.3909938931465149 -0.07884033024311066
-0.1901155263185501 -0.37021929025650024 0.07902426272630692
0.20331114530563354 -0.027463112026453018 -0.1332562416791916
0.2972113788127899 0.13986627757549286 -0.0737181231379509
-0.27620553970336914 0.016847169026732445 -0.0025978595949709415
-0.2703212797641754 -0.4075028598308563 0.1651453822851181
-0.03494574874639511 0.22903528809547424 0.1292809545993805
-0.12735041975975037 0.2295161783695221 -0.01063520647585392
-0.27263206243515015 0.01727409102022648 0.015393603593111038
-0.11798984557390213 0.05704636871814728 0.1696619838476181
0.20071886479854584 0.18565230071544647 0.15591049194335938
0.07512368261814117 -0.2207074910402298 -0.13272596895694733
0.14927536249160767 -0.3227805197238922 0.01019784901291132
0.1490068882703781 0.06584495306015015 -0.13524317741394043
0.14635641872882843 -0.41938862204551697 -0.002636159537360072
-0.17384375631809235 -0.37070992588996887 0.044212426990270615
0.2569173276424408 -0.21137727797031403 0.15500696003437042
0.09306859970092773 0.0007233384530991316 -0.13522012531757355
-0.16610470414161682 0.22927658259868622 -0.10648468881845474
-0.0691235139966011 -0.02119935117661953 0.17233853042125702
0.08810202777385712 0.01813756860792637 -0.135194331407547
0.0702497810125351 -0.2489980012178421 0.09976807236671448
0.2703078091144562 0.17693227529525757 0.15648946166038513
-0.197974294424057 -0.37753698229789734 -0.057919010519981384
-0.07966864854097366 -0.08921292424201965 0.16925065219402313
0.2982505261898041 -0.10123135149478912 0.10310511291027069
0.09935926645994186 -0.10285171866416931 0.1675007939338684
-0.21287529170513153 0.1656440794467926 -0.13723048567771912
0.2626720070838928 -0.10170923173427582 0.15334022045135498
0.2973005771636963 -0.06023735925555229 -0.11209700256586075
-0.2908310890197754 -0.025852398946881294 -0.28026869893074036
0.29405972361564636 0.10033524036407471 -0.027351615950465202
0.20523136854171753 -0.44437214732170105 -0.04198073223233223
-0.1788853257894516 0.067228302359581 0.16955533623695374
0.21285493671894073 -0.15155872702598572 -0.1345306783914566
0.20815972983837128 0.054751917719841 0.16787371039390564
0.04783082380890846 -0.01309164334088564 -0.13325293362140656
-0.2706953287124634 0.07227443158626556 -0.00042300857603549957
0.11979415267705917 -0.1607123762369156 -0.13526199758052826
-0.04690108448266983 0.0177031047642231 0.1680462509393692
0.05717214196920395 0.23016007244586945 -0.08505215495824814
-0.14637641608715057 0.0721687451004982 -0.13228650391101837
0.09025257080793381 -0.2507820427417755 -0.08677154034376144
-0.270643413066864 0.10809638351202011 -0.03709978982806206
-0.30881839990615845 -0.33402377367019653 0.05500084161758423
-0.17723126709461212 0.4845164716243744 -0.010237899608910084
-0.2696530222892761 -0.4637714922428131 -0.014817295596003532
-0.040147483348846436 -0.08772816509008408 0.1716180145740509
0.17695531249046326 -0.28576961159706116 0.056963834911584854
0.13395531475543976 0.23332412540912628 0.09268563240766525
0.29693394899368286 0.0765417069196701 -0.08389188349246979
0.2972152531147003 0.1082877442240715 0.12956218421459198
0.21847519278526306 -0.028686828911304474 -0.1382790207862854
0.18877708911895752 0.42759761214256287 -0.05545622855424881
-0.03196003660559654 0.13045978546142578 0.17173035442829132
-0.21604323387145996 0.2077583223581314 -0.13567830622196198
-0.2528350353240967 0.33614614605903625 -0.008220854215323925
0.20632489025592804 -0.3914834260940552 -0.08164355158805847
-0.25404518842697144 -0.43272989988327026 0.12454985082149506
-0.1837768405675888 -0.3983207941055298 0.06902434676885605
-0.18648315966129303 -0.4045450985431671 -0.02470480464398861
0.29781270027160645 -0.07672558724880219 -0.05871571972966194
-0.3119463324546814 -0.3355747163295746 0.05393281206488609
-0.18180835247039795 0.4767267405986786 -0.03552509471774101
0.11937104165554047 0.0012482275487855077 0.16948215663433075
-0.03940424695611 0.16857585310935974 -0.18153782188892365
0.12589970231056213 0.11082566529512405 0.1696055382490158
-0.06255549937486649 -0.19358263909816742 -0.13395072519779205
-0.2712133228778839 -0.1267925351858139 0.10168467462062836
-0.18797357380390167 -0.317353755235672 0.07317081093788147
0.1302594542503357 0.1713266521692276 -0.1353665292263031
0.26309311389923096 0.22885137796401978 -0.08872121572494507
-0.2716144621372223 0.02222825028002262 -0.10188151895999908
0.23915696144104004 -0.446625679731369 0.14701566100120544
-0.06694502383470535 0.22773662209510803 0.01931997947394848
-0.27087223529815674 -0.04371243342757225 -0.11926664412021637
-0.19419288635253906 -0.40000131726264954 0.1123136356472969
-0.11578456312417984 0.11202305555343628 0.16955402493476868
-0.2037057727575302 -0.40442854166030884 0.14924146234989166
-0.2183176428079605 -0.05975864455103874 -0.13606582581996918
0.0617036372423172 -0.04059186950325966 -0.13370175659656525
0.2915074825286865 -0.404529869556427 0.06855908036231995
-0.14092110097408295 0.008167339488863945 -0.1378314048051834
-0.26492369174957275 -0.4608004689216614 0.009831028059124947
-0.2707045376300812 0.09053733944892883 -0.03325088322162628
0.3008638024330139 -0.07280799001455307 -0.06263863295316696
-0.1580473631620407 -0.2521508038043976 -0.07333800196647644
-0.09595607966184616 0.2280832678079605 -0.0722881481051445
0.027365166693925858 0.011522946879267693 -0.13817013800144196
0.1376958191394806 -0.0882318988442421 0.16954070329666138
-0.22220264375209808 -0.35901543498039246 -0.08854704350233078
0.29746952652931213 -0.21491773426532745 0.052147988229990005
-0.2760410010814667 -0.11741110682487488 -0.008696031756699085
0.20330287516117096 0.2999236583709717 0.0062539177015423775
0.03524594381451607 0.2270089089870453 -0.025905180722475052
0.2973283529281616 0.1942460536956787 0.006502872798591852
-0.18354304134845734 -0.41239213943481445 0.040466923266649246
-0.3031970262527466 -0.4422694444656372 -0.03928299620747566
-0.17355486750602722 -0.3195437788963318 0.05047129467129707
-0.2684907019138336 0.17583908140659332 -0.10079852491617203
0.26512280106544495 -0.25053462386131287 0.08829144388437271
-0.2712913751602173 0.15798404812812805 0.12615914642810822
-0.08749570697546005 -0.23251840472221375 0.1566503793001175
-0.2781805694103241 -0.40042611956596375 0.17880825698375702
-0.0946449413895607 0.04300311952829361 0.16944311559200287
0.10709979385137558 -0.24672715365886688 0.10961422324180603
-0.06771586090326309 -0.21328015625476837 0.15272317826747894
-0.07107090204954147 0.11553402245044708 0.17055660486221313
-0.11290255188941956 0.019725032150745392 0.17146585881710052
-0.1652727723121643 0.2286950796842575 -0.03157837688922882
0.14813746511936188 0.006866925861686468 0.16979795694351196
0.17304947972297668 0.40420636534690857 0.06272214651107788
-0.20260979235172272 -0.35362571477890015 -0.06958795338869095
-0.2725552022457123 0.14337818324565887 -0.11497602611780167
0.02903679944574833 0.23137667775154114 0.11315647512674332
-0.16369271278381348 -0.07758476585149765 -0.13346558809280396
0.0826953873038292 -0.020770912989974022 -0.13113859295845032
-0.27117592096328735 -0.0901656448841095 0.10922928899526596
-0.12696754932403564 -0.25072595477104187 0.07626260071992874
0.30106493830680847 -0.027564991265535355 0.0651811733841896
-0.1909712553024292 -0.08190854638814926 -0.13449740409851074
0.011166990734636784 0.18207092583179474 -0.13493835926055908
0.05360591039061546 0.22866249084472656 0.112688347697258
0.18201935291290283 0.38267189264297485 -0.0350617952644825
0.18617340922355652 0.007698352914303541 -0.1412733495235443
-0.01004769653081894 0.02574918046593666 -0.134649857878685
-0.24914202094078064 0.4077010750770569 -0.06241268664598465
0.15545402467250824 -0.3169786334037781 -0.016019057482481003
0.26257672905921936 -0.44609931111335754 0.16140839457511902
0.049994662404060364 0.1986936777830124 -0.13529077172279358
-0.11836564540863037 0.23006241023540497 0.10138682276010513
-0.18841050565242767 -0.015306446701288223 0.16920478641986847
0.005745826754719019 -0.02971978858113289 -0.13527828454971313
0.2986408472061157 -0.09633798897266388 -0.11524483561515808
-0.022564157843589783 0.1652345210313797 -0.13669323921203613
-0.12234950065612793 -0.2522697150707245 0.01694672182202339
-0.1782260686159134 0.40533289313316345 -0.065338134765625
0.23736940324306488 -0.2492004632949829 0.0851229578256607
-0.15049293637275696 0.20082983374595642 0.15659084916114807
0.2974674701690674 -0.02499605342745781 -0.06435985118150711
-0.2705717980861664 0.13059768080711365 0.03621918708086014
0.20435917377471924 0.2288210690021515 0.10877621918916702
-0.05951017141342163 0.23261283338069916 0.023843582719564438
-0.16198402643203735 0.4640490412712097 0.006409565452486277
-0.12336298078298569 -0.11628305166959763 -0.13557569682598114
0.14644022285938263 -0.21786144375801086 -0.1363138109445572
-0.26825135946273804 -0.19537317752838135 0.038579028099775314
-0.2109941691160202 -0.1990259289741516 -0.13717283308506012
-0.16046980023384094 -0.3582875430583954 0.024392960593104362
-0.3044690787792206 -0.33535417914390564 0.030519599094986916
-0.07040121406316757 0.2266455888748169 -0.09141254425048828
0.29737186431884766 -0.067865289747715 0.0617377869784832
-0.09430477768182755 0.006507955491542816 0.16915060579776764
0.16357259452342987 0.12306103110313416 0.1730121374130249
0.03636523336172104 -0.25084951519966125 0.04481559619307518
-0.20207135379314423 -0.2751906216144562 -0.060761310160160065
0.2826627194881439 -0.41253823041915894 -0.030071765184402466
0.24278193712234497 0.08356139063835144 -0.13396011292934418
-0.2705936133861542 0.11101358383893967 0.06747543811798096
-0.2685055434703827 -0.19809137284755707 0.11747351288795471
0.11445088684558868 0.0028816647827625275 -0.13189265131950378
-0.271098256111145 -0.07730981707572937 -0.022419409826397896
0.29521411657333374 0.05455802381038666 0.13710351288318634
0.05705585703253746 0.1477467268705368 -0.1877812147140503
-0.27023088932037354 -0.18882392346858978 0.06671003997325897
0.0491703636944294 0.2269010990858078 0.0734984502196312
0.19492265582084656 -0.28825709223747253 0.07587633281946182
0.1885446459054947 0.4755839407444 -0.015495406463742256
-0.14982688426971436 0.2305164635181427 0.12219956517219543
-0.14138129353523254 0.028205228969454765 0.16943171620368958
0.2976644039154053 -0.11683573573827744 0.14396363496780396
0.05688902735710144 -0.2519417405128479 -0.03085365891456604
0.1806509792804718 0.043992720544338226 0.1670050024986267
0.27609890699386597 -0.07593334466218948 0.1532336324453354
0.2533853054046631 0.42311909794807434 0.10362623631954193
0.21431680023670197 -0.3963129222393036 -0.08788680285215378
0.12934303283691406 0.11604275554418564 0.16961221396923065
0.2976096272468567 -0.13330857455730438 -0.07829921692609787
0.04074380546808243 0.2306249588727951 0.012383369728922844
-0.153538316488266 -0.10340329259634018 -0.1356164664030075
-0.19925479590892792 -0.38029393553733826 -0.06224219128489494
-0.16765090823173523 -0.3598865568637848 0.0283852219581604
-0.2681189179420471 0.10617314279079437 -0.00593342911452055
-0.16610868275165558 0.23113329708576202 0.0535435676574707
-0.31199342012405396 -0.3650158643722534 -0.03120305761694908
0.2975940406322479 -0.19476452469825745 -0.04283366724848747
-0.23461079597473145 0.13245713710784912 -0.13627779483795166
0.17389163374900818 0.39077815413475037 0.0015220781788229942
0.2942865192890167 0.10657236725091934 0.08306358754634857
-0.07239674776792526 -0.1435278058052063 0.16744935512542725
0.14239779114723206 -0.40009939670562744 -0.013862227089703083
-0.26975947618484497 0.18392996490001678 -0.032497379928827286
-0.06187378987669945 0.22819477319717407 -0.10640560835599899
-0.31960755586624146 -0.33030760288238525 0.10518807172775269
0.27438730001449585 -0.24833975732326508 0.08357783406972885
-0.20317067205905914 0.004808410536497831 0.16951628029346466
-0.17664015293121338 0.05781646445393562 0.16953657567501068
-0.17552977800369263 0.49265944957733154 0.036186300218105316
-0.15356546640396118 0.39075249433517456 -0.00653801579028368
0.2790166437625885 -0.21678851544857025 0.15504315495491028
-0.32199859619140625 -0.41429826617240906 -0.01788722723722458
0.22223372757434845 0.2328476458787918 0.10915570706129074
-0.15788400173187256 0.36658692359924316 0.04033125564455986
0.197606161236763 -0.1686701774597168 -0.13531643152236938
0.2798222601413727 0.147480309009552 -0.13459719717502594
0.29547351598739624 0.18284772336483002 0.08150433748960495
-0.27120256423950195 -0.13182929158210754 0.1009315475821495
-0.30799421668052673 -0.38122469186782837 -0.0645204707980156
-0.2595338225364685 -0.45357877016067505 -0.0701315626502037
-0.14890040457248688 -0.007439915090799332 -0.1348034143447876
0.10321120917797089 0.14147698879241943 -0.13723573088645935
0.21792744100093842 -0.2258511334657669 -0.1383776068687439
0.29303285479545593 -0.3898189067840576 0.074012391269207
0.10012584179639816 -0.06609028577804565 0.1698312908411026
-0.1520366370677948 0.024283517152071 0.16783756017684937
0.2884930670261383 -0.4038527309894562 0.05488670989871025
0.10202206671237946 0.22870492935180664 0.0976395383477211
0.2985556125640869 0.039384424686431885 -0.04016807675361633
-0.15614844858646393 0.06588194519281387 0.16859377920627594
0.09994815289974213 0.12119019031524658 0.16874973475933075
-0.1215507909655571 0.04275986924767494 0.16945378482341766
-0.26944783329963684 -0.175114244222641 -0.035717278718948364
0.301309734582901 0.3911646902561188 0.05946055054664612
0.1835119128227234 0.06688641011714935 -0.13527259230613708
-0.010162174701690674 0.2305581271648407 -0.09109330922365189
0.2985866367816925 -0.08163505047559738 -0.0044367010705173016
0.16496840119361877 -0.2509884536266327 0.07693424820899963
0.20166677236557007 -0.4459010660648346 -0.053764477372169495
-0.17269371449947357 -0.36206933856010437 0.050249289721250534
0.21238334476947784 0.09745204448699951 -0.13517974317073822
-0.23553839325904846 -0.3312676250934601 0.12291038781404495
0.0028566629625856876 -0.06314534693956375 -0.1342669576406479
0.2039252370595932 -0.11423008888959885 -0.13926389813423157
-0.12798532843589783 -0.11903796344995499 -0.1337011754512787
0.1746303141117096 0.4318450391292572 0.05469503998756409
-0.27306267619132996 0.1637229025363922 0.06328342854976654
-0.20255206525325775 -0.39519456028938293 0.1346813291311264
0.2862623631954193 0.4471845328807831 -0.060630254447460175
-0.0743267685174942 -0.0025075720623135567 -0.13869909942150116
-0.32477688789367676 -0.3554130792617798 0.0257819015532732
-0.2466277927160263 -0.24917182326316833 0.0980149656534195
-0.27108389139175415 -0.23382601141929626 -0.07421208173036575
-0.24573640525341034 0.13764186203479767 0.15513934195041656
-0.09023474901914597 -0.2513981759548187 -0.03226146101951599
-0.2689538300037384 0.38873568177223206 0.07803081721067429
0.14847707748413086 -0.18852011859416962 -0.1353130340576172
-0.2846212089061737 -0.40386468172073364 0.15497778356075287
-0.09678135812282562 0.2286382019519806 -0.07224325835704803
-0.10396603494882584 0.10150794684886932 -0.1352582573890686
0.006101279053837061 -0.006849320605397224 0.17167265713214874
0.09996598958969116 0.22868256270885468 0.12671621143817902
-0.1575009971857071 0.04049638658761978 0.17207364737987518
0.1734941452741623 0.39190882444381714 0.020491154864430428
-0.15731929242610931 0.4018794596195221 -0.020775245502591133
-0.2817511260509491 -0.3074018061161041 0.09545403718948364
-0.2447844296693802 -0.45592954754829407 0.08293484896421432
-0.1913914680480957 0.3918052613735199 -0.07560671120882034
-0.19839465618133545 0.22569185495376587 -0.09799139946699142
-0.2706839442253113 0.09007013589143753 -0.0012907814234495163
0.11495190858840942 0.04730674624443054 0.17358097434043884
-0.01681385189294815 0.2069997489452362 0.15680216252803802
0.15474575757980347 -0.2974115014076233 0.014805538579821587
-0.27514663338661194 -0.03997448831796646 -0.08191881328821182
0.2990853190422058 -0.17027732729911804 0.005268715787678957
0.25295311212539673 0.3952777087688446 -0.09180303663015366
-0.26893457770347595 0.034722670912742615 0.09382281452417374
0.18277402222156525 0.16878412663936615 -0.13405071198940277
0.12297748774290085 0.22930458188056946 -0.001019251998513937
0.2973748445510864 -0.08256390690803528 0.07211771607398987
-0.0020819283090531826 -0.11614137142896652 0.16935397684574127
0.1367001086473465 0.19116638600826263 0.1551194041967392
-0.17564181983470917 0.4897637665271759 0.0012027885532006621
-0.016842558979988098 0.22862525284290314 0.11822938919067383
0.2973179519176483 0.03506488725543022 0.060591310262680054
0.2827513813972473 -0.33974453806877136 0.0045226626098155975
-0.09570488333702087 0.20697444677352905 0.1565926969051361
-0.31007319688796997 -0.43748992681503296 -0.04369482398033142
-0.22169435024261475 0.23006972670555115 0.10268499702215195
-0.04454188048839569 -0.25199368596076965 0.1235043853521347
0.29740649461746216 0.1393064707517624 -0.043692294508218765
0.10817248374223709 -0.25083914399147034 -0.054229289293289185
0.14815211296081543 -0.3641963601112366 0.08706750720739365
-0.1786835640668869 -0.3727559447288513 0.05798123776912689
0.22543635964393616 0.1339203119277954 -0.1340530663728714
-0.2679617404937744 0.42079871892929077 0.058331914246082306
-0.07565851509571075 0.23051805794239044 -0.018415819853544235
-0.13359513878822327 -0.25062111020088196 -0.08727091550827026
0.09743575751781464 -0.21762529015541077 -0.13625121116638184
0.0007373868720605969 0.22766123712062836 -0.01403174176812172
0.3010740280151367 0.0848737359046936 -0.10306230187416077
0.27120354771614075 -0.2982965409755707 0.003221183316782117
0.0474335253238678 0.2292228490114212 0.12490208446979523
0.23222793638706207 0.1989496350288391 0.15787847340106964
-0.13227702677249908 -0.07184728235006332 -0.1347406953573227
0.2092658132314682 0.4911838173866272 -0.040436070412397385
0.24932903051376343 -0.4461759030818939 -0.003488725982606411
-0.24570538103580475 -0.19537091255187988 0.1558292806148529
0.12230517715215683 0.2286567986011505 0.13583116233348846
-0.2441200166940689 0.05202250927686691 -0.13474220037460327
-0.14524665474891663 0.22953586280345917 -0.04223880171775818
0.29570305347442627 0.127937912940979 0.053846824914216995
0.2655118703842163 -0.31929105520248413 -0.05491287633776665
-0.16821426153182983 0.03429476544260979 0.16719534993171692
-0.15998032689094543 0.06244366243481636 -0.1359717845916748
-0.27105745673179626 -0.14753369987010956 0.13823150098323822
-0.29995715618133545 -0.3433387279510498 -0.019427601248025894
0.24435867369174957 0.3264302611351013 0.06689320504665375
-0.3067721128463745 -0.35037559270858765 -0.0014254406560212374
0.2682928740978241 0.10757005959749222 0.1568487584590912
-0.11169681698083878 0.13212299346923828 0.16877949237823486
0.29737335443496704 0.011888501234352589 0.04916677996516228
-0.26795727014541626 0.009047633968293667 0.04186425358057022
-0.06989029049873352 0.22642357647418976 0.02044472098350525
0.05958082899451256 0.026787303388118744 -0.1351975053548813
0.29884853959083557 0.013304430060088634 0.08970794081687927
0.2963657081127167 0.011413170024752617 0.01949979178607464
0.22909200191497803 -0.2956177592277527 -0.06962503492832184
0.20460785925388336 0.5100387930870056 0.05288100987672806
-0.06035642325878143 -0.21083982288837433 0.15627792477607727
0.09736364334821701 -0.0236193910241127 -0.13256679475307465
0.2158866971731186 0.2301277220249176 0.12364782392978668
0.2032323181629181 0.22846393287181854 0.11149206012487411
-0.29530787467956543 -0.40290355682373047 -0.08997487276792526
0.016978047788143158 -0.16409637033939362 0.1724429428577423
0.004038974642753601 -0.25130781531333923 0.010694718919694424
-0.2998392581939697 -0.32837769389152527 0.04910526052117348
-0.05987941846251488 -0.07445135712623596 -0.13539665937423706
0.28835609555244446 -0.3780505061149597 0.04783397167921066
-0.23154316842556 -0.12582308053970337 -0.13339048624038696
-0.3186110854148865 -0.3715394139289856 0.134250208735466
-0.15605178475379944 -0.2808630168437958 -0.0032417087350040674
-0.3099495470523834 -0.3976961374282837 0.10524862259626389
-0.14634305238723755 0.1652945578098297 -0.13396473228931427
0.2991330921649933 0.05297091230750084 -0.076343834400177
0.07346650213003159 -0.14375130832195282 -0.13707362115383148
0.09153510630130768 -0.21246455609798431 -0.13498160243034363
0.0975688248872757 -0.04253820329904556 -0.13258405029773712
0.2966553270816803 0.17420533299446106 -0.08086603879928589
-0.2729718089103699 0.14554068446159363 0.0002466598234605044
-0.18300077319145203 -0.4119851291179657 0.032314177602529526
0.29726698994636536 0.15331226587295532 0.08939072489738464
0.1246257945895195 -0.028157426044344902 -0.1374732255935669
0.10333672165870667 0.10749120265245438 -0.1352313607931137
-0.05254287272691727 0.16481639444828033 -0.13535526394844055
0.29602953791618347 -0.0007363198092207313 0.10612563788890839
-0.27340126037597656 -0.1632532924413681 -0.041421692818403244
0.30144497752189636 -0.1046992614865303 0.013961083255708218
-0.27419742941856384 -0.13993225991725922 -0.02573705092072487
0.15056930482387543 -0.3253060281276703 0.03139540180563927
0.09832146763801575 -0.2505634129047394 0.03563448786735535
-0.3126870393753052 -0.35522744059562683 -0.007508584298193455
0.036345891654491425 0.22866742312908173 -0.09162145853042603
-0.18463270366191864 -0.3855530321598053 -0.03941842541098595
0.10158608108758926 -0.06448301672935486 -0.13192138075828552
-0.12788447737693787 0.04109054431319237 0.17104315757751465
0.2975340187549591 0.19134683907032013 -0.05605092644691467
0.2994266152381897 -0.07666930556297302 -0.08349832147359848
0.29989928007125854 -0.08000993728637695 0.038105204701423645
-0.20418791472911835 -0.009182307869195938 0.1695166528224945
0.027110664173960686 0.1198086068034172 -0.13272640109062195
0.27910178899765015 0.22877418994903564 0.08773114532232285
-0.09510121494531631 0.0763668492436409 0.16799549758434296
0.2961209714412689 0.2006770819425583 0.13718338310718536
-0.08965068310499191 -0.0701792910695076 -0.13547103106975555
0.2530781328678131 -0.4499146640300751 -0.0114596514031291
-0.07932011783123016 -0.04620593041181564 0.17035241425037384
0.15699340403079987 -0.2518913149833679 -0.10090194642543793
-0.21927791833877563 0.014547995291650295 -0.13566496968269348
-0.048471592366695404 0.18231412768363953 -0.13538476824760437
-0.24832220375537872 -0.14432993531227112 0.15644636750221252
-0.17491695284843445 -0.10512249916791916 0.17259526252746582
