0.09401391446590424 -0.246720552444458 0.15501026809215546
-0.24471431970596313 0.23357728123664856 0.0375291146337986
0.214040607213974 0.5059236884117126 0.0993887409567833
0.06717628985643387 0.1607525795698166 -0.1514284908771515
-0.26822131872177124 -0.34663406014442444 -0.08327198028564453
-0.16015486419200897 0.22844228148460388 0.14292557537555695
0.2568095922470093 -0.39363956451416016 -0.08397223800420761
-0.20875316858291626 -0.3824097812175751 -0.07190600782632828
0.27950775623321533 0.45195022225379944 0.12631799280643463
0.04919891431927681 0.1047603040933609 -0.13505181670188904
-0.16122691333293915 -0.2541983425617218 0.06768342107534409
0.298241525888443 0.12224879860877991 -0.13462243974208832
0.20007161796092987 0.3334284722805023 0.05532776936888695
0.2104736715555191 0.2696361839771271 0.010135455057024956
0.2761151194572449 -0.44103142619132996 -0.03236890956759453
0.08333109319210052 -0.24150292575359344 0.1551489681005478
-0.18866412341594696 -0.2487877607345581 0.15586963295936584
0.14779552817344666 -0.4006800353527069 0.1542486846446991
-0.2183552086353302 -0.07899052649736404 0.1716643124818802
-0.27070221304893494 -0.07362139970064163 0.15369054675102234
0.24052751064300537 0.5121560096740723 -0.018816160038113594
0.16680793464183807 -0.4450477063655853 -0.022367866709828377
-0.17203323543071747 0.374340295791626 0.10462933778762817
-0.12656015157699585 0.17870557308197021 0.15821649134159088
-0.01591629907488823 0.11881165951490402 -0.19906243681907654
-0.29057520627975464 -0.45889970660209656 -0.07446523755788803
0.06011536344885826 0.18750381469726562 -0.16991998255252838
-0.2403772622346878 -0.47068092226982117 0.045838069170713425
-0.25427550077438354 -0.24020057916641235 0.15745097398757935
0.2855713665485382 0.10639304667711258 -0.13630451261997223
-0.2724662125110626 0.2213582694530487 -0.07726499438285828
0.2621518671512604 0.23454666137695312 -0.029671931639313698
0.19058534502983093 0.4290018677711487 0.11385955661535263
0.23946236073970795 -0.18582190573215485 0.16580919921398163
-0.26588165760040283 -0.24202795326709747 0.15668080747127533
-0.25659069418907166 0.3641425669193268 0.09265144914388657
0.04180353134870529 0.15481401979923248 0.17173871397972107
0.2631593942642212 0.009429220110177994 0.1564536839723587
-0.27581048011779785 -0.35096675157546997 0.20084024965763092
0.06562763452529907 -0.24607133865356445 -0.1354028433561325
0.19240722060203552 0.38614436984062195 0.11780752241611481
0.1125306785106659 0.21527116000652313 0.16027329862117767
-0.18356412649154663 0.2527284324169159 0.0015810824697837234
0.016039883717894554 0.12936744093894958 -0.209177628159523
0.08066286891698837 0.2214859575033188 0.15735608339309692
0.20988333225250244 0.4814939498901367 0.12052781134843826
0.24701319634914398 -0.3110668957233429 0.0956931933760643
0.19485729932785034 -0.24961668252944946 0.14989830553531647
0.16792531311511993 -0.44135579466819763 -0.047571100294589996
-0.23027130961418152 -0.2552545666694641 -0.00541683379560709
0.24786162376403809 0.33676302433013916 -0.06986187398433685
-0.33664464950561523 -0.39571452140808105 -0.023087555542588234
0.24326036870479584 0.5001909136772156 -0.05511480197310448
0.0767015665769577 -0.18871836364269257 0.1600535362958908
0.20335537195205688 0.4125843942165375 0.10836776345968246
-0.25852885842323303 0.21576552093029022 0.15744654834270477
0.19524599611759186 0.35604989528656006 -0.056019630283117294
0.2500365078449249 0.3648023307323456 -0.08867252618074417
-0.20815235376358032 0.2970438301563263 -0.020337415859103203
0.06261271238327026 0.16078993678092957 -0.1524079591035843
-0.0751517042517662 0.313700795173645 -0.29630258679389954
0.2438744604587555 -0.3107900619506836 0.10502634197473526
-0.28493425250053406 -0.4596675634384155 -0.07713918387889862
-0.18093819916248322 0.1585002839565277 0.1688677966594696
-0.27987414598464966 0.06030585989356041 -0.31692537665367126
-0.26749420166015625 0.2146988958120346 -0.0478651188313961
0.06504122912883759 0.13107146322727203 -0.13558274507522583
-0.2201746553182602 -0.1361154168844223 0.17156583070755005
-0.2647213935852051 -0.25047045946121216 -0.07371893525123596
-0.2809985876083374 -0.027940021827816963 -0.3000468313694
0.23342180252075195 -0.3252451717853546 -0.08608774095773697
-0.21123382449150085 0.5068831443786621 0.04874667525291443
0.014720271341502666 0.289387047290802 -0.2609841823577881
-0.26945173740386963 -0.23191022872924805 -0.13531138002872467
0.29516929388046265 -0.2320370227098465 -0.11052967607975006
0.24824318289756775 0.12812550365924835 0.16130200028419495
0.2797335684299469 0.4776304066181183 0.12882326543331146
0.19312886893749237 0.22533191740512848 0.16072408854961395
0.251576691865921 0.2988896667957306 -0.02423454262316227
-0.24634501338005066 0.4238485097885132 0.11616348475217819
-0.24598950147628784 0.3123261332511902 -0.3384629786014557
0.2279832512140274 0.3809414207935333 0.1083427220582962
0.2978319525718689 0.21177421510219574 -0.124256432056427
0.25440749526023865 -0.013980303891003132 0.1546243131160736
-0.029143530875444412 0.2073904424905777 -0.1783454865217209
-0.2659461498260498 0.23083752393722534 0.05687466636300087
0.05514828860759735 -0.24313952028751373 -0.13537850975990295
-0.25716760754585266 0.20301637053489685 -0.32016801834106445
-0.2594696581363678 0.18297603726387024 -0.3421049416065216
0.27423080801963806 0.5019760131835938 0.11255443841218948
0.26296496391296387 0.36400696635246277 0.13056233525276184
-0.17190536856651306 0.4844667613506317 0.010515623725950718
-0.2787335515022278 -0.060927778482437134 -0.2800194323062897
-0.2701222896575928 -0.23911938071250916 -0.11465103924274445
-0.2531580626964569 0.029678737744688988 -0.25132402777671814
-0.22807295620441437 -0.09753633290529251 0.14609657227993011
-0.26686784625053406 0.23070013523101807 -0.06129048019647598
0.04723363369703293 -0.23606547713279724 -0.13452084362506866
0.18956708908081055 0.4042302370071411 0.11617583781480789
0.27740946412086487 -0.43548738956451416 0.19511857628822327
-0.2582513689994812 0.09217123687267303 -0.31107351183891296
-0.029323652386665344 0.28491026163101196 -0.2849736213684082
0.2980039715766907 0.40304043889045715 0.11686167865991592
0.2735418677330017 0.31261780858039856 0.03900124505162239
-0.1208953857421875 -0.19679617881774902 0.15417508780956268
0.26975539326667786 -0.3283231556415558 0.09914048761129379
-0.11585739254951477 0.3348366320133209 -0.32231447100639343
-0.027688035741448402 0.18782588839530945 -0.15205444395542145
0.24637643992900848 0.3803780674934387 0.11143681406974792
-0.2682964503765106 0.17892241477966309 0.13830602169036865
0.004761125892400742 -0.2425662726163864 -0.13420967757701874
-0.23855702579021454 0.21127475798130035 0.15619893372058868
-0.26889070868492126 -0.38097530603408813 -0.0964684933423996
-0.09966936707496643 0.3300479054450989 -0.29846176505088806
-0.1936926245689392 -0.24985967576503754 0.1487429291009903
-0.22391541302204132 -0.4713197350502014 0.05868170037865639
-0.02907782979309559 0.3003492057323456 -0.305228590965271
0.09733209758996964 0.1721452921628952 0.15546031296253204
0.2648923397064209 0.5108262896537781 0.07329151034355164
-0.25858908891677856 -0.01342119462788105 -0.31158071756362915
-0.33074721693992615 -0.35455992817878723 0.07978835701942444
-0.24235646426677704 -0.3882477581501007 0.19606620073318481
-0.26405689120292664 0.05274990200996399 0.15598440170288086
-0.010009584948420525 0.18741996586322784 -0.13635674118995667
0.2794206142425537 0.22953903675079346 -0.02122749201953411
-0.24583226442337036 -0.0773506686091423 -0.2539166808128357
-0.23822230100631714 -0.2666797339916229 0.022888749837875366
-0.2679532766342163 -0.2213931679725647 0.1565423160791397
0.2990010380744934 -0.012020607478916645 -0.127360537648201
-0.24254955351352692 -0.03358299657702446 -0.24116313457489014
0.25541260838508606 -0.2917020320892334 -0.05732302740216255
-0.17280226945877075 0.18626703321933746 0.15621519088745117
-0.2425089329481125 -0.3218006491661072 -0.07977475970983505
-0.21005861461162567 0.16641558706760406 0.16105039417743683
0.25414955615997314 -0.2521402835845947 -0.0037909806706011295
-0.27863606810569763 -0.07666594535112381 -0.2394588440656662
0.2730446457862854 0.2376459538936615 0.03943578898906708
-0.024447431787848473 0.188195139169693 -0.15169888734817505
0.29894447326660156 -0.12244503200054169 -0.12846329808235168
-0.24314972758293152 -0.27532362937927246 0.06561116129159927
-0.2633984088897705 0.22879424691200256 -0.039291225373744965
0.2442995011806488 -0.24856889247894287 0.15010181069374084
-0.2663978934288025 0.07520993053913116 -0.31300467252731323
-0.23138244450092316 0.49418705701828003 0.10597846657037735
-0.25179940462112427 -0.30271247029304504 0.09833206236362457
-0.201576828956604 0.3625093400478363 -0.0757124274969101
-0.2668474018573761 -0.19021376967430115 0.15153807401657104
0.26978835463523865 0.21819882094860077 -0.1353951096534729
0.0541105717420578 0.2254290133714676 -0.22076478600502014
-0.22130462527275085 0.24190320074558258 0.052772484719753265
0.2341185063123703 -0.29699015617370605 -0.0717293918132782
0.29762160778045654 0.10152271389961243 -0.1379428207874298
0.07442894577980042 -0.19274283945560455 0.15403975546360016
0.010911835357546806 0.10922597348690033 -0.13483358919620514
-0.00118369166739285 0.3000839054584503 -0.28153741359710693
-0.26056912541389465 0.422741174697876 0.10326351225376129
-0.24594971537590027 0.24144139885902405 -0.33031678199768066
-0.2856372892856598 -0.4462917745113373 -0.08519726991653442
-0.15346123278141022 0.2160572111606598 -0.1389181911945343
-0.24339494109153748 0.39648929238319397 -0.06955026090145111
0.2938343286514282 0.22302427887916565 -0.12552538514137268
0.29655927419662476 -0.23997162282466888 -0.027303820475935936
-0.28963276743888855 0.015247834846377373 -0.295255184173584
0.2567485272884369 -0.30802226066589355 -0.0653235912322998
0.21078254282474518 0.2247215211391449 0.0212504081428051
0.2939114272594452 -0.24606117606163025 0.10367878526449203
-0.2711488604545593 -0.18271251022815704 -0.12220997363328934
-0.25907328724861145 -0.2262396663427353 0.1565326303243637
-0.23817656934261322 0.3006177544593811 0.023311443626880646
-0.06175458803772926 0.3082474172115326 -0.27776727080345154
0.2480797916650772 -0.43502742052078247 -0.08853220194578171
0.19040675461292267 0.16577869653701782 0.15941859781742096
-0.1875195950269699 0.4402046501636505 0.08473841845989227
-0.04069765284657478 -0.23611485958099365 0.15696479380130768
0.032878328114748 0.21833275258541107 -0.2366093546152115
-0.15790416300296783 0.3594009578227997 0.033373672515153885
-0.2561880648136139 0.46967026591300964 0.09936919808387756
0.2896731495857239 -0.008069363422691822 0.155127614736557
0.22261303663253784 0.3545783758163452 0.12014900892972946
0.2965676486492157 0.017650172114372253 -0.13280633091926575
0.21230578422546387 0.49792736768722534 0.12442758679389954
-0.24875451624393463 -0.36215659976005554 -0.09488266706466675
-0.16319693624973297 0.46771588921546936 0.09621371328830719
-0.13705135881900787 0.1557522863149643 0.16638268530368805
-0.2341478168964386 0.3051685690879822 0.03404352068901062
0.25855568051338196 0.280665785074234 0.03600006550550461
-0.07196541130542755 0.30621907114982605 -0.3027171492576599
-0.010213452391326427 -0.20467589795589447 0.15475048124790192
0.13766631484031677 -0.438625693321228 0.05732918530702591
0.2836862802505493 -0.4005970060825348 0.18180568516254425
-0.00911108497530222 0.2568154036998749 -0.26436373591423035
-0.23887760937213898 0.4942833185195923 0.012580431066453457
0.051037635654211044 0.22982200980186462 -0.12942075729370117
-0.2553040683269501 -0.2255767434835434 0.1565014272928238
-0.3370746374130249 -0.39570942521095276 -0.015297643840312958
0.22785066068172455 0.1452050507068634 0.17010357975959778
0.2565687894821167 -0.26450294256210327 0.0025847272481769323
-0.17966486513614655 -0.24255786836147308 -0.13570670783519745
-0.2333662509918213 -0.1138918548822403 0.15802639722824097
-0.1059766635298729 -0.24738651514053345 -0.13314855098724365
-0.25034379959106445 -0.0698237344622612 -0.22822901606559753
-0.21934404969215393 0.5008974671363831 0.08865448087453842
0.24898406863212585 0.06368972361087799 0.16065290570259094
-0.04568365216255188 0.11430573463439941 -0.1358056664466858
-0.20142894983291626 -0.24353758990764618 0.15692828595638275
0.20045572519302368 0.327168732881546 -0.03246910497546196
0.2507737874984741 0.38876959681510925 -0.09283627569675446
-0.1270911991596222 0.15461668372154236 0.1696445643901825
0.2377241998910904 0.34673547744750977 0.11482603847980499
-0.06009003147482872 0.148459330201149 0.16966512799263
-0.22135402262210846 -0.06633171439170837 0.16484041512012482
0.26076939702033997 -0.44480690360069275 0.19576634466648102
-0.17922531068325043 0.17079029977321625 0.1482885628938675
-0.22912409901618958 0.0409281961619854 0.15739725530147552
0.14726696908473969 0.17440667748451233 0.14942386746406555
-0.17502552270889282 0.36372604966163635 0.09625111520290375
0.2842767834663391 -0.4328567683696747 -0.018038058653473854
-0.2873784303665161 -0.01170552708208561 -0.2416764795780182
-0.23581796884536743 0.26708999276161194 -0.005777749698609114
-0.20387929677963257 0.24879789352416992 0.046335384249687195
0.2646377384662628 -0.3512369394302368 0.14098364114761353
0.030226025730371475 0.21075493097305298 0.15744507312774658
-0.2533662021160126 0.05456322804093361 -0.2571360468864441
0.09255412966012955 -0.25059598684310913 -0.13159531354904175
0.29722559452056885 0.15186807513237 -0.12133205682039261
-0.3134138584136963 -0.332998126745224 0.19063976407051086
0.2769232988357544 -0.24852897226810455 -0.13094770908355713
0.26589280366897583 0.30807894468307495 -0.020148592069745064
0.2916480600833893 0.23075732588768005 0.1011170893907547
-0.25218066573143005 -0.24845069646835327 -0.028096863999962807
-0.20648109912872314 -0.2694995105266571 0.07638424634933472
-0.029210202395915985 0.1451464295387268 -0.19806312024593353
0.21539287269115448 0.4065376818180084 -0.08531464636325836
0.2352447509765625 0.5061107873916626 -0.03613545373082161
0.28499695658683777 -0.009310569614171982 0.15666982531547546
0.29204893112182617 0.4182451367378235 0.126090869307518
0.052212391048669815 0.2067873328924179 -0.21915830671787262
0.08603311330080032 0.18010066449642181 0.15605051815509796
0.29670974612236023 0.10719937086105347 0.14605163037776947
0.269161581993103 0.22303849458694458 -0.13632605969905853
-0.22854715585708618 0.08566536754369736 0.15184979140758514
0.0033266122918576 0.1743260771036148 0.15570661425590515
-0.2768450677394867 -0.05875054746866226 -0.2790324091911316
-0.1990732103586197 0.2729054391384125 -0.019926130771636963
-0.2759600281715393 -0.3676779568195343 -0.09021078795194626
0.2871015965938568 0.0688352882862091 -0.13688942790031433
-0.23503267765045166 0.22598177194595337 0.158217653632164
-0.23384542763233185 0.2666763961315155 0.03558235242962837
0.19076362252235413 0.43817874789237976 0.11720121651887894
-0.15392550826072693 -0.26879408955574036 -0.00291392276994884
0.16659891605377197 -0.2507084906101227 -0.029094306752085686
0.16841572523117065 -0.26316019892692566 0.014490882866084576
-0.1643105000257492 -0.23758572340011597 -0.1339276283979416
0.24243976175785065 0.12285737693309784 0.1676107496023178
0.2981681823730469 0.006678672973066568 -0.12968800961971283
-0.0025277514941990376 0.1810573935508728 0.15695719420909882
0.2747318148612976 -0.4430658519268036 -0.03175884857773781
0.27740103006362915 0.49792176485061646 0.06735455989837646
-0.229802668094635 0.05980561673641205 0.14870768785476685
-0.19178903102874756 0.1613229364156723 0.17052169144153595
0.2674904763698578 0.28983768820762634 -0.0012617019237950444
-0.27835530042648315 -0.4130342900753021 -0.09296865016222
0.1848479062318802 0.4353785514831543 0.11176307499408722
0.01699686609208584 0.27273622155189514 -0.2279268354177475
0.2976962924003601 0.2243572473526001 -0.0546456016600132
-0.1288495659828186 0.17080777883529663 0.1539500504732132
-0.26599234342575073 0.16971534490585327 0.15497203171253204
-0.06713919341564178 0.21829575300216675 -0.13588739931583405
0.011199712753295898 0.22778795659542084 -0.13016290962696075
0.2950688600540161 0.22787271440029144 0.09333161264657974
-0.2762235403060913 0.23011547327041626 -0.3476766347885132
-0.23579908907413483 0.12981104850769043 0.15504829585552216
-0.1579536646604538 0.2157956063747406 0.15652526915073395
-0.27519354224205017 0.15843121707439423 -0.2983739674091339
-0.0010883037466555834 -0.2507123053073883 0.14569726586341858
-0.2409646064043045 0.34781938791275024 -0.048696089535951614
-0.2417610138654709 -0.06976570934057236 -0.2650667130947113
-0.2538510859012604 -0.02428703010082245 -0.22253544628620148
0.29234060645103455 0.22930356860160828 -0.01694660261273384
-0.25120940804481506 0.23109407722949982 -0.3407577872276306
-0.22672097384929657 -0.08542608469724655 0.1569669395685196
-0.2653326094150543 0.22338438034057617 -0.04421862214803696
0.004075929522514343 0.1941191852092743 -0.14861445128917694
0.0662134438753128 -0.23670640587806702 -0.13533523678779602
-0.2672913670539856 0.13771657645702362 -0.13504493236541748
0.19368958473205566 -0.4363996982574463 0.20015428960323334
-0.2684192657470703 -0.25222644209861755 0.0219255518168211
-0.25701433420181274 0.22910146415233612 -0.08848335593938828
-0.2665769159793854 0.014738297089934349 -0.1336112767457962
-0.235802561044693 -0.30758363008499146 -0.07621271163225174
-0.25099971890449524 0.08098383247852325 -0.30015894770622253
-0.2781553864479065 -0.06518476456403732 -0.2777274250984192
0.20841597020626068 0.2298581600189209 0.05125662684440613
0.22102965414524078 0.22775930166244507 -0.13132889568805695
-0.2579168677330017 0.07651636749505997 -0.27218687534332275
0.29184266924858093 0.14495331048965454 -0.1332838386297226
-0.2416260540485382 -0.2528988718986511 0.05379198119044304
0.05982177332043648 -0.18077313899993896 0.1642152965068817
0.28930139541625977 0.22615039348602295 0.019406607374548912
-0.200750932097435 0.26481136679649353 0.040482692420482635
-0.21818995475769043 0.3016898036003113 -0.33703696727752686
-0.21292239427566528 0.30299612879753113 -0.02231578156352043
-0.2085975706577301 0.33047547936439514 -0.038790568709373474
0.0033013494685292244 0.1589905321598053 0.16965888440608978
-0.14589661359786987 0.3250046372413635 -0.3225356638431549
0.2284400463104248 0.4918048083782196 -0.062281232327222824
-0.2637799382209778 0.2526843249797821 -0.3210017681121826
-0.27473223209381104 0.029277415946125984 -0.23704536259174347
-0.2873569428920746 0.0779932290315628 -0.30328309535980225
-0.23462608456611633 -0.2531111538410187 0.07039197534322739
-0.06330666691064835 -0.2509250342845917 0.14152085781097412
-0.2646663188934326 0.059652458876371384 -0.2550911605358124
0.14907929301261902 -0.2021736055612564 0.15549731254577637
0.18800154328346252 -0.4445044696331024 -0.06183471158146858
-0.19275015592575073 0.3986106216907501 0.08996189385652542
-0.20409569144248962 0.36181604862213135 -0.07677152752876282
0.23654517531394958 -0.12691226601600647 0.16993267834186554
-0.00791453942656517 -0.19906164705753326 0.15310105681419373
-0.27043747901916504 -0.014289762824773788 0.1557968407869339
-0.20288045704364777 0.33603987097740173 0.06220671534538269
0.22767013311386108 0.27282124757766724 0.03647804632782936
0.29581379890441895 0.22618256509304047 0.027786338701844215
-0.23691266775131226 0.37698474526405334 0.11786430329084396
-0.03572417050600052 0.28002747893333435 -0.2741631269454956
0.09009739011526108 -0.20602969825267792 0.15930964052677155
-0.18487560749053955 0.3033766746520996 -0.00032253217068500817
0.18986721336841583 0.21598650515079498 0.15731309354305267
0.2495667040348053 -0.1249796450138092 0.1561189442873001
-0.08298919349908829 -0.23659977316856384 -0.13469070196151733
-0.2667698562145233 -0.045861560851335526 -0.13583296537399292
0.27306684851646423 0.23532980680465698 -0.0015036581316962838
-0.24872718751430511 0.235483780503273 0.02121978998184204
0.17495274543762207 -0.26531392335891724 -0.026257356628775597
-0.24937818944454193 -0.4100472927093506 0.20027561485767365
0.2860313951969147 -0.44270089268684387 0.07819963246583939
-0.2735953629016876 -0.017299097031354904 -0.22328199446201324
-0.21292005479335785 0.18184040486812592 0.15582434833049774
-0.06136932596564293 -0.18639256060123444 0.1583021879196167
0.2750045657157898 -0.43538209795951843 -0.05601010099053383
0.182903453707695 0.42198505997657776 0.10359951108694077
-0.25568681955337524 -0.02147829160094261 -0.22618551552295685
0.30360788106918335 0.15721583366394043 -0.1271979957818985
-0.1769055873155594 0.323485791683197 0.026883253827691078
0.20990805327892303 0.25300946831703186 -0.0011725081130862236
0.0059703653678298 0.10749699175357819 -0.19039560854434967
-0.18490692973136902 0.18704865872859955 0.15378253161907196
-0.2257595956325531 -0.06482049822807312 0.15330487489700317
-0.24124374985694885 0.08800221234560013 0.1564941555261612
0.2814054787158966 -0.249980166554451 0.132995143532753
-0.1983075588941574 0.30213138461112976 -0.3513127267360687
-0.2586801052093506 0.22935377061367035 0.08814969658851624
0.26844632625579834 0.23124146461486816 -0.025761082768440247
-0.23148426413536072 0.07368895411491394 0.15204285085201263
0.024423927068710327 0.2779209613800049 -0.24049192667007446
0.06506841629743576 0.14953652024269104 -0.14239129424095154
-0.24014854431152344 0.2718450129032135 -0.0017214539693668485
0.15167273581027985 -0.4468512535095215 0.08735024183988571
0.21393457055091858 -0.25427040457725525 -0.06785155087709427
0.2985949218273163 -0.24412593245506287 0.14255718886852264
-0.23442412912845612 0.4268946945667267 -0.07613037526607513
0.13996250927448273 0.2281029373407364 -0.13052965700626373
0.28310590982437134 0.10376893728971481 0.159340500831604
0.2071821093559265 -0.2502792775630951 -0.12693092226982117
-0.16526441276073456 0.4723254442214966 -0.014266351237893105
0.2958250045776367 0.16078068315982819 -0.1386498361825943
-0.22964540123939514 0.014277366921305656 0.15715333819389343
-0.23473092913627625 0.2704748511314392 0.0319453701376915
-0.2235904037952423 0.28699204325675964 -0.3530769646167755
0.27667489647865295 0.4645709991455078 0.11848784238100052
-0.19755366444587708 -0.1943395435810089 0.1517665982246399
-0.21398881077766418 -0.4568823575973511 0.10992304980754852
0.2526991069316864 -0.1613953411579132 0.1529919058084488
0.02196773700416088 0.10280904173851013 -0.19057458639144897
-0.2807934284210205 -0.38593217730522156 0.2102397382259369
-0.2700612246990204 0.09566875547170639 -0.13361001014709473
-0.2271270602941513 -0.2837822735309601 -0.06098317727446556
-0.1416110247373581 -0.2526819407939911 0.025040587410330772
-0.20273327827453613 0.22878555953502655 -0.03730454668402672
-0.04921488091349602 -0.1858597844839096 0.16563139855861664
-0.2578199803829193 0.45345133543014526 0.10925184935331345
-0.2534164488315582 0.46589913964271545 0.11719447374343872
-0.19496843218803406 -0.249637633562088 0.14987146854400635
-0.2721991539001465 0.2196512222290039 -0.3127918243408203
0.061940260231494904 0.17733658850193024 0.1560608297586441
0.2188473641872406 0.21591772139072418 0.15782375633716583
-0.2611124515533447 -0.24961739778518677 0.06545618176460266
-0.2738935649394989 -0.005547537934035063 0.14943546056747437
0.2528488337993622 0.497480571269989 -0.05234471708536148
0.2993321418762207 -0.18476784229278564 -0.13429585099220276
0.044827673584222794 0.24299141764640808 -0.20726381242275238
-0.22739572823047638 0.36211204528808594 0.11342034488916397
-0.23366878926753998 0.27462199330329895 -0.34456294775009155
-0.1643991470336914 -0.24817053973674774 -0.039441101253032684
0.22998417913913727 -0.3039228916168213 -0.07396002113819122
-0.27421140670776367 -0.40739935636520386 -0.09618762135505676
-0.06450743973255157 0.3192177414894104 -0.2789304256439209
0.16918988525867462 -0.19805064797401428 0.14972615242004395
-0.23832456767559052 -0.3480048179626465 -0.0897744745016098
-0.1793932169675827 -0.17189079523086548 0.16909730434417725
-0.12835489213466644 0.1522424817085266 0.16966107487678528
-0.15993084013462067 0.2277708202600479 -0.12744899094104767
-0.03346918523311615 0.29785242676734924 -0.3036994934082031
0.269124835729599 -0.24839872121810913 -0.13148732483386993
-0.0378524586558342 0.16200748085975647 -0.1930130571126938
0.020263424143195152 -0.23955219984054565 -0.13579103350639343
-0.16790860891342163 -0.2675372064113617 0.05422867834568024
-0.2319621443748474 0.3533969819545746 -0.07102059572935104
0.19620054960250854 -0.4435325562953949 -0.06967879831790924
0.1879231035709381 -0.18155859410762787 0.16869410872459412
0.2094186693429947 0.2992996275424957 0.025833601132035255
-0.25690147280693054 0.19779621064662933 -0.3289967477321625
0.2564931809902191 -0.26804178953170776 -0.02173655480146408
0.06822255998849869 0.17153945565223694 0.15297242999076843
0.03995585814118385 0.17270100116729736 0.1511368602514267
-0.1835593730211258 0.2531064450740814 -0.00654743192717433
-0.02646520920097828 -0.25192791223526 0.1458280235528946
-0.2553909122943878 0.056645508855581284 -0.30431604385375977
-0.23941850662231445 0.3972131907939911 -0.07246457040309906
-0.23683784902095795 0.2346831113100052 0.05198526754975319
0.2539958953857422 -0.2989766001701355 -0.06137033924460411
0.03708179295063019 0.11119920015335083 -0.13493101298809052
-0.21983131766319275 -0.006464571226388216 0.16741225123405457
-0.2615126669406891 -0.25571227073669434 0.04703357070684433
-0.2479301542043686 -0.07563842087984085 -0.23115400969982147
0.1886524111032486 0.35325369238853455 0.0833403617143631
-0.133928582072258 -0.19282102584838867 0.15329590439796448
-0.23345641791820526 0.351005494594574 0.10403870046138763
0.09596934914588928 0.2321457415819168 0.1489603966474533
-0.21126781404018402 0.280549019575119 0.041563406586647034
0.19838270545005798 0.33023324608802795 0.04740232229232788
-0.05960746482014656 0.22496075928211212 0.15616628527641296
-0.2705593705177307 -0.012211822904646397 -0.30704790353775024
0.2539883553981781 0.1551661491394043 0.15041689574718475
-0.24781565368175507 -0.38693544268608093 0.19929224252700806
0.23235692083835602 0.2822979688644409 0.042594268918037415
0.2869182527065277 -0.25020623207092285 0.1409502625465393
-0.20896349847316742 -0.02730146422982216 0.16934894025325775
0.24462398886680603 0.5162843465805054 0.08416803181171417
-0.27404043078422546 0.24893108010292053 -0.34366488456726074
0.2515006959438324 0.31970709562301636 0.058946702629327774
0.2525371015071869 0.12227951735258102 0.1533077508211136
0.05552191659808159 0.11611209809780121 -0.14993245899677277
-0.17277143895626068 0.38964664936065674 0.10666410624980927
-0.28786900639533997 0.08810354769229889 -0.2850070893764496
0.26383858919143677 -0.018002329394221306 0.15661008656024933
-0.2427320033311844 0.2929243743419647 -0.3631073534488678
-0.09577286243438721 0.22912180423736572 -0.1273885816335678
0.21819020807743073 0.3414759337902069 -0.06623716652393341
-0.07663795351982117 0.3275405764579773 -0.31379812955856323
0.25617218017578125 0.38581663370132446 0.11407849192619324
-0.005385368596762419 -0.2509641647338867 -0.12939117848873138
-0.13725559413433075 0.23125845193862915 0.15118899941444397
-0.21757544577121735 0.3520403206348419 0.10391546040773392
0.28939542174339294 0.1153341606259346 -0.13633579015731812
-0.26750999689102173 -0.08079352229833603 -0.22129681706428528
0.2634114623069763 -0.3389970064163208 -0.07316155731678009
-0.17487439513206482 0.2292691469192505 0.14115697145462036
-0.27203017473220825 0.20860044658184052 -0.3098820745944977
0.27247464656829834 0.37322932481765747 0.1305934190750122
0.15324999392032623 0.17398309707641602 0.1535545438528061
0.2594156265258789 -0.2633076012134552 0.009462207555770874
-0.2609020173549652 0.09198573976755142 -0.30257368087768555
-0.2838772237300873 -0.46051687002182007 -0.06699724495410919
0.24332216382026672 0.07737110555171967 0.16720318794250488
0.27221718430519104 0.3027794361114502 0.015486971475183964
-0.2305939793586731 -0.25082850456237793 0.0467187725007534
-0.18809112906455994 0.2767550051212311 -0.010213721543550491
0.014578532427549362 0.2110244482755661 0.15742076933383942
-0.1897202730178833 0.29883480072021484 -0.010239792056381702
0.2970559000968933 -0.240975022315979 0.06135969236493111
-0.1879994124174118 0.3242155909538269 -0.35647642612457275
-0.20820946991443634 0.495357871055603 0.11407554894685745
-0.23649801313877106 0.28348609805107117 -0.0021635538432747126
-0.22704149782657623 0.2599737346172333 0.04331546276807785
0.1430826187133789 -0.4372018575668335 0.16044214367866516
0.26173391938209534 0.033863332122564316 0.1587386280298233
-0.0034402357414364815 0.2002222239971161 -0.13488663733005524
0.23905129730701447 0.5209790468215942 0.006420365534722805
0.29431405663490295 0.15912416577339172 0.15682397782802582
0.2351980060338974 -0.03818889334797859 0.17306533455848694
0.24248500168323517 -0.3156726658344269 -0.074061319231987
-0.17913620173931122 0.24860386550426483 0.009891556575894356
-0.27061134576797485 -0.2451019436120987 0.05127369612455368
-0.15669889748096466 -0.27886462211608887 -0.017301563173532486
0.28886425495147705 -0.2529127299785614 -0.014951792545616627
0.2907606065273285 -0.4362035393714905 0.0925053209066391
0.046442944556474686 0.2504858374595642 -0.2330704927444458
0.23614341020584106 0.12384404987096786 0.16924291849136353
0.2653414011001587 0.3878791332244873 -0.08792975544929504
-0.05940242484211922 0.3145500123500824 -0.2767830193042755
-0.20855304598808289 -0.2404499650001526 0.15677890181541443
-0.30052676796913147 -0.41831785440444946 -0.08996886759996414
0.25723689794540405 -0.29945528507232666 0.0880102813243866
0.254579097032547 0.49940335750579834 -0.042701706290245056
-0.22109510004520416 0.2987819015979767 0.041620299220085144
-0.16931112110614777 0.3304568827152252 0.018268248066306114
-0.21241843700408936 0.03615359961986542 0.17189113795757294
-0.16392464935779572 0.22523309290409088 0.0017492698971182108
-0.2228184938430786 0.0013540080981329083 0.16272956132888794
-0.24273331463336945 -0.4816078543663025 -0.01463907677680254
-0.22407716512680054 0.22998130321502686 0.15165479481220245
-0.20148323476314545 0.27287009358406067 0.039808452129364014
0.2617715299129486 -0.035385146737098694 0.1563594937324524
0.04349258169531822 0.1967715471982956 -0.15762466192245483
-0.25949063897132874 0.22947002947330475 0.09089277684688568
0.2177969515323639 -0.2438557744026184 -0.13629250228405
0.21887172758579254 -0.43507835268974304 0.20645594596862793
-0.33299586176872253 -0.37825891375541687 0.08110671490430832
-0.17269575595855713 -0.24823404848575592 0.15498773753643036
0.25213706493377686 0.2268686294555664 -0.12290238589048386
-0.26295146346092224 0.1244388073682785 0.1570335030555725
-0.19486621022224426 0.3770420551300049 -0.07938425987958908
0.2278924435377121 -0.34711089730262756 -0.08614899963140488
0.25929298996925354 -0.2637677490711212 0.039993733167648315
-0.23793187737464905 0.2786858379840851 0.00833446066826582
-0.1329793930053711 -0.25093990564346313 0.14742597937583923
0.19261649250984192 -0.2527282238006592 -0.05569076165556908
-0.25523337721824646 0.19022409617900848 -0.3344525694847107
0.06269095838069916 0.15385785698890686 0.16982989013195038
-0.268826425075531 0.18469348549842834 -0.3441402018070221
-0.2820604145526886 0.1739405244588852 -0.32271885871887207
0.26611727476119995 0.5121079087257385 0.007818260230123997
-0.2722933292388916 0.1809803545475006 -0.12234371900558472
-0.2540430724620819 0.23746082186698914 -0.3501478433609009
0.28739655017852783 0.3598308861255646 -0.05744049325585365
0.2935100197792053 0.08634974807500839 -0.13735979795455933
0.26767149567604065 0.29611364006996155 0.008858571760356426
-0.2688535153865814 0.17670458555221558 -0.11980856955051422
0.28696125745773315 0.3662673830986023 0.11238223314285278
0.27567338943481445 0.3567824065685272 0.10922136157751083
-0.19666080176830292 0.5023252367973328 0.08277193456888199
0.21238799393177032 -0.18278977274894714 0.1678147315979004
0.1980597972869873 0.23450806736946106 0.0196066964417696
-0.02704973705112934 0.15585088729858398 -0.20703600347042084
0.2533557415008545 0.053692445158958435 0.15211598575115204
0.18427714705467224 -0.25526875257492065 0.05042774975299835
0.22831295430660248 0.2891135811805725 -0.019581595435738564
-0.20348763465881348 -0.2561292052268982 0.07968772202730179
-0.3033224046230316 -0.44627776741981506 -0.08891552686691284
0.18634890019893646 -0.19775138795375824 0.15016500651836395
-0.2567293345928192 0.1648336797952652 0.1570899486541748
0.2378108948469162 -0.10888407379388809 0.16974331438541412
-0.23409195244312286 0.22228862345218658 0.15739664435386658
0.2936062216758728 0.05020283907651901 -0.1363457590341568
0.2954111099243164 0.4570217728614807 0.1188473105430603
-0.2587561011314392 0.4580169916152954 0.1156981959939003
-0.26675039529800415 0.21609371900558472 -0.03278280049562454
-0.2632271647453308 0.2274111807346344 0.042158059775829315
0.2729204297065735 0.22338835895061493 0.15721413493156433
0.27767491340637207 0.4836411476135254 0.1311483085155487
0.1801876574754715 0.22748211026191711 -0.13546179234981537
0.19959047436714172 0.37241247296333313 0.116677425801754
0.2214612513780594 -0.44335290789604187 -0.08145420253276825
0.05361079424619675 0.12406011670827866 -0.1646820455789566
0.25360050797462463 -0.1855747103691101 0.15246357023715973
-0.000793885556049645 0.09387977421283722 -0.13454850018024445
0.01834099367260933 0.08919365704059601 -0.13220000267028809
-0.2704886198043823 0.22334349155426025 -0.07530467957258224
0.29847609996795654 0.14401215314865112 0.14871078729629517
0.2957533299922943 -0.006912857294082642 0.14501076936721802
0.1774769127368927 -0.2510910630226135 -0.007570201065391302
-0.19496694207191467 0.303693562746048 -0.010064663365483284
-0.019810492172837257 0.24793431162834167 -0.2499838024377823
-0.12374532222747803 0.31636524200439453 -0.3358035385608673
-0.2387164980173111 0.15248233079910278 0.15652890503406525
-0.04799223318696022 0.15941323339939117 -0.13598449528217316
-0.18779081106185913 0.47150078415870667 0.10204820334911346
0.25696271657943726 -0.029662463814020157 0.15139330923557281
-0.03035641275346279 0.1183924674987793 -0.17505937814712524
0.28365781903266907 0.35289570689201355 0.09994135797023773
-0.14994697272777557 0.17714983224868774 0.1521403044462204
-0.03053670935332775 0.14025017619132996 -0.1901971995830536
-0.24434228241443634 -0.25014960765838623 0.013413679786026478
-0.24984577298164368 0.29547810554504395 -0.3287947475910187
-0.2765097916126251 -0.3926631510257721 0.20700876414775848
-0.25495341420173645 0.07498220354318619 -0.29229286313056946
-0.17384947836399078 -0.24213139712810516 -0.13645946979522705
0.2469506859779358 -0.0028840992599725723 0.16901230812072754
-0.23364020884037018 -0.11712709069252014 0.15539921820163727
-0.09990611672401428 -0.2449040710926056 0.16094592213630676
-0.23825646936893463 0.36524832248687744 -0.06775226444005966
-0.16479742527008057 -0.2517909109592438 0.06435274332761765
-0.1785449981689453 -0.1791485995054245 0.16512751579284668
-0.23718968033790588 0.2637600004673004 -0.007848131470382214
-0.2504415810108185 0.4891633689403534 0.037959564477205276
0.02075202763080597 0.2858673930168152 -0.25609090924263
-0.17174656689167023 0.35524019598960876 -0.04611840099096298
-0.27019259333610535 0.042852405458688736 -0.12843860685825348
0.20690950751304626 -0.27014991641044617 0.07540632784366608
-0.1631615161895752 0.3185637295246124 -0.3410951495170593
0.2537388503551483 -0.17185799777507782 0.15092289447784424
0.29505112767219543 0.22797420620918274 0.10732673108577728
0.2937965393066406 -0.05867105349898338 -0.13780125975608826
0.2915242314338684 0.3479462265968323 0.05827183276414871
0.22544999420642853 -0.25044211745262146 -0.12810060381889343
0.010876747779548168 -0.1739014983177185 0.16935841739177704
0.21888448297977448 -0.18862901628017426 0.15728305280208588
0.14772510528564453 0.18489676713943481 0.15471479296684265
0.0010144561529159546 -0.24487431347370148 0.1548650860786438
0.199802964925766 0.22216854989528656 0.15564964711666107
0.26629361510276794 0.33396315574645996 -0.05466694384813309
0.2522684633731842 0.4222641587257385 -0.08871128410100937
-0.06221500784158707 -0.2513192594051361 -0.12059854716062546
-0.09552609175443649 0.32424816489219666 -0.2985110282897949
0.00243359780870378 0.19802743196487427 -0.1504662185907364
-0.2019234150648117 0.38764268159866333 0.09341408312320709
0.0011688407976180315 0.26441851258277893 -0.27222973108291626
0.0521683432161808 0.10913318395614624 -0.15886393189430237
-0.1954357922077179 0.3120681643486023 0.039751529693603516
0.295669823884964 -0.12731723487377167 0.14940780401229858
0.017643742263317108 -0.24811333417892456 0.14455237984657288
0.25625133514404297 0.2673819065093994 0.03729267790913582
0.20152418315410614 -0.250725120306015 0.08081208914518356
0.28200820088386536 -0.4101594388484955 0.19043853878974915
-0.24735382199287415 0.3508569300174713 -0.05282920226454735
0.2277379035949707 -0.2495080828666687 0.08304023742675781
0.18538296222686768 0.158372163772583 0.1749018281698227
-0.2654988765716553 -0.14108645915985107 -0.13531313836574554
-0.2397611141204834 -0.2800040543079376 0.07354240119457245
-0.24445033073425293 0.23883622884750366 0.02379075437784195
-0.18880793452262878 0.2287183701992035 0.045778315514326096
0.20830801129341125 0.35862186551094055 0.11464425921440125
-0.1460193395614624 -0.25043803453445435 -0.1189156249165535
-0.19887343049049377 0.22792474925518036 -0.1304205358028412
-0.017817523330450058 0.301039457321167 -0.2920512557029724
0.03088073618710041 0.24398647248744965 -0.25565478205680847
0.01963759772479534 0.0866774320602417 -0.13459216058254242
0.24044837057590485 0.3495096266269684 0.1214163675904274
0.2576947510242462 -0.3195672035217285 0.10497496277093887
-0.27349287271499634 0.18860037624835968 -0.3444878160953522
0.2519078254699707 0.49399545788764954 0.12668026983737946
0.0496661402285099 -0.2510475516319275 -0.1366019994020462
0.24935638904571533 0.12237103283405304 0.16135120391845703
0.24137760698795319 -0.43674927949905396 0.20682521164417267
0.2369735687971115 -0.11394984275102615 0.1699744313955307
0.21181878447532654 0.26817917823791504 0.020135123282670975
-0.27191266417503357 -0.23883186280727386 0.033897191286087036
0.07997284084558487 0.17780396342277527 0.15419812500476837
-0.022667866200208664 0.18917357921600342 -0.1375952810049057
-0.17200736701488495 -0.24875295162200928 0.07566402107477188
0.2971656024456024 -0.05657428875565529 -0.13356882333755493
-0.1903829127550125 0.16971193253993988 0.15575531125068665
0.21168410778045654 0.3693119287490845 -0.07896408438682556
0.2685079574584961 0.06493246555328369 0.1549895852804184
0.1900758445262909 0.3734351694583893 0.10337546467781067
-0.19019074738025665 0.2595135271549225 -0.010875978507101536
0.28174033761024475 -0.4375038743019104 -0.03077973611652851
-0.21387633681297302 -0.06573519110679626 0.1693071573972702
0.05517338588833809 0.1125016137957573 -0.13737213611602783
-0.2700590491294861 0.09536003321409225 -0.13543985784053802
0.2139594405889511 0.44912785291671753 0.10044586658477783
-0.25608864426612854 0.08568282425403595 -0.29249894618988037
-0.013935551047325134 0.20975208282470703 0.15605178475379944
-0.26974210143089294 -0.24196049571037292 0.034245699644088745
-0.21064446866512299 0.5063815712928772 0.04270920529961586
-0.13061434030532837 0.22576136887073517 0.15550464391708374
-0.021257130429148674 0.10865229368209839 -0.16617131233215332
0.15626873075962067 0.16568833589553833 0.1619807779788971
-0.3371325135231018 -0.35164523124694824 0.13419784605503082
0.045990850776433945 0.21972230076789856 -0.13911932706832886
-0.023536840453743935 0.2617664635181427 -0.22188401222229004
-0.2224416732788086 0.028584754094481468 0.16367825865745544
0.2151503711938858 -0.24645952880382538 -0.1357620805501938
0.14782439172267914 -0.43929702043533325 -0.017865702509880066
0.0065336450934410095 -0.19846460223197937 0.15187013149261475
-0.2305099070072174 0.16354362666606903 0.14911609888076782
-0.25991931557655334 -0.0705341100692749 -0.2181987464427948
-0.2583168148994446 0.0526953861117363 -0.2524052560329437
0.2958223521709442 -0.25176802277565 0.08229979127645493
-0.22204244136810303 -0.4638555645942688 0.06466426700353622
-0.03607748821377754 0.13250362873077393 -0.18420466780662537
0.28509068489074707 -0.4418140947818756 0.019159387797117233
0.05456804856657982 0.1341707557439804 -0.1956261247396469
0.018297739326953888 0.10473775118589401 -0.19242411851882935
-0.12280578911304474 -0.17798233032226562 0.16734784841537476
-0.2701391279697418 -0.23850426077842712 -0.12043441832065582
-0.2570979595184326 0.15162107348442078 -0.30229008197784424
-0.2289193868637085 0.48434561491012573 -0.04228552430868149
-0.02816013991832733 0.22262562811374664 -0.19559146463871002
0.062137022614479065 0.21552233397960663 -0.14016129076480865
0.20405544340610504 -0.2520306706428528 0.059258874505758286
-0.20898960530757904 -0.4307018220424652 0.14730985462665558
0.199966162443161 0.44806692004203796 0.10700366646051407
-0.16207192838191986 -0.25242042541503906 -0.05072382837533951
0.24400341510772705 -0.25027742981910706 -0.12918859720230103
0.28603988885879517 -0.408763587474823 0.18492557108402252
-0.2574946880340576 -0.2532794773578644 -0.08909741044044495
-0.20928527414798737 -0.022815998643636703 0.1686040461063385
0.22593094408512115 0.5011358261108398 0.12206979840993881
-0.10402382165193558 0.2270021140575409 0.15456417202949524
-0.17221622169017792 0.22438687086105347 0.1587420254945755
0.24185456335544586 -0.2818739414215088 -0.06213761493563652
-0.04629039391875267 0.2916405200958252 -0.28499722480773926
0.2815878689289093 0.2294899970293045 -0.015480423346161842
0.17331230640411377 -0.25200939178466797 0.054236654192209244
-0.23529979586601257 -0.3347199559211731 -0.08867332339286804
0.263445109128952 -0.32455745339393616 -0.06405877321958542
-0.21853309869766235 -0.20294404029846191 0.15533892810344696
0.29941391944885254 -0.14758141338825226 0.15610837936401367
-0.17144125699996948 -0.19886663556098938 0.1522926688194275
0.22949722409248352 0.4957093894481659 -0.05313519760966301
0.19243398308753967 -0.2468128651380539 -0.03769589960575104
-0.196724995970726 0.2981407344341278 -0.01528552919626236
0.08777595311403275 -0.18242359161376953 0.16765904426574707
-0.0516287200152874 0.3165828287601471 -0.3145683705806732
-0.0253269262611866 0.1058807373046875 -0.137834832072258
0.010872270911931992 0.0966002568602562 -0.14495982229709625
0.1812584102153778 -0.2422141134738922 -0.13395056128501892
-0.19456756114959717 0.4976162016391754 -0.012940994463860989
-0.23783867061138153 0.27167001366615295 0.008256817236542702
0.2722108066082001 0.22905957698822021 0.05357256904244423
0.2960890829563141 -0.2506229281425476 -0.0149597292765975
-0.01704057678580284 0.22179849445819855 -0.13690000772476196
-0.0036656090524047613 0.2515510320663452 -0.2617989778518677
0.17135854065418243 -0.24708831310272217 0.14111840724945068
0.013672295026481152 0.12745042145252228 -0.20764191448688507
-0.21761293709278107 -0.46261709928512573 0.068278968334198
0.2855094373226166 0.23176530003547668 -0.005167798139154911
-0.2117381989955902 -0.2488960325717926 -0.1217966228723526
-0.0390581414103508 0.17049866914749146 0.15221983194351196
0.05386390537023544 0.22266221046447754 -0.13958503305912018
-0.20634090900421143 -0.2535133957862854 0.07232417166233063
-0.21957863867282867 0.29715365171432495 -0.3640396296977997
0.2908288538455963 0.34129974246025085 -0.02569197677075863
0.00026694440748542547 0.09959928691387177 -0.15313538908958435
-0.3265726864337921 -0.34009891748428345 0.1892746090888977
0.24126073718070984 -0.14064353704452515 0.1698877513408661
0.25686144828796387 -0.0006554923020303249 0.15034134685993195
-0.029746584594249725 0.22387996315956116 -0.19512483477592468
-0.2612362504005432 0.22883263230323792 -0.10315762460231781
0.30235132575035095 0.11058708280324936 -0.12337584048509598
0.2967570722103119 0.17508617043495178 -0.1372210681438446
-0.14724864065647125 -0.19932444393634796 0.150178924202919
0.28780248761177063 0.13515645265579224 -0.13582976162433624
-0.18071724474430084 0.25644418597221375 0.0070226965472102165
0.037828244268894196 0.11116776615381241 -0.19602414965629578
0.03859971463680267 0.2550133466720581 -0.20974017679691315
0.24790562689304352 0.09161853790283203 0.16078494489192963
0.09320111572742462 -0.17967908084392548 0.16660089790821075
-0.2703275978565216 0.07883340865373611 0.15410928428173065
0.1835583597421646 0.3979540765285492 0.10306433588266373
0.20393186807632446 0.2329183667898178 0.016220472753047943
-0.161932572722435 0.22764542698860168 0.016879810020327568
-0.16804374754428864 0.32533150911331177 -0.3472871780395508
-0.22578920423984528 0.15098892152309418 0.16325201094150543
-0.27886778116226196 -0.3941587209701538 -0.09558513015508652
0.25801965594291687 -0.0809442326426506 0.15540027618408203
0.17088457942008972 -0.1959942877292633 0.14958055317401886
0.25432002544403076 0.5062156915664673 -0.038332682102918625
0.27044954895973206 0.24862495064735413 -0.0038525694981217384
0.1388210952281952 -0.4349680244922638 0.021681105718016624
0.19946390390396118 -0.19430316984653473 0.1512504667043686
-0.21056267619132996 0.5092082023620605 0.05065298080444336
-0.2581217586994171 0.22892123460769653 0.06059102341532707
0.2594364881515503 0.47088831663131714 -0.0740024596452713
-0.2615690231323242 -0.1629677712917328 -0.13608941435813904
-0.15288132429122925 -0.26014354825019836 -0.0021655182354152203
-0.27704042196273804 -0.3939458727836609 0.2032880187034607
0.17605899274349213 -0.2510491609573364 0.033385299146175385
-0.27258533239364624 -0.24480456113815308 0.09544941782951355
0.13879628479480743 -0.439969539642334 0.05618459731340408
-0.2349501997232437 0.3229696750640869 0.044416677206754684
-0.1815258413553238 0.3101959526538849 -0.3482159972190857
-0.18567848205566406 0.3220248222351074 -0.33248627185821533
0.13999517261981964 -0.2462838888168335 0.14978325366973877
0.15000008046627045 -0.44524073600769043 0.030395155772566795
-0.15012618899345398 -0.1950412094593048 0.15161284804344177
0.2983948886394501 0.06103268265724182 -0.12838122248649597
0.22472721338272095 0.5108920931816101 0.10624781250953674
-0.33878836035728455 -0.3641960918903351 0.056580692529678345
0.2076658308506012 0.32073885202407837 0.044437721371650696
-0.2567983865737915 0.08125391602516174 -0.30817168951034546
0.004331030882894993 0.29593202471733093 -0.2608855962753296
0.16180852055549622 -0.25225889682769775 0.016018718481063843
0.2955076992511749 0.19781583547592163 0.15119878947734833
0.2856726348400116 0.34580475091934204 0.08372478187084198
-0.02916032262146473 0.1621342897415161 -0.13544267416000366
-0.2579174041748047 -0.37606024742126465 0.20505346357822418
-0.22684529423713684 -0.013784995302557945 0.1533094197511673
0.18406334519386292 -0.18811346590518951 0.1603197604417801
-0.2737911343574524 -0.06698065996170044 0.15994036197662354
-0.2527368366718292 -0.3127376437187195 -0.06663236767053604
-0.09868589788675308 0.1571463793516159 0.1673884242773056
-0.014796363189816475 -0.23590773344039917 -0.13205282390117645
0.19893918931484222 0.433565616607666 0.1057983860373497
-0.2248382270336151 0.22835558652877808 -0.04663628339767456
-0.27015984058380127 0.2207091897726059 -0.07168255746364594
-0.26291871070861816 -0.048541199415922165 -0.29599136114120483
-0.2660210132598877 0.002514589810743928 0.15628844499588013
0.2888164520263672 -0.2500784397125244 -0.07012538611888885
-0.20100119709968567 0.47825685143470764 -0.059086255729198456
-0.2839100956916809 -0.04062177985906601 -0.2900664806365967
