-0.23485727608203888 -0.25085750222206116 0.12729118764400482
0.20052964985370636 0.23141753673553467 -0.08992739766836166
0.09281397610902786 0.13347764313220978 -0.13555589318275452
-0.19668205082416534 -0.42741134762763977 0.10113181918859482
-0.08001808077096939 -0.22577053308486938 0.15173855423927307
-0.1110922247171402 0.047460999339818954 0.16929566860198975
-0.3248780369758606 -0.37969693541526794 -0.021640466526150703
-0.2672414183616638 -0.18611347675323486 -0.090578094124794
-0.0703951045870781 0.2286081612110138 -0.00224739545956254
0.14023296535015106 -0.4078834056854248 0.01132870651781559
-0.3113788068294525 -0.4053674042224884 0.06862709671258926
0.09579914063215256 -0.25317931175231934 0.11793822795152664
-0.0468129888176918 -0.2537875175476074 -0.022701885551214218
0.20263221859931946 0.2280583679676056 0.0619179829955101
-0.12414228916168213 -0.12348140776157379 -0.13378053903579712
-0.2721567749977112 0.18719545006752014 -0.06041562184691429
-0.2655506432056427 0.4095386564731598 0.012438736855983734
-0.27126309275627136 -0.14423318207263947 0.11127887666225433
0.18722863495349884 -0.07666260004043579 0.16942059993743896
0.0244254432618618 0.23127110302448273 -0.0727928951382637
0.2965967357158661 0.44837915897369385 0.06867513805627823
0.2722613513469696 0.2288457304239273 -0.10544756054878235
0.29798924922943115 0.049853384494781494 0.09619786590337753
-0.27162104845046997 0.17934581637382507 0.12480400502681732
-0.13627280294895172 -0.08851004391908646 -0.13450491428375244
0.06574897468090057 0.11093192547559738 0.16965138912200928
0.18352001905441284 0.4740086793899536 0.07050222158432007
-0.17740090191364288 -0.3696860074996948 -0.03402860462665558
0.2981007397174835 0.1530202478170395 0.070815309882164
0.07051172107458115 -0.25190210342407227 -0.0268859826028347
0.10211019963026047 0.12078392505645752 0.16972790658473969
-0.319277286529541 -0.39936527609825134 -0.0664791613817215
0.17547063529491425 0.22873294353485107 0.03604104742407799
-0.18049445748329163 0.4890286326408386 0.00114624691195786
-0.2024645209312439 0.38570791482925415 -0.08064369857311249
-0.16855251789093018 0.22833466529846191 -0.06483148783445358
-0.31917399168014526 -0.3369726240634918 0.11204549670219421
0.16291870176792145 -0.046372245997190475 0.16575121879577637
-0.17939497530460358 -0.2268705815076828 0.15664616227149963
0.10193534940481186 -0.25115007162094116 -0.009987224824726582
-0.05137481540441513 -0.2554391622543335 0.0016374557744711637
0.20836713910102844 -0.11740045994520187 0.1683945655822754
-0.2567187249660492 0.226748988032341 0.07205580919981003
-0.03698413819074631 -0.25302696228027344 0.06932474672794342
-0.02620537579059601 0.22839508950710297 0.131515234708786
0.19983893632888794 0.3957240581512451 -0.07125942409038544
-0.06640635430812836 0.1913100928068161 0.15487800538539886
0.15863189101219177 0.07567460834980011 -0.13477827608585358
0.15342000126838684 -0.2534805238246918 -0.02508215792477131
-0.05078854784369469 0.22868753969669342 0.023017017170786858
0.2954166531562805 -0.1710205078125 0.13612592220306396
0.21758665144443512 -0.44484683871269226 0.1785900890827179
0.29763367772102356 -0.0027432176284492016 0.024149548262357712
0.029283907264471054 0.22744424641132355 0.10994518548250198
-0.26114919781684875 -0.3509415090084076 0.18315830826759338
0.09691466391086578 -0.010800217278301716 0.1730555295944214
0.17405129969120026 0.4246691167354584 0.05607721582055092
0.16698499023914337 -0.2507595419883728 -0.10010648518800735
-0.06887822598218918 0.05805302783846855 0.17034812271595
-0.21189093589782715 0.057775914669036865 -0.1349155306816101
0.27007678151130676 -0.29709357023239136 -0.019898878410458565
-0.16404618322849274 0.0056005679070949554 0.1691882461309433
0.07373486459255219 0.09957963228225708 0.17100517451763153
0.2290324866771698 -0.2523084282875061 -0.07275855541229248
0.13522978127002716 -0.09451836347579956 0.16944177448749542
-0.005738037638366222 0.2766913175582886 -0.21732673048973083
0.26159071922302246 0.19199851155281067 -0.13457441329956055
-0.14463496208190918 0.195731058716774 -0.1357463151216507
-0.2729991376399994 -0.41431039571762085 0.135148286819458
-0.2693060040473938 -0.1602877974510193 -0.007176429033279419
0.2207564264535904 0.22975726425647736 -0.07615071535110474
-0.1587023138999939 0.3719181418418884 0.04853202402591705
-0.2719259262084961 0.011074565351009369 -0.11759961396455765
-0.014545680023729801 -0.18013271689414978 -0.13477863371372223
-0.10083111375570297 -0.11407439410686493 -0.1348777562379837
-0.04392725229263306 0.04161926731467247 -0.13436704874038696
-0.03513054549694061 0.12343442440032959 0.1685369461774826
0.2702990472316742 0.22896085679531097 -0.09527910500764847
0.20421932637691498 -0.39546096324920654 0.19352774322032928
0.29748308658599854 -0.018983695656061172 0.1243547648191452
0.2823784649372101 0.3255486488342285 -0.0009396978421136737
0.29815974831581116 -0.011056408286094666 0.02584712579846382
0.13766244053840637 -0.4120998978614807 0.061643704771995544
-0.21715587377548218 -0.38143783807754517 0.1562531590461731
-0.24461989104747772 -0.45063909888267517 0.10109440237283707
-0.0602346695959568 -0.2510201036930084 0.13645677268505096
0.1660357266664505 -0.10807216167449951 0.16945558786392212
-0.06278109550476074 0.08685649931430817 0.17029300332069397
0.1988823413848877 -0.2288684844970703 0.1565990298986435
-0.10798107832670212 -0.07084359973669052 0.16997720301151276
-0.2717386782169342 -0.17058241367340088 -0.06075218692421913
0.11203193664550781 0.22894787788391113 -0.04026128724217415
0.099708691239357 -0.0365770123898983 -0.1337140053510666
-0.15554362535476685 0.23053696751594543 -0.0385209284722805
0.030717801302671432 0.05640551075339317 -0.13278862833976746
-0.12696777284145355 0.23122166097164154 0.10540279746055603
-0.16316920518875122 0.34324559569358826 -0.010190046392381191
0.2811497747898102 -0.2513904571533203 0.0023673733230680227
-0.00777838658541441 0.22855621576309204 -0.02663184329867363
-0.2966992259025574 -0.3522088825702667 -0.04619484394788742
-0.17019203305244446 0.22888508439064026 -0.028518376871943474
0.16082021594047546 -0.25170180201530457 -0.014687569811940193
0.29965031147003174 -0.1709197759628296 0.004982859827578068
-0.2706107795238495 0.028859497979283333 -0.03251873701810837
0.0237255971878767 -0.13298343122005463 -0.13406607508659363
0.2987612783908844 0.15323345363140106 -0.10029350221157074
0.19800250232219696 -0.44691985845565796 0.07635484635829926
0.06815463304519653 -0.19608846306800842 -0.1353912055492401
0.2935996651649475 0.3561837375164032 -0.026539776474237442
0.13008731603622437 -0.24791266024112701 0.0450461246073246
0.1228000596165657 -0.2501935064792633 0.11822469532489777
0.03588785603642464 -0.2509538531303406 -0.01724456436932087
0.25897637009620667 -0.28750550746917725 -0.043554045259952545
0.1220623329281807 0.0526721253991127 0.16875828802585602
0.22149942815303802 0.22986504435539246 -0.0740392804145813
-0.04415290057659149 -0.08417084813117981 -0.1364259570837021
0.03405202552676201 -0.1596681773662567 -0.1298755258321762
0.2739896774291992 -0.09300381690263748 -0.13104014098644257
0.301300048828125 -0.009627907536923885 -0.10566549748182297
0.1811549812555313 0.35886460542678833 0.06472030282020569
-0.1383010596036911 0.08692386746406555 -0.13480603694915771
-0.1959412395954132 -0.2729809284210205 -0.057425957173109055
0.1532733291387558 0.08334746211767197 0.16967099905014038
-0.29408618807792664 -0.3687492609024048 -0.07274799048900604
0.18033865094184875 -0.12009812891483307 0.16946206986904144
-0.27454692125320435 0.12382424622774124 -0.033218495547771454
0.1951654553413391 -0.44670993089675903 0.11380213499069214
0.2978981137275696 0.09944167733192444 0.06328906118869781
0.05438236892223358 -0.2495097517967224 -0.06314651668071747
-0.17319637537002563 -0.2515169084072113 -0.11916597932577133
0.259344220161438 0.09051679074764252 -0.13546432554721832
0.2973136901855469 -0.15079322457313538 -0.0733221024274826
-0.2506769597530365 -0.13617704808712006 -0.13506926596164703
0.260601282119751 -0.07782222330570221 -0.1328967660665512
0.1376306563615799 -0.420864999294281 0.08113910257816315
0.1306563913822174 -0.25010475516319275 0.1368979811668396
-0.1662057340145111 0.38899940252304077 -0.040098659694194794
0.2830449342727661 -0.3569291830062866 0.048698004335165024
0.24973802268505096 0.23082222044467926 -0.10906052589416504
-0.09644419699907303 0.09427468478679657 -0.13497819006443024
0.2651350796222687 -0.44586047530174255 0.062746062874794
0.008180380798876286 -0.253543496131897 -0.04372506961226463
0.2652040421962738 0.2278205305337906 -0.0957217738032341
-0.04304982349276543 -0.24809080362319946 -0.02627001702785492
-0.15311656892299652 -0.067830890417099 0.16892249882221222
-0.27374476194381714 -0.09289304912090302 -0.08968476206064224
0.2980079650878906 0.14450109004974365 0.13340267539024353
-0.19482289254665375 0.40997034311294556 -0.07739277184009552
-0.2572353184223175 0.47333472967147827 0.05301380157470703
-0.2371758073568344 0.49071720242500305 -0.009511970914900303
0.20736780762672424 0.0824408084154129 0.169763445854187
0.16482135653495789 0.10410499572753906 -0.13487400114536285
-0.027753224596381187 -0.11766140162944794 -0.13467027246952057
-0.11984983831644058 -0.21510951220989227 -0.1362910121679306
0.14286793768405914 -0.3987371623516083 0.09571424871683121
0.16067181527614594 -0.25082728266716003 0.06239025294780731
0.28882133960723877 0.48209279775619507 0.030698107555508614
-0.27143555879592896 0.07563825696706772 -0.0006423168815672398
0.2990918755531311 0.05839679762721062 0.10634534806013107
0.1783370077610016 0.430299311876297 0.09797630459070206
-0.2046356201171875 0.07740840315818787 -0.13489285111427307
-0.2463727444410324 -0.2502893805503845 -0.11670292913913727
-0.20135438442230225 -0.25045543909072876 0.10960168391466141
-0.08127664029598236 -0.25182613730430603 -0.038781944662332535
-0.032741423696279526 -0.2502131760120392 0.13111436367034912
0.2980077564716339 0.01651614159345627 -0.005761515349149704
-0.270627498626709 -0.21059636771678925 0.1277128905057907
-0.29766255617141724 -0.4488939046859741 -0.04530083388090134
-0.11015842854976654 -0.2535158097743988 -0.01915767602622509
-0.24647966027259827 -0.05090191587805748 -0.24340836703777313
0.271264910697937 -0.1314951479434967 0.15627646446228027
0.046420253813266754 0.22859445214271545 0.03139705955982208
0.07001853734254837 -0.1642637699842453 -0.13396130502223969
-0.00812801904976368 -0.048539962619543076 0.1694929301738739
0.2812078297138214 0.45009928941726685 -0.0480593778192997
0.08734133839607239 0.22859346866607666 0.13421839475631714
0.07451782375574112 0.10123781859874725 -0.1348491907119751
-0.16964279115200043 -0.1570969521999359 -0.13766849040985107
-0.24608910083770752 0.002742206212133169 -0.27348631620407104
-0.18001018464565277 0.08956127613782883 0.1694072186946869
0.1538006067276001 -0.1327202022075653 0.17092496156692505
-0.235887348651886 0.1252673864364624 -0.13710671663284302
0.1649761199951172 0.09931029379367828 0.16755780577659607
0.27342119812965393 0.030386563390493393 -0.13563057780265808
-0.1068161278963089 -0.0958499014377594 0.16920004785060883
-0.08191325515508652 0.13017523288726807 -0.1361587643623352
0.20969484746456146 0.03351729363203049 -0.13267987966537476
-0.15382537245750427 -0.07822789996862411 0.1716732233762741
-0.2066746950149536 0.23154066503047943 -0.08599493652582169
-0.2220589965581894 -0.43004125356674194 -0.05906224250793457
-0.3040987253189087 -0.32631129026412964 0.07204806804656982
0.28759029507637024 -0.37893643975257874 0.10664473474025726
0.1946970373392105 0.23198232054710388 -0.11431985348463058
0.22172820568084717 -0.25185006856918335 -0.0831342563033104
0.3012335002422333 0.15750151872634888 -0.09017763286828995
0.1265144944190979 -0.2518788278102875 -0.07955595850944519
0.027844581753015518 0.00823306106030941 -0.1346491128206253
0.08620557188987732 -0.1410137563943863 0.16793373227119446
-0.206433966755867 -0.43331122398376465 0.13814190030097961
-0.16363747417926788 0.4578438103199005 -0.010053177364170551
-0.10497242957353592 -0.09691829234361649 -0.138546884059906
-0.271925151348114 0.027161968871951103 0.03192540630698204
-0.133040189743042 -0.2547324597835541 -0.028476392850279808
0.05720597133040428 0.14043624699115753 0.16964803636074066
0.29847270250320435 -0.21955014765262604 0.11415921896696091
0.28614917397499084 0.32939478754997253 0.020929137244820595
0.1842392086982727 0.4763760566711426 0.05936293303966522
0.27304935455322266 -0.3320156931877136 -0.038683608174324036
0.07815366238355637 -0.04881178215146065 0.16978955268859863
-0.12922848761081696 -0.2167646586894989 0.15487758815288544
-0.1096206083893776 -0.1733415722846985 0.16962303221225739
0.03983968123793602 0.13575491309165955 -0.13491356372833252
-0.06910520046949387 0.22961750626564026 0.1352388709783554
0.17122215032577515 -0.08045794814825058 0.16947971284389496
-0.18061989545822144 -0.39203524589538574 0.06366559118032455
0.0643233135342598 0.15863004326820374 -0.16622799634933472
0.16766931116580963 -0.30013516545295715 0.057890892028808594
0.3007826805114746 -0.060317449271678925 -0.11596015095710754
-0.049112360924482346 -0.10105584561824799 0.16824251413345337
0.28656676411628723 -0.3900679647922516 -0.004145386163145304
-0.03749808296561241 -0.08720676600933075 0.17184656858444214
0.09456730633974075 0.1897963285446167 -0.13656505942344666
0.18981999158859253 -0.22618572413921356 0.15648116171360016
0.2958633303642273 0.001742848427966237 -0.09530314803123474
0.19144777953624725 -0.05785445123910904 -0.13435958325862885
-0.04546888545155525 -0.004853150807321072 0.16935209929943085
0.20151519775390625 0.07495653629302979 0.16975581645965576
-0.25609639286994934 0.13323907554149628 0.15294770896434784
-0.27239492535591125 0.1667652130126953 -0.02430049329996109
0.05428828299045563 -0.25076234340667725 -0.005835980176925659
-0.30440282821655273 -0.40459465980529785 0.09810425341129303
0.21827073395252228 0.4200472831726074 -0.08633772283792496
-0.1790536791086197 -0.39635732769966125 0.006761970464140177
0.2547931671142578 -0.44676417112350464 -0.011514557525515556
0.09167362749576569 -0.18887211382389069 -0.13323725759983063
-0.19906660914421082 -0.21785858273506165 -0.1353219747543335
0.0013044257648289204 0.07773300260305405 0.17084309458732605
-0.225963294506073 -0.19155824184417725 -0.13521991670131683
0.29840558767318726 0.15565329790115356 0.016837237402796745
-0.11285307258367538 0.10382302850484848 0.169341579079628
0.23048271238803864 0.058003731071949005 -0.13403530418872833
-0.26985228061676025 -0.022891836240887642 0.13491562008857727
0.26243263483047485 0.2281588315963745 -0.0928674042224884
-0.17207972705364227 -0.35284939408302307 0.04540957137942314
-0.02660880796611309 0.18958650529384613 0.1584574431180954
0.15679465234279633 -0.10443153232336044 0.17098213732242584
0.2954309284687042 0.044353071600198746 0.047319624572992325
0.2938152551651001 0.020899076014757156 -0.021097559481859207
0.016100190579891205 0.22851510345935822 0.030149294063448906
0.1625920832157135 -0.36360642313957214 0.12638424336910248
-0.2253810167312622 -0.08625936508178711 -0.13511015474796295
0.007058911025524139 0.03033728338778019 -0.13285738229751587
-0.05957605689764023 -0.2516520619392395 0.03551705926656723
-0.04312679171562195 0.08441093564033508 -0.13622604310512543
0.20266619324684143 -0.25007450580596924 0.09384062141180038
0.06948825716972351 0.22858820855617523 -0.05980250611901283
0.014646762982010841 0.16744427382946014 -0.2226925939321518
-0.17211604118347168 -0.3596149981021881 -0.023747770115733147
0.29529377818107605 -0.11751287430524826 -0.04771232232451439
0.29934602975845337 -0.10257694870233536 0.02631167322397232
0.29533955454826355 0.16658061742782593 -0.012266905046999454
-0.19745883345603943 -0.31789451837539673 -0.06503191590309143
0.1444271355867386 -0.13221780955791473 -0.13293243944644928
-0.2831343710422516 -0.31654831767082214 -0.002427508821710944
0.09121456742286682 0.22879748046398163 -0.08625955879688263
0.12064693868160248 -0.09487232565879822 0.16943258047103882
-0.23551374673843384 -0.39114823937416077 -0.08796244859695435
-0.26776188611984253 0.3739703893661499 0.0022590213920921087
-0.11741182208061218 -0.060022804886102676 0.16985395550727844
0.02459697239100933 0.10967771708965302 0.16954448819160461
0.2517586946487427 0.17027194797992706 -0.13552315533161163
-0.26672884821891785 0.011666606180369854 -0.09021976590156555
0.2980203330516815 -0.16908496618270874 0.11474811285734177
0.2982582151889801 0.01624365895986557 0.10895026475191116
-0.11399171501398087 -0.25187399983406067 -0.06647403538227081
0.03343682363629341 0.19773763418197632 -0.22595667839050293
-0.19375568628311157 0.15888608992099762 -0.13692551851272583
0.20225657522678375 0.016060845926404 0.1696353703737259
0.25589898228645325 -0.44604945182800293 0.04985157400369644
-0.19818127155303955 -0.12648865580558777 0.1660502851009369
-0.3155757784843445 -0.42763862013816833 -0.03546030446887016
0.2825406789779663 -0.33968281745910645 0.006621364504098892
-0.17943495512008667 0.008800782263278961 -0.13479219377040863
0.14368629455566406 -0.34816086292266846 0.05770963057875633
0.06308016180992126 0.022236550226807594 -0.1371108591556549
0.1709686666727066 0.4152573049068451 0.03387909755110741
0.04420724883675575 0.05613597482442856 -0.1356634795665741
-0.2712671458721161 -0.11892449855804443 0.1080465167760849
-0.18936145305633545 -0.3543895184993744 -0.05709673464298248
-0.24775609374046326 -0.3489195704460144 0.17154110968112946
0.11619396507740021 -0.024006519466638565 0.16997674107551575
-0.19498641788959503 -0.3162596523761749 0.07864163815975189
-0.14299936592578888 0.10446695983409882 -0.13483910262584686
-0.271975040435791 0.12434614449739456 -0.03859535604715347
0.17588433623313904 0.3664782643318176 0.004820361267775297
0.1673952341079712 -0.2556978762149811 -0.060048628598451614
0.031719908118247986 -0.16431742906570435 -0.1357414871454239
0.23995816707611084 -0.4467706084251404 -0.030222410336136818
0.20246173441410065 0.5035072565078735 0.029671693220734596
0.08663967996835709 0.15128299593925476 -0.13500024378299713
0.1644735485315323 -0.3225574791431427 -0.04035564512014389
-0.12898659706115723 -0.014496124349534512 -0.13478690385818481
-0.19647759199142456 -0.0024184291251003742 0.17044034600257874
-0.2804567515850067 -0.33173540234565735 -0.05814892798662186
-0.16314011812210083 0.06244876608252525 0.16929465532302856
-0.27133166790008545 0.20282121002674103 -0.013528277166187763
-0.2730847895145416 0.11886363476514816 -0.06223311647772789
0.012779253534972668 -0.2508893609046936 0.01904131844639778
-0.235229954123497 -0.4069748520851135 -0.08152049034833908
0.2075568586587906 0.114515520632267 -0.13480930030345917
-0.1797776222229004 -0.39835789799690247 0.0489172525703907
0.06717050075531006 0.2299858182668686 0.019466692581772804
-0.14223505556583405 -0.25171002745628357 0.10517332702875137
0.07786690443754196 -0.2236112803220749 0.15675030648708344
-0.24177967011928558 -0.453287273645401 0.09936278313398361
0.1876484453678131 -0.2967265248298645 -0.04824476316571236
-0.16859394311904907 0.22716683149337769 0.054166171699762344
0.29748857021331787 0.006052747834473848 0.02856782265007496
0.2964005470275879 0.1197153627872467 0.03017665632069111
0.09538682550191879 0.22865204513072968 0.10640573501586914
0.2721896767616272 0.11093302071094513 -0.13458356261253357
0.29596129059791565 0.11288166791200638 -0.11226078122854233
-0.07044477760791779 0.2259800136089325 0.12917645275592804
-0.15661440789699554 0.4272063374519348 -0.002820365596562624
0.229779914021492 0.22766678035259247 -0.06975723057985306
-0.26927804946899414 0.06653426587581635 0.13160349428653717
-0.014525269158184528 0.12023112922906876 -0.13579200208187103
-0.17305755615234375 -0.39346688985824585 0.007468863390386105
0.13700979948043823 -0.4167685806751251 0.0704970434308052
-0.2715086340904236 -0.06316310912370682 -0.0564330592751503
-0.17153175175189972 0.0389619916677475 -0.1335453987121582
-0.15832766890525818 0.4416969418525696 0.025755129754543304
-0.2714736759662628 -0.2200997769832611 -0.05897842347621918
0.15894706547260284 0.23071996867656708 -0.112580306828022
-0.2773360013961792 -0.42169132828712463 0.12066984176635742
-0.20035111904144287 -0.43182507157325745 0.09959728270769119
0.18366815149784088 0.22785770893096924 0.03337479382753372
0.08120527863502502 -0.22851118445396423 0.15763206779956818
-0.022640328854322433 0.2287365347146988 -0.10469664633274078
-0.020760033279657364 0.1305330991744995 -0.1362144947052002
0.0685301348567009 0.2017694115638733 -0.1365550309419632
0.27956146001815796 -0.37687307596206665 -0.039219386875629425
-0.21873712539672852 0.2277488112449646 0.11188338696956635
-0.26886606216430664 -0.1558924913406372 -0.02894289791584015
-0.0367620587348938 -0.10079345852136612 -0.1349480003118515
0.21822327375411987 0.510686993598938 -0.0015845209127292037
-0.08359187841415405 -0.009024004451930523 -0.13486917316913605
0.021207710728049278 0.22843186557292938 2.7898386179003865e-05
0.29793983697891235 0.06290807574987411 0.08032941073179245
-0.2698792517185211 -0.22965620458126068 -0.09109969437122345
-0.2778843641281128 -0.3245178759098053 -0.049493297934532166
0.26859012246131897 0.47156962752342224 -0.06283561885356903
0.28383177518844604 0.39369216561317444 -0.07107128947973251
-0.2501296401023865 -0.28515681624412537 -0.026433397084474564
-0.24290785193443298 -0.09327612072229385 0.16007274389266968
0.1974470615386963 -0.4471142292022705 0.01785133220255375
-0.2206055223941803 -0.35034358501434326 0.12235832959413528
0.14757756888866425 0.13060177862644196 0.16887953877449036
0.15878865122795105 -0.35720953345298767 -0.03768932446837425
-0.2125081717967987 -0.17179006338119507 -0.13538908958435059
-0.08420360833406448 -0.013498437590897083 -0.13471785187721252
-0.02487877756357193 0.022031037136912346 0.16940349340438843
0.18154014647006989 0.02454434148967266 0.17118948698043823
0.18051064014434814 0.22900012135505676 0.07769417017698288
0.11790402233600616 0.18496568500995636 -0.13523317873477936
-0.19753514230251312 0.1309749186038971 0.16762985289096832
-0.2710762321949005 -0.1786532998085022 0.11668861657381058
-0.14466968178749084 0.13969290256500244 0.17373424768447876
0.29837876558303833 -0.042032524943351746 0.02817913331091404
0.3023102581501007 0.4087279438972473 0.02748636156320572
0.22512070834636688 0.45400524139404297 -0.08304328471422195
-0.03880315274000168 0.15848349034786224 -0.16787631809711456
0.29875648021698 0.033500175923109055 0.011504619382321835
0.1888955980539322 -0.4209841191768646 -0.07370997965335846
0.2246541827917099 -0.44730687141418457 0.14482606947422028
0.13897225260734558 -0.38326725363731384 0.03168622776865959
-0.2042495161294937 -0.3353736102581024 -0.07028426229953766
-0.07522831112146378 0.22866328060626984 -0.0739816203713417
0.25116226077079773 -0.13297823071479797 -0.1340140849351883
-0.2709803581237793 -0.09401082992553711 0.05016981065273285
0.2078925222158432 -0.32706502079963684 0.11334838718175888
0.1786285638809204 0.23197254538536072 0.07388453185558319
0.1893569380044937 0.4888834059238434 0.023754719644784927
-0.03456627205014229 0.13849641382694244 0.16735491156578064
0.14088782668113708 0.10719173401594162 -0.13488131761550903
0.23005448281764984 -0.4068911671638489 -0.09075533598661423
-0.13897112011909485 -0.1582941710948944 0.16913557052612305
-0.2710435092449188 -0.17071399092674255 -0.0044026803225278854
0.09797999262809753 -0.12827888131141663 0.17039372026920319
0.058723799884319305 -0.2513149380683899 0.10994221270084381
0.29893675446510315 -0.1403447538614273 -0.09683398902416229
0.25058820843696594 -0.24984291195869446 0.1290096491575241
-0.29709336161613464 -0.3949011564254761 0.14216016232967377
0.17592500150203705 -0.4450666606426239 0.12047755718231201
0.2145257145166397 -0.44964736700057983 -0.03519649803638458
0.27093836665153503 0.06401377171278 0.15646551549434662
-0.27190741896629333 0.18921099603176117 -0.1117374375462532
-0.1538495272397995 0.046571485698223114 0.16741825640201569
-0.19676142930984497 0.04524834081530571 0.16921421885490417
-0.07353833317756653 0.0756729245185852 0.1669834405183792
-0.25770607590675354 0.47707462310791016 0.05583447217941284
0.07970258593559265 -0.10404296219348907 0.16988317668437958
-0.26697638630867004 -0.02027820609509945 -0.09186352789402008
-0.10684967786073685 0.2289958894252777 -0.05209432542324066
-0.17623162269592285 -0.24827173352241516 -0.10255570709705353
-0.17606598138809204 0.4947446882724762 0.04303037375211716
-0.08092387020587921 0.22973452508449554 0.021693464368581772
-0.3003269135951996 -0.379643976688385 0.18067680299282074
0.13283930718898773 0.14735877513885498 -0.13502585887908936
-0.13027429580688477 -0.11257369071245193 -0.1349344253540039
-0.27253812551498413 -0.16006743907928467 -0.11395961046218872
0.0910508781671524 0.2285749465227127 -0.03538507968187332
-0.06616272777318954 -0.11413092911243439 -0.13481861352920532
-0.2779775857925415 -0.44300347566604614 0.047151461243629456
0.27356016635894775 -0.2303701937198639 0.15920288860797882
0.2995361387729645 0.12205339223146439 0.02745816484093666
0.2544456124305725 0.3364367187023163 0.09494035691022873
0.2982746958732605 -0.18402713537216187 -0.05982040986418724
-0.2223728746175766 -0.37526607513427734 0.1584976613521576
-0.2737722396850586 -0.1505242884159088 0.061668574810028076
-0.06095317006111145 0.0038004766684025526 0.17010466754436493
0.2835453152656555 -0.047607384622097015 -0.13464075326919556
0.15987436473369598 -0.2504141926765442 -0.09742172062397003
0.04494931548833847 -0.14116723835468292 -0.13385069370269775
0.23105403780937195 0.08281255513429642 -0.13535603880882263
0.2569541931152344 0.15908654034137726 -0.13668358325958252
-0.26783487200737 0.4050668179988861 0.06035742908716202
0.29758962988853455 -0.16440154612064362 0.0689205601811409
0.2577316164970398 -0.3829493224620819 0.1824520230293274
-0.016539622098207474 -0.25104203820228577 0.07465049624443054
-0.12687501311302185 -0.2531034052371979 -0.052556753158569336
0.25758183002471924 -0.4464993178844452 0.09045494347810745
-0.1588476300239563 0.12031819671392441 -0.13211357593536377
-0.019616838544607162 -0.25210267305374146 0.0007046289392746985
-0.016942447051405907 -0.03932923823595047 -0.13788223266601562
0.26707810163497925 -0.3148517310619354 -0.041661474853754044
0.30877596139907837 0.427699476480484 0.07995989918708801
-0.09372684359550476 -0.2500742971897125 -0.04990527406334877
-0.2802749574184418 -0.30787670612335205 0.04968337342143059
0.1845189332962036 0.40936222672462463 -0.03173843026161194
0.3033306896686554 0.4209771752357483 0.06611780822277069
-0.06916232407093048 -0.2509467303752899 -0.06535730510950089
-0.038507334887981415 0.12553004920482635 -0.1554877609014511
-0.04457293078303337 0.05737624689936638 -0.13686032593250275
-0.1288808286190033 0.03605419024825096 -0.13559117913246155
0.15692883729934692 -0.44556716084480286 0.09334158152341843
0.2888024151325226 -0.4036341905593872 0.10533805936574936
-0.25486642122268677 -0.42025381326675415 0.17787960171699524
0.06985782831907272 -0.25173449516296387 -0.08007755130529404
0.2684853971004486 -0.12189798057079315 0.15753434598445892
-0.014155464246869087 -0.0968945175409317 0.16933736205101013
-0.2717300057411194 -0.18401530385017395 -0.028401600196957588
0.29806551337242126 -0.18283066153526306 0.033580705523490906
-0.10470922291278839 -0.08852297067642212 -0.13560707867145538
0.3021122217178345 0.40914076566696167 0.013544241897761822
0.12191943824291229 -0.17752715945243835 -0.13376353681087494
-0.030659470707178116 0.1324039101600647 -0.13487233221530914
0.10803467780351639 0.19768936932086945 0.15680089592933655
-0.29003825783729553 -0.38116392493247986 0.1871553361415863
0.3013891577720642 0.42792069911956787 0.011263578198850155
-0.13930612802505493 -0.21126505732536316 0.15741051733493805
-0.18320903182029724 -0.40119224786758423 -0.026548024266958237
-0.2985282242298126 -0.43404829502105713 -0.00416778726503253
0.22163791954517365 -0.1493406593799591 -0.1366891860961914
0.2934566140174866 0.43699005246162415 -0.04408697411417961
-0.2719154357910156 0.12770821154117584 -0.03156732767820358
-0.06515232473611832 -0.0747828260064125 0.1711936742067337
-0.23452073335647583 -0.24778394401073456 -0.12040963023900986
0.29523104429244995 -0.059156741946935654 0.022841570898890495
-0.2491874098777771 -0.4511955976486206 0.07471515983343124
-0.26227304339408875 0.35317331552505493 0.02277280017733574
0.07884497940540314 0.06907922029495239 -0.1347726285457611
0.12364567071199417 0.23091690242290497 -0.017155177891254425
0.18563061952590942 -0.4434283971786499 0.04922981187701225
0.08564166724681854 0.22882238030433655 -0.04636090248823166
-0.19282568991184235 -0.37699180841445923 0.09724726527929306
-0.1900406926870346 0.4321070909500122 -0.07207433134317398
-0.12575663626194 0.039276979863643646 -0.13277986645698547
0.025817081332206726 0.1753709465265274 -0.13800571858882904
-0.2711745500564575 -0.16246025264263153 0.12770527601242065
0.030453607439994812 0.2300671637058258 0.000504919036757201
-0.15450918674468994 -0.29445579648017883 0.012747782282531261
0.22881506383419037 0.027543125674128532 0.16905470192432404
-0.27103567123413086 0.18484844267368317 0.08463016152381897
0.16239115595817566 -0.3680288791656494 -0.04239609092473984
-0.27117449045181274 -0.17040182650089264 -0.049829915165901184
0.27217262983322144 -0.32659080624580383 0.0819212794303894
0.2996390461921692 0.15320734679698944 0.12103734165430069
0.25852835178375244 0.16845561563968658 -0.13552093505859375
0.1373666226863861 -0.40234580636024475 0.09760066866874695
-0.31419411301612854 -0.37829720973968506 0.14715233445167542
-0.18619801104068756 0.22852517664432526 0.10928642749786377
-0.2708624303340912 -0.11172562092542648 0.1049499362707138
0.24706295132637024 -0.2929900288581848 0.08779681473970413
0.06009693443775177 0.21001270413398743 -0.13737311959266663
0.21472720801830292 -0.4038016200065613 0.19795724749565125
-0.2708439826965332 -0.2201661318540573 0.06927435845136642
-0.29051169753074646 -0.3324916958808899 -0.025066662579774857
0.30415093898773193 0.42157280445098877 0.04491153731942177
0.0829724445939064 0.08505469560623169 -0.13481931388378143
0.10745875537395477 -0.20701442658901215 0.15647388994693756
-0.24173603951931 0.492064893245697 0.025577176362276077
-0.0030476460233330727 0.09450876712799072 0.16948817670345306
-0.00818027462810278 -0.2506186366081238 0.14321309328079224
0.17503561079502106 0.37837377190589905 0.04273069277405739
0.18433965742588043 -0.421058714389801 -0.07026354223489761
-0.080507792532444 0.11609969288110733 -0.13300609588623047
0.14161531627178192 0.16563671827316284 -0.13511376082897186
0.12371833622455597 -0.21183699369430542 -0.13458359241485596
0.1171339824795723 0.05846847593784332 -0.13475918769836426
0.17098218202590942 0.398520827293396 0.02166903018951416
0.2609976530075073 -0.29161596298217773 -0.03827834501862526
0.15024873614311218 0.2299787998199463 -0.08701486140489578
0.07412302494049072 0.22911910712718964 0.05871063098311424
-0.29134601354599 -0.031041784211993217 -0.2712651789188385
-0.2083166092634201 0.34339264035224915 0.0838327705860138
0.04775792360305786 -0.03897964954376221 0.16915056109428406
0.06178459897637367 0.2285037487745285 -0.001957895467057824
-0.0759160965681076 0.07523009181022644 0.1720804125070572
-0.12273985892534256 -0.10415751487016678 -0.13492050766944885
0.1658988893032074 0.10973885655403137 -0.1361812800168991
-0.2194092869758606 -0.16847142577171326 -0.13531295955181122
0.17085935175418854 -0.4486435055732727 0.09270688146352768
-0.19199934601783752 -0.4126543402671814 -0.026396876201033592
0.15060292184352875 0.08735990524291992 0.16712436079978943
0.19963154196739197 -0.10724750906229019 -0.13477519154548645
0.17479319870471954 0.3934054374694824 0.07796470820903778
-0.15880975127220154 0.37395018339157104 0.06124277785420418
0.2964856028556824 0.11099087446928024 0.06479223817586899
0.2779354453086853 0.1312108188867569 -0.13526105880737305
-0.27125823497772217 -0.143431156873703 0.12486642599105835
-0.3268074095249176 -0.4048027992248535 0.012377199716866016
0.18837082386016846 -0.09080097824335098 -0.13435609638690948
-0.08015184104442596 0.2075939029455185 -0.13412830233573914
0.29834696650505066 0.06558243930339813 -0.0799042358994484
-0.15588335692882538 0.44488492608070374 0.03032202087342739
0.1974010020494461 0.20268136262893677 -0.13756240904331207
-0.1763538122177124 0.17930175364017487 -0.1356758028268814
0.28347069025039673 0.0437111034989357 -0.13466620445251465
-0.27140817046165466 -0.08662751317024231 0.002334830816835165
0.29807049036026 -0.12092134356498718 0.0269088763743639
0.12891817092895508 -0.2533580958843231 -0.10332284867763519
0.29808270931243896 0.0021516475826501846 0.13054430484771729
-0.157514750957489 0.38108327984809875 -0.00077260029502213
-0.20496766269207 -0.25119632482528687 0.13156040012836456
-0.20726636052131653 0.346017062664032 0.09180501848459244
0.2235209345817566 0.23140265047550201 -0.07006702572107315
-0.02584732696413994 0.1865953803062439 0.15622089803218842
-0.27192065119743347 0.2080390453338623 -0.06748118251562119
-0.030896048992872238 0.07351294159889221 -0.13476112484931946
0.20157784223556519 -0.44759470224380493 0.13159503042697906
0.2787306606769562 0.4994288682937622 0.057158213108778
-0.08824140578508377 0.22852647304534912 0.12321777641773224
-0.24841637909412384 -0.05355192720890045 0.15632931888103485
-0.2404005229473114 0.0620739571750164 -0.1317594200372696
-0.016182878986001015 0.22856146097183228 -0.026651861146092415
-0.1505361944437027 -0.22835564613342285 0.1560257375240326
0.16101190447807312 -0.4450317621231079 0.09705707430839539
0.03137766197323799 0.22859682142734528 -0.073658786714077
0.1929129958152771 0.22878162562847137 0.018388353288173676
0.1171761304140091 0.22638694941997528 0.09618684649467468
0.07702689617872238 0.1685679405927658 -0.135072723031044
-0.0755549967288971 0.14899146556854248 -0.13731877505779266
-0.31698042154312134 -0.4042030870914459 0.052413664758205414
-0.0018135796999558806 -0.25207582116127014 0.038416508585214615
0.21230415999889374 0.20773299038410187 0.1579206883907318
0.09359749406576157 -0.24999390542507172 0.060203421860933304
0.24288612604141235 -0.02723574824631214 -0.13242360949516296
-0.11762905865907669 -0.027612484991550446 0.16923117637634277
0.1389806568622589 -0.24931789934635162 0.11920460313558578
0.18779435753822327 -0.4503611922264099 0.09237875789403915
0.11899912357330322 0.22863835096359253 -0.008007767610251904
-0.13131481409072876 -0.251811683177948 0.1106727346777916
0.21859964728355408 -0.3131178021430969 -0.0743175521492958
-0.07724966108798981 -0.21220266819000244 0.1548473834991455
0.23396313190460205 -0.44697335362434387 0.08759518712759018
0.158402219414711 -0.34739920496940613 -0.034313786774873734
0.15350201725959778 -0.2203620970249176 0.15627790987491608
0.08318736404180527 -0.020795907825231552 -0.13074961304664612
0.010668580420315266 -0.14162975549697876 0.16976012289524078
0.24994169175624847 0.18919147551059723 -0.1356411725282669
-0.26998162269592285 -0.17331326007843018 -0.053363896906375885
-0.27022820711135864 0.06684956699609756 -0.06201131269335747
0.19772031903266907 -0.1452193558216095 0.17002402245998383
0.2765861451625824 -0.39143240451812744 -0.04633649066090584
0.20739434659481049 -0.44708582758903503 0.05865105241537094
0.22800128161907196 -0.15687867999076843 0.17188329994678497
-0.00933264009654522 -0.16605927050113678 0.16929051280021667
-0.26914411783218384 0.1946357637643814 0.0249641016125679
0.30147579312324524 0.3780266344547272 0.047377120703458786
-0.15499283373355865 0.2087315171957016 -0.13776852190494537
-0.19567658007144928 -0.2533661127090454 -0.12139511853456497
0.22351999580860138 -0.08136116713285446 -0.1353975534439087
-0.11230342090129852 0.13284966349601746 -0.1339738816022873
0.03698239475488663 0.20791780948638916 0.1571170538663864
-0.08129066973924637 -0.09432007372379303 0.16925176978111267
0.058508384972810745 -0.25115662813186646 0.11038276553153992
0.021141303703188896 -0.2096363604068756 -0.13484551012516022
-0.3229394555091858 -0.3996419310569763 0.04224242642521858
0.2242494821548462 0.5142038464546204 0.018914926797151566
0.1721106469631195 -0.018006719648838043 0.17191536724567413
0.1338518261909485 0.0724743902683258 -0.1347779780626297
0.14776025712490082 -0.3489494025707245 0.06351956725120544
-0.24125780165195465 0.2303389608860016 -0.11639027297496796
0.0732012465596199 0.004323490895330906 -0.13369043171405792
0.2809167206287384 -0.35653209686279297 -0.0353216752409935
0.2763102650642395 -0.39986467361450195 -0.05339131876826286
-0.16162580251693726 -0.22645515203475952 0.15851660072803497
-0.25204548239707947 -0.36078688502311707 0.18564026057720184
-0.23502661287784576 -0.0035584610886871815 -0.13228537142276764
0.22759264707565308 -0.21188858151435852 -0.13484948873519897
-0.22132618725299835 -0.1503804624080658 -0.1359364539384842
0.23962172865867615 -0.4475659132003784 0.0016485926462337375
-0.10726092755794525 -0.027682073414325714 -0.13544774055480957
0.2814248502254486 -0.4059502184391022 -0.03978201746940613
0.2967457175254822 0.386870801448822 0.09960459172725677
0.18445681035518646 -0.4472479224205017 0.16792362928390503
-0.2729785144329071 0.0027695472817867994 -0.07687320560216904
-0.021821096539497375 -0.10465916991233826 0.16932591795921326
-0.000828624120913446 0.10249438881874084 -0.15995080769062042
-0.25745636224746704 -0.4562714993953705 0.04605637490749359
-0.15492592751979828 0.3795199990272522 0.048409271985292435
-0.1494220644235611 0.2287033647298813 0.018582357093691826
0.16004578769207 -0.2540659010410309 -0.041526030749082565
0.178628072142601 0.4115068316459656 -0.026846759021282196
0.08543732762336731 0.001078748144209385 0.17392058670520782
0.040021467953920364 0.1284703016281128 0.16863149404525757
0.1802879273891449 0.349113404750824 0.04545348882675171
0.10635440051555634 0.15913715958595276 -0.13280907273292542
-0.03167765587568283 0.04981282725930214 -0.13475501537322998
-0.1474195122718811 -0.1816205382347107 -0.135867178440094
0.29643768072128296 -0.211246058344841 0.07322429865598679
-0.1972438246011734 -0.3860582113265991 0.11491589993238449
-0.15556800365447998 0.12851282954216003 0.1671505719423294
0.20337775349617004 -0.21944352984428406 0.15676327049732208
-0.15281464159488678 0.4362664222717285 0.05147593840956688
-0.09890834242105484 0.22756287455558777 0.05491139739751816
-0.1921849250793457 0.22688737511634827 0.09606487303972244
-0.1653406023979187 -0.3179580271244049 0.04876318201422691
0.09886353462934494 0.2255021333694458 0.109804168343544
-0.2715497612953186 0.15285497903823853 0.006211815867573023
-0.27337220311164856 0.12361172586679459 -0.02401367761194706
0.15346463024616241 -0.07844080030918121 -0.1344362199306488
-0.330104261636734 -0.34082216024398804 0.13630828261375427
0.11336033046245575 0.22811025381088257 0.11920468509197235
-0.024004165083169937 0.06399991363286972 -0.13358256220817566
-0.06539760529994965 0.13597650825977325 -0.1348930150270462
0.10264807939529419 -0.06722839176654816 -0.13597531616687775
0.17787769436836243 0.36958250403404236 -0.023776983842253685
0.2977624833583832 0.09208160638809204 0.03276360034942627
-0.10120642930269241 0.06254466623067856 -0.13293422758579254
-0.23221401870250702 -0.23358671367168427 0.15687203407287598
0.187494695186615 0.49086427688598633 0.01984158717095852
0.172259122133255 -0.12099869549274445 -0.13431915640830994
-0.27093255519866943 -0.17459800839424133 0.06118924543261528
0.18200252950191498 0.44510379433631897 -0.026252247393131256
0.15260545909404755 -0.25022342801094055 0.025509055703878403
-0.3221007287502289 -0.4092271327972412 0.025812622159719467
0.21461646258831024 -0.06555547565221786 0.16746385395526886
-0.27144378423690796 0.01311862375587225 0.11428970843553543
-0.10472188889980316 -0.05457865074276924 0.16412359476089478
-0.2602018713951111 -0.3288622796535492 0.15479178726673126
-0.15151338279247284 0.2276897132396698 -0.04723973199725151
0.1569802165031433 0.03460894152522087 -0.13472430408000946
0.1573571413755417 0.22828464210033417 0.017073579132556915
-0.1190987303853035 -0.06234417483210564 -0.13314130902290344
0.16785411536693573 -0.3297193646430969 -0.03961431235074997
0.008083365857601166 0.22938404977321625 -0.0929313451051712
0.1584332138299942 -0.3527759611606598 0.10114064812660217
-0.14115720987319946 -0.16883334517478943 0.16865472495555878
0.13200221955776215 0.10159425437450409 0.16976067423820496
-0.3079852759838104 -0.39471274614334106 0.10125453770160675
-0.2713932693004608 -0.18781448900699615 -0.07050531357526779
-0.3026387691497803 -0.41884326934814453 0.054121822118759155
-0.1577373594045639 0.41435158252716064 0.006415507290512323
-0.02274557761847973 -0.11559764295816422 -0.1339622437953949
0.26814955472946167 -0.3147575557231903 -0.03950578719377518
-0.18564918637275696 0.3850153982639313 -0.07016819715499878
0.2079758644104004 -0.44523563981056213 -0.03022507205605507
-0.2359897792339325 0.22759196162223816 -0.058117419481277466
-0.21482564508914948 -0.309687077999115 0.0909929946064949
0.2087496817111969 -0.349385142326355 0.1357022225856781
0.2988249361515045 0.005413545295596123 -0.09015140682458878
0.2236262559890747 0.40750300884246826 0.10065434128046036
-0.19775226712226868 -0.3349355161190033 -0.06313244998455048
-0.17253939807415009 -0.37212225794792175 -0.018585266545414925
0.23640736937522888 -0.4469509720802307 0.09073550999164581
0.01936616376042366 0.2291838377714157 -0.24739806354045868
0.2983560264110565 -0.03542517498135567 0.116829052567482
0.11022109538316727 0.10833210498094559 -0.13486361503601074
-0.11680493503808975 -0.08053441345691681 -0.13640232384204865
0.2985793948173523 -0.08582866191864014 0.07778294384479523
0.20135080814361572 0.4460529386997223 -0.0637924000620842
0.1831561028957367 0.23139429092407227 -0.08340407907962799
-0.08075191080570221 0.06586754322052002 0.16997335851192474
-0.272234708070755 0.008071347139775753 0.11507897078990936
-0.03603183850646019 -0.03938942030072212 -0.13758766651153564
0.00785676296800375 -0.02724841609597206 0.1703706830739975
-0.2701081931591034 0.08943334221839905 0.028936615213751793
0.30362001061439514 0.3955572843551636 0.025250140577554703
-0.130613774061203 -0.14811553061008453 -0.13632044196128845
-0.1879311501979828 -0.3584074378013611 0.07754472643136978
0.3002750873565674 0.39595502614974976 0.08624780923128128
-0.24679048359394073 0.1283581554889679 0.15843021869659424
-0.12353389710187912 0.2304856926202774 -0.029547374695539474
-0.27150213718414307 -0.07199447602033615 0.10550718754529953
0.19562716782093048 0.48813822865486145 -0.014516863040626049
-0.2537260353565216 -0.2438327968120575 -0.11514293402433395
0.12023226171731949 0.008088605478405952 -0.1319684386253357
-0.24037520587444305 -0.4203644096851349 -0.08301661163568497
0.2709245979785919 0.47516223788261414 -0.05419912561774254
-0.20732438564300537 -0.4335486590862274 -0.03708221763372421
0.020344611257314682 -0.01386682502925396 -0.1349027156829834
0.1838170289993286 0.10373666137456894 -0.1391768902540207
0.002714613452553749 -0.25086402893066406 0.03773179277777672
0.19362708926200867 0.23144309222698212 0.04623914510011673
0.15487156808376312 -0.44551631808280945 0.030561409890651703
-0.27159637212753296 0.06928693503141403 0.014135530218482018
0.034611549228429794 -0.16433949768543243 0.16955754160881042
-0.20954324305057526 -0.45096835494041443 0.07787973433732986
0.2990672290325165 -0.005776376463472843 0.1207689419388771
-0.1998927891254425 -0.03437856584787369 0.16920025646686554
0.16425541043281555 -0.3942401111125946 -0.04807490110397339
-0.26512470841407776 0.4447399079799652 0.07093215733766556
0.03801552206277847 -0.12421265989542007 -0.1322990506887436
-0.09741213172674179 -0.2535454332828522 0.09344257414340973
-0.1419694423675537 0.1351095587015152 -0.13593515753746033
0.2967274487018585 -0.10482027381658554 0.017900511622428894
-0.14010338485240936 0.22851820290088654 0.08473990112543106
0.052983034402132034 0.09064772725105286 0.16859954595565796
-0.1539297252893448 0.40332889556884766 0.01994957961142063
0.19330821931362152 -0.27450594305992126 0.07199156284332275
0.20361150801181793 0.20773178339004517 0.15830270946025848
0.0513981357216835 0.05902894586324692 0.16952355206012726
-0.24194809794425964 -0.4550060033798218 0.09263093769550323
-0.16455867886543274 0.16716468334197998 -0.13507814705371857
0.2956337034702301 0.035956010222435 -0.06865867972373962
-0.060657959431409836 -0.24822841584682465 -0.001007746672257781
0.17403580248355865 0.39449915289878845 0.007728627882897854
0.29691585898399353 0.18066895008087158 0.0647071972489357
-0.21892501413822174 -0.25360357761383057 0.130108043551445
0.2403172105550766 -0.45121535658836365 0.17788027226924896
0.11917434632778168 -0.24936680495738983 0.04661153256893158
0.16316625475883484 -0.09810717403888702 0.16946175694465637
-0.2772176265716553 -0.4319695830345154 0.08019714057445526
0.1895298957824707 0.42324769496917725 -0.05559219792485237
-0.27352121472358704 -0.16094984114170074 0.06829358637332916
-0.043526437133550644 0.11144980043172836 0.1673590987920761
-0.10867562890052795 -0.25170421600341797 -0.045564521104097366
0.29630014300346375 -0.1924874186515808 0.12678609788417816
-0.27198526263237 0.14545981585979462 -0.024442551657557487
-0.3051219880580902 -0.41967567801475525 0.02796206809580326
-0.19393697381019592 0.23077575862407684 0.07583827525377274
-0.05605810135602951 0.23070110380649567 0.12426406145095825
-0.27127736806869507 -0.19434963166713715 0.0798448845744133
0.054239895194768906 0.18913891911506653 0.15393026173114777
0.15345369279384613 -0.14171400666236877 0.1643090397119522
-0.007881250232458115 -0.15399125218391418 -0.13471564650535583
-0.16994307935237885 -0.33100566267967224 0.04939968138933182
0.07533366978168488 -0.22732801735401154 0.1567123383283615
0.22182616591453552 -0.09960440546274185 0.1667851060628891
-0.1341473013162613 -0.05862549692392349 0.168757364153862
0.2004888951778412 0.22794023156166077 -0.04853805899620056
0.22017312049865723 0.01451584417372942 0.16963496804237366
0.299372136592865 0.3993103802204132 -0.015350082889199257
0.178045392036438 0.22831250727176666 -0.08707549422979355
0.19663341343402863 0.03980583697557449 0.16967424750328064
0.06058916077017784 0.01550207193940878 0.16949276626110077
0.14339253306388855 -0.36843404173851013 0.007466980256140232
-0.24725060164928436 -0.06253814697265625 0.15183745324611664
-0.213730126619339 -0.19264893233776093 -0.13703064620494843
-0.2046557515859604 -0.43751978874206543 0.10532936453819275
-0.2712021470069885 -0.05882212892174721 0.019561253488063812
0.14622187614440918 -0.09841977804899216 -0.13446201384067535
-0.1276218295097351 -0.2521955966949463 -0.0248315017670393
-0.2379692643880844 0.1772920936346054 -0.13552972674369812
-0.06261841207742691 -0.24862658977508545 0.05989573150873184
0.26044654846191406 0.4198341965675354 0.1084454208612442
0.2995670437812805 0.09043687582015991 -0.0852520763874054
0.15334144234657288 0.22768805921077728 0.13944299519062042
0.2995266318321228 0.04516378417611122 -0.0496671088039875
0.2809641361236572 -0.2514412999153137 -0.03272252157330513
-0.03231744468212128 0.21137873828411102 -0.20324093103408813
0.08221960812807083 -0.2512111961841583 0.11244984716176987
0.026071079075336456 0.22583171725273132 0.043696727603673935
-0.08061661571264267 -0.2489168643951416 0.0632651150226593
-0.14412419497966766 0.19759511947631836 0.1564757376909256
-0.2920171916484833 -0.38718801736831665 0.18061965703964233
