-0.252911776304245 0.4454532265663147 -0.03728241100907326
-0.2129279375076294 0.2297295480966568 -0.07458633184432983
0.1815151423215866 0.11420673877000809 -0.13253426551818848
-0.26624560356140137 -0.038427673280239105 0.02129243314266205
-0.2983820140361786 -0.4223351776599884 0.055173467844724655
0.16436982154846191 -0.4452313780784607 0.11218154430389404
-0.3205457329750061 -0.38148629665374756 -0.04884364455938339
-0.2681227922439575 0.13371287286281586 0.044443730264902115
0.147980734705925 -0.41399258375167847 -0.023145344108343124
-0.04557386413216591 -0.24847988784313202 0.13168375194072723
0.2954314649105072 -0.10299995541572571 -0.03382284939289093
0.179279625415802 -0.004401513375341892 0.169662207365036
0.29728880524635315 0.1480265110731125 -0.07336949557065964
-0.2653033435344696 0.4332255423069 0.027834812179207802
0.1365566849708557 -0.41205474734306335 0.06085514649748802
-0.04408232122659683 -0.22901876270771027 0.15874344110488892
0.2527448236942291 -0.4068136215209961 0.20196501910686493
0.07349318265914917 0.22682702541351318 0.08929818123579025
-0.2634700834751129 -0.427873820066452 0.12886178493499756
-0.10299234092235565 0.2288580983877182 0.04983988031744957
0.2732565701007843 -0.16583006083965302 -0.1338343620300293
-0.230734184384346 0.05263448506593704 -0.13518494367599487
0.1485767811536789 -0.3358910083770752 -0.008077257312834263
-0.09844166785478592 0.22862017154693604 -0.11084938794374466
-0.018629541620612144 0.22862452268600464 0.041074804961681366
-0.30651357769966125 -0.4353449046611786 -0.017891930416226387
0.13707545399665833 -0.24903088808059692 0.05756012722849846
-0.27141696214675903 0.15813611447811127 0.13241182267665863
0.10090567916631699 0.031361568719148636 -0.13870902359485626
-0.16840900480747223 -0.36900925636291504 -0.0036519067361950874
0.2558274269104004 0.22821633517742157 -0.11398560553789139
0.16490978002548218 -0.2463291883468628 -0.04417133331298828
0.12042154371738434 0.10433083772659302 0.16963787376880646
-0.24857212603092194 0.044062841683626175 -0.13686615228652954
-0.12830138206481934 -0.1415460854768753 -0.13536223769187927
-0.01836979016661644 -0.2478754222393036 -0.10160613805055618
0.2972286343574524 0.02841491624712944 0.10575443506240845
0.29946789145469666 -0.07970419526100159 0.07335833460092545
0.1996799260377884 0.3708924353122711 -0.07051943987607956
-0.10576345026493073 0.22852933406829834 -0.04370135813951492
0.2932864725589752 0.4681936502456665 0.033903710544109344
-0.22866590321063995 0.12599335610866547 -0.13088034093379974
0.08337357640266418 -0.06048581004142761 0.16828392446041107
0.2691018581390381 -0.2947137653827667 0.00047187256859615445
-0.13577982783317566 -0.020700829103589058 0.16957828402519226
-0.1122756078839302 0.04086010530591011 0.16961252689361572
-0.2679934501647949 0.03079957701265812 -0.09966971725225449
0.07879792153835297 0.14187389612197876 0.16962027549743652
0.28361907601356506 -0.363935261964798 -0.024598969146609306
0.22582483291625977 -0.15644462406635284 -0.13644960522651672
0.1540776938199997 0.2297130525112152 -0.0898340493440628
0.1845300793647766 0.4817083775997162 0.017540715634822845
0.28803592920303345 -0.4179445803165436 0.0316091924905777
-0.26890820264816284 0.19446006417274475 -0.09453770518302917
-0.024978669360280037 -0.22776830196380615 -0.1353994905948639
0.29716289043426514 -0.1143776997923851 0.1418142318725586
0.1658409833908081 -0.4463511109352112 0.1548893004655838
0.12641675770282745 0.060071490705013275 0.1663971245288849
0.3014228641986847 0.42852726578712463 0.010755874216556549
0.21280211210250854 0.22860640287399292 -0.0973275825381279
0.20317578315734863 -0.29829344153404236 0.08709368109703064
0.2972601354122162 -0.0391872338950634 -0.06736276298761368
-0.2719060182571411 -0.14889214932918549 -0.010331389494240284
0.13862983882427216 -0.41953691840171814 0.016026189550757408
0.05300896242260933 -0.2492164820432663 0.002641336526721716
-0.15783941745758057 0.22829286754131317 -0.019480625167489052
0.2972659170627594 0.17697203159332275 -0.09088890254497528
0.2795543074607849 -0.3669690489768982 -0.036992914974689484
0.2710842192173004 -0.37647679448127747 -0.04971820116043091
-0.17006167769432068 0.48604699969291687 0.029160430654883385
0.17995493113994598 0.18608567118644714 -0.13310500979423523
-0.04893908277153969 -0.2555491328239441 0.0825236365199089
-0.09556404501199722 -0.1557280272245407 -0.13678249716758728
-0.08197730779647827 0.22707632184028625 -0.06692837178707123
0.10793468356132507 -0.2508009374141693 0.059854958206415176
-0.1880905032157898 -0.24954615533351898 0.10923944413661957
0.11115377396345139 -0.16161035001277924 0.17385689914226532
0.11698312312364578 0.09866784512996674 0.17229537665843964
0.241533100605011 -0.17713376879692078 -0.13555870950222015
-0.11189745366573334 0.0035927072167396545 0.169599249958992
0.21615654230117798 0.12565878033638 -0.13055860996246338
-0.25695908069610596 0.3387872874736786 0.01847403310239315
-0.3134007751941681 -0.40082627534866333 0.07617251574993134
0.2744925916194916 -0.3295089602470398 0.07485396414995193
0.22103209793567657 0.03443926200270653 0.16930252313613892
-0.32101970911026 -0.3618420958518982 0.1813444048166275
-0.2698667049407959 0.11526689678430557 -0.04061814770102501
-0.0832919329404831 -0.018902314826846123 -0.1359359323978424
-0.11892884224653244 0.22488495707511902 0.13058467209339142
0.2966577410697937 -0.10299950838088989 -0.06880932301282883
-0.15501517057418823 0.4164418876171112 0.06728587299585342
-0.26974207162857056 -0.0028426004573702812 0.03827027603983879
-0.2710888981819153 0.16731277108192444 -0.029816636815667152
0.2973533570766449 -0.009844048880040646 -0.10593757033348083
-0.26819974184036255 0.41223931312561035 0.011408407241106033
-0.10004224628210068 -0.20893998444080353 0.15610197186470032
0.006227634847164154 0.1681251972913742 -0.21620962023735046
-0.29336196184158325 -0.4360947012901306 -0.0040999045595526695
0.21087466180324554 -0.2529090344905853 -0.06581538170576096
0.29797327518463135 0.45012983679771423 -0.0010804726043716073
-0.07660526782274246 -0.09769420325756073 -0.13688582181930542
-0.2717101275920868 -0.22720493376255035 -0.06555972248315811
-0.12465119361877441 -0.24934661388397217 -0.055878348648548126
0.29690831899642944 -0.0913410410284996 0.11950628459453583
-0.24460361897945404 -0.21135254204273224 0.15625999867916107
0.012623606249690056 -0.04437808319926262 -0.13562984764575958
0.2935371696949005 0.054482877254486084 0.11854839324951172
0.2829204201698303 0.49438026547431946 0.022784868255257607
0.04194006696343422 0.06575831770896912 -0.13136747479438782
-0.0013236897066235542 -0.10448170453310013 0.17194220423698425
0.00020443223183974624 -0.16411153972148895 0.17112675309181213
0.29721909761428833 0.03594120964407921 0.0887952670454979
-0.2724984586238861 0.148884579539299 0.08875539153814316
0.24264012277126312 0.2290608435869217 -0.05022404342889786
-0.24348686635494232 -0.031804971396923065 -0.266542911529541
0.1231546401977539 -0.24872474372386932 -0.10267940163612366
0.1462640017271042 -0.3638181686401367 0.003947249613702297
-0.18579432368278503 0.09024493396282196 -0.13518796861171722
-0.0863696038722992 -0.2513960301876068 0.04932519048452377
-0.20948350429534912 -0.44528546929359436 0.10129931569099426
0.16782745718955994 -0.24897576868534088 0.13556523621082306
-0.03853706270456314 0.2309788018465042 0.028834231197834015
0.18182477355003357 0.3540172576904297 -0.008119961246848106
-0.24925653636455536 0.0353812575340271 -0.29425424337387085
0.2972957491874695 0.04802114516496658 -0.017384197562932968
-0.11115089058876038 -0.06247865408658981 0.16957581043243408
0.08343559503555298 0.11333056539297104 0.16960865259170532
0.007813336327672005 -0.08802605420351028 0.16958104074001312
-0.15566383302211761 0.4253162145614624 -0.026763198897242546
0.065721794962883 0.04907924681901932 0.17446310818195343
-0.27161118388175964 -0.018758101388812065 0.1068502739071846
-0.1153763085603714 0.2306174337863922 -0.04390368238091469
0.10261117666959763 -0.25087082386016846 -0.031031103804707527
0.2971833646297455 0.04611087590456009 -0.11510718613862991
0.23121881484985352 0.33610713481903076 0.09280259907245636
-0.26940399408340454 0.031078994274139404 -0.08793982863426208
-0.13965710997581482 -0.04258616641163826 -0.13490043580532074
0.19191902875900269 0.32852664589881897 0.017235945910215378
0.1416146606206894 0.22841405868530273 0.0712825208902359
0.04335477948188782 -0.1395622342824936 -0.13455182313919067
0.07588817179203033 -0.25084438920021057 0.11500733345746994
0.29726800322532654 0.038223497569561005 0.03931909054517746
0.011983206495642662 0.2048700749874115 -0.23656240105628967
-0.2387060821056366 -0.24911145865917206 -0.08751505613327026
0.30350565910339355 0.3961857557296753 0.024662533774971962
-0.2740578055381775 0.10326050966978073 -0.050769153982400894
-0.29317960143089294 0.0006159547483548522 -0.25250524282455444
0.18579429388046265 0.4132297933101654 -0.04243546724319458
0.009504293091595173 -0.25266316533088684 -0.061807774007320404
-0.03083188086748123 0.055758338421583176 0.16842254996299744
0.2914831042289734 0.4763912856578827 0.028635965660214424
-0.027969665825366974 0.04633631929755211 0.16905459761619568
0.11580164730548859 -0.11251818388700485 -0.14014430344104767
0.24804897606372833 -0.44816550612449646 0.04753483086824417
0.2941920757293701 0.19022394716739655 -0.06381773948669434
0.2412099540233612 -0.4496382176876068 -0.009654106572270393
-0.1891421377658844 -0.32529398798942566 0.07513806223869324
0.1810835897922516 -0.03828074783086777 -0.13377515971660614
-0.15910133719444275 -0.3200856149196625 -0.013589956797659397
0.2122499793767929 -0.24979044497013092 0.1327102929353714
0.29720452427864075 -0.11435843259096146 0.09215409308671951
0.20994660258293152 0.039667900651693344 -0.137478768825531
0.2968263626098633 0.3656274676322937 0.038463298231363297
-0.24072407186031342 0.17240840196609497 -0.13721534609794617
0.25682535767555237 -0.22412565350532532 -0.13535426557064056
0.2709706723690033 -0.4108278751373291 -0.06534232944250107
-0.26181820034980774 0.4476499557495117 -0.0131766926497221
0.08202638477087021 -0.15381284058094025 -0.139858216047287
-0.2725108861923218 -0.034311238676309586 -0.015477136708796024
-0.2502213716506958 0.2279883772134781 -0.1066524013876915
-0.2253848761320114 -0.05703263357281685 -0.13532598316669464
0.28448495268821716 -0.35002046823501587 0.0940503254532814
-0.27277177572250366 0.40317025780677795 0.016217971220612526
0.29729992151260376 0.15026046335697174 -0.08299808204174042
0.06695813685655594 0.22904907166957855 0.044912341982126236
0.2556656002998352 0.2285490185022354 0.11320356279611588
0.09466490894556046 -0.21123510599136353 -0.1356067806482315
0.0159501563757658 -0.04969119280576706 0.16967689990997314
-0.14383170008659363 0.2281617969274521 0.08429350703954697
0.20764827728271484 -0.13245168328285217 -0.13784253597259521
0.29725807905197144 0.11949632316827774 -0.11759092658758163
0.2538060247898102 -0.3765619099140167 0.17963707447052002
-0.2684363126754761 0.20265617966651917 0.034575071185827255
0.18189038336277008 -0.2508329749107361 -0.08717869222164154
0.14525894820690155 -0.3382951319217682 0.014435667544603348
0.29716289043426514 -0.18469448387622833 0.03728111460804939
0.018159888684749603 0.2282579392194748 0.057599328458309174
0.29859665036201477 0.1534608006477356 0.0675097107887268
-0.2384009063243866 -0.014387810602784157 -0.1385699212551117
-0.32595333456993103 -0.38083338737487793 0.10596269369125366
-0.24480661749839783 0.437993586063385 -0.06383365392684937
0.2959822714328766 -0.16502107679843903 -0.023457808420062065
-0.2715372145175934 -0.11223013699054718 -0.06960488855838776
-0.121828094124794 0.019954508170485497 0.16976703703403473
0.026379771530628204 -0.050053615123033524 -0.13459540903568268
-0.2542768716812134 -0.30417606234550476 -0.06008077785372734
0.008558101952075958 0.1982831358909607 -0.2311592996120453
0.20346108078956604 0.10322895646095276 0.1696532517671585
-0.26296335458755493 0.3543838560581207 0.023004470393061638
0.13629674911499023 -0.028680304065346718 -0.1370186060667038
0.29849764704704285 0.0021183374337852 -0.005065237637609243
-0.15220606327056885 -0.2539614737033844 -0.06031722575426102
-0.19539538025856018 0.22579269111156464 0.09340765327215195
0.1263890564441681 0.19395288825035095 0.15699727833271027
-0.12080589681863785 0.0965934693813324 0.17065994441509247
0.11519119143486023 -0.25031548738479614 -0.0066012004390358925
0.1770515739917755 -0.09270618855953217 0.16967283189296722
-0.2716100811958313 -0.02165149338543415 0.10887476801872253
0.2406010776758194 -0.025995835661888123 -0.13339872658252716
-0.16497977077960968 -0.33470475673675537 -0.018921341747045517
0.0585455447435379 -0.25028806924819946 0.11576656252145767
-0.15808723866939545 0.22600673139095306 0.10394248366355896
0.301804780960083 0.41826289892196655 0.021906184032559395
-0.24908927083015442 -0.2867731750011444 -0.03357480466365814
-0.06597837060689926 -0.24848255515098572 0.004505694378167391
-0.17822574079036713 -0.3916857838630676 0.028329426422715187
-0.29047518968582153 -0.39501452445983887 0.1567590981721878
0.18632207810878754 0.10669698566198349 -0.13548113405704498
0.20425346493721008 -0.4466162323951721 0.1832912117242813
0.2743731737136841 0.16988295316696167 0.15719112753868103
-0.27148911356925964 0.13434384763240814 0.1204768493771553
-0.23496238887310028 0.19449830055236816 0.1564045250415802
-0.30694448947906494 -0.3302721083164215 0.07378927618265152
0.29996249079704285 -0.16691768169403076 -0.10059458017349243
0.017915774136781693 0.20888082683086395 -0.15659663081169128
-0.15129676461219788 0.06369472295045853 -0.13225480914115906
-0.07346847653388977 -0.2503252923488617 -0.06897400319576263
-0.26219913363456726 0.34885233640670776 0.025688648223876953
-0.0362078882753849 0.028092963621020317 -0.13705892860889435
0.29717230796813965 -0.17594800889492035 -0.058045484125614166
0.20955096185207367 -0.11144895106554031 0.16970057785511017
0.2918742895126343 0.3649708032608032 0.06575493514537811
0.05525524541735649 -0.10460671782493591 -0.133182093501091
-0.14256316423416138 -0.21862828731536865 -0.1354820430278778
0.18686848878860474 0.33700236678123474 -0.020737867802381516
0.2987748980522156 0.019154531881213188 0.02644660696387291
-0.2716544568538666 -0.20922383666038513 -0.05838632583618164
0.2555965483188629 -0.4469801187515259 -0.01664729230105877
-0.24437515437602997 -0.21133288741111755 0.15588079392910004
0.29725146293640137 0.12557099759578705 0.13207001984119415
0.17305080592632294 0.3901762068271637 -0.015305031090974808
0.22318579256534576 -0.44782084226608276 -0.051334209740161896
0.16476032137870789 0.22546368837356567 0.038851190358400345
-0.27121227979660034 -0.08743685483932495 0.13271352648735046
-0.2728535532951355 -0.06809166073799133 0.0035592385102063417
0.15156522393226624 -0.312680184841156 0.021517101675271988
-0.24978142976760864 -0.1554100215435028 0.15816630423069
-0.18723368644714355 -0.34091976284980774 0.07257724553346634
-0.07443191856145859 0.22888913750648499 -0.10190033167600632
0.12584462761878967 0.22864840924739838 -0.021709637716412544
-0.2532893717288971 -0.2866339385509491 -0.01458733156323433
0.09659602493047714 0.11461830139160156 0.16961264610290527
0.20123034715652466 0.06796871870756149 -0.13706141710281372
-0.10648783296346664 -0.2520654797554016 -0.05503230169415474
-0.17116189002990723 0.22863605618476868 -0.10392842441797256
-0.0020879823714494705 -0.2521255910396576 0.03810887411236763
0.016435066238045692 0.16144835948944092 -0.1380337029695511
-0.2741127908229828 0.1692086160182953 0.09235723316669464
-0.16658878326416016 -0.006448421161621809 0.17254431545734406
0.12035779654979706 0.09931027889251709 0.17008154094219208
0.1440776288509369 -0.013363463804125786 -0.13531821966171265
0.0333460234105587 0.23150721192359924 0.02517254464328289
-0.2556063234806061 0.46039098501205444 -0.025922395288944244
0.29497450590133667 -0.06279806792736053 -0.07868362963199615
0.03395751863718033 0.21304826438426971 -0.1627741903066635
0.3015093207359314 -0.17573226988315582 0.09477946907281876
-0.3252652585506439 -0.4155653715133667 -0.031920839101076126
-0.18197619915008545 0.42198556661605835 -0.06712803244590759
0.19260577857494354 0.22736813127994537 -0.002766445279121399
-0.18547020852565765 -0.051246825605630875 -0.1343269944190979
0.2870570719242096 -0.37232863903045654 0.10447076708078384
-0.24935251474380493 -0.1041477769613266 0.15838438272476196
-0.009121992625296116 -0.10384871065616608 0.166898712515831
-0.05927710607647896 0.1267882138490677 0.16967366635799408
-0.033603236079216 0.2307363897562027 0.10629529505968094
0.0078017390333116055 0.20286478102207184 -0.23537521064281464
0.2972669303417206 0.008126599714159966 -0.09909261763095856
0.2979746460914612 -0.06510572880506516 0.06492454558610916
0.22143499553203583 -0.25073057413101196 0.12884646654129028
0.16737864911556244 -0.28340741991996765 0.038960911333560944
-0.17996402084827423 -0.33105021715164185 -0.047458965331315994
0.14468015730381012 0.11754056811332703 0.17380017042160034
-0.1966874599456787 0.23009860515594482 -0.048764120787382126
0.2600198984146118 -0.44680655002593994 0.12089214473962784
0.2976127862930298 -0.06488320231437683 0.11121166497468948
-0.23286446928977966 0.22822465002536774 -0.05723542347550392
-0.15764877200126648 -0.07472459971904755 0.16955646872520447
0.06899210810661316 0.01023269072175026 0.1683582067489624
0.2384163737297058 -0.34760117530822754 0.14112244546413422
-0.06022565811872482 -0.17079289257526398 -0.13534395396709442
0.04186909645795822 0.13123877346515656 -0.20501500368118286
-0.1689544916152954 -0.3649885058403015 0.017015930265188217
0.14733600616455078 -0.41936808824539185 -0.00867051724344492
0.06762765347957611 -0.25051143765449524 -0.11452876776456833
-0.27231183648109436 -0.17129269242286682 0.03613899648189545
-0.11795161664485931 0.06450150161981583 0.16902673244476318
0.1970905214548111 0.23044410347938538 -0.013548306189477444
0.1377083659172058 -0.2100365161895752 -0.13523869216442108
-0.07670896500349045 0.22917063534259796 0.005914581939578056
0.29881975054740906 -0.13829651474952698 0.008411657065153122
-0.2431410700082779 -0.07129830867052078 -0.13546045124530792
-0.2717480957508087 -0.1861729919910431 0.09567051380872726
-0.24503383040428162 -0.13928186893463135 0.15455174446105957
0.29765287041664124 0.1395077109336853 -0.011363833211362362
-0.26432541012763977 0.45043787360191345 0.07883857190608978
-0.28939974308013916 -0.3344501256942749 0.1903769075870514
-0.2712647616863251 0.007875983603298664 0.024858633056282997
-0.10813426971435547 -0.026272879913449287 -0.13534128665924072
-0.1692056953907013 0.1635870635509491 -0.1361471265554428
-0.2482699602842331 -0.4660475254058838 0.04307256639003754
0.28323113918304443 -0.3770860433578491 -0.012601927854120731
0.11694464832544327 -0.09387583285570145 -0.13510051369667053
0.22533845901489258 -0.11223100125789642 -0.13442929089069366
0.039433445781469345 -0.12695477902889252 0.17151790857315063
-0.15696588158607483 0.3754824101924896 -0.008391090668737888
-0.09090844541788101 -0.24987900257110596 -0.0012664733221754432
-0.16700486838817596 -0.3079163730144501 -0.033207233995199203
-0.10840150713920593 0.13886958360671997 0.16806469857692719
-0.16998723149299622 -0.37732067704200745 0.021808844059705734
0.246694877743721 0.2280586063861847 0.13368453085422516
-0.27237996459007263 0.0012716124765574932 0.024034833535552025
-0.04110623151063919 -0.2510932385921478 -0.01786738634109497
0.17342033982276917 0.22685743868350983 0.0524686835706234
-0.12381786108016968 -0.24962204694747925 -0.03034423105418682
-0.1979246586561203 -0.3140779435634613 -0.06402978301048279
-0.17611679434776306 -0.3451571762561798 -0.043516989797353745
-0.050143130123615265 0.08937720209360123 -0.13905075192451477
0.0726776272058487 0.105885811150074 0.16954421997070312
-0.27103641629219055 0.13586723804473877 -0.07068975269794464
-0.20620237290859222 -0.4452129602432251 -0.019142460078001022
-0.031662747263908386 -0.2313733994960785 -0.1353893280029297
0.29727065563201904 0.13256102800369263 0.017063474282622337
0.1985716074705124 -0.2798503637313843 0.0768054872751236
-0.2737523913383484 0.015103194862604141 0.0792890414595604
0.1607385277748108 -0.061265986412763596 0.16796228289604187
-0.20044033229351044 0.0206918865442276 -0.1336098313331604
0.20410262048244476 -0.18275097012519836 -0.1353352814912796
0.04239043965935707 0.10199113190174103 0.1719018816947937
0.06534747779369354 -0.2094801515340805 -0.13537707924842834
-0.302287220954895 -0.4225131869316101 0.03511100262403488
-0.2435162365436554 -0.11977936327457428 -0.13430818915367126
0.23494969308376312 -0.026867086067795753 -0.13437096774578094
0.2963886559009552 -0.0545971505343914 0.08190003037452698
-0.2486913800239563 -0.2510979175567627 -0.05822522193193436
-0.005869660992175341 -0.16219262778759003 0.16959095001220703
-0.2451046109199524 0.13698796927928925 0.15648502111434937
-0.25740474462509155 -0.4278254806995392 0.14596520364284515
0.3003489673137665 0.0952361524105072 -0.09702906757593155
-0.17886798083782196 0.049323901534080505 0.1703089475631714
0.29727903008461 0.18491007387638092 -0.026693332940340042
0.20455189049243927 -0.25052914023399353 -0.10097580403089523
-0.15819387137889862 0.38381049036979675 0.043396104127168655
-0.14985227584838867 -0.248752623796463 -0.09712666273117065
-0.09592652320861816 0.12798342108726501 0.17206192016601562
0.2058083713054657 0.051604561507701874 -0.13531093299388885
-0.03979841247200966 -0.2505103349685669 -0.03871210664510727
-0.2700669467449188 0.13881593942642212 -0.004970018286257982
0.2745123505592346 -0.25304508209228516 0.10113731771707535
0.21968428790569305 0.3988293409347534 -0.086453877389431
-0.10759999603033066 -0.2513618767261505 0.09811670333147049
-0.00019249766774009913 0.228260800242424 0.10480501502752304
0.05690718814730644 0.2302567958831787 -0.06272583454847336
0.2991037666797638 -0.23181669414043427 0.09743918478488922
-0.2547549307346344 0.47207340598106384 -0.008443317376077175
0.18192115426063538 0.3837150037288666 0.09172587096691132
0.1900087296962738 0.2286231964826584 -0.042314428836107254
-0.16657754778862 0.33470168709754944 0.011752150021493435
0.2336902767419815 0.06602953374385834 -0.13529624044895172
0.16513709723949432 0.19284376502037048 0.156367689371109
-0.2939019203186035 -0.001532431342639029 -0.26016658544540405
0.2892937660217285 -0.40362119674682617 0.14417535066604614
0.21668216586112976 0.004428318701684475 -0.13509033620357513
-0.24733123183250427 0.09401042759418488 -0.13815654814243317
-0.27074727416038513 -0.2139178365468979 0.0010151936439797282
-0.3152051568031311 -0.37213248014450073 0.1664871722459793
0.1769288033246994 0.44118568301200867 0.08384281396865845
-0.08877519518136978 0.19898371398448944 0.15654118359088898
0.29594436287879944 -0.18049821257591248 0.015196290798485279
0.2972498834133148 0.10960745066404343 0.048934660851955414
0.029833022505044937 -0.146653950214386 0.16960693895816803
-0.18085291981697083 0.4954226016998291 0.03808843716979027
0.15660808980464935 -0.3806123733520508 0.14205016195774078
0.2955855429172516 -0.009839770384132862 0.08840440958738327
0.012056831270456314 0.23560287058353424 -0.183921217918396
0.2971557080745697 -0.17712923884391785 0.05494837090373039
-0.14485900104045868 0.2291473001241684 0.0436105839908123
0.1912648230791092 0.2288951575756073 -0.019797923043370247
0.2963384985923767 -0.02819001115858555 0.10592398792505264
0.06703934073448181 -0.14575858414173126 0.16963143646717072
-0.01935078576207161 -0.09666672348976135 0.16959036886692047
0.2973107397556305 0.11285561323165894 -0.08644047379493713
-0.27488043904304504 -0.15173664689064026 -0.027109922841191292
-0.27205201983451843 -0.06667159497737885 -0.11556940525770187
0.04746018350124359 0.22797997295856476 -0.10239139944314957
0.1873052418231964 0.3330293297767639 0.0021324187982827425
0.21888969838619232 -0.4468935430049896 0.010530378669500351
-0.27155575156211853 -0.023477187380194664 0.03597395867109299
0.06268421560525894 0.22885172069072723 -0.11615903675556183
0.29723817110061646 -0.04540305957198143 0.05348781496286392
0.10707207024097443 -0.10624771565198898 0.16965463757514954
-0.22547955811023712 -0.3794316351413727 -0.08471211791038513
-0.26478755474090576 0.4540413022041321 0.08743388205766678
0.2930504083633423 -0.23189233243465424 -0.044137224555015564
-0.11431163549423218 0.228113055229187 0.06727460771799088
0.3014724850654602 -0.14545415341854095 -0.02946656197309494
0.2443355917930603 -0.13950295746326447 -0.13301226496696472
-0.005666044075042009 0.22867156565189362 -0.059909380972385406
0.29429513216018677 0.09950395673513412 -0.031914934515953064
-0.2065790444612503 -0.008772068656980991 -0.1335708647966385
0.24191443622112274 -0.3686462342739105 0.1639169305562973
0.295700341463089 -0.15465009212493896 -0.1017092615365982
0.18544001877307892 -0.44880610704421997 0.14203354716300964
0.2674638628959656 -0.34649503231048584 -0.06282667070627213
-0.0832083448767662 -0.019069945439696312 0.1696261316537857
-0.27299049496650696 0.10295028984546661 0.07724594324827194
0.18881285190582275 0.4577805995941162 -0.04349534958600998
0.22306868433952332 0.19837884604930878 0.1564527004957199
0.043977200984954834 0.12995776534080505 0.16811537742614746
0.021475734189152718 0.2282700538635254 0.06783586740493774
-0.16948582231998444 -0.16391827166080475 0.16946972906589508
0.22260551154613495 -0.4457230269908905 0.17152400314807892
0.20606863498687744 0.16688288748264313 -0.13733315467834473
-0.1879570484161377 -0.32703202962875366 0.07678060978651047
0.15062358975410461 -0.3226059079170227 -0.006241214461624622
-0.2557964324951172 -0.385617196559906 -0.09805833548307419
0.17322556674480438 0.4447205364704132 0.02687857672572136
-0.268640398979187 -0.2141866534948349 -0.09265514463186264
-0.2861754894256592 -0.32781922817230225 0.17650023102760315
0.0006548375822603703 0.23030300438404083 -0.24854691326618195
-0.19301410019397736 -0.34008774161338806 0.07643310725688934
0.11928965896368027 -0.06117306277155876 -0.13937707245349884
0.17764393985271454 0.35102206468582153 0.0036530548240989447
-0.14351637661457062 -0.10166683793067932 -0.1353369653224945
0.23184490203857422 -0.4055730104446411 -0.09455017000436783
0.29827260971069336 -0.21196912229061127 0.012915271334350109
0.16579873859882355 0.23056639730930328 0.029855629429221153
0.15704496204853058 -0.07996350526809692 -0.13505950570106506
0.12838448584079742 0.07374140620231628 -0.13527613878250122
0.2298683226108551 -0.44437289237976074 -0.06519483774900436
0.18866316974163055 -0.2554692029953003 0.11895308643579483
0.17554649710655212 0.22587883472442627 0.06524542719125748
0.2069861739873886 -0.2494053691625595 -0.07791204005479813
0.05768851190805435 -0.03141535818576813 -0.13534191250801086
0.07777784764766693 -0.2508445680141449 -0.009522284381091595
-0.1825413852930069 0.3835846781730652 -0.06609194725751877
0.2682560980319977 0.22590093314647675 -0.06917715072631836
-0.147759810090065 -0.11037692427635193 -0.13585062325000763
-0.1568911224603653 0.13145223259925842 0.169693261384964
0.22041364014148712 0.00974861066788435 -0.13533982634544373
-0.21754367649555206 -0.08791546523571014 -0.1361098736524582
-0.07286210358142853 0.2080138772726059 0.1563875824213028
0.18609899282455444 0.06586048007011414 -0.13533540070056915
0.2912156879901886 -0.40404829382896423 0.07460769265890121
0.2696188688278198 0.22845588624477386 0.11459980905056
0.21029451489448547 0.026426253840327263 -0.13531215488910675
-0.1678604930639267 0.14417970180511475 -0.13373130559921265
0.01749482937157154 -0.0861482322216034 0.16618582606315613
-0.15046384930610657 0.018827196210622787 -0.1352870613336563
0.11667761206626892 0.07798659056425095 -0.13769660890102386
-0.16837848722934723 -0.3328491449356079 -0.026132112368941307
-0.19819654524326324 0.22426773607730865 -0.07529418170452118
0.16114427149295807 -0.0052948505617678165 0.16748987138271332
-0.004293397534638643 -0.08784589171409607 0.1695004552602768
-0.10930252075195312 -0.06137363240122795 0.16948556900024414
0.29724594950675964 -0.0049130977131426334 0.0008146054460667074
-0.034940000623464584 -0.25269615650177 -0.07661598920822144
0.07182510942220688 -0.04566431790590286 0.16883224248886108
0.1587633192539215 0.1470843255519867 -0.13693028688430786
0.19593507051467896 0.22864852845668793 0.0018353558843955398
0.17446443438529968 0.4539303779602051 0.048866741359233856
-0.2678341567516327 -0.13386932015419006 -0.02845744602382183
0.04826297238469124 -0.03773955628275871 0.1696058213710785
-0.0530337318778038 0.09230253100395203 0.16980569064617157
0.033046212047338486 0.15533693134784698 -0.2192055583000183
0.18829719722270966 0.48113977909088135 0.023346375674009323
0.28763753175735474 0.33343812823295593 -0.0021523747127503157
-0.26909518241882324 0.022116299718618393 0.1285189539194107
0.18249264359474182 0.2270459085702896 -0.07694390416145325
0.0893145203590393 -0.2519599199295044 0.015468111261725426
0.0098122488707304 0.041970204561948776 0.16962465643882751
0.225192129611969 0.13356910645961761 -0.13397696614265442
-0.17136630415916443 0.2287978231906891 -0.05035101994872093
0.1296006590127945 -0.023314738646149635 -0.1339474469423294
-0.27057474851608276 0.08711119741201401 -0.05606577545404434
0.10892010480165482 -0.0269627645611763 -0.13586542010307312
-0.024407051503658295 0.07464838773012161 -0.13529744744300842
-0.250914990901947 0.06260189414024353 -0.1365075558423996
0.14254626631736755 -0.35822075605392456 0.06327317655086517
-0.23644036054611206 -0.25100934505462646 -0.07473594695329666
-0.09246233105659485 -0.016861697658896446 0.16960586607456207
0.27106973528862 0.2283599078655243 -0.09548433870077133
0.20400844514369965 0.3968883752822876 -0.07735328376293182
0.19375081360340118 0.48053494095802307 -0.0200504083186388
-0.13844674825668335 0.13022391498088837 0.1722969114780426
-0.24162521958351135 -0.43748739361763 0.15402379631996155
-0.20304837822914124 -0.2771405577659607 -0.05989457294344902
0.24913322925567627 -0.40417778491973877 0.19961252808570862
0.2971845865249634 -0.18709658086299896 -0.026759875938296318
-0.22793073952198029 0.22845304012298584 0.1257753223180771
-0.10744210332632065 -0.25239017605781555 -0.1105826124548912
-0.24685068428516388 -0.00020062709518242627 0.15404656529426575
-0.1132279708981514 -0.1631101816892624 -0.13771842420101166
0.2727416157722473 -0.24932652711868286 0.13756829500198364
-0.23557494580745697 0.3439256548881531 0.08139175176620483
0.1701308786869049 0.3743906617164612 -0.0009443210437893867
0.26430144906044006 0.08479080349206924 0.15697696805000305
-0.20917853713035583 -0.0522904247045517 -0.13127028942108154
0.21070070564746857 0.22748078405857086 -0.05990712344646454
-0.19262906908988953 -0.022245505824685097 0.16953817009925842
-0.2701982855796814 0.16839036345481873 0.051543448120355606
-0.06609585881233215 0.09267646074295044 0.16951699554920197
-0.10065906494855881 0.22834821045398712 0.09033729881048203
-0.2738264203071594 -0.16584007441997528 0.06807716190814972
-0.06046251952648163 -0.2545691728591919 -0.06939778476953506
-0.19096797704696655 -0.09930762648582458 0.1695193201303482
-0.02532239817082882 0.12444309890270233 -0.1352475881576538
0.29954132437705994 0.37376266717910767 0.05338845029473305
0.29800403118133545 0.011779402382671833 0.016383100301027298
-0.2527438700199127 -0.2975243926048279 -0.047247886657714844
0.29378876090049744 0.4768366515636444 0.015415852889418602
0.12812627851963043 -0.03934968635439873 -0.1358654797077179
0.09500036388635635 0.22866414487361908 0.015675926581025124
0.1355236917734146 0.11594320833683014 -0.13530497252941132
-0.20916706323623657 -0.42601609230041504 -0.05036729574203491
0.29471081495285034 -0.0074251736514270306 -0.11991174519062042
0.29825034737586975 0.1492816060781479 0.1295863538980484
0.2169465869665146 0.22862868010997772 -0.07723831385374069
0.06757521629333496 0.011857707984745502 0.1695953756570816
-0.04284008964896202 -0.2509998083114624 0.10809896886348724
0.2983563542366028 0.12849020957946777 -0.06850232928991318
-0.27219176292419434 0.17778673768043518 0.06322915852069855
0.19380679726600647 0.4283250868320465 -0.06386539340019226
-0.27406537532806396 -0.4146382212638855 0.13321524858474731
-0.19695156812667847 -0.36988314986228943 0.09945496916770935
0.033844832330942154 0.09837594628334045 0.1680704802274704
-0.2716086506843567 -0.016245359554886818 0.13220471143722534
-0.24575090408325195 -0.43950507044792175 0.13636162877082825
0.009995323605835438 0.05079937353730202 0.17153066396713257
0.1809598058462143 0.3806679844856262 0.08835679292678833
-0.2715252935886383 -0.00913725420832634 -0.006630693096667528
-0.09141740947961807 -0.09956902265548706 -0.13324233889579773
0.008639201521873474 0.17651686072349548 -0.2241126447916031
-0.08456369489431381 -0.11881209909915924 0.16957254707813263
-0.007628115359693766 0.07570851594209671 0.16861608624458313
0.10299570113420486 0.1372157484292984 0.16886207461357117
0.27663305401802063 0.13118456304073334 -0.13528205454349518
0.007045723497867584 0.2607523798942566 -0.2079605907201767
0.22644144296646118 -0.4013250470161438 -0.08485822379589081
0.1479790359735489 0.04410877823829651 0.16791516542434692
0.29724714159965515 -0.0269650649279356 0.027812065556645393
-0.11842811852693558 0.2286529242992401 -0.09407436102628708
-0.27133846282958984 0.07528851181268692 -0.08647505939006805
-0.12599961459636688 0.22895121574401855 0.10707297921180725
0.09515710920095444 0.23231841623783112 0.08453194797039032
-0.2906934916973114 0.05904047191143036 -0.298549622297287
-0.05596259608864784 -0.04242594912648201 -0.13532859086990356
0.1374504268169403 -0.39622077345848083 0.06343639642000198
-0.29561445116996765 -0.4233858287334442 0.05177687108516693
0.2972583472728729 0.01858378015458584 -0.08128749579191208
-0.06614001095294952 0.12914764881134033 -0.13598361611366272
-0.20406022667884827 -0.43434929847717285 -0.03044111467897892
0.19619572162628174 0.4878734052181244 -0.008182862773537636
0.027195053175091743 -0.13540014624595642 0.1695949286222458
-0.22065472602844238 -0.22809475660324097 0.1586611419916153
0.2577819228172302 0.009671400301158428 -0.1354922354221344
-0.16773751378059387 0.4823398292064667 0.04195139557123184
-0.020832521840929985 -0.228537455201149 -0.13867230713367462
-0.3304733633995056 -0.38366037607192993 0.07748870551586151
0.29542919993400574 -0.19967666268348694 -0.06400200724601746
-0.2694735825061798 0.42282792925834656 0.046823929995298386
-0.14084959030151367 0.09673234820365906 0.16966629028320312
-0.05566380172967911 -0.026513656601309776 0.1696060746908188
0.2972254455089569 0.14792732894420624 0.11662488430738449
-0.10266626626253128 0.22702175378799438 0.034917157143354416
0.29721778631210327 -0.12980003654956818 -0.02236631140112877
0.13645005226135254 0.19174724817276 -0.13524502515792847
0.10558315366506577 -0.04959503933787346 0.16963648796081543
0.2670048177242279 -0.24962466955184937 -0.10705774277448654
0.2953071892261505 0.1772092580795288 0.0066300067119300365
-0.14218264818191528 0.2284061461687088 -0.03149743750691414
-0.16802768409252167 0.4797761142253876 0.06385157257318497
-0.2700136601924896 -1.4325987649499439e-05 0.12017831951379776
0.17571444809436798 0.22952082753181458 -0.08639620244503021
0.29725560545921326 -0.01101456768810749 -0.012875531800091267
0.1494825780391693 -0.3709450662136078 0.11362960189580917
-0.18978433310985565 -0.03523422032594681 0.16953691840171814
0.2634113132953644 0.12311844527721405 -0.13824568688869476
0.008630608208477497 0.22541826963424683 0.09489848464727402
0.26106423139572144 0.1951248198747635 -0.13366970419883728
0.1331193894147873 0.1094159260392189 0.16964061558246613
0.2242613136768341 0.228589728474617 -0.09621178358793259
-0.2713122069835663 0.20324701070785522 0.10159802436828613
-0.09157951176166534 0.05184677988290787 -0.13320758938789368
-0.006755671463906765 -0.12808306515216827 0.17082445323467255
0.17178462445735931 0.11144476383924484 0.1696888953447342
-0.27174270153045654 -0.2343502789735794 0.02315685525536537
-0.2692667245864868 0.405696839094162 0.03662692382931709
-0.2931453287601471 -0.0002549407654441893 -0.28964969515800476
-0.07239309698343277 -0.056045543402433395 0.16856376826763153
0.29799413681030273 0.0808081328868866 -0.0930134579539299
0.26232779026031494 -0.4458235502243042 -0.0029387653339654207
0.17387202382087708 -0.3487105071544647 -0.05370400846004486
0.053067732602357864 -0.24886064231395721 -0.06314915418624878
-0.06059104949235916 0.18936504423618317 -0.13637743890285492
-0.27241891622543335 0.07685083150863647 -0.057696208357810974
0.09422838687896729 0.18918895721435547 -0.1367163062095642
-0.005965270102024078 0.09837035089731216 -0.1765243262052536
-0.01212763786315918 0.05023263767361641 -0.1353212296962738
0.24675826728343964 0.15180560946464539 -0.13416366279125214
0.19898974895477295 0.4882126748561859 -0.039335064589977264
0.29696184396743774 -0.11926226317882538 -0.03362221643328667
0.17345207929611206 -0.4466515779495239 0.00455071497708559
0.05334526300430298 0.14655090868473053 0.169617161154747
-0.01910305954515934 -0.14461201429367065 0.16413457691669464
-0.03070656582713127 -0.09548556059598923 -0.13275542855262756
-0.1740158349275589 -0.3654216229915619 0.04858499392867088
-0.26825276017189026 0.36306753754615784 0.02761475183069706
-0.10325425118207932 0.027279186993837357 -0.13507123291492462
-0.20142458379268646 -0.39844390749931335 0.11982154101133347
0.21878595650196075 -0.31154799461364746 0.10284747183322906
0.154142364859581 -0.3218095898628235 -0.0153180081397295
-0.3103243410587311 -0.37558016180992126 0.1774405986070633
-0.11786594241857529 0.2264186292886734 -0.07340852171182632
-0.05749163031578064 -0.24724529683589935 0.09241325408220291
0.18306010961532593 -0.33350518345832825 0.10293268412351608
0.09166186302900314 0.12451723963022232 -0.1351379156112671
0.29454901814460754 -0.09992363303899765 0.11723678559064865
-0.14311163127422333 0.23043175041675568 0.012913343496620655
-0.2675039768218994 -0.33707889914512634 0.17084965109825134
-0.2740495800971985 -0.07208855450153351 0.11164546012878418
0.16286146640777588 -0.20921675860881805 0.15620513260364532
0.11641542613506317 -0.25106048583984375 0.1078883558511734
-0.02161710523068905 0.020993759855628014 0.17171865701675415
0.1705748736858368 0.4159620702266693 0.03326103463768959
-0.24867218732833862 0.018143942579627037 -0.2906254827976227
0.23535992205142975 -0.4455481171607971 0.09787944704294205
0.15066416561603546 -0.1267104148864746 -0.13545411825180054
-0.02248045615851879 0.0336906872689724 0.1706112027168274
-0.07948633283376694 0.08763891458511353 0.17040055990219116
0.033019423484802246 0.22864660620689392 0.01911117136478424
-0.18625959753990173 0.4447994530200958 -0.062435466796159744
-0.014612299390137196 0.227922722697258 -0.031871192157268524
-0.2848759889602661 -0.32030200958251953 -0.010860338807106018
0.2669021785259247 -0.10374139994382858 -0.13712656497955322
0.2955031394958496 0.004915681201964617 -0.10194962471723557
-0.16401514410972595 0.06271125376224518 -0.13636772334575653
-0.22586047649383545 -0.07204893976449966 -0.13532981276512146
-0.24680383503437042 0.48891231417655945 0.0809415727853775
0.29809731245040894 -0.032398324459791183 0.05078916251659393
0.005417754873633385 -0.131735697388649 0.1681295782327652
-0.04361915588378906 0.23012253642082214 0.07446682453155518
0.09498781710863113 -0.08802521228790283 -0.13545885682106018
-0.08472840487957001 0.13120488822460175 -0.13927936553955078
-0.03952024132013321 -0.2508949637413025 0.04654981940984726
0.09578369557857513 0.22866201400756836 -0.08722883462905884
0.13179124891757965 0.051301829516887665 -0.13532598316669464
0.30184003710746765 0.18610376119613647 0.024866929277777672
0.2799307405948639 -0.24849170446395874 -0.10179170966148376
0.21694783866405487 0.4037936329841614 -0.08688513189554214
0.29725709557533264 0.11358267068862915 0.046676069498062134
-0.07957974076271057 0.15112638473510742 -0.13768640160560608
0.10196436941623688 -0.10129491239786148 0.16789086163043976
0.11999934911727905 0.07324237376451492 -0.13248595595359802
-0.16210238635540009 0.47115790843963623 0.0541255921125412
0.16285835206508636 0.09378726035356522 -0.1390221267938614
0.1956198811531067 0.32532772421836853 -0.021945856511592865
-0.2690160870552063 -0.20993465185165405 -0.07934156060218811
-0.24698810279369354 -0.14846836030483246 0.1543516218662262
-0.0748608261346817 0.1446915566921234 0.16922631859779358
0.1717076599597931 0.23003743588924408 0.03057076968252659
0.29407790303230286 0.0394040048122406 -0.08601795136928558
-0.17749622464179993 -0.054199233651161194 -0.13533790409564972
0.2834446132183075 -0.36742573976516724 0.06058022752404213
-0.24527904391288757 -0.2224683314561844 -0.13766750693321228
0.30488088726997375 0.39281943440437317 0.03995630890130997
-0.2225845605134964 0.10882385820150375 -0.13578005135059357
0.29497861862182617 -0.03799641132354736 -0.0044162035919725895
0.25212758779525757 -0.11695129424333572 -0.13702434301376343
-0.2200811207294464 0.20762625336647034 -0.13417597115039825
0.21857351064682007 -0.24953007698059082 -0.11904493719339371
0.2981135845184326 -0.012572654522955418 -0.10275734961032867
0.004136731382459402 0.22965823113918304 0.027754442766308784
0.22259925305843353 0.13099412620067596 -0.13531246781349182
-0.012463548220694065 -0.008474541828036308 -0.13535021245479584
0.0392797589302063 -0.025929316878318787 0.16960306465625763
0.20096974074840546 0.3232590854167938 -0.016352789476513863
0.083816297352314 -0.004303195048123598 0.16483019292354584
0.2995808720588684 0.09265727549791336 -0.08328321576118469
-0.015613154508173466 -0.1585945188999176 -0.1374027580022812
0.140832781791687 -0.3909754157066345 0.005729925353080034
-0.17455942928791046 0.22683537006378174 -0.0674978718161583
-0.27350443601608276 0.1543339043855667 -0.009586496278643608
-0.1732681691646576 -0.2534851133823395 -0.06716757267713547
0.21506232023239136 -0.07003035396337509 0.16854235529899597
-0.1445247381925583 0.15621724724769592 -0.1329885721206665
0.29659518599510193 -0.06140068173408508 0.13074283301830292
0.2794962227344513 0.44274407625198364 -0.06533840298652649
0.026393519714474678 -0.2516671121120453 -0.09230580180883408
0.2985732853412628 -0.21540680527687073 -0.006497479043900967
-0.20497529208660126 -0.3985348343849182 0.14289136230945587
0.24066901206970215 0.22863493859767914 -0.07734612375497818
-0.26993077993392944 0.07629387825727463 0.10775823146104813
0.21661174297332764 -0.062125738710165024 0.16969646513462067
-0.012630990706384182 -0.04757591709494591 0.16960079967975616
-0.032843440771102905 0.22863715887069702 0.035208020359277725
-0.3074188828468323 -0.38207709789276123 0.16837869584560394
0.058251362293958664 0.20342113077640533 -0.19837868213653564
-0.08838818222284317 -0.13349898159503937 -0.13589100539684296
0.13657337427139282 -0.4245278537273407 0.07200078666210175
-0.20952269434928894 0.22920571267604828 0.11107446253299713
-0.2710961103439331 0.011331718415021896 -0.06516110897064209
0.2972036898136139 -0.06699058413505554 0.10404132306575775
0.06250760704278946 0.14459550380706787 -0.1811772733926773
0.25824564695358276 -0.2525005042552948 0.1393250823020935
0.12682345509529114 -0.05710579454898834 0.16963337361812592
0.17666983604431152 0.2279731035232544 0.1003044992685318
0.13020893931388855 0.06445996463298798 0.17177148163318634
-0.08902918547391891 0.12271855026483536 -0.13520383834838867
-0.2725701928138733 -0.20110411942005157 0.04529713839292526
0.18165427446365356 -0.2531880736351013 0.09882120043039322
-0.05525829270482063 0.23009884357452393 -0.08381686359643936
0.29820725321769714 0.17498750984668732 -0.026641931384801865
0.07921610027551651 0.22863411903381348 0.04992083087563515
-0.3059561550617218 -0.3542324900627136 -0.01901451125741005
0.22400173544883728 -0.3059276044368744 -0.07306646555662155
0.1875385195016861 0.07701925933361053 0.17098353803157806
0.11005844175815582 0.23166070878505707 0.10575176775455475
0.27989664673805237 -0.33026671409606934 0.045120421797037125
-0.2390373945236206 -0.2200089693069458 0.1564469188451767
-0.26895904541015625 0.14579354226589203 -0.07339464128017426
0.034260768443346024 0.22864452004432678 0.025203457102179527
0.04434025660157204 -0.21816809475421906 -0.1337786465883255
-0.19611765444278717 0.2292526662349701 -0.09811203181743622
0.24798448383808136 -0.14564168453216553 -0.13624803721904755
0.22998805344104767 -0.16233082115650177 -0.1347540318965912
-0.2706684172153473 -0.22823740541934967 -0.113184854388237
-0.2686697840690613 -0.1402837336063385 -0.10121393948793411
0.18185260891914368 -0.021173881366848946 0.16720911860466003
-0.077109195291996 -0.2547004222869873 -0.11018285900354385
0.1481664478778839 -0.3940578103065491 0.14087049663066864
0.08082526922225952 0.01864754781126976 0.16882948577404022
0.17473429441452026 -0.4466467797756195 0.16934189200401306
-0.0143679678440094 -0.25313475728034973 -0.09548264741897583
0.2971900701522827 -0.1399633139371872 -0.11224958300590515
0.08457215130329132 0.06037714332342148 0.1701948046684265
0.27455586194992065 -0.3150177597999573 0.04615522176027298
0.08661381900310516 -0.1540432721376419 0.16978567838668823
0.013898065313696861 -0.019895337522029877 -0.13601720333099365
0.10384567826986313 0.13963660597801208 -0.13477471470832825
-0.22830717265605927 0.18971416354179382 -0.1350933015346527
-0.14864946901798248 -0.0592932365834713 0.17129717767238617
0.03534601256251335 -0.0044268714264035225 0.16905012726783752
-0.24747534096240997 -0.33193886280059814 0.1347852647304535
0.2972523272037506 0.007673808839172125 -0.003711132798343897
0.22639791667461395 0.09907087683677673 0.1696687787771225
0.19576530158519745 0.23456762731075287 -0.03312567621469498
-0.27137377858161926 -0.0029297752771526575 -0.11277756094932556
-0.30114179849624634 -0.4311480224132538 0.004423430655151606
-0.039505526423454285 -0.06650262326002121 -0.1353711038827896
0.2595050632953644 -0.24849028885364532 -0.10378896445035934
0.20060786604881287 0.326307088136673 0.027259204536676407
-0.2725483179092407 -0.11465400457382202 -0.022141188383102417
-0.04516350477933884 0.20037585496902466 0.15652945637702942
0.010736306197941303 -0.031914837658405304 -0.13263502717018127
0.016724012792110443 0.23113292455673218 0.13225725293159485
-0.2716343104839325 -0.17722676694393158 -0.05859116092324257
0.00913805142045021 -0.11891087889671326 -0.13612674176692963
0.20197460055351257 -0.05100410804152489 0.16969873011112213
-0.27270641922950745 -0.02909162826836109 0.13672465085983276
-0.29413899779319763 -0.4265606701374054 0.04602883383631706
0.2988525629043579 -0.10909144580364227 0.06340306997299194
-0.2530030310153961 -0.436860054731369 0.13163527846336365
-0.0028940546326339245 0.1317453235387802 0.16901923716068268
-0.28466305136680603 -0.060456886887550354 -0.2589777708053589
-0.2690139412879944 -0.03708064556121826 -0.04462477192282677
-0.10564923286437988 -0.09394489228725433 0.17051097750663757
-0.273288369178772 0.08385730534791946 0.11140923202037811
0.06562774628400803 -0.25147563219070435 -0.11380673199892044
0.2948998212814331 0.36034825444221497 0.010710089467465878
0.29560378193855286 -0.19069735705852509 -0.11692800372838974
-0.2713698446750641 -0.137750044465065 0.053870975971221924
-0.18896272778511047 -0.42616963386535645 -0.017801698297262192
-0.26207104325294495 0.4295375645160675 0.07330839335918427
-0.012952695600688457 -0.2509733736515045 0.04187846556305885
-0.20052629709243774 -0.038200583308935165 -0.1353157013654709
-0.06966158002614975 -0.036251313984394073 0.17158980667591095
