-0.2680540382862091 0.010107206180691719 -0.13048025965690613
0.29710155725479126 0.05211399123072624 -0.09861583262681961
0.08563175052404404 0.1355547457933426 -0.1366766095161438
0.04731213301420212 0.16435959935188293 0.16452133655548096
0.2999216914176941 0.40837517380714417 0.012938881292939186
0.17630858719348907 -0.29886969923973083 -0.04376927763223648
-0.24763444066047668 0.2175549566745758 -0.13410797715187073
0.2745806574821472 0.22729875147342682 0.11056894809007645
0.017303401604294777 0.14439888298511505 0.1630539447069168
0.23720118403434753 0.1555033028125763 0.16769731044769287
-0.11581794172525406 -0.24989113211631775 0.03285462036728859
0.19983696937561035 0.2280035763978958 -0.1306450068950653
0.2956673502922058 0.11785989999771118 0.15468071401119232
0.12165451049804688 -0.2496930956840515 -0.07264211773872375
-0.2938726246356964 -0.33285826444625854 -0.00596760306507349
0.24180662631988525 0.5118114352226257 -0.017468154430389404
0.2979382872581482 -0.13854770362377167 -0.07472735643386841
-0.1705700159072876 -0.3599308431148529 -0.012570749968290329
0.28875914216041565 -0.010089609771966934 0.15583960711956024
-0.18697623908519745 0.08173739165067673 0.16287513077259064
0.29855671525001526 0.1860038787126541 0.13122114539146423
0.16864481568336487 -0.2491261214017868 0.063930943608284
-0.17303133010864258 0.2241540551185608 0.057125288993120193
0.2961456775665283 -0.11462976783514023 -0.036967501044273376
0.13947784900665283 -0.3775129020214081 0.08636665344238281
0.28114479780197144 -0.22014831006526947 -0.1353163868188858
-0.1837596595287323 -0.41389524936676025 0.018538786098361015
0.25201931595802307 0.42246297001838684 0.10338690876960754
-0.25547459721565247 0.3869277238845825 -0.042516257613897324
-0.28604379296302795 -0.03277850151062012 -0.2697691023349762
-0.27122771739959717 -0.15963685512542725 -0.131288081407547
-0.004961706697940826 0.16206349432468414 0.16225875914096832
-0.14351049065589905 0.22715608775615692 0.02447059378027916
0.1350974440574646 -0.3893964886665344 0.03344832360744476
-0.08818551152944565 -0.24439850449562073 -0.13660714030265808
-0.08532865345478058 -0.24918964505195618 -0.12165119498968124
-0.2734741270542145 0.010630372911691666 -0.078492671251297
0.29776304960250854 0.11938212811946869 0.154620960354805
-0.1086794063448906 -0.24624164402484894 -0.13264121115207672
-0.13575415313243866 -0.2521643042564392 0.09161383658647537
0.2674234211444855 -0.3153807520866394 -0.03997361660003662
0.28419044613838196 -0.4175623953342438 0.03621553257107735
-0.17849266529083252 -0.39383649826049805 0.04044535383582115
-0.03484918177127838 -0.2513495981693268 -0.06222118064761162
0.29422610998153687 -0.1287716180086136 0.0994022935628891
-0.2680411636829376 0.042859435081481934 0.13251496851444244
-0.25809937715530396 -0.3905462622642517 -0.09038819372653961
0.008350099436938763 0.15265604853630066 0.16553498804569244
-0.28473955392837524 -0.32896342873573303 -0.025486594066023827
0.289985328912735 -0.4124540388584137 0.14055317640304565
0.29515695571899414 0.21159422397613525 0.041351813822984695
0.3002638518810272 -0.23014311492443085 -0.11803188920021057
0.29802414774894714 0.17197832465171814 -0.04992446303367615
0.24782241880893707 0.22757458686828613 0.08135206252336502
-0.2555360198020935 -0.10765475034713745 -0.13567520678043365
0.2941216230392456 0.21018865704536438 -0.08810042589902878
0.03162126615643501 0.22722534835338593 -0.10268630087375641
-0.2604146897792816 0.3553183078765869 -0.00015873686061240733
-0.27629777789115906 -0.3467021584510803 -0.07308337837457657
-0.03130431845784187 0.2242985963821411 -0.12693747878074646
0.2297443449497223 0.5160186886787415 0.07214811444282532
0.13977734744548798 -0.24864672124385834 0.10378305613994598
0.22355565428733826 0.15402185916900635 0.1649402230978012
0.2954854369163513 0.0678158774971962 0.08890413492918015
-0.2905370593070984 0.0634070411324501 -0.28445491194725037
0.17706383764743805 -0.24720361828804016 -0.07374398410320282
0.17892546951770782 -0.34139740467071533 0.1235213577747345
0.27733302116394043 -0.17556461691856384 -0.1334306299686432
-0.1794038712978363 0.19254259765148163 -0.1368081122636795
0.18687617778778076 0.4738624095916748 0.0012667877599596977
-0.010177889838814735 0.2253822386264801 -0.12604153156280518
-0.2508554458618164 0.21564064919948578 -0.13408561050891876
-0.06657981127500534 0.17669130861759186 0.15752221643924713
-0.27136969566345215 -0.11502642929553986 -0.13225385546684265
-0.27067628502845764 0.2091364711523056 0.05105183646082878
-0.27124959230422974 -0.15551269054412842 -0.1321210414171219
0.2959209680557251 0.18270452320575714 0.13443957269191742
0.23443441092967987 -0.2251165807247162 0.15124544501304626
-0.27153220772743225 0.05937793105840683 -0.1351819932460785
0.29577046632766724 0.08049185574054718 0.09942307323217392
-0.2714073359966278 0.20607304573059082 -0.1337975263595581
0.1570160984992981 -0.2487926185131073 0.07800199091434479
-0.2729373276233673 -0.2175661325454712 0.13702625036239624
0.21127267181873322 0.22502949833869934 -0.1342923641204834
0.16729170083999634 0.22409574687480927 -0.12520776689052582
0.19137802720069885 0.22743335366249084 0.013791762292385101
0.05145414546132088 -0.24539028108119965 -0.13588112592697144
0.2955997586250305 0.18782757222652435 0.1379881352186203
-0.15228818356990814 -0.2986454367637634 0.0013584727421402931
-0.27326199412345886 0.21578820049762726 -0.010141909122467041
-0.05609624832868576 0.20084699988365173 0.15750010311603546
-0.2682792544364929 -0.08664407581090927 -0.12967899441719055
0.26196178793907166 -0.29065796732902527 0.03677335008978844
0.18059544265270233 0.4340660274028778 -0.008021739311516285
-0.1436704397201538 0.13564419746398926 0.1674063801765442
0.2084883600473404 -0.21466197073459625 0.15324312448501587
0.2927992343902588 0.21757759153842926 -0.08621267229318619
-0.29380255937576294 0.02493644692003727 -0.2705313265323639
-0.2709411084651947 -0.0146719291806221 -0.13227958977222443
-0.22693991661071777 0.2268383800983429 -0.10487034916877747
-0.18110211193561554 0.43115124106407166 -0.06531322747468948
-0.249590665102005 0.2144538313150406 -0.1365659087896347
0.11130543053150177 0.1471165120601654 0.16744090616703033
-0.12542825937271118 0.21088694036006927 -0.1358536183834076
-0.07189436256885529 -0.25031957030296326 -0.0563301146030426
-0.19837254285812378 0.05830421298742294 0.16706591844558716
0.2765689790248871 -0.32121312618255615 0.0477236844599247
0.29917681217193604 0.04226217418909073 -0.11490800976753235
0.1772247552871704 0.43198633193969727 -0.0021698661148548126
-0.15527503192424774 0.391839861869812 0.037516020238399506
0.2957962453365326 0.19342923164367676 0.1444322168827057
0.08842150866985321 0.0029311254620552063 -0.13371998071670532
0.19335265457630157 -0.01891206204891205 0.1656791716814041
0.2758180499076843 -0.32965704798698425 0.0722629725933075
0.28357768058776855 -0.23160487413406372 -0.13395662605762482
-0.3285655379295349 -0.38215214014053345 0.09504002332687378
-0.16644315421581268 0.20596177875995636 -0.13474783301353455
-0.268147349357605 0.03483394533395767 -0.13568314909934998
-0.2724042236804962 -0.05179208889603615 -0.13340049982070923
0.21776404976844788 0.10662028193473816 0.16513091325759888
0.21538329124450684 -0.24895961582660675 0.1323508322238922
-0.018868790939450264 0.2254677265882492 -0.13312272727489471
-0.3265893757343292 -0.38840997219085693 -0.0327385850250721
0.037329599261283875 -0.2509767413139343 0.018753841519355774
-0.10867041349411011 -0.2508413791656494 -0.04622531682252884
0.2994265556335449 0.203203946352005 -0.0955352708697319
0.19130492210388184 0.3626028895378113 -0.03949066624045372
0.2955452501773834 -0.09275111556053162 -0.13269202411174774
-0.2710411548614502 -0.21670177578926086 0.130294531583786
0.1263895481824875 0.22405703365802765 -0.13483814895153046
-0.269864946603775 -0.0624375194311142 -0.13288529217243195
0.07032432407140732 -0.1870204508304596 0.16234742105007172
0.19022831320762634 0.36779069900512695 -0.044387560337781906
-0.02879154309630394 0.22919441759586334 0.06800020486116409
0.2906062602996826 -0.09200046211481094 -0.13379435241222382
-0.26909029483795166 -0.2038652002811432 -0.13553781807422638
-0.06489051878452301 0.2278747260570526 0.008427612483501434
0.09941299259662628 -0.18881937861442566 0.1602167785167694
-0.24816225469112396 -0.24986772239208221 0.09677885472774506
-0.18756936490535736 -0.4227979779243469 0.026808667927980423
0.2927398681640625 -0.4151521325111389 0.055416662245988846
-0.053776815533638 0.14839498698711395 0.16031046211719513
-0.16389499604701996 0.23028330504894257 0.10990672558546066
-0.06074529141187668 -0.24145731329917908 -0.13537448644638062
0.2985171973705292 -0.09777937829494476 -0.08257848769426346
-0.022146103903651237 0.2244231253862381 -0.13244077563285828
-0.2671446204185486 0.16807495057582855 -0.1324077695608139
0.06996948271989822 0.1035861000418663 -0.13618768751621246
0.2903133034706116 -0.16902336478233337 -0.13776925206184387
-0.19840893149375916 -0.1721898913383484 0.16743484139442444
0.04499812796711922 0.22452811896800995 -0.1341783106327057
0.1420987844467163 0.14749287068843842 0.1670716106891632
0.26972857117652893 -0.4399801790714264 -0.02465386874973774
0.2466573566198349 0.22394242882728577 -0.13186216354370117
-0.09718568623065948 -0.24566882848739624 -0.13805870711803436
-0.2630615532398224 0.389384925365448 -0.013603487983345985
0.1711178719997406 -0.2892071008682251 0.05514673516154289
0.29139184951782227 -0.05428873002529144 0.1289932131767273
-0.2729409635066986 0.20602336525917053 0.11980557441711426
-0.09142516553401947 0.19820402562618256 -0.13694974780082703
0.008629361167550087 0.18551291525363922 -0.1353597640991211
-0.12508144974708557 0.17163625359535217 0.1560419648885727
0.2674049735069275 -0.24881058931350708 -0.08105406165122986
-0.02553723007440567 0.22572296857833862 -0.1328674852848053
-0.18178881704807281 -0.2489287555217743 -0.11611900478601456
0.19863885641098022 0.22760769724845886 -0.08231198787689209
-0.1446426510810852 0.1926080733537674 0.1563069075345993
0.2940558195114136 0.09220398217439651 0.05455201491713524
0.2549608051776886 -0.2392420470714569 -0.1346043199300766
0.2676723003387451 -0.30344370007514954 0.07702121883630753
-0.27075695991516113 -0.0004783235490322113 -0.13326576352119446
-0.13493826985359192 -0.25281503796577454 0.010521087795495987
-0.20603182911872864 -0.4486737847328186 -0.015135567635297775
0.26471441984176636 -0.24385394155979156 -0.13451409339904785
-0.179847851395607 -0.39134523272514343 -0.02116500772535801
-0.1831652969121933 0.33978724479675293 0.06604713946580887
0.07433724403381348 -0.2221735715866089 -0.13823162019252777
-0.09546983242034912 -0.2473079115152359 -0.019093722105026245
-0.09114683419466019 0.16234953701496124 0.15734922885894775
0.2956570088863373 0.2010049819946289 -0.10176177322864532
0.2982127368450165 0.3718372881412506 0.04951513186097145
0.2896845042705536 -0.4151122570037842 0.16301114857196808
0.2962814271450043 0.05809938162565231 -0.09733741730451584
0.29328641295433044 -0.11798308789730072 -0.05281192809343338
0.2020789235830307 -0.20237582921981812 0.15188263356685638
-0.03726447373628616 0.1626436561346054 0.15716782212257385
0.2685615122318268 0.2263636738061905 -0.12260264158248901
0.1677979677915573 -0.27838507294654846 0.04556996375322342
0.08366747200489044 0.22316181659698486 -0.13545897603034973
-0.2858121991157532 -0.4120630621910095 0.11173621565103531
-0.17875970900058746 -0.36556100845336914 -0.032670702785253525
-0.25919613242149353 0.13482818007469177 -0.1359969973564148
0.19074222445487976 0.10820160061120987 -0.136313334107399
-0.24467496573925018 0.229915589094162 -0.12121821939945221
-0.04502706602215767 0.22142387926578522 -0.130576953291893
-0.24566030502319336 0.021914569661021233 -0.28551292419433594
-0.25760483741760254 0.16412129998207092 -0.13404296338558197
0.07225014269351959 0.17099647223949432 0.16201935708522797
-0.2788565456867218 -0.32956477999687195 0.1728847324848175
-0.24827682971954346 0.053985100239515305 0.15721145272254944
-0.024566281586885452 0.15405039489269257 0.1636645793914795
-0.21973328292369843 -0.4471231997013092 -0.038223180919885635
0.09406893700361252 -0.24220260977745056 -0.13516363501548767
-0.05311686918139458 0.22754931449890137 0.12923356890678406
-0.2338033765554428 0.22767756879329681 0.07652159035205841
-0.16612540185451508 -0.35545870661735535 0.005495228338986635
-0.2539578378200531 0.4750656187534332 0.06568598002195358
0.2138107568025589 -0.22155888378620148 0.15407045185565948
-0.2734077572822571 -0.3015630543231964 0.07968829572200775
-0.16073675453662872 -0.18470561504364014 0.16334190964698792
0.2950901985168457 -0.05716519430279732 -0.13980816304683685
-0.1298692524433136 -0.24695265293121338 -0.11550590395927429
0.29646506905555725 -0.1867242008447647 0.039442919194698334
-0.09722824394702911 -0.24935397505760193 0.059532031416893005
-0.1325288712978363 0.07059402018785477 0.16452792286872864
0.2950878143310547 -0.09874267876148224 -0.07191018760204315
0.2672714293003082 -0.2953248918056488 -0.0030058459378778934
-0.11303327232599258 0.22767768800258636 0.09524611383676529
0.29548218846321106 -0.08941218256950378 0.10674916952848434
0.22608020901679993 0.22880597412586212 0.1357802450656891
-0.11488352715969086 0.2120668888092041 -0.13425800204277039
0.2864938974380493 -0.03361229971051216 0.15617109835147858
0.3002716302871704 0.40517306327819824 0.025430968031287193
0.23625588417053223 -0.24813221395015717 -0.1060943752527237
0.29411202669143677 0.21541956067085266 -0.07341144233942032
-0.026130635291337967 0.1745254546403885 0.15770404040813446
-0.27408459782600403 0.04403946176171303 -0.1383061558008194
-0.04849954694509506 0.22268356382846832 -0.13053400814533234
-0.14507316052913666 -0.2507465183734894 0.09608688950538635
0.0851883590221405 -0.05427819862961769 -0.13806647062301636
0.16271944344043732 0.16716767847537994 -0.1339469850063324
0.298210471868515 -0.16741621494293213 -0.13225296139717102
0.13473425805568695 -0.2502591013908386 0.008668649941682816
-0.2707556486129761 0.002558290958404541 -0.13672327995300293
0.2963220775127411 -0.04746024310588837 -0.07646860927343369
0.1640162467956543 -0.24973620474338531 -0.08541826903820038
-0.2657421827316284 -0.4209062159061432 -0.08863992989063263
0.22151418030261993 0.5136527419090271 0.0723944678902626
-0.19924116134643555 -0.2501790523529053 0.08848010003566742
0.15297003090381622 0.2280094027519226 0.052960436791181564
-0.08269680291414261 0.22553949058055878 -0.1272081732749939
0.19596119225025177 0.22424621880054474 -0.124397873878479
0.29845091700553894 -0.2358616292476654 -0.13501384854316711
-0.255839079618454 0.07186008989810944 -0.1345483809709549
0.07628019154071808 -0.2492743581533432 0.1206601932644844
0.2958834767341614 0.15079165995121002 0.1543170064687729
0.2712256908416748 0.1356145292520523 0.15522994101047516
-0.16346552968025208 0.43525370955467224 -0.029649127274751663
0.30121228098869324 -0.006356087513267994 -0.061733584851026535
-0.03347128629684448 0.08404488116502762 -0.13576167821884155
-0.21282047033309937 -0.3967186510562897 0.15294653177261353
-0.33162540197372437 -0.3704153597354889 0.016673032194375992
-0.2711315453052521 0.12066279351711273 -0.1344779133796692
0.2878667414188385 -0.39328983426094055 0.05080297216773033
0.19951951503753662 -0.2283705621957779 -0.1357165426015854
-0.29433614015579224 0.07245467603206635 -0.2883718013763428
-0.2537483870983124 0.13958562910556793 -0.133396178483963
-0.20592577755451202 -0.2909637987613678 0.07979355752468109
0.3010389804840088 -0.18070253729820251 -0.11270777136087418
-0.11721087247133255 -0.22204634547233582 -0.1322125941514969
0.26459962129592896 -0.2819795310497284 -0.014864136464893818
0.1737804114818573 -0.19775301218032837 0.15661472082138062
-0.1083626076579094 -0.2505650520324707 0.09232097119092941
-0.2555040121078491 0.02432609349489212 -0.13673186302185059
0.26663631200790405 0.10992231220006943 0.167380690574646
0.1741310954093933 0.4309442341327667 0.059981271624565125
-0.2704297602176666 -0.44532498717308044 0.021783597767353058
0.30054375529289246 0.08557567000389099 -0.136714369058609
0.2966806888580322 -0.2010769546031952 0.041107915341854095
-0.19417424499988556 -0.36341002583503723 -0.05506613850593567
0.29712384939193726 -0.07870805263519287 0.15410175919532776
-0.10061154514551163 -0.2513265013694763 0.11452538520097733
0.2957700490951538 0.042973026633262634 0.15597879886627197
-0.25582370162010193 0.13960377871990204 -0.13546544313430786
0.14951926469802856 0.1553460955619812 0.1685296595096588
0.29579582810401917 0.20241960883140564 0.06364017724990845
0.02004273235797882 -0.19492873549461365 -0.13210171461105347
-0.2701118588447571 -0.06455148756504059 -0.13175486028194427
-0.27314093708992004 0.029886167496442795 -0.13860031962394714
-0.2661918103694916 -0.4707663953304291 -0.03659481927752495
-0.1434950828552246 -0.24656446278095245 -0.13575556874275208
-0.27002522349357605 0.21493473649024963 0.11391527950763702
0.275145560503006 0.3095981776714325 0.011410070583224297
0.23469702899456024 -0.444667249917984 0.00036158779403194785
-0.18599168956279755 -0.16431206464767456 0.1689869463443756
0.2743896543979645 -0.0014848802238702774 0.15492214262485504
0.20587122440338135 -0.44182124733924866 0.1888187676668167
0.16959844529628754 0.22861647605895996 0.13198943436145782
-0.2719980478286743 0.14454799890518188 0.09059461206197739
0.19393298029899597 0.16418768465518951 0.16489599645137787
0.03734882175922394 0.16934379935264587 0.1614115834236145
0.21068254113197327 -0.2460111826658249 -0.11360915005207062
-0.15479543805122375 -0.2782009541988373 0.022525768727064133
0.21466372907161713 0.07837449759244919 -0.13449764251708984
0.011890724301338196 0.014062045142054558 -0.13649092614650726
0.03183576092123985 0.22900207340717316 0.11301511526107788
0.2916749119758606 0.22559288144111633 -0.010478539392352104
-0.05292806401848793 0.22354614734649658 -0.12601229548454285
-0.2151826024055481 0.23299944400787354 0.09637925028800964
0.17770878970623016 -0.2820124924182892 0.05998281389474869
0.29269057512283325 0.0556008517742157 -0.08996202796697617
0.15284183621406555 0.22624444961547852 -0.13297903537750244
0.17712554335594177 0.03875643014907837 -0.13358443975448608
0.06996376812458038 -0.24069440364837646 -0.13646067678928375
0.07387616485357285 0.22897371649742126 0.07620392739772797
-0.13647553324699402 0.21113163232803345 -0.13975663483142853
-0.015780214220285416 0.1381676197052002 -0.13666623830795288
0.2256905883550644 -0.41273289918899536 0.20160257816314697
-0.2747628092765808 0.03512417525053024 -0.13887229561805725
0.13025222718715668 0.1534736305475235 0.16971583664417267
0.20033672451972961 0.3719000816345215 -0.07145528495311737
0.04057395085692406 -0.11433175951242447 -0.13522657752037048
0.27902233600616455 -0.33255571126937866 0.018429309129714966
0.29484716057777405 -0.10778793692588806 0.09987802803516388
-0.2933865487575531 0.03421860933303833 -0.2786599397659302
0.2250789999961853 -0.18693117797374725 0.15755195915699005
-0.16061262786388397 -0.31628310680389404 -0.011937389150261879
-0.14115479588508606 0.22907912731170654 0.11170193552970886
0.22077864408493042 0.22298653423786163 -0.13069646060466766
0.20951785147190094 0.07444009184837341 -0.13695469498634338
0.24605348706245422 -0.2334238886833191 -0.13506612181663513
0.20255224406719208 -0.4464481770992279 0.1501138061285019
0.27386274933815 -0.12215925008058548 0.15666744112968445
0.06224331259727478 -0.25254377722740173 -0.09264400601387024
-0.32465723156929016 -0.382674902677536 0.10260048508644104
-0.27323779463768005 -0.006531264632940292 -0.13301748037338257
0.04812135919928551 0.14027881622314453 -0.2059745192527771
0.17414356768131256 0.38190335035324097 0.025319311767816544
-0.03463030233979225 -0.2504511773586273 -0.10483920574188232
0.3018835186958313 0.004075884819030762 -0.13604319095611572
-0.26623469591140747 -0.3447093367576599 0.1744164675474167
-0.2713334560394287 0.08086393028497696 -0.13686242699623108
-0.19949577748775482 -0.34014013409614563 0.08541969209909439
0.2971489131450653 0.031945955008268356 0.06062673404812813
-0.26460587978363037 -0.45659399032592773 0.013869758695363998
0.1288391798734665 0.22769322991371155 -0.027054421603679657
0.30023282766342163 0.3785788118839264 -0.0014968814793974161
0.27515342831611633 0.30957868695259094 0.007822375744581223
-0.2656441330909729 0.37529948353767395 0.027723772451281548
0.18742462992668152 0.4515398144721985 -0.029263745993375778
0.27817586064338684 -0.3400002419948578 0.08903983235359192
0.11652341485023499 -0.2503308951854706 -0.07335878908634186
-0.03762761503458023 0.2078486531972885 -0.13318562507629395
0.13498927652835846 -0.20064887404441833 0.15471453964710236
0.04611208289861679 0.027509380131959915 -0.135694220662117
0.20729249715805054 0.15823394060134888 0.16856874525547028
-0.20265363156795502 0.21498927474021912 -0.13435395061969757
-0.15341795980930328 0.3890448808670044 0.033003877848386765
0.2959417700767517 -0.17212173342704773 -0.02719784900546074
-0.20216119289398193 -0.17032378911972046 0.16613611578941345
-0.05163520202040672 0.1433308720588684 0.16695044934749603
-0.21736042201519012 0.2272663414478302 0.08976598083972931
-0.20919261872768402 -0.25109317898750305 -0.08360174298286438
0.29488834738731384 0.06469433009624481 0.07839789241552353
0.0539783351123333 0.2261074185371399 -0.12040087580680847
0.08257176727056503 0.08440575003623962 -0.13552816212177277
0.1873014122247696 0.36123907566070557 -0.030740156769752502
0.2987918257713318 -0.04505917802453041 -0.13624261319637299
-0.0032341512851417065 0.13813842833042145 -0.13645292818546295
0.26724883913993835 0.2265251874923706 -0.1232725977897644
0.189316526055336 0.4776855707168579 -0.007039884105324745
0.1145443245768547 0.22534465789794922 -0.09770964831113815
0.17395524680614471 0.3922778069972992 0.014255792833864689
-0.00014962069690227509 0.10047460347414017 -0.16464030742645264
-0.1425757259130478 0.15217319130897522 0.16287067532539368
0.29298627376556396 0.20675082504749298 0.04194031283259392
0.2939378023147583 -0.0659138560295105 0.15428964793682098
-0.30796369910240173 -0.3623241186141968 -0.03197284787893295
-0.1122201681137085 0.20946839451789856 -0.1341828852891922
-0.30215880274772644 -0.323422372341156 0.11865739524364471
0.16074569523334503 0.1958106905221939 0.15671667456626892
0.16880062222480774 -0.3143526315689087 -0.044140495359897614
-0.12926098704338074 -0.2480267584323883 -0.09575873613357544
0.10873372852802277 -0.20525550842285156 0.15483678877353668
-0.25618237257003784 -0.1375729739665985 -0.1356760859489441
0.2952042818069458 0.017118778079748154 0.1567595899105072
0.29559463262557983 -0.22785238921642303 0.09214742481708527
-0.1382022351026535 -0.19367586076259613 0.1613890826702118
-0.2532995343208313 0.019900154322385788 -0.13424184918403625
0.2308836281299591 0.37921813130378723 -0.09250446408987045
0.18286913633346558 0.22921976447105408 0.06600020825862885
0.14354614913463593 -0.05787954106926918 -0.13604795932769775
0.16437630355358124 -0.2929123044013977 -0.02005627192556858
0.14277300238609314 -0.23879222571849823 -0.13473983108997345
-0.2724996507167816 -0.05200808122754097 -0.13053971529006958
0.17899136245250702 0.4577162563800812 0.016196222975850105
0.03272601589560509 0.1686655879020691 0.1608683317899704
0.19062617421150208 -0.3176470994949341 0.09781236201524734
0.25515156984329224 -0.17046937346458435 0.1563599407672882
-0.007093027699738741 -0.2501439154148102 0.005203064531087875
-0.28466174006462097 -0.4275869131088257 -0.08907055854797363
0.08375197649002075 0.22677257657051086 -0.13248807191848755
-0.25523751974105835 0.11084330826997757 -0.1354808509349823
-0.1739250123500824 0.21013806760311127 -0.1319276988506317
-0.2065734565258026 0.42660069465637207 0.08984874188899994
0.16205118596553802 0.22653310000896454 0.04409055411815643
0.3002190589904785 -0.14201445877552032 -0.08424272388219833
-0.0060989828780293465 0.22632838785648346 -0.12666268646717072
0.2926799952983856 0.16793397068977356 0.0051388368010520935
0.26857054233551025 -0.05690745636820793 -0.12936635315418243
0.02470969222486019 0.20582139492034912 -0.15930157899856567
0.20613542199134827 -0.19848114252090454 -0.13368923962116241
0.011432296596467495 0.20157232880592346 -0.23538406193256378
0.15981195867061615 0.22374337911605835 -0.1271551549434662
-0.26497793197631836 0.3839363753795624 -0.009399301372468472
-0.26737385988235474 0.08197598159313202 0.1270790696144104
0.1275440901517868 0.04257097840309143 -0.1339055299758911
0.17847387492656708 -0.30839240550994873 -0.055681586265563965
-0.19691386818885803 0.21942061185836792 -0.13417638838291168
-0.04370777681469917 -0.25569599866867065 0.022377803921699524
0.12088121473789215 -0.2467159777879715 0.05059165135025978
0.1844976544380188 0.15027552843093872 -0.1328415423631668
-0.2539618909358978 -0.2519737184047699 0.11520373076200485
-0.25087517499923706 -0.24805520474910736 0.12984822690486908
0.23330427706241608 -0.24831044673919678 -0.11315633356571198
-0.2734384536743164 0.20346586406230927 0.09314769506454468
0.27069419622421265 -0.2153128981590271 -0.13765275478363037
-0.3071647584438324 -0.398613303899765 0.09645941108465195
-0.2709614634513855 -0.011739742010831833 -0.13205799460411072
0.2858273684978485 -0.17885929346084595 0.15359368920326233
-0.25734835863113403 0.06810244172811508 -0.14078062772750854
0.29641497135162354 -0.08517175167798996 0.057050369679927826
0.29254060983657837 0.2118152529001236 -0.010500745847821236
-0.17760539054870605 -0.2940728962421417 0.05851295217871666
0.2965163290500641 -0.1614571362733841 -0.05828394368290901
-0.06893349438905716 0.22678248584270477 0.11704614758491516
0.26120638847351074 0.2267834097146988 -0.12139344215393066
-0.22200044989585876 -0.36054086685180664 0.1382972151041031
-0.27004265785217285 0.05703287199139595 -0.13391247391700745
0.058054663240909576 -0.2496158331632614 -0.08566340804100037
-0.27189934253692627 0.045576147735118866 0.1406364142894745
0.2400376796722412 -0.24082818627357483 -0.13418826460838318
0.2746105194091797 0.49109944701194763 -0.0339757464826107
-0.25402209162712097 -0.2890605628490448 -0.015039152465760708
-0.013776486739516258 0.22916428744792938 0.07562089711427689
0.3000749349594116 0.4178166389465332 0.04059743881225586
0.2976189851760864 -0.17890861630439758 0.13539353013038635
0.11570261418819427 -0.24594178795814514 -0.13593101501464844
0.2940344512462616 -0.09073328226804733 0.15384440124034882
0.08167781680822372 0.22406399250030518 -0.13331328332424164
-0.04530295357108116 -0.24954122304916382 -0.13651123642921448
0.2121848165988922 0.2253430038690567 -0.1260673552751541
0.13884951174259186 -0.3764718174934387 0.09004370868206024
-0.2513745129108429 0.4708271920681 -0.03143755719065666
0.164760559797287 -0.27345919609069824 0.0016594361513853073
0.14634647965431213 -0.12507173418998718 -0.13721038401126862
0.14317475259304047 0.2294064164161682 0.1075187623500824
0.016112735494971275 0.14203020930290222 0.1685841679573059
0.2948695421218872 -0.11868114769458771 0.15411753952503204
0.2251712828874588 0.41855016350746155 -0.09131653606891632
0.24025782942771912 -0.24812136590480804 -0.104134202003479
0.29278793931007385 0.21847841143608093 0.0451134592294693
-0.11445798724889755 -0.21247582137584686 0.15458299219608307
-0.15667085349559784 0.39157742261886597 0.0672483965754509
-0.26421841979026794 0.38158848881721497 0.06885623931884766
-0.02656959742307663 0.17370539903640747 -0.13571219146251678
-0.016361260786652565 0.15470221638679504 -0.13811655342578888
0.02972322516143322 -0.24616380035877228 -0.12494103610515594
-0.11817364394664764 -0.24654576182365417 -0.13757821917533875
0.3012631833553314 0.38582801818847656 0.0652502030134201
-0.20363999903202057 -0.4389041066169739 0.0930376648902893
-0.0681099146604538 0.22498944401741028 -0.12056583166122437
0.2797469198703766 -0.1777765452861786 0.1519637107849121
-0.137126624584198 0.1965831220149994 0.1568870097398758
0.07405821233987808 0.22611159086227417 -0.041642896831035614
0.1915128082036972 0.22478067874908447 -0.13454990088939667
0.24507293105125427 -0.25084567070007324 0.10238125175237656
0.01939508691430092 0.20032329857349396 0.16062888503074646
0.284416139125824 -0.36418232321739197 0.12010852247476578
0.15498343110084534 -0.25115442276000977 0.005598620045930147
0.13584674894809723 -0.2493581473827362 0.10970527678728104
0.2795340418815613 -0.37071120738983154 -0.029558083042502403
-0.07512283325195312 0.20223334431648254 -0.13487862050533295
-0.27042070031166077 0.16911664605140686 0.09387551248073578
-0.2736598551273346 -0.2083534151315689 -0.10327638685703278
0.28226417303085327 -0.2295076847076416 -0.13289906084537506
0.010164875537157059 0.22278422117233276 -0.12558259069919586
-0.2708015441894531 0.00776289775967598 -0.1361774504184723
-0.25226983428001404 -0.12983261048793793 -0.13636961579322815
-0.1331179141998291 -0.25117677450180054 0.07607214897871017
-0.20175708830356598 -0.41803938150405884 -0.038983989506959915
0.2112695574760437 -0.17219990491867065 0.1598166823387146
-0.26809945702552795 -0.3276248574256897 -0.06435302644968033
0.21793225407600403 -0.24425733089447021 -0.1344131976366043
-0.258922815322876 0.39173954725265503 -0.05204315111041069
0.20665614306926727 -0.4154384732246399 0.2056434005498886
0.17497152090072632 -0.2511536180973053 -0.03968909755349159
-0.1540374755859375 0.4308033287525177 0.055514492094516754
0.16341179609298706 -0.2533305883407593 -0.02944742888212204
0.10865506529808044 -0.2475002110004425 0.124544657766819
0.07263526320457458 -0.23478204011917114 -0.13319645822048187
0.29262232780456543 -0.0769742950797081 -0.0756276324391365
0.13267739117145538 -0.25384843349456787 0.08377952873706818
0.20731399953365326 -0.2446739673614502 -0.1339331716299057
0.2789989113807678 -0.19273704290390015 -0.13435830175876617
0.2592124044895172 0.339887410402298 0.10433420538902283
0.16631127893924713 -0.2077040821313858 0.15281611680984497
-0.261208713054657 -0.3178947865962982 -0.06224068999290466
-0.2725220322608948 0.04493628442287445 -0.138133242726326
-0.2346179038286209 -0.3694339692592621 0.16767634451389313
-0.04649354889988899 -0.2523060441017151 -0.11154045164585114
-0.2752700448036194 -0.10244467854499817 -0.13382351398468018
0.2542569935321808 -0.4449196457862854 0.10419616103172302
-0.2549375891685486 0.07681518793106079 -0.13557526469230652
-0.24537838995456696 -0.22252710163593292 0.15460823476314545
0.21041488647460938 -0.2529160976409912 -0.07078515738248825
0.2996211051940918 0.18859776854515076 -0.10291945934295654
0.06044487655162811 -0.17123743891716003 -0.13319548964500427
-0.24755233526229858 -0.05559106916189194 0.15536199510097504
0.29339051246643066 0.03009878471493721 0.14981895685195923
0.01485319621860981 0.22481805086135864 -0.09887843579053879
-0.18803344666957855 -0.2997870147228241 -0.052963633090257645
-0.2705322802066803 -0.18108873069286346 -0.1326570063829422
0.12185629457235336 0.22685106098651886 -0.1339666247367859
0.25382158160209656 0.22824649512767792 0.13810352981090546
-0.21651437878608704 -0.24442318081855774 0.1295444369316101
-0.25936397910118103 0.36933639645576477 -0.035184722393751144
0.23768433928489685 0.3174568712711334 0.060073018074035645
0.29618605971336365 0.0031143873929977417 -0.13424456119537354
0.29653820395469666 -0.09483974426984787 -0.04166164994239807
0.08697614818811417 0.10730580985546112 -0.13588353991508484
0.2655423879623413 -0.3086307644844055 0.0774080753326416
-0.015793606638908386 -0.23672495782375336 -0.1345304548740387
0.10692793130874634 0.14442163705825806 0.1670147180557251
-0.22203505039215088 0.5028245449066162 0.009916593320667744
0.0807136818766594 -0.24035274982452393 -0.13060663640499115
0.29675617814064026 -0.15842002630233765 -0.08645842224359512
-0.09143142402172089 0.22395387291908264 -0.1324859857559204
0.2308363914489746 -0.40608516335487366 -0.09677309542894363
0.21260003745555878 0.06381296366453171 0.16784799098968506
-0.06769140809774399 0.10090314596891403 0.16804538667201996
0.2972404956817627 -0.10342179238796234 -0.13580109179019928
-0.2719850540161133 -0.019787482917308807 -0.13162945210933685
0.3055998682975769 0.07604950666427612 -0.13329899311065674
0.05111599341034889 0.14437797665596008 -0.13810908794403076
-0.2707754075527191 -0.005813535302877426 -0.13680678606033325
0.1776794046163559 0.22542521357536316 -0.13299590349197388
0.24916237592697144 -0.24975787103176117 -0.0672115609049797
0.2912769615650177 -0.24286502599716187 -0.1343817561864853
0.22746184468269348 0.4564440846443176 0.10201958566904068
0.29258760809898376 -0.07670965045690536 -0.13611528277397156
0.2960803210735321 -0.14281678199768066 -0.03897184878587723
0.24063964188098907 0.33422210812568665 0.07530323415994644
-0.2701202929019928 0.14787723124027252 -0.1350376158952713
-0.2697222828865051 0.1075441911816597 -0.1363057792186737
-0.2694658637046814 -0.1513749212026596 -0.1313837617635727
-0.05429255962371826 -0.25094184279441833 0.03205448389053345
-0.16066822409629822 0.17011696100234985 -0.13639993965625763
-0.15122279524803162 -0.25277018547058105 0.09309130907058716
0.29790714383125305 -0.15463459491729736 -0.06286434829235077
0.30028510093688965 0.2023870348930359 -0.11265037953853607
0.22501271963119507 -0.17553210258483887 0.16450650990009308
-0.2902800738811493 0.057367000728845596 -0.28373071551322937
-0.2937653660774231 -0.43052470684051514 0.01956503465771675
-0.19432957470417023 0.14828772842884064 0.1581638753414154
-0.021696627140045166 0.19638656079769135 0.15839770436286926
0.04741913080215454 -0.25016069412231445 -0.06623713672161102
0.26004382967948914 -0.2804807722568512 0.04910798370838165
0.2955969274044037 0.06347394734621048 0.01840432733297348
-0.2723854184150696 -0.14551423490047455 -0.13561640679836273
-0.10034897178411484 -0.25047871470451355 -0.0883093923330307
-0.2768930494785309 -0.21038715541362762 -0.037499040365219116
-0.2674707770347595 -0.06099872291088104 -0.1285237967967987
-0.24453556537628174 0.22633357346057892 -0.1252662092447281
-0.2732046842575073 0.21422311663627625 0.059704672545194626
0.1982269138097763 0.4889880418777466 -0.013342016376554966
-0.22209590673446655 0.05004984885454178 -0.13215239346027374
-0.1718122810125351 -0.011814411729574203 -0.13689395785331726
-0.0935409665107727 0.143568217754364 -0.13691303133964539
-0.2733990252017975 0.06896987557411194 -0.06104224920272827
-0.07102598249912262 -0.2508637309074402 -0.03329735994338989
0.11437403410673141 0.15052223205566406 0.16747629642486572
-0.26092079281806946 0.11148850619792938 -0.13474716246128082
0.2883443832397461 -0.07506175339221954 0.1564035713672638
0.2625831663608551 -0.44112345576286316 -0.023054098710417747
-0.13826963305473328 0.07545788586139679 0.1612301468849182
-0.16887794435024261 -0.2516728341579437 0.10303805768489838
-0.17942437529563904 -0.3929620683193207 0.028796473518013954
-0.2835673987865448 -0.33258292078971863 0.17783772945404053
0.051624495536088943 -0.19160237908363342 0.1598149687051773
-0.15917609632015228 0.4139177203178406 0.06256428360939026
-0.07152823358774185 0.22630001604557037 0.09479185938835144
0.04901689663529396 -0.23853959143161774 -0.13611580431461334
-0.21472913026809692 -0.4595932960510254 -0.013783221133053303
0.2582053542137146 -0.15996751189231873 -0.13083046674728394
0.10524246096611023 0.013222642242908478 0.17104126513004303
0.2745133340358734 0.14037105441093445 -0.13489969074726105
0.02152487076818943 0.16810062527656555 0.15877586603164673
0.11651048064231873 0.22021114826202393 -0.13567213714122772
-0.25011417269706726 0.0915883406996727 -0.13522852957248688
-0.2470140904188156 -0.1401003897190094 0.15659953653812408
0.2922119200229645 -0.10442741215229034 -0.13735157251358032
0.13369795680046082 -0.4229317903518677 0.049508269876241684
0.29664748907089233 0.0026144497096538544 -0.13602545857429504
0.29683536291122437 0.0860622227191925 -0.07350967079401016
0.13933251798152924 0.16658787429332733 -0.13733653724193573
-0.2767956852912903 -0.41231775283813477 -0.09316643327474594
-0.21776698529720306 -0.40175533294677734 -0.06550350785255432
-0.057217128574848175 0.041450135409832 -0.13687391579151154
0.28552863001823425 -0.399237722158432 0.08059515058994293
0.2965293228626251 -0.165180504322052 0.15032149851322174
0.2563537657260895 0.1377205103635788 0.16832855343818665
-0.08349071443080902 0.20450429618358612 -0.1349671334028244
0.2960170805454254 -0.054453834891319275 0.0692036896944046
0.2945612370967865 -0.168374702334404 -0.1358053982257843
-0.3081011474132538 -0.4128149151802063 0.045156773179769516
0.13921956717967987 0.22468703985214233 -0.13320721685886383
-0.2690850496292114 0.19480982422828674 -0.13398295640945435
-0.16337497532367706 0.4538019299507141 -0.016050325706601143
0.13718974590301514 -0.2457781732082367 0.13808414340019226
0.2760465145111084 -0.19616685807704926 -0.13534869253635406
-0.17233571410179138 -0.3112308979034424 -0.03260761499404907
-0.15231278538703918 -0.24078692495822906 -0.13585910201072693
0.2809596359729767 -0.1064666286110878 0.15469662845134735
-0.11174584925174713 0.14295697212219238 0.16253723204135895
0.25591596961021423 0.22717872262001038 -0.11255428194999695
0.29233628511428833 0.046656690537929535 0.1091945469379425
0.049356039613485336 0.22348882257938385 -0.13380864262580872
0.23913532495498657 0.1590476781129837 0.16874197125434875
0.21049419045448303 -0.4477725028991699 0.07056218385696411
-0.2718542218208313 0.21996600925922394 0.1052180603146553
-0.26913508772850037 0.207169771194458 -0.04564938694238663
-0.2719346880912781 -0.004681076854467392 -0.015745632350444794
0.05791401490569115 -0.25049033761024475 -0.008679162710905075
0.18302594125270844 0.22398465871810913 -0.1364896446466446
0.021974509581923485 0.20220479369163513 0.15734803676605225
0.22834159433841705 -0.3732360601425171 0.17413368821144104
0.29778847098350525 0.4208284020423889 0.08906543254852295
0.29795023798942566 0.05427123233675957 0.15553657710552216
-0.22796009480953217 0.49471139907836914 -0.020947014912962914
0.29911139607429504 -0.07374881953001022 -0.1132870763540268
0.15156902372837067 -0.20028924942016602 0.15766531229019165
0.28706076741218567 -0.37734395265579224 0.002977319061756134
-0.07014909386634827 -0.2479812502861023 0.05981583148241043
0.2961849570274353 0.19112741947174072 0.11137678474187851
-0.2737690210342407 -0.11000853776931763 -0.13276413083076477
-0.2626524865627289 -0.3150715231895447 -0.050813138484954834
-0.0615803599357605 0.22803236544132233 0.10670222342014313
-0.2719874978065491 0.04004187136888504 -0.13647663593292236
0.25812020897865295 -0.2849166989326477 -0.04238499328494072
0.2698112428188324 -0.35419824719429016 -0.05869009345769882
0.04309719055891037 0.1481846570968628 0.16637316346168518
0.14370830357074738 -0.24412566423416138 -0.05524026229977608
0.27374884486198425 0.07784917950630188 -0.1340903788805008
0.1958683282136917 0.22728624939918518 -0.12778230011463165
-0.26681971549987793 -0.0905127003788948 -0.13083712756633759
0.1565902978181839 -0.1835644692182541 0.16038858890533447
0.05048716068267822 0.14728519320487976 0.1630995124578476
-0.21935802698135376 0.42144590616226196 0.08851474523544312
-0.1686692237854004 -0.2464163899421692 -0.11717148870229721
-0.25520071387290955 -0.2515057623386383 -0.1027873158454895
-0.25571203231811523 -0.14137403666973114 -0.1359013468027115
0.09827496111392975 0.22601543366909027 -0.11695059388875961
-0.04326435551047325 -0.2454553097486496 -0.1364995390176773
0.21966256201267242 0.015137935057282448 0.16667191684246063
0.010714097879827023 0.22715668380260468 -0.17744915187358856
0.02138320729136467 -0.17772145569324493 0.16383643448352814
0.2782841920852661 -0.1643977165222168 0.1584915965795517
-0.24795860052108765 -0.1341778039932251 -0.13841570913791656
-0.2530377507209778 0.3830817937850952 -0.0565955750644207
0.02888987772166729 0.17007042467594147 0.1600927710533142
-0.21969188749790192 0.44858160614967346 0.09258043766021729
-0.2596484422683716 0.18117830157279968 -0.13374193012714386
0.27653032541275024 -0.21679595112800598 -0.13528113067150116
0.06125560402870178 0.15040792524814606 -0.15550191700458527
-0.2071034163236618 -0.08888425678014755 0.167251318693161
0.08909069001674652 -0.24914023280143738 0.07965632528066635
0.29588624835014343 0.20287585258483887 0.09642951190471649
-0.26983222365379333 0.17590703070163727 -0.13384872674942017
-0.2715744376182556 -0.21503524482250214 0.11645111441612244
-0.1762274205684662 0.03873365372419357 -0.13617132604122162
0.24613653123378754 0.14654937386512756 0.16630595922470093
-0.15807057917118073 0.40092384815216064 -0.01571495458483696
-0.17190928757190704 -0.3801756501197815 0.01861400529742241
-0.10679197311401367 0.22702233493328094 -0.024094175547361374
-0.2623853087425232 0.3851424753665924 -0.010214006528258324
-0.2909792363643646 -0.3214837312698364 0.034757599234580994
-0.24529752135276794 0.01161050796508789 -0.2697312533855438
0.2967498302459717 -0.008229481056332588 -0.02514251321554184
0.29425784945487976 0.19351381063461304 0.10874079912900925
-0.018705634400248528 0.22355450689792633 -0.13125328719615936
-0.1959344893693924 -0.41293495893478394 0.09131681174039841
-0.273510605096817 0.21347039937973022 -0.04190191626548767
0.005139626562595367 -0.21968278288841248 -0.13143593072891235
-0.24269895255565643 0.4647357761859894 -0.0421241894364357
0.07444752752780914 0.10188327729701996 -0.13852615654468536
-0.0530608594417572 -0.10127092897891998 -0.1311262995004654
-0.3089187741279602 -0.4268483519554138 -0.0004103509709239006
-0.19775338470935822 -0.29905614256858826 -0.06097300723195076
-0.1723005771636963 -0.34983327984809875 -0.027731621637940407
0.07765986025333405 0.18630938231945038 0.15592309832572937
0.293964147567749 -0.2329494059085846 -0.13249793648719788
0.14715206623077393 0.15140528976917267 0.17039261758327484
0.2966994643211365 0.15645693242549896 0.15454035997390747
0.08577874302864075 -0.1776742786169052 0.16516783833503723
-0.24832439422607422 0.03084491938352585 -0.2738513648509979
0.20599569380283356 0.46817827224731445 -0.05339306965470314
-0.27218687534332275 -0.04720718413591385 -0.13535404205322266
0.14638516306877136 0.22372913360595703 -0.1365003138780594
-0.16961252689361572 0.06340377032756805 0.16375134885311127
-0.2393801361322403 -0.251086562871933 0.07830455899238586
0.09105117619037628 0.22544674575328827 0.037923283874988556
-0.19572590291500092 0.09125343710184097 0.1641513705253601
0.28809523582458496 -0.40417250990867615 0.05617193877696991
-0.2709014117717743 -0.008277211338281631 -0.13655969500541687
0.18654820322990417 -0.18017145991325378 0.16729636490345
0.2675204873085022 -0.44390425086021423 -0.013044619932770729
0.28476065397262573 -0.18791840970516205 -0.13526301085948944
-0.17035922408103943 -0.2726238965988159 -0.03525528684258461
0.29915767908096313 -0.2194245159626007 -0.13321612775325775
0.1052808165550232 0.19316597282886505 0.1581888496875763
0.29293185472488403 0.13438262045383453 0.15436586737632751
-0.10982007533311844 -0.25274038314819336 0.07010738551616669
0.2826603055000305 0.45351505279541016 -0.048695389181375504
-0.26552489399909973 0.42622023820877075 0.02194276824593544
0.2427447885274887 -0.24879629909992218 -0.07865148037672043
0.30036965012550354 0.37871307134628296 0.03981906920671463
-0.14965437352657318 -0.3038105070590973 0.0071647437289357185
0.0813119038939476 -0.2425713837146759 -0.135194331407547
-0.13877397775650024 0.08477857708930969 0.1605166494846344
0.1993878036737442 0.45010682940483093 -0.06025504320859909
0.008028779178857803 -0.23930233716964722 -0.1364998072385788
0.2479609251022339 0.4304105341434479 0.10406025499105453
-0.27077168226242065 -0.048908933997154236 -0.13629011809825897
0.29601237177848816 0.17805805802345276 0.11824916303157806
0.02189907431602478 0.22376689314842224 -0.13346460461616516
0.28836899995803833 -0.13713465631008148 -0.13835035264492035
-0.20879602432250977 0.11778658628463745 -0.1351413130760193
0.04146882891654968 -0.012950211763381958 -0.13761571049690247
-0.23670105636119843 0.21530935168266296 -0.13467414677143097
-0.27107638120651245 0.07357718795537949 0.11528420448303223
0.16190244257450104 -0.20969456434249878 -0.13378053903579712
-0.09633880853652954 0.1398908495903015 0.16643334925174713
-0.26940298080444336 -0.33593103289604187 0.16773994266986847
0.1765604168176651 -0.4482298791408539 0.07441794127225876
0.10322142392396927 -0.1765984743833542 0.16502849757671356
-0.27208325266838074 -0.036526720970869064 -0.02130524069070816
-0.26442086696624756 -0.29592469334602356 0.07199519127607346
0.2945672571659088 -0.007595248520374298 0.11677055060863495
0.22860966622829437 0.1883835345506668 0.15800456702709198
0.25219589471817017 0.1474713236093521 0.1674271523952484
0.26620838046073914 -0.38309362530708313 0.1816752851009369
-0.20974421501159668 0.18888375163078308 0.1553913950920105
0.1768071949481964 0.22346614301204681 -0.13354496657848358
-0.1807864010334015 0.3799814283847809 -0.06471719592809677
0.2088194191455841 0.2276851385831833 -0.09542828053236008
0.267658531665802 -0.12354926764965057 -0.13366706669330597
0.0028885160572826862 0.232774019241333 0.09146498143672943
-0.2586491107940674 -0.3515265882015228 0.18274901807308197
0.2466822862625122 0.07982154190540314 0.1627744883298874
0.30002453923225403 0.10411012172698975 -0.01732265017926693
0.19447749853134155 0.2254558652639389 -0.132164865732193
-0.15861628949642181 0.3726505637168884 0.0223397109657526
-0.25801894068717957 0.4265490174293518 -0.038948968052864075
-0.06797951459884644 0.22780464589595795 0.06684892624616623
0.07966835051774979 -0.24970272183418274 0.010607385076582432
0.2586039900779724 -0.301052987575531 -0.05440184473991394
0.29473161697387695 0.39438027143478394 -0.009040923789143562
-0.27151113748550415 -0.11414311826229095 0.0010622814297676086
-0.13811063766479492 0.019050437957048416 -0.1363525688648224
0.29497793316841125 0.16769073903560638 0.07717113941907883
-0.27165278792381287 -0.1571122407913208 -0.12714296579360962
-0.2721889615058899 0.17604565620422363 -0.09391305595636368
0.21425144374370575 -0.23815618455410004 -0.13911789655685425
-0.26435035467147827 -0.33166924118995667 -0.07280763983726501
0.18985839188098907 -0.1789562702178955 0.16419045627117157
0.2950837016105652 0.1684325635433197 0.09475862979888916
0.29780641198158264 -0.017623618245124817 -0.13492007553577423
-0.14220640063285828 0.13570141792297363 0.16484512388706207
0.275858610868454 -0.41622284054756165 -0.048033688217401505
-0.19934386014938354 -0.31333568692207336 -0.06309370696544647
-0.1788124293088913 0.18828491866588593 0.1599319577217102
-0.26749101281166077 0.3787841200828552 0.05974043905735016
-0.15116624534130096 0.19391947984695435 0.15852424502372742
-0.2689613401889801 -0.0036371275782585144 -0.13607102632522583
-0.319426953792572 -0.3604784309864044 -0.0006870059296488762
0.023764044046401978 -0.24757778644561768 -0.1362031102180481
0.26138097047805786 -0.44208791851997375 0.1341647207736969
-0.2680123746395111 0.18275490403175354 -0.13359859585762024
0.06971492618322372 -0.25087594985961914 -0.12344222515821457
0.23061035573482513 0.4768853783607483 -0.07316481322050095
-0.19100914895534515 -0.2496708780527115 -0.10472441464662552
-0.26003938913345337 0.36826154589653015 -0.016807986423373222
-0.2893264591693878 -0.41703087091445923 0.08149237185716629
0.13876307010650635 -0.2481004297733307 -0.13464084267616272
0.06288633495569229 0.13305838406085968 -0.1595025211572647
0.2970343828201294 -0.17349617183208466 -0.07972647249698639
0.29216986894607544 -0.0995132103562355 -0.1359228640794754
0.1950618177652359 0.20708134770393372 -0.1338118016719818
