-0.009435342624783516 0.11100604385137558 -0.13511431217193604
-0.2665643095970154 0.07880321145057678 -0.13196231424808502
-0.33789414167404175 -0.3629750907421112 0.07223837077617645
-0.22690299153327942 -0.4604542553424835 0.10089028626680374
0.27149784564971924 0.44997572898864746 -0.07296700775623322
0.18324293196201324 -0.42618340253829956 -0.06760947406291962
0.24618995189666748 0.044583939015865326 0.16356565058231354
-0.18008144199848175 0.4653133451938629 -0.04229074716567993
0.24998101592063904 -0.2502642273902893 0.0773375928401947
0.29535776376724243 -0.1614072024822235 -0.13481569290161133
0.2241971492767334 -0.26539385318756104 0.07629552483558655
0.2971191108226776 0.02906968630850315 0.14227533340454102
0.08737511932849884 0.22865979373455048 -0.13053365051746368
-0.17019538581371307 0.22665131092071533 -0.12709291279315948
0.15601883828639984 0.1587287038564682 0.16510732471942902
-0.023550627753138542 0.11483016610145569 -0.1350596696138382
-0.2567356824874878 -0.1241476982831955 -0.13439570367336273
0.09479593485593796 -0.010897556319832802 -0.13526153564453125
-0.24363569915294647 -0.4221394956111908 0.18424448370933533
-0.2697514295578003 0.048180773854255676 -0.13336357474327087
-0.2699074447154999 -0.24255520105361938 0.022660793736577034
-0.06231316924095154 0.2274402379989624 0.04090031608939171
0.2427082508802414 0.23036372661590576 0.1491362303495407
-0.2720370292663574 -0.05552426725625992 -0.12334951758384705
-0.045183006674051285 0.1574820578098297 0.16822950541973114
-0.09428973495960236 -0.035214751958847046 -0.13546344637870789
0.2956717610359192 0.20466110110282898 -0.12341001629829407
0.2961059808731079 -0.24436886608600616 0.12459039688110352
0.049123842269182205 0.2268221378326416 -0.13019131124019623
-0.26336923241615295 -0.1460801512002945 0.15676407516002655
-0.2714163362979889 -0.0004992904141545296 -0.1259370595216751
-0.2689172923564911 -0.018209706991910934 0.15442803502082825
0.29110971093177795 -0.031242216005921364 0.1565568596124649
0.2951235771179199 0.02741226553916931 -0.1336706578731537
0.26399677991867065 -0.4228832721710205 -0.076250359416008
-0.2726820707321167 0.06657019257545471 -0.1330963522195816
0.2853700816631317 -0.23822098970413208 -0.1332058608531952
0.29707905650138855 -0.0798024907708168 -0.12413203716278076
-0.22854028642177582 -0.42616885900497437 0.1851601004600525
0.23792818188667297 -0.38358327746391296 -0.08783656358718872
0.2914772033691406 0.22867849469184875 -0.11126790940761566
-0.21440014243125916 -0.25039130449295044 -0.12121591717004776
0.24624685943126678 0.1553036868572235 0.16384193301200867
-0.2865230143070221 -0.3212345540523529 0.16043098270893097
-0.1846408247947693 0.15781772136688232 0.16938035190105438
-0.33297836780548096 -0.3541914224624634 0.16776201128959656
0.014715498313307762 -0.24907037615776062 -0.05913610756397247
0.2819957733154297 0.4667762517929077 0.1285298764705658
-0.15245503187179565 -0.23707889020442963 -0.13559097051620483
0.19741296768188477 -0.4459681808948517 -0.06787426769733429
-0.12059907615184784 0.061168260872364044 -0.13467563688755035
0.13693685829639435 -0.44262439012527466 0.06821360439062119
0.23119309544563293 0.12866583466529846 0.1699788123369217
0.2508929967880249 -0.39360013604164124 0.19268149137496948
-0.2495407611131668 -0.24116834998130798 -0.13624610006809235
0.27603134512901306 0.4678184390068054 0.12588846683502197
-0.27233245968818665 -0.3537512719631195 0.19702154397964478
0.18371567130088806 0.4457961618900299 0.10845524817705154
-0.3353325426578522 -0.3480369448661804 0.12373527884483337
-0.27431055903434753 -0.13446319103240967 -0.13326847553253174
-0.20658013224601746 -0.40744173526763916 0.14245542883872986
-0.11165201663970947 0.06188470125198364 0.17068178951740265
0.20446649193763733 0.3295106589794159 0.05331219732761383
0.07127818465232849 -0.03297200798988342 -0.1358112394809723
-0.2580240070819855 -0.3651653826236725 0.19608397781848907
0.18924599885940552 0.10083498060703278 -0.13507944345474243
-0.28725704550743103 -0.025040116161108017 -0.23334555327892303
0.2827053666114807 0.1423395723104477 -0.13402463495731354
0.28687721490859985 -0.4308216869831085 0.011972203850746155
0.28954723477363586 -0.20690038800239563 -0.13505113124847412
-0.16214993596076965 0.16254842281341553 0.16282199323177338
0.24724672734737396 -0.24522174894809723 -0.13412870466709137
-0.022697705775499344 0.10512930899858475 -0.13510097563266754
-0.07536109536886215 0.1468343436717987 0.17141316831111908
0.2960541248321533 -0.0010028313845396042 0.1466495394706726
-0.2596064507961273 0.3904668390750885 0.10607984662055969
-0.008992224000394344 0.1829032599925995 -0.13576604425907135
-0.2709270119667053 -0.24418796598911285 -0.08388663828372955
-0.2945515513420105 -0.31438860297203064 0.13657084107398987
0.10862307250499725 0.21642695367336273 -0.13424557447433472
-0.2711540162563324 0.029108412563800812 -0.12817499041557312
0.16112495958805084 -0.4195236563682556 -0.04222026467323303
-0.2650075852870941 -0.25029975175857544 -0.10226528346538544
-0.028372690081596375 0.1707458347082138 -0.13480530679225922
-0.3361744284629822 -0.36137503385543823 0.13704538345336914
0.2908076345920563 -0.16793501377105713 -0.1351671814918518
-0.2960486114025116 -0.31742721796035767 0.10206972062587738
0.2774815559387207 -0.44544717669487 0.0786515399813652
0.2891327142715454 0.22378292679786682 -0.13392698764801025
0.2863404154777527 -0.15844672918319702 -0.1343936324119568
0.2875533998012543 0.22919803857803345 -0.00604473240673542
0.2849576473236084 -0.22091582417488098 0.1570083498954773
-0.2378840446472168 0.37253543734550476 -0.07175804674625397
0.19511187076568604 -0.33462974429130554 0.11798691004514694
0.155134379863739 -0.4472179412841797 0.16358846426010132
0.14859001338481903 -0.43365347385406494 -0.023643702268600464
0.272599995136261 0.34944120049476624 -0.0652395635843277
-0.22083570063114166 0.2244902104139328 -0.13081830739974976
-0.23891113698482513 -0.037908151745796204 -0.13433517515659332
-0.26943206787109375 0.15386781096458435 -0.13292717933654785
0.1945924460887909 0.3444289267063141 -0.0380597859621048
-0.2372262328863144 -0.2525166869163513 -0.039305172860622406
0.286146342754364 -0.19317537546157837 0.1569613516330719
-0.21576327085494995 -0.2522330582141876 -0.06370475143194199
-0.27035829424858093 -0.24451908469200134 0.06666368246078491
0.2842886745929718 -0.22799168527126312 -0.13352325558662415
0.020429959520697594 0.2294919192790985 0.14007413387298584
0.2800629734992981 -0.443155974149704 0.14984051883220673
-0.26925042271614075 0.05362362042069435 -0.03504794463515282
0.25805896520614624 0.12379127740859985 0.15483273565769196
0.28489843010902405 -0.0006813667714595795 -0.1350139081478119
-0.15869411826133728 0.40745434165000916 0.08403781056404114
-0.1263141930103302 -0.24908117949962616 0.13967852294445038
-0.1031302735209465 0.17704874277114868 0.1559392362833023
0.0539240799844265 0.2286096066236496 -0.12432967126369476
-0.2658674716949463 0.22752760350704193 -0.04784446954727173
-0.2716846764087677 -0.12390504777431488 -0.062244486063718796
-0.23966318368911743 -0.25026315450668335 0.10074185580015182
-0.25777289271354675 0.3614775240421295 -0.0319841243326664
-0.18550193309783936 0.2171708196401596 0.15915660560131073
0.27728426456451416 -0.3433647155761719 0.09584326297044754
0.2626478374004364 -0.42947161197662354 -0.07748942822217941
-0.22072334587574005 0.22720476984977722 -0.12411296367645264
-0.2718411386013031 0.21665865182876587 -0.10139644145965576
-0.24213115870952606 -0.2986834645271301 -0.06462115049362183
-0.2714410126209259 -0.14379268884658813 -0.13261912763118744
-0.17984241247177124 0.46735718846321106 0.10374096035957336
-0.24271735548973083 0.3230399787425995 -0.0024178726598620415
-0.08600031584501266 0.22756841778755188 0.14885123074054718
0.27813446521759033 0.339101105928421 -0.04626310616731644
-0.1703726053237915 -0.19874481856822968 0.15464885532855988
-0.06507615000009537 -0.2514461874961853 -0.12114697694778442
-0.032006990164518356 0.11121964454650879 -0.13526661694049835
0.29516613483428955 0.2230064570903778 0.12009283900260925
-0.19668185710906982 0.49100586771965027 0.10774333029985428
0.11970142275094986 -0.24861609935760498 0.15076851844787598
0.1539711058139801 -0.23887795209884644 -0.13662561774253845
0.29545632004737854 0.04082389920949936 -0.12393268942832947
-0.16231857240200043 0.4117836356163025 0.10021424293518066
0.13646726310253143 -0.43624448776245117 0.09723630547523499
0.2838204503059387 0.22235049307346344 -0.13376404345035553
0.05891527980566025 0.08978626132011414 -0.1347406655550003
-0.15747377276420593 -0.28505566716194153 0.005823432467877865
0.29193127155303955 -0.228876531124115 -0.13499677181243896
0.2901330292224884 0.22334949672222137 -0.13315291702747345
-0.2596566081047058 0.11457812041044235 -0.1343849152326584
-0.2714512348175049 -0.15553946793079376 -0.12879779934883118
-0.2697408199310303 -0.04738222807645798 -0.13423816859722137
-0.2651981711387634 -0.09165144711732864 -0.13418905436992645
-0.34128841757774353 -0.39462795853614807 -0.010542867705225945
0.251345694065094 0.3109043538570404 0.05052877217531204
-0.260813444852829 0.22697117924690247 -0.05533076077699661
-0.2701979875564575 0.03258838877081871 -0.13392677903175354
0.02666279301047325 -0.25050750374794006 0.0668700635433197
-0.32390689849853516 -0.42615607380867004 -0.058341167867183685
0.1509251594543457 0.21648474037647247 0.1579088568687439
0.2828882038593292 0.22828713059425354 0.047241490334272385
0.13956432044506073 -0.4390166401863098 0.014741139486432076
0.30016738176345825 0.4443870484828949 0.05713208019733429
0.2924458384513855 -0.22011974453926086 0.15554185211658478
0.2820303738117218 -0.4433899223804474 0.16168108582496643
0.25746971368789673 0.14283177256584167 0.15483404695987701
-0.26963454484939575 -0.04813177511096001 -0.13386426866054535
-0.27127933502197266 0.12093642354011536 0.1505311131477356
0.2889012098312378 0.34235450625419617 0.0003456342965364456
-0.32925504446029663 -0.4206179976463318 -0.04816514998674393
0.2963070571422577 -0.2489764243364334 0.09487125277519226
-0.2730899453163147 -0.027601458132267 -0.13139000535011292
0.16820667684078217 -0.39786699414253235 0.17640742659568787
-0.27079102396965027 0.01641058176755905 0.15282994508743286
0.2982531189918518 -0.1882757842540741 0.1455385833978653
0.29477769136428833 -0.23633833229541779 0.1022624745965004
0.11772669106721878 0.22688016295433044 -0.13064683973789215
0.2157592624425888 0.35084429383277893 -0.06797227263450623
-0.2702757716178894 -0.227103590965271 -0.13093975186347961
0.24520963430404663 -0.006449751555919647 0.1639305204153061
-0.27170631289482117 -0.007741918787360191 -0.12298509478569031
0.28366589546203613 0.09922003746032715 -0.133805513381958
-0.010626036673784256 -0.23699143528938293 -0.1353156864643097
0.04333050176501274 -0.23882956802845 0.15729151666164398
-0.2714197635650635 0.19909660518169403 -0.0077159106731414795
0.28539955615997314 -0.22634315490722656 -0.13417871296405792
-0.2696382701396942 -0.229583740234375 0.12849169969558716
-0.18391862511634827 0.2204292267560959 -0.13404841721057892
-0.19013608992099762 0.33987414836883545 -0.039966266602277756
-0.01669829525053501 0.07269265502691269 0.17039388418197632
-0.011377746239304543 0.17560409009456635 0.15360493957996368
0.09528308361768723 -0.24684065580368042 0.15348878502845764
0.2121013104915619 0.2861895263195038 -0.00957613717764616
-0.2028520405292511 0.22010652720928192 -0.13279962539672852
-0.0383005328476429 -0.2417701631784439 -0.13551923632621765
0.2989063858985901 0.01273750327527523 0.14616219699382782
-0.2670753002166748 -0.05483474209904671 0.15564829111099243
-0.17121906578540802 0.3409954905509949 -0.01143205538392067
-0.23641368746757507 0.25863751769065857 -0.014327645301818848
-0.26312848925590515 0.1954844444990158 0.15883909165859222
-0.25257378816604614 0.010467123240232468 0.1578793227672577
0.28473415970802307 -0.2500029504299164 -0.0665881559252739
-0.2853011190891266 -0.44161540269851685 -0.08609789609909058
-0.2709456980228424 -0.09703279286623001 -0.12847614288330078
-0.28297871351242065 -0.4545027017593384 -0.07703658938407898
0.22911901772022247 0.22717440128326416 -0.12936019897460938
-0.22958259284496307 -0.32865169644355774 -0.08372186124324799
-0.17473649978637695 -0.27011144161224365 -0.03703916817903519
-0.2728153467178345 -0.24464276432991028 -0.1313238888978958
0.26651471853256226 0.2197645753622055 -0.1336452215909958
0.061143629252910614 0.2124248743057251 0.15790660679340363
0.292460173368454 -0.1386626958847046 -0.13553854823112488
-0.26713430881500244 -0.2458757758140564 0.14321817457675934
-0.16918474435806274 0.42408862709999084 0.10043129324913025
-0.18860924243927002 0.23799245059490204 -0.018823664635419846
0.12395705282688141 0.1669127643108368 0.1580391377210617
-0.2527960538864136 0.23629337549209595 -0.006437651813030243
-0.24452467262744904 0.3288500905036926 0.03634932264685631
0.2677980661392212 0.22475861012935638 0.15832620859146118
-0.30031639337539673 -0.3277594745159149 0.18634261190891266
-0.1398465782403946 -0.2487061768770218 -0.1289859563112259
0.27090951800346375 0.4536895453929901 0.11917102336883545
0.23709654808044434 -0.3129386603832245 -0.07354086637496948
0.28705281019210815 -0.13524241745471954 -0.13582982122898102
-0.21908502280712128 -0.17771035432815552 0.16769489645957947
-0.2695043385028839 -0.06797190010547638 0.14707592129707336
-0.0070475563406944275 -0.06992870569229126 -0.13486738502979279
0.286795437335968 -0.21085220575332642 -0.13526324927806854
-0.24838918447494507 -0.2525988519191742 0.04950548708438873
-0.05929813161492348 -0.18474915623664856 0.1616773158311844
0.18941736221313477 0.15563952922821045 0.16840925812721252
-0.2185627520084381 -0.06517492234706879 0.1676325500011444
-0.2290976196527481 -0.013025231659412384 0.15463675558567047
0.2998696267604828 -0.23439723253250122 -0.1288522481918335
-0.26966628432273865 -0.00809025764465332 0.14480635523796082
-0.1705876588821411 0.22636978328227997 -0.1290821135044098
0.21451884508132935 0.21686546504497528 0.15762639045715332
-0.2725050449371338 -0.08194619417190552 -0.132560595870018
0.2738116681575775 -0.44460636377334595 0.059316616505384445
0.2102089524269104 0.12772563099861145 -0.13474810123443604
0.17830732464790344 -0.25405630469322205 -0.009011577814817429
-0.22180384397506714 -0.1499110609292984 0.16317158937454224
-0.2663794159889221 0.22430747747421265 0.1301058530807495
-0.10295780748128891 0.1669463813304901 -0.13536445796489716
0.2842746078968048 0.43675467371940613 0.12753301858901978
-0.2816299796104431 -0.3133995532989502 0.013582475483417511
-0.2702881097793579 -0.39752528071403503 0.1995791792869568
-0.25096964836120605 0.23040398955345154 -0.029334168881177902
-0.07273132354021072 0.22757302224636078 -0.12526191771030426
0.2331610471010208 0.4727438688278198 0.1055048257112503
0.03919195383787155 0.11670462787151337 -0.1333463490009308
0.009570389986038208 -0.24094504117965698 -0.13657499849796295
0.29664433002471924 -0.23734892904758453 -0.07833734154701233
-0.04068382456898689 0.18282616138458252 -0.16457761824131012
0.06014794856309891 0.16491524875164032 0.15783898532390594
-0.2710336446762085 0.08487571030855179 -0.13363851606845856
0.20523491501808167 0.2278241366147995 -0.02725963108241558
0.10950041562318802 0.2257327288389206 0.14120358228683472
-0.17120149731636047 0.23331554234027863 0.015046213753521442
-0.1598288118839264 -0.25118982791900635 -0.12896215915679932
-0.24903132021427155 -0.23972435295581818 0.15754491090774536
-0.20059779286384583 0.4428238570690155 -0.07239003479480743
0.29454776644706726 0.22342827916145325 -0.09535820037126541
0.24277319014072418 -0.024648264050483704 0.16762574017047882
0.2301027625799179 -0.042138852179050446 0.1705487072467804
-0.2739028036594391 -0.15651632845401764 -0.1351185441017151
0.173235684633255 0.40046221017837524 -0.0008574381936341524
-0.2715657353401184 -0.24617630243301392 0.07647794485092163
-0.25288283824920654 -0.29888519644737244 -0.04116128012537956
-0.04019617289304733 0.21758128702640533 0.1574457734823227
-0.26912379264831543 0.2230904996395111 0.0196525976061821
0.2252230942249298 -0.2814458906650543 -0.061590030789375305
0.299655944108963 -0.12241166830062866 0.07114335894584656
-0.27435365319252014 0.12956805527210236 -0.1264147162437439
0.04762347787618637 0.10688096284866333 -0.1349106729030609
-0.31871768832206726 -0.3615918457508087 0.19305913150310516
0.10603033006191254 0.22891877591609955 0.15164022147655487
-0.2590922713279724 -0.14083512127399445 -0.13666518032550812
-0.2710195481777191 -0.1811552792787552 -0.12683533132076263
0.13337954878807068 0.2250574231147766 -0.13278728723526
0.015225913375616074 -0.18932829797267914 0.1571464240550995
-0.269741028547287 0.09715554118156433 0.1506555825471878
-0.16227571666240692 0.34792643785476685 0.02581876516342163
-0.14422611892223358 -0.25176286697387695 0.053013674914836884
-0.1518879532814026 -0.262406587600708 -0.0015495293773710728
0.04928230494260788 -0.18078884482383728 0.1658877283334732
-0.26906049251556396 0.09869068115949631 -0.04713303595781326
-0.16409575939178467 0.39564424753189087 0.09443815052509308
0.1375126987695694 -0.393251895904541 0.0563000924885273
0.21924984455108643 0.22898146510124207 -0.03854764625430107
-0.1494521051645279 0.21566645801067352 -0.13431203365325928
-0.32649049162864685 -0.413923442363739 -0.06630959361791611
-0.2320690006017685 -0.17059941589832306 0.1546027809381485
-0.013774296268820763 0.1820802092552185 -0.13527661561965942
-0.012526707723736763 -0.2489164173603058 -0.1291446089744568
0.29325029253959656 -0.24762196838855743 -0.06647409498691559
0.2978369891643524 -0.18074791133403778 -0.12418076395988464
0.2993603050708771 0.19423416256904602 -0.12221339344978333
-0.27397647500038147 -0.1429034322500229 -0.13510578870773315
0.19865520298480988 0.48775050044059753 0.10853762179613113
0.2896835207939148 0.08545507490634918 0.15822771191596985
0.20009678602218628 0.43664050102233887 0.10392928123474121
0.18851642310619354 -0.3633492588996887 0.14668190479278564
-0.22062955796718597 0.49573734402656555 -0.025730667635798454
-0.19216689467430115 -0.26616889238357544 -0.050104349851608276
-0.17726419866085052 -0.2467009574174881 0.15267962217330933
-0.27215272188186646 0.10592819005250931 -0.12784527242183685
-0.1625550091266632 0.3991524279117584 0.09751379489898682
-0.22506339848041534 -0.2726423144340515 -0.05530623719096184
0.09499014168977737 0.15533941984176636 0.16798704862594604
-0.10482728481292725 0.22733116149902344 -0.12817424535751343
-0.24064716696739197 0.2361096739768982 0.04523196816444397
0.14112402498722076 -0.2497858703136444 -0.12177532911300659
0.2849980890750885 0.4270075559616089 0.13146056234836578
0.2632489502429962 -0.3605956733226776 -0.07255730032920837
-0.27210354804992676 0.09608388692140579 -0.13235816359519958
0.20899713039398193 0.4939452111721039 -0.03397722169756889
0.17615313827991486 -0.25630706548690796 0.031292885541915894
0.06685128062963486 0.2157185822725296 0.15794849395751953
0.2836610972881317 -0.24800698459148407 0.07506066560745239
0.00022920221090316772 0.18075764179229736 -0.13213415443897247
-0.33374106884002686 -0.40632879734039307 -0.04583572596311569
-0.26935866475105286 0.008288328535854816 -0.1328810155391693
0.2631343901157379 -0.36913979053497314 0.1643085777759552
0.19361594319343567 0.4929952919483185 0.005601690150797367
0.2796391248703003 0.460420161485672 0.12847676873207092
-0.07262814044952393 0.16842301189899445 0.15539391338825226
-0.12124309688806534 0.15453127026557922 0.17020516097545624
-0.11545905470848083 -0.12564849853515625 -0.1348235011100769
0.16607855260372162 -0.39619988203048706 0.17787350714206696
0.13817882537841797 0.22590400278568268 -0.13268840312957764
-0.22128713130950928 -0.17233185470104218 0.16173745691776276
-0.2700291574001312 0.21614812314510345 0.07302415370941162
-0.1524515599012375 0.2279263734817505 -0.12821590900421143
-0.15835851430892944 -0.19791552424430847 0.1536821722984314
0.21794387698173523 -0.2586767375469208 0.07137013971805573
0.1896953284740448 -0.4467070996761322 0.1049598678946495
0.29365846514701843 0.2260790765285492 0.14570726454257965
0.17271654307842255 -0.17840227484703064 0.16679957509040833
-0.21889397501945496 -0.4637453556060791 0.06471088528633118
-0.20604228973388672 0.03502964973449707 0.17173899710178375
0.11484752595424652 -0.015508213080465794 0.16854611039161682
0.28946739435195923 0.35107678174972534 0.06935393810272217
-0.1442863792181015 -0.25267571210861206 0.024960801005363464
-0.03304131329059601 -0.24190178513526917 -0.1354249268770218
0.2884184420108795 -0.1447773426771164 -0.1350163072347641
0.2692561745643616 -0.38399115204811096 0.17719826102256775
-0.010127129033207893 0.09959311038255692 -0.13404963910579681
-0.2854677140712738 -0.044373512268066406 -0.23262499272823334
0.1558123379945755 0.1633664220571518 0.1596737951040268
0.16766440868377686 0.11278428137302399 0.17062702775001526
0.1444997489452362 -0.42897915840148926 -0.01181592233479023
0.23959694802761078 0.3349601626396179 0.08301112055778503
-0.26923868060112 0.03595253825187683 -0.1332702785730362
-0.2695704698562622 -0.07670988142490387 0.1503899097442627
-0.27195560932159424 -0.23524489998817444 -0.12978558242321014
-0.09869187325239182 0.13360200822353363 0.1714363396167755
-0.05892738699913025 0.1788514256477356 0.15571537613868713
-0.034231457859277725 -0.017735641449689865 0.16998639702796936
0.29669100046157837 -0.13102689385414124 -0.1280817687511444
-0.24235504865646362 0.40018826723098755 0.10995356738567352
-0.27178528904914856 0.10259857773780823 -0.03604227304458618
-0.0024135056883096695 0.15884578227996826 0.1661534607410431
0.2747417688369751 0.4635004997253418 0.12265989184379578
0.2734202742576599 0.3872205913066864 -0.07783005386590958
0.29793253540992737 0.15104103088378906 -0.12254056334495544
-0.27056071162223816 0.21606659889221191 0.14365924894809723
-0.25309520959854126 -0.31190046668052673 -0.06975509971380234
0.1517191231250763 0.22400327026844025 -0.13466693460941315
-0.10520349442958832 -0.24329136312007904 -0.1352495402097702
0.2966368794441223 -0.1536060869693756 0.15239152312278748
0.15443536639213562 -0.24827955663204193 0.14863519370555878
-0.21111485362052917 -0.20391684770584106 0.1555180847644806
-0.050040341913700104 0.08239098638296127 -0.13307945430278778
0.2895919680595398 -0.24793168902397156 0.0015621371567249298
-0.2712402939796448 -0.01902257278561592 -0.1323285698890686
-0.11929737031459808 -0.1993129551410675 0.15402762591838837
0.2817429006099701 -0.4450125992298126 0.08649024367332458
0.06897901743650436 -0.20162616670131683 0.15603391826152802
-0.22214923799037933 -0.4525318145751953 0.11839178204536438
-0.0565473735332489 0.22565387189388275 -0.13242881000041962
-0.2690105438232422 0.05204221233725548 -0.13604509830474854
-0.2108946442604065 -0.17639203369617462 0.16905321180820465
0.014145098626613617 0.2075825333595276 -0.13603846728801727
0.24657078087329865 0.466874361038208 0.10787107795476913
-0.2701437771320343 -0.2074650526046753 0.04271935671567917
-0.2718666195869446 0.040075697004795074 -0.13216543197631836
0.29786351323127747 -0.1933310627937317 -0.13030722737312317
-0.2734013795852661 0.04565275087952614 -0.13376401364803314
0.006622474640607834 -0.24528655409812927 0.15561971068382263
0.0766167938709259 -0.03192947059869766 0.16947457194328308
0.2615606486797333 0.31752684712409973 0.05277217924594879
-0.26890018582344055 -0.22790007293224335 -0.1351463794708252
-0.04696955159306526 0.21927227079868317 0.1575077474117279
-0.06670598685741425 0.17843636870384216 0.15555942058563232
0.2678198218345642 -0.41268110275268555 0.19726955890655518
-0.27078649401664734 0.16632258892059326 -0.13184598088264465
0.28619179129600525 -0.03162802383303642 -0.13523118197917938
0.07899998873472214 -0.2501950263977051 -0.016070688143372536
-0.21888615190982819 -0.07933635264635086 0.16869015991687775
0.2601429522037506 0.41006380319595337 0.10745100677013397
0.28784534335136414 0.22788181900978088 -0.13376028835773468
-0.08905763179063797 0.21312685310840607 0.15766850113868713
0.14662905037403107 -0.4233737885951996 0.16775250434875488
-0.0052659884095191956 -0.17800576984882355 0.1664329469203949
-0.27230048179626465 -0.0836910605430603 -0.13254784047603607
0.23409315943717957 0.03354458510875702 0.1684611737728119
0.2945914566516876 -0.22913004457950592 -0.1329740285873413
0.18362827599048615 -0.3908591866493225 0.18082831799983978
0.29782310128211975 0.11668039858341217 0.14871001243591309
0.2986006736755371 0.2126394361257553 -0.08089682459831238
0.29585105180740356 -0.189545676112175 -0.13131016492843628
0.04757588729262352 -0.23085564374923706 -0.135658860206604
-0.2676418125629425 0.19335195422172546 0.15830236673355103
0.2909298837184906 -0.12431813776493073 -0.13517792522907257
-0.04014794901013374 -0.25020068883895874 -0.1285344660282135
0.2973327338695526 -0.1643821895122528 0.15075357258319855
0.28079313039779663 0.22739741206169128 -0.04653468728065491
0.29174715280532837 0.42498114705085754 0.12930376827716827
-0.07027828693389893 -0.24966208636760712 -0.0961047038435936
0.27319076657295227 0.30687612295150757 0.014305423945188522
-0.1782948076725006 0.4115389883518219 -0.06323525309562683
0.09992340207099915 -0.20143994688987732 0.1563355028629303
-0.28976401686668396 -0.040903203189373016 -0.23754633963108063
0.16337792575359344 -0.1073078140616417 -0.13502123951911926
-0.26218730211257935 -0.25115159153938293 -0.0651441290974617
0.288017213344574 -0.24909943342208862 -0.010591212660074234
-0.15813225507736206 -0.2573040723800659 0.03929586708545685
-0.2907203435897827 -0.38191694021224976 -0.08480676263570786
0.012334011495113373 0.2018057256937027 -0.1346229761838913
-0.12835632264614105 0.16858811676502228 0.15397949516773224
-0.020206037908792496 -0.249899223446846 0.14313150942325592
-0.02431585267186165 0.11381196975708008 -0.18818113207817078
-0.27011147141456604 0.07977308332920074 -0.015768958255648613
-0.2285688817501068 -0.41453295946121216 0.18754854798316956
-0.2720734775066376 -0.07104270905256271 -0.13102181255817413
-0.3183736801147461 -0.36824831366539 0.16380241513252258
-0.2694566249847412 0.16866573691368103 0.14705072343349457
-0.21856646239757538 0.06112781912088394 0.1660173237323761
-0.24882817268371582 0.23536548018455505 -0.01754002645611763
-0.20883247256278992 -0.03461429849267006 0.17087653279304504
0.2977467477321625 -0.23670586943626404 -0.11758878827095032
-0.06274522840976715 -0.2410336285829544 -0.13503079116344452
0.25122588872909546 -0.3799479901790619 0.17768222093582153
0.28917378187179565 -0.024440841749310493 -0.13359461724758148
0.2593075633049011 -0.24845370650291443 0.019352683797478676
-0.2153499722480774 -0.03344472497701645 0.1689993292093277
-0.26466310024261475 -0.251309871673584 -0.10176645219326019
0.034645695239305496 0.11551399528980255 -0.13326773047447205
-0.05349240452051163 0.217289537191391 -0.13407616317272186
-0.2671336233615875 0.04477875679731369 0.15669608116149902
-0.2709748148918152 0.10697007179260254 -0.13186515867710114
0.231800377368927 -0.06574450433254242 0.16985557973384857
0.29326045513153076 -0.01843928173184395 -0.1344095766544342
0.3001945912837982 -0.11751435697078705 -0.1279837191104889
0.29585862159729004 -0.2463889718055725 0.07704083621501923
-0.14146971702575684 -0.2553441822528839 -0.011544626206159592
-0.3271048367023468 -0.346972793340683 0.1980573683977127
-0.27315062284469604 -0.23891004920005798 -0.1296500265598297
0.2879670560359955 -0.2488252818584442 -0.062161341309547424
-0.17118950188159943 0.22117654979228973 -0.13340385258197784
-0.2563340961933136 -0.3084477484226227 0.10498407483100891
-0.19258849322795868 0.4911741614341736 -0.0279808659106493
-0.19642820954322815 0.3280615508556366 0.052864931523799896
0.11295236647129059 -0.2508894205093384 0.14914365112781525
0.28428715467453003 0.07825915515422821 -0.13499733805656433
-0.17966657876968384 0.48097464442253113 -0.028509221971035004
0.2952079772949219 -0.043207768350839615 -0.12856434285640717
-0.26982229948043823 0.019832607358694077 -0.13262411952018738
0.24317273497581482 0.047147490084171295 0.1644611954689026
0.1885133683681488 -0.444942831993103 0.1921827644109726
0.20065248012542725 -0.43365591764450073 -0.07960046827793121
0.2908761203289032 0.22719806432724 -0.12527872622013092
-0.039019759744405746 0.1664757877588272 -0.15234974026679993
-0.16042938828468323 -0.2537057399749756 -0.034824222326278687
0.1861741989850998 -0.18055503070354462 0.16440963745117188
-0.2863651216030121 -0.45103442668914795 -0.08119192719459534
0.2963230013847351 0.19573000073432922 -0.13036666810512543
0.2370152771472931 -0.2718508541584015 0.07827781140804291
0.18351073563098907 0.34081387519836426 -0.012678055092692375
0.2973555624485016 0.13783419132232666 -0.11907292902469635
0.20317590236663818 0.5049334168434143 0.06844201683998108
0.002007965464144945 0.23222094774246216 0.13967204093933105
-0.3114035427570343 -0.3244197964668274 0.18319757282733917
0.19039995968341827 0.15991927683353424 0.16287048161029816
-0.03586290031671524 -0.2485438734292984 0.1473217010498047
-0.21853837370872498 0.1429988443851471 0.16532056033611298
0.017901698127388954 0.22302405536174774 0.15605968236923218
-0.06602533161640167 -0.2505335807800293 -0.006605371832847595
0.20295801758766174 0.22855497896671295 0.038897804915905
0.2969515025615692 0.15432772040367126 -0.038028471171855927
0.2018800973892212 0.19962191581726074 -0.13307428359985352
0.29547154903411865 0.11934009194374084 -0.1346975713968277
0.19259604811668396 -0.25591394305229187 0.0660359263420105
0.1220727488398552 0.22820623219013214 0.08337622880935669
0.13875547051429749 0.16260926425457 0.16113589704036713
-0.20499491691589355 0.44347402453422546 -0.0736900046467781
0.1084267869591713 -0.24628570675849915 -0.13447195291519165
0.15427525341510773 0.09720510244369507 -0.1342509686946869
0.2415105700492859 -0.3712971806526184 -0.08821351081132889
-0.10472536087036133 0.16402265429496765 0.16164658963680267
0.29696139693260193 0.04656513035297394 0.14214617013931274
0.1447407752275467 -0.24606020748615265 0.1555694192647934
0.2917384207248688 -0.24876704812049866 -0.055635109543800354
0.29411977529525757 0.18219789862632751 0.15839701890945435
-0.04705104976892471 0.16090768575668335 0.16417314112186432
-0.16001813113689423 0.22520557045936584 -0.12641620635986328
0.173598974943161 -0.26606518030166626 -0.012193388305604458
-0.019638635218143463 0.21572844684123993 -0.17487174272537231
0.29539528489112854 -0.22740285098552704 0.1522660255432129
-0.21963049471378326 0.13630570471286774 0.16421334445476532
-0.1707918643951416 0.17584018409252167 0.15551503002643585
0.27813443541526794 0.23193883895874023 0.011694332584738731
-0.20587140321731567 -0.24761821329593658 0.15196050703525543
-0.29745572805404663 -0.42243826389312744 -0.08934590220451355
0.2901097238063812 0.14126691222190857 0.15816806256771088
-0.2699354887008667 0.2204950749874115 -0.08233201503753662
-0.02004219777882099 -0.17241612076759338 0.1688919961452484
0.01984965056180954 0.0909195989370346 -0.13554957509040833
0.20850348472595215 0.28733590245246887 0.02335711382329464
0.2950300872325897 0.16465434432029724 -0.10857182741165161
-0.27031785249710083 0.147792786359787 -0.13108916580677032
0.2957765758037567 0.1992051899433136 -0.12130099534988403
-0.21914169192314148 -0.465544730424881 0.048346634954214096
-0.3383423089981079 -0.3605496883392334 0.1187320351600647
0.2870718538761139 0.3654603958129883 0.1082722544670105
-0.013985298573970795 -0.24913817644119263 -0.11994631588459015
-0.16737580299377441 -0.24637195467948914 -0.1367742270231247
-0.26537397503852844 -0.14957121014595032 -0.13588634133338928
0.15038582682609558 -0.37381476163864136 0.12885895371437073
-0.021646782755851746 0.2176402509212494 0.157377690076828
0.1866450160741806 -0.2547878623008728 0.05990270525217056
-0.2654605209827423 -0.2526834011077881 -0.0787602886557579
-0.25708335638046265 0.3421895205974579 0.05792621523141861
-0.035331517457962036 -0.11390575021505356 0.16985857486724854
-0.0669245570898056 -0.24930714070796967 0.13968312740325928
-0.19617784023284912 0.37895873188972473 -0.07433105260133743
0.2263910174369812 0.22923395037651062 0.1443965882062912
-0.25528618693351746 -0.2511748969554901 -0.11421568691730499
0.15264452993869781 -0.44681113958358765 0.10413376986980438
0.21218879520893097 0.4526856541633606 -0.07473909854888916
-0.26671674847602844 -0.01378436665982008 -0.13442741334438324
-0.26939547061920166 -0.01301825512200594 -0.1336984932422638
-0.2519719898700714 0.48483404517173767 0.06240198761224747
0.29358285665512085 0.40929895639419556 -0.03701562434434891
-0.050354160368442535 0.17774365842342377 0.15488889813423157
0.256666362285614 -0.2485414445400238 -0.020150180906057358
0.1357884407043457 -0.4092963635921478 0.0806271955370903
0.1983361691236496 0.3496915400028229 -0.054055389016866684
-0.2737452983856201 -0.048183709383010864 -0.12499599158763885
-0.1715128868818283 0.23008131980895996 -0.0005471142940223217
0.24352216720581055 -0.285633385181427 0.08469714224338531
0.29695257544517517 -0.10578518360853195 0.12211190909147263
0.24620744585990906 0.3789535462856293 -0.09035608917474747
0.15490993857383728 0.08031599223613739 -0.13511386513710022
0.29338279366493225 0.20168006420135498 0.1587994396686554
0.06859373301267624 0.16066382825374603 0.16283930838108063
-0.2689914405345917 -0.017699185758829117 0.1473264843225479
0.0019062459468841553 -0.10660182684659958 -0.13385851681232452
-0.08837853372097015 -0.2009628266096115 0.15425360202789307
0.27159181237220764 0.2303239107131958 -0.02964458242058754
0.2983274757862091 -0.09903828799724579 0.05526828393340111
0.2940182685852051 0.04671800136566162 -0.13305066525936127
-0.024870656430721283 0.17020420730113983 -0.13618817925453186
-0.25633713603019714 0.08865845948457718 -0.13439612090587616
0.15547752380371094 -0.4295802116394043 -0.031829267740249634
0.20436932146549225 -0.2517317533493042 -0.04521198943257332
-0.27032560110092163 -0.10547398775815964 -0.1285642683506012
-0.11519341170787811 -0.18910305202007294 0.15643978118896484
0.21847349405288696 0.2299928516149521 0.05911695957183838
-0.2717297673225403 -0.0276632197201252 -0.13194158673286438
-0.29268643260002136 -0.3189319670200348 0.16114695370197296
-0.21586132049560547 -0.44440752267837524 0.1343931257724762
-0.27014395594596863 0.22333793342113495 0.022920958697795868
0.0135088711977005 -0.2452382594347 -0.1344558596611023
0.260763943195343 0.2303498089313507 -0.035063065588474274
-0.26969119906425476 0.07058853656053543 0.10341396927833557
-0.2214103639125824 0.44685429334640503 0.09157072007656097
-0.1884991079568863 0.2369121015071869 0.04396094009280205
0.2885642945766449 -0.43867361545562744 0.05185151472687721
0.20387764275074005 0.4469712972640991 0.10224458575248718
0.2109411507844925 -0.34040161967277527 0.13076090812683105
-0.2714524567127228 -0.08150840550661087 -0.13431581854820251
0.29568976163864136 0.1685572862625122 -0.12768393754959106
-0.2253498136997223 -0.4170300364494324 0.18528591096401215
0.08792175352573395 -0.24791236221790314 0.15181864798069
-0.25908163189888 0.14137397706508636 -0.13507243990898132
0.13643743097782135 -0.4300786256790161 0.11156763136386871
-0.2892729938030243 0.06855542212724686 -0.3078410029411316
-0.27061259746551514 -0.03350088372826576 -0.13427993655204773
0.28973495960235596 0.3401343822479248 -0.011576515622437
-0.25464385747909546 0.020742814987897873 0.15761828422546387
-0.2701370418071747 -0.24414074420928955 0.07966978847980499
0.23506617546081543 -0.3644409775733948 -0.08772947639226913
0.24286046624183655 -0.029466142877936363 0.16745522618293762
0.22393840551376343 -0.08646925538778305 -0.13405004143714905
0.2114621251821518 -0.4462863504886627 0.04542331397533417
0.28485363721847534 -0.43930673599243164 -0.003731721080839634
0.058436062186956406 0.16786380112171173 -0.13405218720436096
-0.2708582580089569 -0.1300542652606964 -0.12725096940994263
-0.21350662410259247 0.0305023230612278 0.1714031994342804
-0.25099772214889526 -0.007553899195045233 -0.24422432482242584
-0.2581459581851959 0.09144790470600128 0.15864968299865723
-0.26312217116355896 -0.1336887776851654 0.15682214498519897
0.09176395833492279 0.10498770326375961 -0.13478688895702362
0.1724751591682434 -0.25532475113868713 0.005295708775520325
0.2952711284160614 -0.2416575402021408 0.13345152139663696
-0.13648229837417603 0.15394805371761322 0.17065346240997314
0.23645755648612976 0.397250235080719 -0.09211461246013641
0.29827359318733215 -0.24154351651668549 0.1407645344734192
-0.24090981483459473 -0.25156405568122864 -0.05031374841928482
0.05641409754753113 0.17312078177928925 -0.13810952007770538
0.289314866065979 0.2253289669752121 -0.13279873132705688
0.2945210337638855 -0.05447055399417877 0.14192825555801392
-0.23942749202251434 -0.24873794615268707 -0.052007123827934265
-0.26111090183258057 0.0198088176548481 -0.13418087363243103
-0.1899801641702652 0.4993193745613098 0.08626861125230789
0.25505414605140686 -0.3021295666694641 -0.05823832005262375
-0.20326513051986694 -0.24971264600753784 -0.13397334516048431
0.2960749566555023 -0.10697002708911896 0.15431880950927734
0.2618597149848938 -0.37878888845443726 -0.07726521044969559
-0.20472219586372375 0.23210550844669342 -0.03190770000219345
0.29887494444847107 0.21657268702983856 -0.05273988097906113
0.27418920397758484 -0.44530153274536133 0.17529065907001495
0.1686985194683075 -0.39591196179389954 0.17585448920726776
0.25856655836105347 -0.08377548307180405 0.1550896018743515
-0.27079230546951294 0.026320725679397583 0.1523667871952057
0.25457078218460083 -0.2429809868335724 -0.13436239957809448
0.25990623235702515 -0.3141207993030548 -0.059831153601408005
-0.27231457829475403 -0.008688366040587425 -0.13504567742347717
0.12725816667079926 0.15582406520843506 0.16740970313549042
-0.185735821723938 0.16351118683815002 0.1638624668121338
-0.33846649527549744 -0.376996248960495 0.016735922545194626
-0.016468798741698265 0.17915475368499756 -0.13305845856666565
0.05224981904029846 0.07396569848060608 -0.13514995574951172
0.23873955011367798 -0.42152926325798035 0.20370621979236603
0.29699453711509705 -0.1839969903230667 0.14864404499530792
-0.021968454122543335 -0.23846013844013214 -0.1349467933177948
0.2649151682853699 -0.3859110176563263 0.17914073169231415
-0.2432130128145218 -0.1986544132232666 0.1542070209980011
-0.2554122805595398 0.376962810754776 0.10196008533239365
0.022103089839220047 0.2302720844745636 0.135629802942276
-0.027946297079324722 0.11295165866613388 -0.1347898244857788
-0.2404082715511322 0.3024829626083374 0.003494932781904936
0.20861810445785522 0.4848767817020416 -0.049098238348960876
0.25462716817855835 -0.2802044451236725 -0.039468877017498016
-0.2729789614677429 -0.012803023681044579 -0.13519661128520966
0.2442464530467987 -0.252610981464386 -0.12319565564393997
0.29733702540397644 -0.23460988700389862 -0.010835375636816025
0.20449386537075043 0.23326560854911804 -0.013008465059101582
0.012862319126725197 -0.1971537470817566 0.15432758629322052
-0.21766798198223114 -0.4678037166595459 0.05975888669490814
-0.26592451333999634 -0.1173492893576622 -0.13316304981708527
0.28784769773483276 -0.17052188515663147 -0.13605263829231262
-0.2917619049549103 -0.3200966715812683 0.047751534730196
0.2892046272754669 -0.1308586150407791 -0.13607434928417206
0.2639123499393463 -0.24524016678333282 -0.13445691764354706
0.29772117733955383 -0.1743721067905426 0.14773795008659363
0.29816439747810364 0.14393556118011475 0.1488477885723114
0.2972092926502228 0.21440556645393372 0.12254317849874496
-0.06713291257619858 -0.2518956959247589 0.005062974989414215
0.20457613468170166 0.22758790850639343 -0.01993691176176071
-0.21431845426559448 0.025182515382766724 0.171035498380661
0.14013130962848663 0.22716979682445526 0.14678096771240234
-0.25255730748176575 0.4546806812286377 0.11826114356517792
0.24613533914089203 0.2296966165304184 -0.1218600943684578
-0.22630371153354645 -0.4577694535255432 0.1041947603225708
-0.21462436020374298 0.4967663884162903 0.10915219783782959
-0.273112416267395 0.21702754497528076 -0.09778636693954468
0.2860739231109619 -0.028479913249611855 -0.13508231937885284
0.2937319576740265 -0.2355004996061325 -0.02847927436232567
0.018812034279108047 -0.19472800195217133 0.15399836003780365
0.2951458692550659 -0.057811737060546875 -0.13385644555091858
0.19182826578617096 -0.023374775424599648 0.16935376822948456
-0.2711741328239441 0.21808551251888275 -0.021731365472078323
0.23109222948551178 -0.2513822317123413 -0.12396402657032013
0.02989809773862362 0.2195756733417511 0.15793105959892273
0.29065677523612976 0.1686459481716156 -0.13359908759593964
0.2526126205921173 0.24811340868473053 -0.024612460285425186
0.2482472062110901 -0.23968656361103058 -0.13497276604175568
0.18722528219223022 0.16120699048042297 0.16311115026474
0.024644926190376282 0.20190563797950745 -0.15792711079120636
-0.1998632252216339 0.27269768714904785 -0.018302876502275467
0.14614558219909668 0.17155420780181885 0.15346089005470276
-0.03999536484479904 0.1391943097114563 -0.13911403715610504
-0.2074575424194336 -0.4105663299560547 0.15650801360607147
-0.2732914388179779 -0.24418337643146515 -0.1285104751586914
0.12710493803024292 0.23020675778388977 0.04033669829368591
0.2217208296060562 0.4903095066547394 -0.055437736213207245
-0.32975924015045166 -0.35456383228302 0.17537350952625275
-0.2516455352306366 -0.37085357308387756 -0.0943177193403244
0.0406796857714653 0.17442941665649414 -0.13489381968975067
-0.16938304901123047 -0.2497738152742386 -0.1262342482805252
0.21552133560180664 -0.40155601501464844 -0.085813507437706
-0.15454447269439697 -0.23650452494621277 -0.13589707016944885
-0.21505041420459747 -0.4190079867839813 0.17132040858268738
-0.2684394419193268 0.1119329184293747 -0.1338961273431778
0.25028112530708313 0.3194483816623688 0.05912028253078461
0.20910143852233887 -0.4047785997390747 0.19817408919334412
0.18656054139137268 0.46566954255104065 0.10930316150188446
0.24086123704910278 -0.10947481542825699 0.16703569889068604
-0.1484333723783493 0.16434213519096375 0.1608433723449707
0.28740382194519043 0.08241887390613556 -0.13432560861110687
-0.26657798886299133 0.21986328065395355 0.15587414801120758
-0.26970353722572327 -0.15132863819599152 0.15581215918064117
-0.11565720289945602 -0.044980838894844055 -0.13448122143745422
0.20169591903686523 0.22839169204235077 0.03525448590517044
0.2962040305137634 -0.0749063789844513 -0.12822213768959045
0.24788057804107666 -0.07222761958837509 0.15800023078918457
0.18511641025543213 -0.2531389892101288 -0.0222107395529747
0.29692912101745605 -0.23631912469863892 0.10360753536224365
-0.2708550691604614 0.11518218368291855 -0.13286373019218445
0.2947271466255188 -0.004404117353260517 -0.12659920752048492
0.1168440505862236 0.22188836336135864 0.15770462155342102
0.22949393093585968 0.170113205909729 0.1535976082086563
0.28847190737724304 -0.17292062938213348 0.15762537717819214
-0.27281442284584045 0.04961344227194786 -0.1337808072566986
0.28880661725997925 0.044745445251464844 -0.13459864258766174
-0.18944595754146576 -0.2664203941822052 -0.0495930053293705
-0.27041923999786377 -0.025834523141384125 -0.13460534811019897
0.17849168181419373 0.02878260612487793 0.1706404685974121
0.21442988514900208 -0.44325515627861023 0.01117854006588459
-0.2516346871852875 -0.4651661515235901 -0.051593467593193054
0.14601688086986542 -0.3831614553928375 0.128025621175766
-0.22057268023490906 0.1184082180261612 0.15884602069854736
-0.2422313392162323 -0.045467548072338104 -0.24353769421577454
0.23491474986076355 -0.17422038316726685 0.1694800853729248
0.2355017364025116 0.39060431718826294 -0.09233979135751724
0.17016369104385376 -0.26697075366973877 -0.004037228412926197
0.2974918782711029 0.21184739470481873 -0.0017776843160390854
0.19210609793663025 -0.2511739432811737 0.06579378247261047
-0.21560005843639374 0.2489801049232483 -0.027887165546417236
0.2100978046655655 -0.44449692964553833 -0.0767865851521492
0.17562925815582275 -0.24514111876487732 0.1546826958656311
0.24695321917533875 -0.4107799232006073 -0.08700093626976013
-0.27312251925468445 -0.36218658089637756 -0.09038737416267395
0.24341630935668945 -0.39892932772636414 -0.08720586448907852
-0.25788187980651855 -0.47001805901527405 -0.04982420802116394
-0.2466658353805542 0.46943703293800354 0.11483879387378693
-0.26436224579811096 -0.35225793719291687 -0.08966854214668274
-0.27113401889801025 0.03444667533040047 -0.1342458724975586
-0.006835508160293102 0.27948448061943054 -0.23004616796970367
-0.24750182032585144 0.232321634888649 -0.024624355137348175
0.2891954779624939 0.2265491485595703 -0.12715084850788116
-0.2696685791015625 -0.24299587309360504 -0.006770344451069832
-0.16837874054908752 0.15209688246250153 0.1702994704246521
0.19551193714141846 0.22866369783878326 -0.07846929877996445
-0.22429805994033813 0.3387741446495056 -0.04402996599674225
0.21828709542751312 -0.2486054003238678 -0.12327348440885544
0.1897803544998169 0.13920184969902039 0.17199335992336273
-0.0322183296084404 -0.25050508975982666 0.14025352895259857
0.2895358204841614 0.22372683882713318 -0.1345980167388916
-0.25934916734695435 -0.25228434801101685 -0.099880650639534
-0.22053425014019012 0.052415162324905396 0.16293935477733612
-0.28817301988601685 -0.32441261410713196 0.16714033484458923
0.296633243560791 0.22342269122600555 0.10863329470157623
0.2865610718727112 0.1094144806265831 -0.1352246105670929
-0.3361624777317047 -0.37349846959114075 0.031067704781889915
-0.27087873220443726 -0.21031472086906433 -0.13316377997398376
0.2976394593715668 -0.23242555558681488 -0.0762195736169815
-0.04933129996061325 0.14650367200374603 0.17128683626651764
-0.03757588937878609 0.1163148432970047 -0.13632582128047943
-0.04250960424542427 0.17909245193004608 0.15503865480422974
0.2943505048751831 -0.1782810389995575 -0.13446299731731415
-0.26989296078681946 -0.06872247904539108 -0.13140824437141418
-0.24827203154563904 0.46016812324523926 -0.04622775316238403
-0.24687069654464722 0.21773697435855865 -0.13615070283412933
0.29776787757873535 0.0850566029548645 -0.051794275641441345
-0.22203931212425232 0.23684406280517578 0.05201138183474541
0.29661086201667786 0.030090652406215668 -0.12038811296224594
-0.026367181912064552 -0.24338729679584503 0.1558508723974228
0.29432371258735657 -0.0963149219751358 -0.10733827948570251
0.295830637216568 -0.009609140455722809 -0.12269416451454163
-0.23953500390052795 0.3604716658592224 -0.06794281303882599
-0.1706441044807434 0.3500947058200836 -0.03695164620876312
-0.24944546818733215 0.23124748468399048 0.0076769255101680756
-0.22736452519893646 -0.17957338690757751 -0.13464008271694183
0.28502365946769714 0.18454761803150177 -0.1343148648738861
-0.270192414522171 0.03907405585050583 0.152271568775177
-0.2206539660692215 0.07547780126333237 0.16097967326641083
-0.26477086544036865 -0.2496621161699295 0.09464477747678757
-0.26991164684295654 -0.08819704502820969 0.14492696523666382
-0.20525363087654114 -0.0941762924194336 0.17044228315353394
-0.1911216825246811 -0.4112769663333893 -0.0050026848912239075
-0.04569343104958534 0.1398768275976181 -0.13429801166057587
-0.09472108632326126 0.22611932456493378 -0.13032135367393494
0.25821390748023987 -0.23965656757354736 0.15689878165721893
0.18394500017166138 0.22881737351417542 -0.06795336306095123
0.29614171385765076 -0.12372441589832306 -0.10042855888605118
0.28987041115760803 0.2239033579826355 -0.1330476701259613
0.17159277200698853 -0.446906179189682 -0.039020687341690063
0.2890882194042206 -0.08285540342330933 -0.13639546930789948
-0.2704852521419525 0.007393816951662302 -0.13353849947452545
