-0.2132178097963333 0.13905824720859528 0.170538067817688
-0.2566061317920685 0.14115950465202332 0.15669363737106323
-0.08487551659345627 0.18278945982456207 -0.1354832798242569
-9.629293344914913e-05 0.18583841621875763 -0.1387578696012497
0.2494065761566162 -0.23983252048492432 0.15765276551246643
-0.16709865629673004 0.17749014496803284 0.1543223261833191
-0.2711295485496521 -0.45277366042137146 -0.07373859733343124
-0.054953671991825104 0.22753669321537018 -0.10397987067699432
-0.13434883952140808 0.1733890175819397 0.152182474732399
0.2516609728336334 0.23595617711544037 -0.03207622468471527
0.29440033435821533 -0.21746337413787842 0.15656648576259613
0.25579580664634705 -0.14818429946899414 0.15282297134399414
0.15469148755073547 -0.3742365837097168 0.11807834357023239
-0.1696639060974121 -0.2644232213497162 0.05545870214700699
0.2898799777030945 -0.13060209155082703 0.15631362795829773
-0.03070756234228611 -0.01996103674173355 -0.13792750239372253
-0.22068148851394653 -0.1508806049823761 0.16028550267219543
0.25913113355636597 0.12958399951457977 0.15531840920448303
0.03353727608919144 0.1858503371477127 -0.1361066997051239
-0.2923657298088074 -0.34958764910697937 0.20306558907032013
-0.27155375480651855 0.21563754975795746 0.07791405916213989
0.24310553073883057 0.4242439270019531 -0.09088253229856491
-0.1986231654882431 0.2253209352493286 -0.13338357210159302
0.26095524430274963 0.18737147748470306 0.15620218217372894
-0.2186019867658615 0.22570258378982544 -0.10563800483942032
0.19891273975372314 0.22853703796863556 -0.01576828770339489
-0.0729515478014946 0.22675234079360962 0.1549539715051651
-0.26939865946769714 0.11417315900325775 -0.13404379785060883
-0.047224078327417374 0.22548256814479828 -0.13085392117500305
0.266994446516037 -0.40081852674484253 -0.0729687511920929
-0.2698591947555542 -0.009435094892978668 0.15319466590881348
0.2894114851951599 0.22105306386947632 -0.13479609787464142
0.20811745524406433 0.18224485218524933 0.1554635614156723
-0.16717420518398285 -0.24036367237567902 -0.1374303251504898
0.1986619234085083 0.2303808033466339 -0.006525498349219561
0.2990206480026245 -0.1314619928598404 0.14381347596645355
0.14701658487319946 -0.4038683772087097 0.16073721647262573
0.23625360429286957 -0.11892843246459961 0.16980527341365814
-0.15470272302627563 0.1547481268644333 0.16858410835266113
-0.2648998498916626 0.011070653796195984 -0.1336817741394043
-0.2651485800743103 -0.1052171140909195 0.15586483478546143
0.26264187693595886 -0.24791711568832397 -0.04287276044487953
0.2923354506492615 -0.24802164733409882 -0.1006569117307663
0.2894848585128784 0.014059536159038544 -0.13443052768707275
-0.265596479177475 -0.46961385011672974 -0.04150586575269699
-0.2692565321922302 -0.13886752724647522 -0.1122223511338234
-0.11160346865653992 -0.09282061457633972 -0.13492149114608765
0.29609835147857666 0.21293297410011292 -0.06498968601226807
-0.26067617535591125 -0.01771724410355091 -0.134491428732872
-0.28573939204216003 -0.020490609109401703 -0.29363059997558594
-0.24832391738891602 -0.2524881362915039 -0.012286096811294556
-0.2830365002155304 -0.4052727222442627 0.1344464272260666
0.26507556438446045 -0.2507370710372925 -0.03084925375878811
-0.3221780061721802 -0.4222847819328308 -0.06689497828483582
-0.053040824830532074 -0.19680672883987427 0.15284262597560883
0.02371542528271675 0.22552132606506348 0.03120877966284752
0.248131662607193 -0.17909187078475952 0.16084864735603333
0.27360209822654724 -0.4443638324737549 -0.015193432569503784
-0.019960131496191025 0.10053648799657822 -0.13675007224082947
0.15601584315299988 -0.39425235986709595 0.15763238072395325
-0.09576457738876343 0.19483374059200287 -0.13495051860809326
-0.26914262771606445 0.07648399472236633 -0.13107769191265106
-0.2644541263580322 -0.16040676832199097 -0.13501587510108948
0.21199645102024078 -0.024348318576812744 -0.13565756380558014
-0.024638570845127106 -0.22777694463729858 -0.13499967753887177
-0.2871212661266327 -0.003306204453110695 -0.24286210536956787
0.29170870780944824 -0.2290601283311844 -0.13236919045448303
0.06008240208029747 0.1501140147447586 -0.13694800436496735
-0.2605360448360443 0.22514468431472778 0.11918268352746964
-0.021536991000175476 0.09919628500938416 -0.13712193071842194
-0.03903181478381157 0.22782738506793976 0.14766868948936462
0.1342686116695404 0.209060400724411 -0.13485993444919586
-0.06560718268156052 0.15891487896442413 -0.13444794714450836
-0.22016307711601257 -0.47014039754867554 0.01128961332142353
0.2580955922603607 -0.31833773851394653 -0.06546035408973694
0.25935861468315125 0.2321959137916565 0.05240488797426224
0.10513368248939514 0.15473943948745728 0.16919824481010437
-0.22375401854515076 0.1602286994457245 0.1566922813653946
0.1809539794921875 0.22600504755973816 0.1563819944858551
0.16570565104484558 0.0072248391807079315 0.17169289290905
0.20708110928535461 -0.19192056357860565 0.15452301502227783
-0.24306881427764893 -0.4689146876335144 0.05013824254274368
-0.26307371258735657 0.3530605733394623 0.04129868745803833
-0.25747913122177124 -0.14154909551143646 -0.1362229585647583
-0.2835426926612854 -0.019239220768213272 -0.23464949429035187
-0.3343726098537445 -0.3627919852733612 0.13808168470859528
-0.013772178441286087 -0.01359356939792633 -0.13341858983039856
0.019665375351905823 -0.2508420944213867 -0.11750783026218414
0.2971005141735077 -0.20869171619415283 0.15132030844688416
0.050584327429533005 -0.18162372708320618 0.16544245183467865
-0.21539923548698425 -0.17460834980010986 0.1675906479358673
-0.06521472334861755 0.2289409637451172 -0.1282244622707367
-0.2688293159008026 0.04207151383161545 0.14018744230270386
-0.049685943871736526 0.2272060215473175 -0.12181374430656433
-0.19558899104595184 0.16780409216880798 0.15712213516235352
-0.27668964862823486 -0.3841845989227295 -0.09441670775413513
-0.1738927960395813 0.23913754522800446 0.016372891142964363
0.20790553092956543 0.3273276388645172 -0.03900919109582901
0.29623931646347046 0.0621214359998703 0.08330248296260834
-0.23139487206935883 0.02459869161248207 0.15482927858829498
-0.19331349432468414 0.35148370265960693 0.09892051666975021
0.042017579078674316 -0.24442285299301147 -0.13311608135700226
0.032381076365709305 0.1802646368741989 0.15647348761558533
-0.2297612726688385 0.5011909604072571 0.01438651792705059
-0.2102716565132141 0.1627233624458313 0.1630464345216751
-0.2593088746070862 0.022022224962711334 -0.13345006108283997
-0.04957529529929161 -0.17982447147369385 -0.1343751698732376
0.11527425795793533 0.2218151092529297 -0.13192367553710938
0.1823270320892334 0.45541051030158997 0.11306989192962646
-0.33823442459106445 -0.3857154846191406 0.0095977196469903
-0.0013213623315095901 0.10445285588502884 -0.13544265925884247
-0.21870194375514984 -0.12693455815315247 0.165406733751297
0.09473904222249985 0.23007065057754517 0.14140623807907104
0.06267459690570831 0.22874698042869568 0.14741063117980957
0.204905703663826 0.17630016803741455 0.1548786163330078
-0.2844964861869812 -0.313999742269516 0.1421148031949997
-0.17305152118206024 -0.37853118777275085 0.041390735656023026
0.1922786682844162 0.41452592611312866 0.11414118111133575
-0.3376188278198242 -0.39903008937835693 0.002753889188170433
0.1637808084487915 -0.24913151562213898 -0.009722289629280567
0.28952181339263916 -0.07699355483055115 0.15664836764335632
-0.2219678908586502 0.10515961050987244 0.16203606128692627
-0.26712289452552795 -0.2493249475955963 -0.007206689566373825
0.288331001996994 -0.15195782482624054 -0.13454920053482056
-0.19187507033348083 0.5005142688751221 0.07156047224998474
-0.05289262905716896 0.214414581656456 0.15903937816619873
0.243983656167984 0.04493514448404312 0.16654156148433685
-0.26803407073020935 -0.08954199403524399 0.15516817569732666
0.29562845826148987 0.4442189037799835 0.12441603094339371
-0.2625606060028076 -0.25042349100112915 -0.05863926559686661
-0.15112337470054626 0.17253625392913818 0.15317904949188232
-0.2374233454465866 0.37804821133613586 -0.07639584690332413
-0.1278214007616043 -0.2485826462507248 0.1484806090593338
0.2391314059495926 0.22714397311210632 -0.12417692691087723
-0.2635963559150696 -0.18178442120552063 -0.13350291550159454
0.14024041593074799 -0.24206990003585815 0.15709657967090607
-0.2689759135246277 0.11399415135383606 -0.13220280408859253
0.26614052057266235 -0.2533945143222809 -0.024786807596683502
0.29521411657333374 0.17576685547828674 0.14613306522369385
-0.1692771315574646 -0.3211572468280792 0.04866696149110794
0.29328107833862305 -0.1724921613931656 0.15679597854614258
0.29499268531799316 -0.2191677689552307 -0.13254137337207794
0.13705740869045258 -0.4305253326892853 0.09193415939807892
0.24473586678504944 -0.41338852047920227 -0.09044856578111649
-0.2031923532485962 -0.2639252245426178 0.07706405222415924
-0.27073007822036743 0.020195886492729187 -0.1259344220161438
-0.06023186072707176 -0.17615678906440735 0.16754896938800812
-0.26162755489349365 0.44217026233673096 0.10474635660648346
-0.27062636613845825 -0.06952033936977386 -0.01575857773423195
0.29297277331352234 0.08919908851385117 0.15658342838287354
0.2544097304344177 -0.18004843592643738 0.15712398290634155
0.2956673204898834 0.10040928423404694 -0.12647832930088043
0.2779197096824646 -0.4418286383152008 0.003543742001056671
-0.2698138654232025 0.21368259191513062 0.09550219774246216
-0.2585723400115967 -0.2497292011976242 -0.02988317236304283
-0.18574373424053192 0.43297821283340454 0.08607549965381622
-0.2636033296585083 -0.1675427407026291 -0.13574473559856415
0.2643359303474426 -0.3699529767036438 0.1678479015827179
0.08742360770702362 -0.2493017166852951 0.14498552680015564
-0.018559319898486137 -0.24781662225723267 -0.11889577656984329
-0.26517757773399353 -0.22584743797779083 -0.13342198729515076
0.2415037304162979 0.515079140663147 0.10531753301620483
0.19225476682186127 0.4871930480003357 0.10815101861953735
0.26474595069885254 0.5054672360420227 0.11183103173971176
0.04343853518366814 0.1106509268283844 -0.13597650825977325
-0.27020063996315 -0.23987190425395966 -0.09291474521160126
0.23152713477611542 -0.28071129322052 -0.06380067020654678
0.0626320168375969 -0.2235887050628662 -0.1317306011915207
-0.010797329246997833 -0.18048150837421417 0.1671016961336136
0.2950928211212158 -0.11209135502576828 0.15660595893859863
-0.0796893835067749 -0.2487943172454834 0.14411789178848267
0.259341299533844 0.4016050100326538 0.10839083790779114
-0.26995283365249634 0.21200242638587952 -0.13306553661823273
0.2827776372432709 0.22541822493076324 -0.0549083910882473
-0.20571637153625488 -0.17591702938079834 0.16992202401161194
0.03665287047624588 0.1818775087594986 -0.136447012424469
0.2891578674316406 0.09369493275880814 -0.13581272959709167
0.29464131593704224 0.2131396383047104 0.11375017464160919
0.2943461537361145 0.4298143684864044 0.1255292147397995
-0.12174324691295624 0.02157282829284668 0.1695156842470169
0.29562413692474365 -0.05939432233572006 0.15516090393066406
0.26344865560531616 0.1757197082042694 0.15617525577545166
0.2970614433288574 -0.1309243142604828 0.14507043361663818
-0.22180534899234772 0.0658511072397232 0.16434802114963531
-0.1965278834104538 -0.19406569004058838 0.15812167525291443
-0.21776588261127472 -0.429005891084671 0.16506314277648926
0.2863803803920746 -0.4469107389450073 0.16164326667785645
-0.06725714355707169 -0.18906934559345245 0.15930400788784027
0.19248361885547638 0.35370367765426636 -0.05534154176712036
-0.09002609550952911 0.22881360352039337 0.14545947313308716
-0.27215123176574707 -0.04803086444735527 -0.12883023917675018
0.07637594640254974 -0.17486077547073364 0.16802838444709778
-0.06866951286792755 0.22879920899868011 -0.12547263503074646
-0.2562553286552429 -0.4141291677951813 0.1885133981704712
0.05305976793169975 0.22752635180950165 0.14673283696174622
-0.2631624937057495 0.36619123816490173 0.0663517490029335
0.23634399473667145 -0.42167097330093384 -0.0911579355597496
-0.26486459374427795 -0.054597340524196625 -0.13337883353233337
-0.23604197800159454 -0.24491162598133087 0.1561363935470581
-0.2630769908428192 0.05261952057480812 0.15662434697151184
-0.20874693989753723 -0.4476114511489868 0.011930572800338268
-0.28653475642204285 -0.37476229667663574 -0.08589202910661697
0.194671630859375 -0.24610914289951324 -0.13201746344566345
-0.1415998935699463 0.22034350037574768 -0.13331106305122375
-0.24736177921295166 -0.36613476276397705 -0.09465231001377106
-0.18473881483078003 0.328563928604126 -0.02147369459271431
0.2980072498321533 0.1572449803352356 -0.11477437615394592
0.26075002551078796 0.05275242030620575 0.15471501648426056
-0.2151462733745575 0.2310803234577179 0.13613399863243103
0.19748926162719727 -0.23868657648563385 0.1577940583229065
-0.2191603183746338 -0.15611279010772705 0.16427023708820343
0.2782173156738281 -0.44581472873687744 0.04513954371213913
0.28569936752319336 0.006206773221492767 -0.13440975546836853
0.29937446117401123 -0.1773861050605774 0.0459829717874527
0.1540020853281021 -0.44014430046081543 0.019378237426280975
0.2643752098083496 -0.4430699646472931 -0.04352380707859993
0.01027421373873949 -0.250883549451828 -0.05648168548941612
-0.011652352288365364 0.17947202920913696 -0.1404973864555359
-0.2402905821800232 -0.042307689785957336 -0.13538947701454163
0.29099729657173157 0.21564190089702606 -0.13412143290042877
-0.2137218564748764 0.22690944373607635 0.08846687525510788
0.02613597922027111 0.22959712147712708 0.0010313726961612701
-0.27002060413360596 0.1257193386554718 -0.1330837607383728
-0.23286569118499756 -0.3094797730445862 -0.07661470025777817
0.25794854760169983 -0.35157549381256104 0.14398199319839478
0.10762280970811844 -0.24197180569171906 0.15721005201339722
-0.2695220410823822 -0.028339236974716187 0.14326967298984528
-0.2670888304710388 -0.07844796776771545 -0.12676700949668884
-0.1103651374578476 0.22546075284481049 -0.12469591200351715
0.2531319856643677 -0.18540769815444946 0.15595506131649017
0.2887752652168274 0.22193309664726257 -0.13375358283519745
-0.23787538707256317 -0.39417460560798645 0.19580411911010742
-0.2696237862110138 0.06580594927072525 -0.12649665772914886
0.19435515999794006 0.22951747477054596 -0.06438334286212921
0.031166333705186844 0.18641769886016846 -0.13571132719516754
0.2074182629585266 -0.2681961953639984 -0.053868141025304794
-0.2702822685241699 -0.21360576152801514 -0.0818411186337471
-0.1748567521572113 0.1706787645816803 0.15331242978572845
0.292749285697937 0.21638885140419006 -0.13446341454982758
-0.20806482434272766 0.22453202307224274 -0.13158747553825378
0.18795882165431976 0.48589083552360535 -0.0035311810206621885
-0.22828315198421478 -0.19800521433353424 0.15433141589164734
0.19057312607765198 0.41443517804145813 0.1152893528342247
-0.05092346668243408 -0.2496299147605896 -0.12269040197134018
-0.33238399028778076 -0.35933539271354675 0.06778454780578613
0.2429245114326477 -0.4150696396827698 -0.09129122644662857
0.2986728847026825 0.21722151339054108 0.09292033314704895
-0.20673507452011108 0.22852957248687744 0.06987031549215317
-0.32901081442832947 -0.35173359513282776 0.18698835372924805
0.24332332611083984 -0.41720372438430786 -0.091595359146595
-0.2698539197444916 -0.1750965565443039 -0.12753185629844666
-0.10223527252674103 -0.251007080078125 -0.041690435260534286
0.0036085208412259817 0.17761780321598053 -0.14009244740009308
-0.21733291447162628 0.1450338363647461 0.16709259152412415
0.2844860255718231 0.22892451286315918 -0.03410404175519943
-0.1736726015806198 0.4760165214538574 0.0068197655491530895
0.2796989977359772 -0.444042831659317 0.1504470854997635
0.2566675841808319 -0.34329161047935486 -0.07570996880531311
0.05830293148756027 0.2063431441783905 -0.18348896503448486
0.29259568452835083 -0.1922772079706192 -0.13711176812648773
-0.2552676796913147 -0.33843159675598145 -0.08450330048799515
-0.040401771664619446 0.22604337334632874 -0.09702622890472412
-0.2699921429157257 0.22062420845031738 0.04062458500266075
-0.26645511388778687 0.10703136771917343 -0.13337379693984985
0.054013900458812714 -0.1817188560962677 0.16607505083084106
-0.11344298720359802 0.22634544968605042 -0.12355833500623703
0.22558879852294922 -0.00507354736328125 -0.13514147698879242
0.010173464193940163 0.1845712512731552 -0.13971726596355438
-0.33388158679008484 -0.3659990727901459 0.0442800372838974
-0.20957186818122864 -0.4155121445655823 0.16062229871749878
0.295463889837265 -0.23440858721733093 -0.052789099514484406
0.29699113965034485 0.07245079427957535 0.15155917406082153
-0.22335171699523926 0.37504759430885315 -0.07743481546640396
0.29770761728286743 0.058466147631406784 0.09074994921684265
-0.2215271294116974 -0.014518617652356625 0.1620243489742279
-0.2438732534646988 0.438790500164032 0.10882771015167236
-0.1799057275056839 -0.2534964978694916 -0.07210388034582138
0.29720014333724976 0.22878795862197876 0.10069805383682251
0.19464237987995148 0.3252084255218506 0.03870312497019768
0.2903730273246765 -0.01714242249727249 -0.1361876130104065
0.29630839824676514 0.12294372916221619 0.1446356177330017
-0.2637674808502197 -0.15722031891345978 -0.1350289136171341
-0.0021765369456261396 0.18476933240890503 -0.13674472272396088
-0.22070053219795227 -0.042602039873600006 0.16216427087783813
0.27629733085632324 -0.4415961503982544 0.08330155909061432
-0.17770911753177643 -0.25418490171432495 0.07246242463588715
0.2891034483909607 0.0797901377081871 -0.1366013139486313
0.26246121525764465 0.508217453956604 0.08270885795354843
-0.2624471187591553 -0.03470331430435181 -0.1342807412147522
0.23634198307991028 0.1176852136850357 0.16665472090244293
0.27555981278419495 0.23200422525405884 0.026586733758449554
0.2843645215034485 0.09779183566570282 -0.13584882020950317
0.29615557193756104 0.1904517561197281 0.1511542797088623
-0.04823216050863266 0.042110614478588104 0.17326883971691132
-0.2468857616186142 0.48497241735458374 0.0957004725933075
0.003689846023917198 0.22192543745040894 -0.13371819257736206
-0.23388417065143585 -0.45885175466537476 0.09282508492469788
0.0033018155954778194 0.17244823276996613 0.15254506468772888
0.11902231723070145 0.21197861433029175 -0.13462741672992706
-0.06631811708211899 -0.19646862149238586 0.15249918401241302
0.011246513575315475 -0.06868866086006165 0.169671431183815
0.08253218978643417 0.2275848686695099 0.15657112002372742
-0.16798125207424164 -0.2544526755809784 -0.04080617055296898
0.18842864036560059 0.3486426770687103 0.08055790513753891
0.2958265542984009 0.1053999811410904 0.10050779581069946
-0.2315916121006012 -0.19688007235527039 0.15534871816635132
-0.2704111933708191 -0.022526225075125694 0.14438624680042267
0.29711031913757324 -0.04698046296834946 -0.13565343618392944
-0.26976004242897034 -0.21278557181358337 0.1519624888896942
-0.2701840400695801 -0.10879116505384445 -0.09961608797311783
0.29590919613838196 0.2186351716518402 0.05740847438573837
0.2938432991504669 0.41891929507255554 0.1294480562210083
-0.265716016292572 -0.12418197840452194 -0.13381509482860565
-0.2872048616409302 -0.4416995048522949 -0.08661589026451111
0.294943630695343 0.22174668312072754 -0.07476215809583664
0.20643183588981628 0.31112703680992126 0.031584545969963074
-0.26147785782814026 0.45976772904396057 0.04741602763533592
0.2426246553659439 0.22326482832431793 0.1569482982158661
0.29403597116470337 -0.09574369341135025 0.15682700276374817
0.2943468689918518 0.1895867884159088 -0.1337207406759262
0.20252856612205505 0.47575685381889343 0.11427434533834457
-0.11865267157554626 0.09253597259521484 -0.13350453972816467
0.23621077835559845 0.3056046962738037 0.04929250478744507
0.2840885818004608 0.22511322796344757 0.06417050957679749
0.2913249135017395 0.19576828181743622 -0.13515503704547882
0.2956286668777466 -0.2271347939968109 -0.133999302983284
0.29195889830589294 0.02161448448896408 -0.1342872828245163
0.017887545749545097 -0.2465304434299469 0.1534402072429657
0.2893209457397461 0.12396861612796783 -0.1380479782819748
-0.2701852321624756 0.03157420828938484 0.1454140841960907
0.13367077708244324 0.1720784306526184 0.15321794152259827
0.2857334017753601 -0.3571525812149048 0.011772923171520233
0.23345419764518738 -0.3084336817264557 -0.07524678111076355
-0.26751139760017395 0.012225174345076084 0.15519413352012634
0.05344080924987793 -0.1866852045059204 0.15796299278736115
0.28762054443359375 -0.24581632018089294 0.14772817492485046
-0.24141718447208405 -0.40188083052635193 -0.08593311905860901
-0.24260368943214417 -0.480667382478714 -0.007919706404209137
0.1989593654870987 0.22951741516590118 0.01282523199915886
0.27229565382003784 0.40753763914108276 -0.08129590004682541
-0.26780110597610474 0.019316542893648148 0.14306563138961792
0.2738589644432068 0.3272794783115387 0.05792984366416931
-0.14600323140621185 0.16650843620300293 0.15724970400333405
-0.2610809803009033 0.22453239560127258 -0.13122521340847015
-0.2659677565097809 -0.0669846460223198 0.1555861085653305
0.09192151576280594 -0.009311474859714508 -0.13318799436092377
-0.25798508524894714 -0.01733609102666378 0.15643279254436493
-0.27241310477256775 0.218773752450943 -0.08548574894666672
-0.2501697540283203 -0.2514972686767578 -0.07302679121494293
-0.050517842173576355 0.22734598815441132 -0.030663467943668365
0.25484442710876465 0.09890303760766983 0.15336108207702637
0.2920518219470978 0.22647503018379211 0.14357037842273712
-0.27080270648002625 -0.06273612380027771 -0.12895885109901428
-0.26361480355262756 -0.339985191822052 -0.08163794875144958
0.20060782134532928 0.2309761941432953 0.013879865407943726
0.2877795994281769 0.08251456171274185 -0.13629943132400513
0.13462945818901062 -0.031512919813394547 0.16883470118045807
0.2966592311859131 0.07597365975379944 -0.1241089403629303
0.28349342942237854 -0.40582558512687683 0.18387527763843536
-0.2686675488948822 -0.24920299649238586 0.0640643835067749
0.295718789100647 0.07396916300058365 -0.13520576059818268
0.24511104822158813 -0.39148521423339844 -0.0910056084394455
0.008048774674534798 -0.20182886719703674 0.15465068817138672
0.2971821427345276 -0.055952705442905426 0.15291091799736023
-0.26449939608573914 0.22719217836856842 0.07389247417449951
0.2917216122150421 -0.426329106092453 0.14526593685150146
0.2958824336528778 0.04205235466361046 0.15410447120666504
-0.1925925612449646 0.4787648618221283 -0.04806683212518692
0.14828068017959595 0.15221960842609406 0.17040593922138214
-0.2596161365509033 0.1985032558441162 0.15568062663078308
-0.22642478346824646 -0.4580504894256592 0.11462868005037308
-0.20888260006904602 -0.27016130089759827 0.07829079031944275
-0.26871687173843384 -0.10281570255756378 -0.13192065060138702
0.26355552673339844 -0.24734032154083252 -0.12327909469604492
-0.06592721492052078 0.22421902418136597 0.155931755900383
0.20562128722667694 -0.1966458410024643 0.15285634994506836
-0.26263749599456787 -0.3054746389389038 0.10646446794271469
-0.2429349571466446 -0.2760089635848999 0.05260065943002701
-0.01876918599009514 -0.2505917549133301 0.14810609817504883
-0.034047018736600876 -0.25101804733276367 -0.011455466039478779
-0.1613941192626953 0.45451804995536804 0.08256179839372635
-0.0024786079302430153 0.22619687020778656 0.0650678426027298
0.16184404492378235 0.2178601324558258 0.1599012017250061
0.14443564414978027 -0.43493765592575073 -0.013718005269765854
0.24101407825946808 -0.11068334430456161 0.16773633658885956
0.29691049456596375 -0.22570918500423431 -0.13216273486614227
0.2123475819826126 0.29108911752700806 0.003971261903643608
-0.25693151354789734 -0.027577701956033707 -0.13466092944145203
0.2938591241836548 -0.12540268898010254 0.1562572419643402
0.0021541565656661987 0.19239184260368347 -0.13346774876117706
-0.26655083894729614 0.16658295691013336 -0.13463951647281647
0.05826234817504883 -0.23917628824710846 0.15689717233181
-0.28064751625061035 -0.4424242079257965 -0.08398966491222382
0.28936517238616943 0.21887943148612976 -0.13228802382946014
-0.23089256882667542 0.2281971424818039 -0.06436304748058319
0.1483519822359085 0.17520585656166077 0.15569965541362762
0.28955766558647156 0.13523930311203003 -0.13695518672466278
0.021493563428521156 0.08968070894479752 -0.135856032371521
-0.1990637481212616 -0.25096595287323 0.11453618109226227
-0.16168072819709778 0.4063219726085663 0.09233074635267258
0.16754671931266785 -0.2727731168270111 -0.013950887136161327
-0.012502141296863556 -0.250166654586792 0.0872533991932869
0.03236948698759079 0.18583525717258453 -0.1351786106824875
0.2828349769115448 -0.44254860281944275 0.03257211297750473
-0.03579219803214073 0.15135417878627777 0.17008979618549347
-0.2698872685432434 0.21121960878372192 -0.12202869355678558
-0.2695811688899994 -0.10558848083019257 -0.1262729912996292
-0.16673336923122406 0.3600861132144928 -0.03598236292600632
0.2886056900024414 -0.2198137789964676 0.15752020478248596
0.25073084235191345 -0.27376461029052734 0.07316505908966064
-0.2050771862268448 0.4987621605396271 0.07855095714330673
-0.27135390043258667 -0.22929435968399048 -0.10206848382949829
0.2922041416168213 -0.021670639514923096 -0.1335289031267166
-0.12574775516986847 0.22737596929073334 -0.12086616456508636
-0.02624538727104664 0.10678739845752716 -0.13711676001548767
0.24942618608474731 0.0049109309911727905 0.16190262138843536
-0.2575909495353699 -0.32888588309288025 -0.07812802493572235
-0.1670212745666504 0.386097252368927 0.09932474792003632
-0.313475638628006 -0.40119245648384094 -0.0756644532084465
0.2753686308860779 0.2283868044614792 0.03161674365401268
-0.19983705878257751 0.35475093126296997 -0.06404681503772736
-0.270949125289917 -0.05849277228116989 -0.07914579659700394
-0.053443729877471924 -0.24857623875141144 0.1472189724445343
-0.26880842447280884 0.10347932577133179 0.1481419950723648
-0.3325229287147522 -0.40192222595214844 -0.043081898242235184
0.005786340683698654 0.22278116643428802 0.14873161911964417
0.0526125468313694 0.21181412041187286 -0.13589872419834137
0.28959396481513977 -0.2485341578722 -0.10252680629491806
0.19882819056510925 0.4949968755245209 0.09957015514373779
0.2413182258605957 -0.10033862292766571 0.16616719961166382
0.2384272813796997 -0.11212503910064697 0.16959837079048157
-0.27184250950813293 -0.4513631761074066 -0.07652080804109573
-0.08879072964191437 -0.24667063355445862 0.15339510142803192
0.27407366037368774 -0.34832045435905457 0.11849842965602875
-0.18131251633167267 0.3170638084411621 -0.007793458644300699
0.2895190417766571 0.22306333482265472 0.05957157909870148
0.0572919026017189 0.21099358797073364 -0.13238346576690674
0.1566738784313202 -0.24640290439128876 0.020665064454078674
0.17004844546318054 -0.24487929046154022 -0.13469833135604858
0.28308627009391785 -0.44340118765830994 0.123715341091156
0.2690638601779938 -0.37519150972366333 0.1714133620262146
0.2692802846431732 -0.23833909630775452 0.15702596306800842
0.23615752160549164 -0.09029732644557953 0.17134952545166016
0.2974730134010315 -0.09410446137189865 0.14935439825057983
-0.3347295820713043 -0.38994506001472473 -0.010038645006716251
0.08287050575017929 0.22743988037109375 0.14375971257686615
-0.272695392370224 -0.36056044697761536 0.20128829777240753
-0.2705363929271698 0.13083522021770477 -0.13297763466835022
0.2969994843006134 -0.2335394024848938 -0.11352436244487762
0.20625779032707214 0.23015902936458588 -0.00029852986335754395
0.263241171836853 -0.242068350315094 -0.13631652295589447
0.27399396896362305 -0.38526204228401184 0.1806219220161438
0.057789742946624756 0.200414776802063 -0.19633616507053375
0.22871413826942444 -0.04842826724052429 -0.13525764644145966
-0.14682325720787048 -0.2382209599018097 -0.13362173736095428
-0.27047064900398254 -0.1364712417125702 -0.051583677530288696
0.21455854177474976 0.22810713946819305 -0.0854911133646965
-0.21998770534992218 0.2227608859539032 -0.1341509371995926
0.2403867244720459 0.15301282703876495 0.1619018018245697
-0.2727203667163849 0.21874061226844788 0.03359111770987511
-0.2327807992696762 0.3830231726169586 0.1164524257183075
0.29000869393348694 -0.2477244734764099 0.1533241719007492
0.23695580661296844 -0.03701712191104889 0.1699480563402176
-0.13260090351104736 0.22820380330085754 0.14413875341415405
0.2976957857608795 -0.13285420835018158 0.14527006447315216
-0.3359912931919098 -0.36701342463493347 0.11932937800884247
0.16069406270980835 -0.4460878372192383 0.14175903797149658
-0.0026527284644544125 -0.24032288789749146 0.1559782177209854
-0.2684043049812317 -0.1642533540725708 -0.1259451061487198
0.29041096568107605 0.3788340389728546 0.11192552000284195
-0.2687002122402191 -0.24220746755599976 -0.13097429275512695
-0.1791476011276245 0.48593783378601074 -0.0015283990651369095
0.16238091886043549 -0.2448972463607788 -0.13447384536266327
0.299290269613266 -0.034834325313568115 0.1456860452890396
-0.23573316633701324 0.3903288245201111 -0.07415326684713364
-0.03304816782474518 0.2274099439382553 -0.12205631285905838
-0.07670076191425323 -0.20037077367305756 -0.1355026364326477
-0.1841570883989334 0.2639135420322418 -0.008744221180677414
-0.29582616686820984 -0.3829154074192047 -0.08339002728462219
0.17899493873119354 -0.2446189671754837 0.15385505557060242
0.061033014208078384 0.10829335451126099 -0.1365247666835785
-0.2683832049369812 -0.2380005270242691 0.030223971232771873
0.2913200557231903 0.2294417768716812 -0.08591431379318237
-0.10530522465705872 -0.10311603546142578 -0.13688749074935913
-0.2709052264690399 0.042315952479839325 -0.11267820745706558
0.23238134384155273 -0.2821744978427887 -0.0641203224658966
0.2345430850982666 -0.23926278948783875 -0.13303837180137634
0.17400385439395905 0.22799277305603027 -0.12479058653116226
-0.12402591109275818 0.16556525230407715 0.15849393606185913
0.15680564939975739 -0.3074137568473816 -0.014701364561915398
0.10805288702249527 0.17930439114570618 0.15629100799560547
0.2181745320558548 -0.2601155936717987 0.07236883789300919
0.045328494161367416 -0.17469045519828796 0.16653957962989807
0.13970176875591278 -0.4374147057533264 0.08848428726196289
0.10096917301416397 0.05575032904744148 -0.1337633728981018
0.06300762295722961 0.17284062504768372 0.15102697908878326
-0.022667333483695984 0.22819048166275024 0.14481833577156067
0.17028605937957764 0.21857157349586487 0.15963032841682434
-0.17856061458587646 0.3384046256542206 0.054291315376758575
0.1509733498096466 0.2252592295408249 -0.13100692629814148
-0.26575756072998047 -0.4079121947288513 0.19552505016326904
0.2927778661251068 0.1691443920135498 -0.13359937071800232
-0.1883334219455719 0.25573018193244934 0.03620433807373047
0.2864677309989929 0.0825042575597763 -0.13600067794322968
0.25356805324554443 0.44245707988739014 -0.08449455350637436
-0.23625218868255615 0.36213070154190063 0.11471967399120331
0.2073226422071457 -0.3881170451641083 0.18349960446357727
0.2189287543296814 -0.4436584413051605 -0.07352549582719803
0.297061949968338 -0.02039431408047676 0.14998847246170044
0.21144503355026245 0.46343305706977844 -0.07074499130249023
0.22065500915050507 0.08072876930236816 0.17097847163677216
0.06835003942251205 -0.23922991752624512 0.15647274255752563
-0.04323430359363556 -0.06413833796977997 -0.13501882553100586
0.26083695888519287 -0.44237592816352844 -0.06723795086145401
0.09394311159849167 -0.18030297756195068 0.1671767383813858
0.27719876170158386 -0.24723784625530243 -0.11907751858234406
-0.21503691375255585 0.23976978659629822 0.048882223665714264
-0.11766089498996735 0.15303470194339752 0.16966886818408966
0.23150168359279633 0.24327468872070312 -0.02710128389298916
-0.22856400907039642 -0.46055471897125244 0.10668067634105682
-0.16132351756095886 0.3792145550251007 0.0969032347202301
-0.1822749376296997 0.22805914282798767 -0.12939928472042084
0.20734739303588867 0.3430275321006775 -0.06313207745552063
0.2451200634241104 -0.40429067611694336 -0.09122466295957565
0.08484038710594177 0.22779306769371033 -0.12124799937009811
-0.039152733981609344 0.12054506689310074 -0.13476420938968658
0.10756641626358032 0.22999024391174316 0.15233322978019714
-0.25125786662101746 -0.3641752004623413 0.18524712324142456
-0.21063733100891113 0.22424325346946716 -0.1294429749250412
0.2914336323738098 0.14072148501873016 -0.13659827411174774
0.29717373847961426 -0.013094447553157806 -0.13228173553943634
-0.06582975387573242 0.2273833155632019 -0.12894457578659058
0.276854932308197 -0.3256457448005676 -0.011789480224251747
-0.032124388962984085 -0.24504151940345764 0.1537466049194336
-0.16407161951065063 0.35625985264778137 0.06837701052427292
-0.21618667244911194 -0.44103842973709106 0.13690431416034698
-0.27055129408836365 0.15210381150245667 0.14434780180454254
-0.24940505623817444 0.3497077226638794 -0.049212925136089325
0.29704394936561584 0.20956984162330627 0.147976815700531
0.0668279379606247 0.1705026477575302 0.15488874912261963
-0.2575489282608032 -0.016669385135173798 -0.13481906056404114
-0.2701486349105835 0.2155732363462448 0.10976220667362213
0.2941134572029114 0.21803335845470428 0.14804528653621674
-0.3335272967815399 -0.4017488956451416 -0.04648231714963913
0.27162864804267883 -0.44530415534973145 0.0074588842689991
-0.2703150510787964 -0.23472949862480164 0.13532665371894836
-0.005153169855475426 0.18448452651500702 -0.1365327686071396
0.198967844247818 0.17120149731636047 0.15504369139671326
0.23831604421138763 -0.3480823040008545 -0.08606667816638947
-0.1634000837802887 0.22942489385604858 0.026105592027306557
0.289431631565094 0.21962282061576843 -0.1353648155927658
-0.2699330151081085 0.17907670140266418 0.1459314525127411
0.23720936477184296 -0.44181495904922485 -0.07641875743865967
0.09987078607082367 0.22888599336147308 -0.12706851959228516
-0.2700084447860718 -0.24347957968711853 -0.08376392722129822
0.09001165628433228 -0.1807800531387329 0.16683578491210938
0.3020104467868805 0.13483452796936035 0.1466846764087677
0.29254502058029175 0.394191712141037 0.1202625185251236
-0.26781001687049866 0.2253457009792328 0.1478065401315689
0.18725135922431946 0.34400656819343567 -0.023581456393003464
-0.18913696706295013 0.25772055983543396 0.035770632326602936
0.003359702415764332 0.1858776956796646 -0.13567614555358887
-0.29342809319496155 -0.3211194574832916 0.04127741605043411
0.29666969180107117 -0.11989288777112961 0.1540728062391281
0.2963443100452423 -0.06836157292127609 0.1549932211637497
-0.038313206285238266 -0.24730713665485382 0.15193691849708557
0.19331708550453186 -0.18952548503875732 0.15627680718898773
-0.2646227777004242 0.1593361347913742 -0.1348579078912735
0.19332696497440338 -0.2631082236766815 -0.0414871908724308
0.29430514574050903 0.10729840397834778 -0.12298041582107544
-0.24824990332126617 -0.25091663002967834 0.04880102351307869
0.2923756241798401 0.2158769965171814 -0.13470026850700378
-0.17544007301330566 -0.1749701052904129 0.1683460772037506
-0.28742241859436035 0.09651187062263489 -0.29519981145858765
0.28766119480133057 -0.060754820704460144 0.15649744868278503
-0.21190786361694336 -0.06562390178442001 0.1702028065919876
-0.04796028509736061 -0.2390824854373932 -0.1348821371793747
-0.27850016951560974 -0.02932080253958702 -0.3028760850429535
0.29026293754577637 0.11131604015827179 -0.13448695838451385
-0.20985548198223114 -0.14707939326763153 0.16841548681259155
-0.2631365656852722 0.11648691445589066 0.15703600645065308
0.05994148552417755 0.22743400931358337 0.1562606543302536
0.20839598774909973 0.4717909097671509 0.11215300858020782
-0.18216188251972198 0.22732312977313995 0.14239297807216644
0.26124411821365356 -0.24985913932323456 -0.016149792820215225
-0.28915566205978394 0.03363535553216934 -0.25984781980514526
0.22597557306289673 -0.1905725598335266 0.15355184674263
0.2969042658805847 -0.07876715809106827 0.15415501594543457
-0.2697119414806366 0.07941234111785889 0.15347334742546082
-0.2678491771221161 -0.18989884853363037 -0.13170801103115082
0.29546135663986206 0.22642794251441956 0.10792243480682373
-0.29179665446281433 -0.3786141872406006 -0.08543897420167923
-0.31600382924079895 -0.4290735125541687 -0.06914093345403671
-0.2257135510444641 -0.4731946885585785 0.01954720728099346
0.29076558351516724 0.08478815108537674 -0.13440759479999542
0.032785288989543915 0.10370320081710815 -0.13592566549777985
0.05621166527271271 0.11543434858322144 -0.13687194883823395
-0.03438229486346245 0.2282363623380661 0.060212865471839905
0.12631970643997192 -0.18032938241958618 0.1674060821533203
0.20145229995250702 0.22829601168632507 0.025011353194713593
0.29593637585639954 -0.19436794519424438 -0.12164392322301865
-0.05471961945295334 -0.24686874449253082 -0.13251805305480957
0.04306812584400177 -0.24996547400951385 0.1463904231786728
0.29338759183883667 0.22482560575008392 0.08290483057498932
-0.268351286649704 -0.24827055633068085 0.07776050269603729
-0.25618577003479004 -0.2509680986404419 -0.11551908403635025
-0.1294325292110443 -0.14906272292137146 0.1700536012649536
0.19196313619613647 0.22829046845436096 0.15547233819961548
0.28127965331077576 -0.4282245934009552 -0.03745260462164879
-0.20171573758125305 0.49790406227111816 0.08640312403440475
0.2894883453845978 -0.11493396013975143 0.15716040134429932
0.19928982853889465 0.17124922573566437 0.15278120338916779
0.2395218312740326 0.3184818625450134 0.05843404307961464
0.03893250972032547 0.1796981543302536 -0.21954874694347382
-0.017369579523801804 -0.23661872744560242 0.15793119370937347
0.2543433606624603 0.503960132598877 -0.026618093252182007
-0.25592920184135437 -0.015722589567303658 0.1563129723072052
-0.26633912324905396 0.06674044579267502 0.15674631297588348
0.07303936034440994 0.1584252417087555 -0.13679714500904083
-0.2693673074245453 0.11143691092729568 0.15609434247016907
-0.21090483665466309 -0.27471527457237244 -0.06165410578250885
0.11826327443122864 -0.24851270020008087 0.14439456164836884
-0.270186185836792 -0.147760272026062 -0.12585307657718658
0.0597086176276207 0.044805657118558884 0.16934311389923096
0.05860176309943199 0.10130607336759567 -0.13542023301124573
0.2882719337940216 -0.155750572681427 0.15841993689537048
-0.23530437052249908 -0.2572111189365387 0.02130761370062828
-0.17647269368171692 0.2405625283718109 0.03138697147369385
-0.26005786657333374 -0.005122490227222443 -0.1337195336818695
-0.25786176323890686 -0.12924428284168243 -0.1349998563528061
0.2216394990682602 -0.16641129553318024 -0.13510464131832123
0.28992950916290283 0.20969466865062714 -0.13506171107292175
-0.27009496092796326 -0.08387923240661621 -0.12955866754055023
-0.2684837281703949 -0.21562860906124115 0.14572203159332275
0.20127412676811218 0.2280757576227188 0.01946515217423439
-0.23978924751281738 0.26327261328697205 0.02493288367986679
0.006784447468817234 0.09163035452365875 -0.13553954660892487
0.293211966753006 0.22322990000247955 -0.04063206911087036
-0.3338490128517151 -0.3633739948272705 0.061071641743183136
-0.3311196565628052 -0.3369390070438385 0.1583261936903
0.2957618534564972 0.19648510217666626 0.1523774415254593
0.16776143014431 -0.2613053321838379 0.004132295027375221
0.1800522804260254 0.22074340283870697 0.1588522046804428
0.2367769181728363 0.5134801268577576 0.10079114139080048
0.25474613904953003 -0.25180211663246155 0.001206998247653246
-0.2691020965576172 -0.03756559640169144 0.1138337254524231
0.23558826744556427 -0.24404636025428772 0.15527476370334625
0.23322609066963196 0.181319922208786 0.15806347131729126
0.18653306365013123 -0.2498667687177658 0.050214678049087524
-0.01114620827138424 -0.18269649147987366 0.1666809618473053
0.2685759961605072 -0.35726577043533325 0.14415515959262848
-0.21226650476455688 0.22602683305740356 -0.13293279707431793
0.2866608202457428 0.32926133275032043 0.01622413471341133
-0.2712634205818176 0.10887125134468079 0.14350950717926025
-0.2576797902584076 0.37071242928504944 0.09778892248868942
-0.10574953258037567 -0.2488498091697693 -0.1191507950425148
0.21476036310195923 -0.4258294105529785 -0.08666272461414337
-0.03493235260248184 -0.23484347760677338 0.15640483796596527
-0.19031628966331482 -0.3459725081920624 0.07484869658946991
-0.2222457230091095 0.24255947768688202 -0.02867370843887329
-0.224932461977005 0.5007053017616272 0.07045908272266388
0.19755060970783234 -0.40679600834846497 0.19016233086585999
-0.24006007611751556 -0.29742035269737244 0.09410133212804794
-0.21927353739738464 -0.4647577404975891 0.06913981586694717
-0.17072615027427673 0.2167811095714569 0.15864844620227814
0.22130149602890015 0.18170246481895447 0.15565341711044312
-0.26862263679504395 0.22024402022361755 0.13165317475795746
-0.17906758189201355 0.22725558280944824 0.05853082239627838
0.29322734475135803 -0.012516649439930916 0.15503069758415222
-0.31504738330841064 -0.3800675868988037 0.14497308433055878
0.21336567401885986 0.21723611652851105 -0.13455148041248322
0.29671698808670044 -0.13282078504562378 -0.1312360167503357
-0.24588538706302643 0.32947251200675964 0.022416574880480766
-0.16788704693317413 -0.24102316796779633 0.1559619903564453
0.0025229037273675203 -0.2433735728263855 -0.13419657945632935
-0.27165845036506653 -0.17047622799873352 -0.12507513165473938
0.2549041509628296 0.48419004678726196 -0.061195798218250275
-0.23855936527252197 -0.269776314496994 -0.032189078629016876
0.2963660657405853 0.033354826271533966 -0.1279333233833313
-0.23096142709255219 -0.26649248600006104 -0.03274984285235405
0.20473767817020416 0.2289014458656311 0.0827903300523758
0.2864623963832855 0.05469583719968796 0.1579437106847763
-0.24469909071922302 0.3382493555545807 0.06164617836475372
0.2885984778404236 0.17045333981513977 0.1563648134469986
0.29838693141937256 0.2138892561197281 0.1462639719247818
-0.21605195105075836 -0.2850964665412903 -0.06587505340576172
-0.2760843336582184 -0.35195255279541016 0.19921569526195526
0.20523710548877716 0.23259879648685455 -0.012614883482456207
0.06397812068462372 0.18991337716579437 -0.17203834652900696
-0.23172444105148315 -0.3247041702270508 -0.08313643932342529
0.2896905541419983 0.21947208046913147 -0.13523881137371063
-0.009830767288804054 -0.20258906483650208 0.15529388189315796
-0.26815247535705566 -0.08105208724737167 -0.12337827682495117
-0.0013417210429906845 0.22155864536762238 -0.17980626225471497
-0.25921162962913513 -0.21990810334682465 0.15438929200172424
-0.20552664995193481 0.0441976822912693 0.17373479902744293
-0.27052998542785645 0.11939734220504761 -0.1339551955461502
-0.2574619948863983 0.0030625457875430584 0.15672622621059418
0.18008637428283691 0.1539725512266159 0.17045587301254272
-0.236601784825325 -0.3227509558200836 -0.08166369050741196
0.19841502606868744 0.21233950555324554 -0.13508139550685883
0.28991419076919556 0.22120070457458496 -0.13688507676124573
0.17905506491661072 0.45161110162734985 0.092852883040905
-0.2587157189846039 -0.2501072287559509 -0.04109107702970505
-0.26682549715042114 -0.22655829787254333 -0.13566869497299194
0.22249534726142883 -0.42772287130355835 -0.08664977550506592
0.2504277229309082 0.10020366311073303 0.15838855504989624
-0.28382280468940735 -0.3138352632522583 0.14159780740737915
0.23888671398162842 -0.06471538543701172 0.16811391711235046
-0.03527965024113655 0.15746302902698517 -0.19834096729755402
-0.08834411203861237 -0.2457132786512375 0.15462249517440796
-0.26436689496040344 0.16941583156585693 -0.13408829271793365
0.2572233974933624 0.247391939163208 -0.017750944942235947
0.19773857295513153 0.1736546903848648 0.15717151761054993
0.2910041809082031 0.21621368825435638 -0.12982900440692902
0.24412614107131958 0.043693047016859055 0.16536608338356018
0.2618318498134613 -0.3731061816215515 -0.07681199163198471
-0.2848903238773346 -0.04754225164651871 -0.2368782013654709
0.22449763119220734 0.22475658357143402 0.15752644836902618
-0.2451532930135727 0.48039478063583374 0.1036296859383583
0.13419964909553528 -0.1975632905960083 0.1536729782819748
-0.26718828082084656 0.22460249066352844 -0.13330666720867157
0.29565903544425964 0.20729051530361176 0.14731471240520477
0.1878337860107422 -0.21392101049423218 -0.13472262024879456
0.2066759169101715 0.45552459359169006 -0.06980536878108978
0.25799983739852905 -0.14764708280563354 0.153473362326622
0.1744779497385025 0.3902503550052643 0.027931971475481987
0.19183047115802765 -0.25807613134384155 0.059699513018131256
-0.015429948456585407 0.1501619666814804 0.1719972789287567
0.2885251045227051 0.09734930098056793 -0.1348663717508316
-0.188490092754364 0.2302505224943161 0.05092434957623482
0.13555856049060822 -0.42776361107826233 0.10389846563339233
-0.1610276997089386 0.22878676652908325 0.0004083830863237381
-0.27041807770729065 -0.2508193552494049 -0.11346039175987244
0.23817266523838043 0.3856588304042816 -0.092502161860466
0.02225092053413391 -0.24513797461986542 -0.13274076581001282
0.047065600752830505 0.13381236791610718 -0.20440897345542908
0.2379121631383896 0.22712254524230957 -0.12979453802108765
-0.1267217993736267 -0.24403776228427887 0.1563008576631546
0.29166996479034424 0.22349247336387634 -0.135880708694458
-0.2718651294708252 -0.16970586776733398 -0.10852853953838348
0.1518115997314453 -0.44353851675987244 0.08847550302743912
0.2967613935470581 0.12768864631652832 0.1509508341550827
0.12311909347772598 -0.18009665608406067 0.16361913084983826
-0.27075308561325073 0.07408547401428223 -0.13291241228580475
-0.27158108353614807 -0.17836706340312958 -0.12770825624465942
-0.3075280487537384 -0.3232387602329254 0.18043270707130432
-0.06755644083023071 0.22858154773712158 -0.12480253726243973
0.1189664751291275 -0.23926027119159698 0.15658995509147644
-0.3000919222831726 -0.38881197571754456 -0.0819535106420517
0.29687029123306274 -0.0799873024225235 0.15260688960552216
-0.27020180225372314 -0.029026418924331665 -0.13278071582317352
-0.031726863235235214 -0.24980244040489197 0.14806807041168213
-0.2533685266971588 -0.32352569699287415 -0.07571744173765182
0.20622408390045166 0.3020673394203186 0.0013582222163677216
-0.240568608045578 -0.47248733043670654 0.03199472278356552
-0.2721051871776581 0.1443469524383545 -0.12231583148241043
0.29620304703712463 0.09060067683458328 0.14337146282196045
0.26054954528808594 0.23953256011009216 -0.02409716695547104
-0.23778535425662994 -0.451651006937027 0.11818452179431915
0.09375736862421036 0.22863130271434784 0.14313893020153046
0.2924920916557312 -0.1328953504562378 -0.13619935512542725
-0.2709923982620239 0.0835847407579422 -0.04028613120317459
-0.2377958744764328 -0.43666163086891174 0.16317680478096008
0.04794611781835556 0.110916867852211 -0.13202358782291412
0.2638559341430664 -0.2514965832233429 -0.032264791429042816
0.1415705531835556 -0.4388589560985565 0.04362719878554344
-0.2699354588985443 -0.3654198944568634 0.20177018642425537
-0.09046867489814758 0.22824464738368988 -0.12552861869335175
-0.07691247016191483 0.22003646194934845 0.15737107396125793
0.23195785284042358 -0.3414710760116577 -0.08576294779777527
-0.21711060404777527 -0.12851399183273315 0.16730226576328278
-0.26925942301750183 0.223158597946167 -0.0066503193229436874
-0.237532377243042 0.22312453389167786 0.08618218451738358
0.12217450141906738 -0.143886536359787 -0.134004145860672
0.16146987676620483 -0.41538313031196594 0.17841772735118866
-0.26984044909477234 0.06285089254379272 -0.026781007647514343
-0.2540903389453888 0.22766685485839844 0.1393602341413498
-0.07361157238483429 -0.05268395319581032 -0.13624216616153717
-0.25385940074920654 0.22577667236328125 -0.13380512595176697
-0.23246006667613983 0.22454926371574402 -0.13188482820987701
-0.2109014093875885 0.23329773545265198 0.056314535439014435
-0.05745268613100052 -0.24748986959457397 -0.1299034059047699
-0.018016904592514038 -0.24539008736610413 0.1554953157901764
-0.23584426939487457 -0.43571770191192627 0.1706247180700302
-0.18610967695713043 -0.34932294487953186 0.07332292199134827
0.28741487860679626 -0.3720247149467468 0.08293963968753815
0.2967433035373688 0.12265635281801224 0.15095430612564087
0.2624925971031189 0.35444092750549316 -0.08206130564212799
-0.18223415315151215 0.31950947642326355 -0.0016210689209401608
0.05282227694988251 0.11633025109767914 -0.1348707526922226
