-0.19659192860126495 0.2251477986574173 -0.08721428364515305
0.2611967623233795 0.036207836121320724 -0.13460513949394226
0.2979917526245117 0.10146742314100266 -0.09614388644695282
-0.24708445370197296 0.08802583813667297 0.1574869304895401
-0.11094880104064941 0.053370289504528046 -0.13369719684123993
0.13325786590576172 -0.25122401118278503 0.10548233985900879
-0.2704116106033325 0.05485810339450836 0.06851542741060257
0.15174750983715057 -0.40016576647758484 0.16014988720417023
0.16383033990859985 0.22496840357780457 -0.11940116435289383
0.06169479340314865 -0.04305160045623779 0.1675942987203598
-0.2484801560640335 -0.28408727049827576 -0.014869983308017254
0.1868368238210678 -0.4483869969844818 0.041995640844106674
0.2961021065711975 0.20087935030460358 -0.09249599277973175
0.27555811405181885 -0.34190165996551514 0.0561789833009243
0.17389267683029175 -0.3148665130138397 0.07987579703330994
0.2806236147880554 -0.37723544239997864 -0.020387355238199234
0.11088600754737854 0.20625415444374084 -0.13369059562683105
-0.27484193444252014 0.0336490124464035 0.13447508215904236
-0.217475026845932 0.06570187956094742 -0.1328440010547638
-0.24689222872257233 0.10372580587863922 0.1585361212491989
-0.3150658905506134 -0.359904944896698 -0.0001747184433043003
0.2982949912548065 0.37995070219039917 0.06551108509302139
-0.2955739200115204 0.02110104449093342 -0.278189092874527
-0.18033437430858612 0.11661970615386963 0.17163054645061493
-0.20037949085235596 0.11892549693584442 0.16818492114543915
-0.1153283342719078 0.22442209720611572 0.10946864634752274
0.2092910259962082 -0.348874032497406 0.13690908253192902
-0.2253468930721283 0.4105703830718994 0.09188465774059296
-0.0004261028952896595 -0.2517244517803192 0.14424347877502441
-0.11863965541124344 0.17017504572868347 0.16810618340969086
0.01335236243903637 0.21414996683597565 -0.16116668283939362
0.17399805784225464 0.3763951063156128 0.0167426485568285
0.2968073785305023 0.1911177784204483 -0.09042467921972275
-0.13208189606666565 0.1581641435623169 0.1662621945142746
0.2996574640274048 0.04376613348722458 -0.1132463738322258
-0.1755659580230713 0.0661136656999588 -0.1329794079065323
-0.2700820863246918 0.10851924866437912 0.07628273963928223
-0.31684643030166626 -0.36342039704322815 -0.00849538017064333
0.17575699090957642 -0.25326865911483765 -0.08104380965232849
0.22602838277816772 -0.44718968868255615 0.18001165986061096
-0.07601597905158997 -0.1918824315071106 -0.13237814605236053
0.2946811616420746 -0.021534256637096405 0.12722988426685333
0.24019603431224823 -0.3557591140270233 0.1476055085659027
-0.2203536331653595 0.226780503988266 -0.11238828301429749
-0.04363730922341347 -0.25655582547187805 0.06672713160514832
-0.27194124460220337 0.046843964606523514 -0.10744559019804001
-0.2687545120716095 0.17888140678405762 0.028464537113904953
-0.22965560853481293 -0.012915551662445068 -0.13648083806037903
0.2746885120868683 0.1447647511959076 0.15395666658878326
-0.03014546073973179 -0.2523128390312195 0.07875542342662811
0.19479750096797943 0.4486789107322693 -0.059661176055669785
0.21282747387886047 -0.29986122250556946 -0.06743495911359787
0.13844004273414612 -0.38071969151496887 0.08229293674230576
0.2878953814506531 -0.40031734108924866 0.15627099573612213
0.18539215624332428 -0.4462387263774872 -0.04007033258676529
0.21985787153244019 -0.034156911075115204 -0.13273169100284576
0.008297229185700417 0.22439251840114594 0.06945904344320297
0.15599867701530457 -0.3604101538658142 0.11369562894105911
-0.07529353350400925 -0.25658154487609863 -0.006460712756961584
0.07124689221382141 0.22625581920146942 0.10322672873735428
0.22528713941574097 0.36956077814102173 -0.09044267237186432
0.2872829735279083 -0.3750682473182678 0.07880297303199768
0.2593899965286255 -0.25101780891418457 -0.079496368765831
-0.04409908875823021 0.1537068635225296 -0.1652757078409195
-0.17446938157081604 -0.2515687346458435 0.12706728279590607
-0.15559060871601105 0.21487052738666534 -0.1343778669834137
0.2339337170124054 0.22694508731365204 -0.11759224534034729
0.26926183700561523 -0.44457605481147766 0.13855846226215363
-0.22570356726646423 -0.22937019169330597 0.1595631092786789
0.09189865738153458 0.03139409422874451 -0.13373911380767822
-0.27519065141677856 0.13937273621559143 -0.11607389897108078
-0.20203721523284912 -0.3288494050502777 -0.06297912448644638
-0.18486833572387695 -0.09169822931289673 -0.13436076045036316
0.19570179283618927 0.42503178119659424 -0.07013468444347382
0.2749229669570923 -0.4275156557559967 -0.04772887006402016
0.239164799451828 0.16919657588005066 -0.1328849047422409
-0.2292414754629135 0.19982776045799255 -0.1344132274389267
-0.22440098226070404 -0.3099578619003296 0.09440632164478302
-0.24687498807907104 0.05314572900533676 -0.13637258112430573
0.2929094433784485 0.12022397667169571 0.09527327120304108
0.03367331624031067 0.22616970539093018 -0.10430721938610077
-0.2926080524921417 0.06087874621152878 -0.28022515773773193
-0.25242719054222107 0.39728081226348877 -0.05550484359264374
0.14659464359283447 -0.4046747088432312 0.15490655601024628
0.1936304271221161 -0.3862626254558563 0.17957931756973267
-0.10998484492301941 -0.19135570526123047 -0.1328844577074051
0.13193340599536896 -0.15068098902702332 0.16958636045455933
0.08169537782669067 -0.22879250347614288 0.15635424852371216
0.17394393682479858 -0.09722793847322464 0.16365739703178406
0.1646943986415863 -0.4468269348144531 0.1462417095899582
-0.2698156237602234 -0.13235971331596375 -0.11089363694190979
0.019031090661883354 0.227461040019989 -0.04464288055896759
-0.2391735464334488 -0.17250455915927887 -0.1348939687013626
0.038632553070783615 0.22662639617919922 0.021179968491196632
-0.236988827586174 -0.25382858514785767 0.10474109649658203
0.2656722366809845 -0.24921900033950806 -0.07255645096302032
0.07107760012149811 -0.0014808960258960724 0.16683027148246765
0.2685583829879761 -0.3015376627445221 0.027910703793168068
-0.08921992778778076 -0.14678163826465607 0.16790330410003662
-0.2073441445827484 -0.1519334614276886 0.1662638634443283
0.19965426623821259 0.1229158490896225 -0.13656306266784668
-0.2699053883552551 -0.1405884027481079 -0.11123780906200409
0.23937548696994781 -0.2520293593406677 0.10873904824256897
0.29414287209510803 0.20230627059936523 0.10069030523300171
-0.20669867098331451 0.05522717535495758 -0.13438567519187927
-0.14463557302951813 -0.24998696148395538 0.06009483337402344
-0.2120315134525299 -0.4613302946090698 0.035183314234018326
-0.06403589248657227 0.17334739863872528 0.17268922924995422
0.11809338629245758 -0.16012997925281525 0.16558082401752472
-0.23414985835552216 -0.2163853943347931 -0.13292410969734192
0.28577572107315063 -0.37452444434165955 0.09274555742740631
0.29384085536003113 0.34682637453079224 0.006509822327643633
0.24894219636917114 -0.24854518473148346 0.13411571085453033
0.29983946681022644 -0.15993691980838776 -0.10398607701063156
-0.2240569144487381 -0.25059255957603455 0.13064029812812805
0.011703005991876125 0.22371694445610046 0.0994505062699318
0.031937796622514725 -0.1622641682624817 -0.13355055451393127
-0.26978158950805664 -0.10979576408863068 -0.10796138644218445
-0.033358652144670486 0.14309869706630707 -0.13379596173763275
-0.18277154862880707 -0.40303924679756165 -0.012253610417246819
0.17975856363773346 -0.4471718370914459 -0.020732799544930458
0.17660371959209442 0.18601606786251068 -0.13225631415843964
0.26652300357818604 -0.2929755747318268 0.010912127792835236
-0.271050363779068 0.09072981774806976 0.019405227154493332
0.05286788567900658 0.008884686045348644 -0.13473930954933167
-0.20447415113449097 0.029750995337963104 -0.13334594666957855
-0.022352006286382675 -0.21613574028015137 0.15528951585292816
0.15347838401794434 -0.2539180517196655 -0.02537551335990429
-0.04269959777593613 -0.25223636627197266 0.042135294526815414
-0.18373368680477142 0.3813522458076477 -0.06640675663948059
0.16950829327106476 0.4014586806297302 0.047185301780700684
-0.16337957978248596 -0.02008402906358242 0.17392198741436005
0.17745663225650787 0.22706401348114014 0.099551722407341
0.03236828371882439 -0.25252535939216614 0.01906980201601982
0.05212772637605667 -0.2142813354730606 -0.1335165649652481
-0.2699977457523346 0.17588068544864655 -0.0807073786854744
-0.21344874799251556 -0.3698558211326599 -0.072161003947258
-0.12288440018892288 -0.2532746195793152 0.05068294331431389
0.28535985946655273 0.3319372236728668 0.034588053822517395
-0.0047185420989990234 0.19247274100780487 0.1568649411201477
0.28363367915153503 0.06282153725624084 -0.13305898010730743
0.1256592869758606 0.22623834013938904 -0.055334337055683136
-0.2627961337566376 -0.47427868843078613 -0.013731301762163639
0.146366685628891 0.19621138274669647 -0.1352163404226303
0.11543899774551392 -0.08425217866897583 0.16824094951152802
0.10370131582021713 -0.20062583684921265 -0.13424742221832275
-0.2698560059070587 0.198069229722023 -0.10361027717590332
-0.20281220972537994 -0.379153847694397 -0.06235622987151146
-0.13155600428581238 -0.007204156368970871 -0.13403835892677307
-0.20612864196300507 -0.23211494088172913 0.1562865525484085
-0.22898197174072266 0.22500792145729065 -0.11866298317909241
0.16195586323738098 0.22663578391075134 0.015153839252889156
0.21289502084255219 -0.08935560286045074 -0.12862032651901245
-0.04841723293066025 -0.2083779126405716 0.15555202960968018
0.11633406579494476 -0.2533276081085205 0.08392943441867828
0.2395215928554535 0.22304636240005493 -0.10843066871166229
0.27516424655914307 -0.3155563771724701 0.020700370892882347
0.24993054568767548 0.515135645866394 0.04998062923550606
0.25063014030456543 0.03836314380168915 -0.13599170744419098
0.24450401961803436 0.07198646664619446 -0.13314037024974823
-0.10382802039384842 -0.07222926616668701 -0.13608330488204956
-0.15593703091144562 -0.07116405665874481 -0.13369812071323395
-0.16873686015605927 -0.3737230896949768 0.002466034609824419
0.26152855157852173 -0.04233042150735855 -0.1326793134212494
-0.2698487341403961 -0.0491521880030632 0.13146381080150604
0.08197008818387985 0.2246342897415161 -0.11618600785732269
0.05143100023269653 0.22792556881904602 0.07841258496046066
-0.19597113132476807 0.16179293394088745 0.1708657443523407
0.05988485738635063 0.17390115559101105 -0.1889939159154892
-0.18961861729621887 0.14104460179805756 0.16813597083091736
0.2929655909538269 0.04195598512887955 0.11559776216745377
0.06614801287651062 -0.2419765144586563 -0.1333133578300476
0.08295229077339172 0.22538074851036072 -0.08578953146934509
-0.19516713917255402 -0.4211108386516571 -0.027387795969843864
-0.17229078710079193 0.20953814685344696 -0.13505427539348602
-0.2525276839733124 -0.1985609233379364 0.15161041915416718
-0.07534348219633102 -0.2510756552219391 -0.09601134806871414
-0.05450825393199921 -0.2482622116804123 0.13874493539333344
0.16404157876968384 -0.35737401247024536 0.11938290297985077
0.27280861139297485 0.45465779304504395 -0.06688308715820312
-0.25782716274261475 0.33914998173713684 0.001655768370255828
-0.2282639443874359 0.22405779361724854 -0.06327852606773376
0.1655261367559433 -0.3204534351825714 0.07337137311697006
-0.27497610449790955 0.2024758905172348 0.09734521061182022
-0.1497541218996048 0.22689159214496613 -0.1076442152261734
-0.09990652650594711 -0.21990180015563965 0.15938033163547516
0.238715261220932 0.008155342191457748 0.168334499001503
-0.27045339345932007 -0.1982935518026352 0.053358688950538635
0.1610121876001358 -0.140342116355896 0.16513319313526154
0.19477559626102448 0.23116716742515564 -0.01661374792456627
0.285240113735199 -0.1716739982366562 -0.13202343881130219
0.25384649634361267 -0.2819608747959137 -0.04256969690322876
-0.3138442039489746 -0.4252094626426697 -0.024842435494065285
-0.15656596422195435 0.4559735357761383 0.06395252048969269
-0.17862774431705475 -0.03088543377816677 -0.13648799061775208
0.29198506474494934 0.038518745452165604 -0.06523201614618301
-0.06755071878433228 0.047160014510154724 -0.1339864432811737
0.1662895232439041 -0.38816696405410767 -0.052382078021764755
-0.3041061758995056 -0.4012196958065033 0.09964437037706375
-0.11429159343242645 -0.2278444916009903 -0.1302521675825119
-0.11412987112998962 -0.03922991827130318 -0.13373732566833496
0.3000864088535309 0.021378425881266594 -0.09384565055370331
0.22859905660152435 -0.15485501289367676 0.16456502676010132
0.2829835116863251 -0.3690418303012848 -0.024540066719055176
-0.21986517310142517 0.22635512053966522 0.11136596649885178
0.14172159135341644 0.14379575848579407 0.16468261182308197
-0.17307600378990173 -0.046151455491781235 0.16762849688529968
-0.22690358757972717 0.018177926540374756 0.16886687278747559
-0.0628185123205185 0.22403576970100403 -0.11412186920642853
0.26470622420310974 -0.3052057921886444 -0.046280037611722946
0.16634289920330048 0.05933783948421478 -0.13333216309547424
0.1781463325023651 -0.2403484284877777 -0.13332541286945343
-0.1676071584224701 0.3887058198451996 -0.04684492573142052
-0.26412370800971985 0.38642552495002747 -0.018917210400104523
0.281131774187088 0.3724561929702759 -0.06546775251626968
-0.03492801636457443 0.22797982394695282 -0.11756554991006851
-0.24944204092025757 0.22532781958580017 -0.05563730373978615
-0.0696825459599495 -0.25068745017051697 -0.06397975236177444
0.17499130964279175 0.4419949948787689 0.013581781648099422
-0.27391237020492554 0.13387182354927063 0.08147262781858444
0.14715632796287537 -0.4155074656009674 0.16096775233745575
0.22251459956169128 0.12902598083019257 0.16682705283164978
0.027298100292682648 0.22468876838684082 0.08883561939001083
0.21698908507823944 -0.35347893834114075 -0.08446609973907471
0.2938908636569977 -0.17178934812545776 -0.08753202110528946
0.29198601841926575 0.205910325050354 -0.08711247891187668
-0.039155468344688416 0.13045082986354828 -0.18003608286380768
-0.267147421836853 0.008452652022242546 0.14331990480422974
-0.2041608989238739 0.41557618975639343 -0.08112034201622009
0.03764788433909416 0.07139454036951065 -0.1320302039384842
0.2896656095981598 0.4385172724723816 -0.03627236559987068
-0.09000048041343689 0.14596910774707794 0.1675189733505249
0.2942048907279968 0.17553916573524475 0.06835275143384933
0.29180052876472473 0.347278892993927 -0.012580638751387596
-0.17410430312156677 0.1569710075855255 0.1680545210838318
0.14336645603179932 0.1341465711593628 0.16756172478199005
0.10423760861158371 -0.2499915510416031 -0.0897362232208252
-0.21543367207050323 -0.025917403399944305 -0.1357477903366089
-0.2036091685295105 -0.37301406264305115 0.1144515872001648
0.18647901713848114 -0.08460104465484619 -0.13364028930664062
0.21627651154994965 0.16800618171691895 -0.13510550558567047
-0.26975345611572266 -0.40423887968063354 -0.09214256703853607
-0.15351054072380066 0.22716379165649414 0.08285371214151382
-0.249132439494133 0.3370037376880646 -0.02765965647995472
0.19776254892349243 0.2241501808166504 0.03185775503516197
0.29187265038490295 0.11390306055545807 -0.05669582262635231
-0.2728838622570038 0.20385870337486267 0.11934728175401688
0.0015824120491743088 -0.0040343161672353745 0.17303143441677094
0.19179025292396545 0.4964389503002167 0.0560232475399971
-0.2675592303276062 -0.030017230659723282 -0.09251736849546432
-0.26959228515625 -0.1193336620926857 -0.1079203262925148
-0.27121907472610474 0.07961637526750565 0.020139427855610847
-0.024464644491672516 -0.17220698297023773 0.1663675308227539
-0.20768532156944275 -0.4350241422653198 0.140140563249588
-0.25940412282943726 -0.4485284388065338 0.07715778797864914
0.004717955831438303 -0.2511790096759796 0.027207624167203903
0.29172980785369873 0.0411166176199913 -0.10075543075799942
0.2929956912994385 -0.21998454630374908 -0.08959102630615234
-0.15055832266807556 0.12491282820701599 0.1685291975736618
0.29222571849823 0.04801012948155403 0.12629352509975433
0.2265881896018982 -0.3631945550441742 0.1590210646390915
0.08327651768922806 0.02476852387189865 -0.134047731757164
-0.10604192316532135 0.2245657593011856 0.035634834319353104
0.0483829490840435 0.22685523331165314 0.03156711906194687
0.1219521164894104 -0.2547288239002228 -0.07516712695360184
-0.18492990732192993 -0.42395707964897156 0.029010433703660965
-0.1910325139760971 -0.4082914888858795 -0.031728457659482956
-0.24912318587303162 0.16663701832294464 0.1588529348373413
0.27861228585243225 0.4718126058578491 -0.03901601582765579
0.046504829078912735 0.14394083619117737 0.16795824468135834
-0.2542046010494232 0.05935889482498169 0.15962736308574677
-0.18955010175704956 0.49450716376304626 -0.004776849877089262
0.18267127871513367 -0.4467615783214569 -0.026421930640935898
0.28130683302879333 -0.34626835584640503 0.08921277523040771
0.25666573643684387 -0.25242817401885986 0.07900039106607437
0.29268017411231995 -0.2245800644159317 -0.03270464017987251
-0.1759527623653412 -0.3847571313381195 0.002912617288529873
0.11966914683580399 0.13922281563282013 0.16769233345985413
0.29569628834724426 -0.1025620549917221 0.09091529995203018
0.29777899384498596 0.18108390271663666 0.07352817058563232
-0.15352731943130493 0.2250390201807022 0.05072958767414093
0.19926537573337555 0.17939044535160065 -0.13572664558887482
-0.2724226415157318 -0.031183481216430664 0.021033450961112976
0.17453566193580627 0.3925849199295044 0.026001911610364914
0.21238020062446594 -0.33804231882095337 -0.07951147109270096
-0.2752794921398163 0.14356058835983276 -0.11416817456483841
-0.2806549668312073 -0.425380676984787 0.09165647625923157
0.21124187111854553 -0.44686993956565857 0.1712859719991684
0.23509585857391357 -0.44712620973587036 -0.017405282706022263
-0.21652114391326904 -0.3845253586769104 0.15414336323738098
-0.05650942400097847 -0.11916489154100418 -0.13329793512821198
-0.008617435581982136 0.2400466799736023 -0.19593864679336548
-0.264823853969574 0.025165870785713196 -0.13631412386894226
0.29025694727897644 0.15218162536621094 0.035063114017248154
0.25838661193847656 -0.44631537795066833 0.04965871199965477
-0.29119107127189636 -0.4350210130214691 0.020352210849523544
-0.22902455925941467 0.05060354247689247 -0.13324664533138275
0.23748213052749634 0.057627979665994644 0.16819767653942108
-0.13322016596794128 0.0451706126332283 0.17108285427093506
0.18981949985027313 -0.16435743868350983 -0.1323457658290863
-0.07628104090690613 0.1727542281150818 0.1713785082101822
0.18214131891727448 -0.06447987258434296 -0.13233332335948944
0.04901248961687088 -0.2209046185016632 0.1573195606470108
-0.2610074281692505 -0.29349485039711 0.012632405385375023
0.159977525472641 0.01178385317325592 -0.13591094315052032
0.22825711965560913 0.19063088297843933 -0.13478533923625946
-0.06767571717500687 0.14277566969394684 -0.13162679970264435
0.29350751638412476 -0.1576596349477768 0.002852693200111389
0.27655845880508423 0.06460489332675934 -0.13315504789352417
0.137623131275177 -0.38151079416275024 0.055547408759593964
0.2961123287677765 -0.1427278071641922 0.08572998642921448
-0.24890835583209991 -0.43187445402145386 0.17653243243694305
0.22927390038967133 0.07356920838356018 0.16728509962558746
-0.2927359938621521 -0.3388979434967041 -0.02620534598827362
0.21623912453651428 -0.3337329030036926 -0.08209889382123947
0.29937270283699036 -0.15246643126010895 0.10485068708658218
0.29240942001342773 0.09218540787696838 0.03936831280589104
0.1999494731426239 -0.25258883833885193 -0.0688612312078476
-0.08463606983423233 -0.2517712414264679 -0.10062426328659058
-0.2237667739391327 0.22600717842578888 0.11118881404399872
-0.079072967171669 0.08317947387695312 -0.13231852650642395
0.1727316975593567 0.1909242868423462 0.1556965857744217
0.0460883192718029 -0.2522607147693634 0.09616339206695557
-0.1639559119939804 -0.20514431595802307 -0.1322619467973709
0.2366812527179718 -0.151872456073761 0.16710165143013
-0.2556825280189514 -0.30036482214927673 -0.035854730755090714
-0.030461516231298447 0.22523115575313568 -0.09403206408023834
0.059789445251226425 0.22590743005275726 -0.1187482625246048
-0.22044618427753448 -0.0116991326212883 -0.1342342644929886
0.2913752794265747 -0.1337636113166809 0.046002648770809174
0.2649674713611603 -0.21323803067207336 0.15563146770000458
0.3000887930393219 -0.09018617868423462 -0.11168128252029419
-0.2694568336009979 0.042933735996484756 -0.01596900448203087
-0.2031623274087906 0.07813957333564758 0.17008286714553833
-0.1520848125219345 0.37294748425483704 0.043002936989068985
0.28998059034347534 0.15160435438156128 0.08345017582178116
0.2902105748653412 -0.17434163391590118 -0.09699921309947968
0.2646816670894623 -0.30663082003593445 0.07674326002597809
0.21350520849227905 0.08535493165254593 -0.13586188852787018
-0.19275785982608795 -0.08233857154846191 -0.133384108543396
0.23151609301567078 0.050514571368694305 0.17142091691493988
-0.2385227531194687 -0.08054887503385544 0.1571112722158432
0.05888434126973152 0.07919330149888992 -0.13420318067073822
0.29295817017555237 0.160698801279068 0.06024705991148949
-0.030733369290828705 0.22490990161895752 -0.11626385897397995
0.30166274309158325 0.08911079913377762 -0.10299530625343323
0.29047513008117676 0.17070981860160828 -0.07200901955366135
0.201363205909729 -0.17833726108074188 0.16183899343013763
0.20226436853408813 -0.2521257996559143 0.11500659584999084
-0.27061331272125244 0.03884356841444969 -0.09645893424749374
0.02006409503519535 -0.04080335795879364 0.16814500093460083
-0.24492575228214264 0.2284771054983139 0.13343654572963715
-0.26889580488204956 0.07360325753688812 -0.02432961016893387
0.0632525235414505 0.07773632556200027 -0.13285167515277863
-0.05906331539154053 -0.09084643423557281 -0.13360068202018738
0.17358212172985077 0.39365726709365845 0.0854078158736229
-0.16879409551620483 -0.32142022252082825 -0.022737272083759308
-0.15996451675891876 0.4209306240081787 -0.035451944917440414
-0.2673419713973999 0.3788447082042694 0.06341440975666046
-0.1602158546447754 0.36127254366874695 0.059911422431468964
0.2980957329273224 0.18499398231506348 -0.11029937863349915
0.2911297380924225 0.17331825196743011 0.0987660214304924
-0.09254585951566696 -0.08079125732183456 0.1674446165561676
-0.26353880763053894 0.44518712162971497 0.0709996148943901
0.10628561675548553 0.22623774409294128 -0.06921274214982986
-0.21850109100341797 0.5029664039611816 0.06767880916595459
0.2850077748298645 0.4833071529865265 0.07052119821310043
0.07465294748544693 -0.25229009985923767 0.07510758936405182
0.29312369227409363 -0.0631541833281517 -0.03150779753923416
-0.2686213552951813 0.17529460787773132 0.10659771412611008
0.2923773527145386 -0.08509662747383118 -0.012103438377380371
0.014839927665889263 0.2268405556678772 0.12507794797420502
0.29337823390960693 -0.1389319896697998 0.049289099872112274
0.18842139840126038 -0.4468810260295868 -0.04378163814544678
0.22241105139255524 -0.31201982498168945 0.10540192574262619
0.28838610649108887 -0.40845951437950134 0.07311074435710907
-0.04311765730381012 -0.2520157992839813 0.049654435366392136
0.09869690239429474 0.2277219295501709 -0.12033410370349884
-0.16261880099773407 -0.20450182259082794 -0.13129310309886932
0.008150259032845497 0.22725634276866913 -0.052180543541908264
-0.08878114074468613 0.056986451148986816 -0.13390985131263733
0.10996287316083908 -0.17968377470970154 0.1644008308649063
-0.19429056346416473 0.22980687022209167 0.06726937741041183
-0.029585260897874832 0.22571037709712982 -0.08632262796163559
-0.20614966750144958 -0.36407744884490967 0.11197249591350555
0.267646849155426 0.329925000667572 0.06653618067502975
0.031774066388607025 0.22857660055160522 -0.1823408454656601
0.2817367613315582 -0.3852834403514862 -0.025274205952882767
-0.26974672079086304 -0.1167856752872467 0.11363425105810165
0.17726613581180573 0.44319969415664673 0.0050638108514249325
0.27300605177879333 -0.3634422719478607 0.13782277703285217
-0.22756454348564148 0.19631150364875793 -0.1337304562330246
-0.23641212284564972 0.4914034307003021 -0.009324254468083382
0.2511848211288452 0.12463661283254623 -0.12967893481254578
-0.18089903891086578 -0.28985700011253357 0.06658847630023956
0.27470964193344116 -0.14532768726348877 0.1565159261226654
-0.020067796111106873 0.22835838794708252 0.06298154592514038
-0.11110135912895203 -0.0862727016210556 -0.13207270205020905
-0.16038493812084198 0.19911108911037445 -0.13426658511161804
-0.1019446849822998 0.2285407930612564 -0.019956590607762337
-0.05096625164151192 0.19002041220664978 0.15321524441242218
0.03933735191822052 0.22616416215896606 0.11797685921192169
0.27179253101348877 -0.29216769337654114 0.02135934866964817
-0.2695986330509186 0.20377959311008453 0.060606252402067184
0.2724880278110504 0.22846825420856476 -0.10583346337080002
0.22523438930511475 -0.44733962416648865 0.0361846499145031
0.23278440535068512 0.3285682797431946 0.08212632685899734
0.015666166320443153 0.1639295369386673 -0.21985867619514465
0.1447998583316803 0.22295044362545013 0.04180863872170448
0.2801424264907837 0.3258567452430725 0.028923487290740013
-0.19247198104858398 -0.11787984520196915 -0.1307988315820694
-0.10306432843208313 -0.05002196505665779 -0.1331614851951599
0.1742536574602127 0.4349440336227417 0.059335857629776
-0.15845197439193726 0.1470784991979599 0.16961343586444855
-0.27072110772132874 0.035156335681676865 0.09549953043460846
0.17907290160655975 0.4593004584312439 0.08306407928466797
-0.27048805356025696 0.06052638217806816 -0.005566141568124294
0.29290667176246643 0.20670774579048157 -0.012839606031775475
-0.00022830942180007696 0.2279919683933258 -0.005785451736301184
-0.12270911037921906 0.15479840338230133 0.16833478212356567
-0.271173357963562 -0.3240838348865509 0.14817872643470764
0.29311853647232056 0.20649172365665436 -0.08583348244428635
-0.1574474722146988 0.3797611594200134 -0.011967133730649948
-0.19136473536491394 -0.3724101185798645 0.08105335384607315
0.017161402851343155 0.1280735731124878 -0.13315896689891815
0.21493831276893616 -0.24959565699100494 0.12869417667388916
0.11774631589651108 -0.0942913144826889 -0.13445639610290527
0.13318446278572083 -0.1714964210987091 0.16511471569538116
-0.14758418500423431 -0.22354546189308167 -0.13345758616924286
-0.22137275338172913 0.19332170486450195 -0.13337449729442596
-0.1902562975883484 0.22757488489151 -0.11281874775886536
-0.2697508931159973 -0.09955401718616486 0.12969492375850677
-0.0869227945804596 -0.20800279080867767 -0.13067686557769775
-0.09334751218557358 0.2268492579460144 -0.07617540657520294
0.16279339790344238 -0.44562822580337524 0.14900128543376923
0.29803046584129333 0.17619632184505463 -0.11377544701099396
-0.2696603834629059 0.2045161873102188 0.05934992805123329
0.29189586639404297 -0.19496743381023407 -0.08962509036064148
-0.2870190739631653 -0.4286823868751526 0.07063379883766174
-0.28015726804733276 -0.4440615475177765 -0.08257494121789932
0.22257471084594727 -0.2289043813943863 -0.13263416290283203
0.09301507472991943 -0.178003191947937 0.16781826317310333
-0.0027993822004646063 0.12947851419448853 -0.13457132875919342
-0.24512137472629547 -0.16144949197769165 0.15307359397411346
0.14878757297992706 -0.25011682510375977 -0.007369262166321278
-0.018368693068623543 -0.1556341052055359 -0.13349376618862152
-0.19463156163692474 -0.43678438663482666 0.03162505850195885
-0.04078325256705284 0.22066040337085724 -0.10270324349403381
-0.04331732541322708 0.22754482924938202 0.004124361090362072
0.11739236116409302 0.22684793174266815 0.12357808649539948
-0.190508633852005 -0.4220612049102783 -0.009923392906785011
-0.2024848759174347 -0.08748149126768112 -0.13430409133434296
0.24747644364833832 0.18404720723628998 -0.13585563004016876
-0.30269235372543335 -0.35439160466194153 -0.02794649265706539
0.028430435806512833 0.08965952694416046 0.1698097288608551
-0.12771104276180267 0.20278121531009674 0.15655668079853058
0.2923707664012909 0.1621711105108261 -0.09843721985816956
-0.1787378340959549 -0.37728768587112427 0.06600780785083771
0.16291996836662292 0.06480143219232559 0.1682548075914383
0.13280463218688965 0.11619827151298523 0.1660674512386322
0.007087111938744783 -0.09843938797712326 -0.13371650874614716
-0.26384612917900085 0.4396785795688629 0.07930189371109009
-0.15728341042995453 0.02177666313946247 0.16960082948207855
0.08332469314336777 0.14052337408065796 0.16650204360485077
0.19888941943645477 -0.2513158619403839 0.08553776144981384
0.07467453181743622 -0.25227510929107666 0.05104600265622139
-0.2737419307231903 0.15467460453510284 -0.10760720819234848
0.020021459087729454 0.19606389105319977 -0.23149026930332184
-0.1670704483985901 0.4787268042564392 0.0643768310546875
-0.30116701126098633 -0.35271018743515015 -0.02219889499247074
0.09064042568206787 0.007286012172698975 -0.1331317275762558
0.0913378894329071 0.03486121445894241 0.16733448207378387
-0.21294429898262024 0.20011958479881287 -0.13393372297286987
0.1150117814540863 0.14525099098682404 0.16657215356826782
0.04651159793138504 0.05473830923438072 -0.13404931128025055
0.22569312155246735 0.2249814122915268 0.1315598040819168
0.1606164574623108 0.2265230417251587 -0.11982974410057068
0.15356877446174622 -0.2538207769393921 -0.04735179990530014
0.16606193780899048 -0.2533298432826996 -0.09791667014360428
-0.25016340613365173 -0.1601209193468094 -0.13639196753501892
0.013761420734226704 0.24443669617176056 -0.1939329206943512
0.13261032104492188 0.22448784112930298 0.13064628839492798
0.07716035842895508 -0.25162723660469055 -0.007216127123683691
-0.2701382637023926 -0.16134220361709595 -0.03696046024560928
-0.13191287219524384 -0.1152762696146965 -0.13346350193023682
0.009273406118154526 0.11746812611818314 0.16951508820056915
0.2451135367155075 -0.13458813726902008 0.16618813574314117
0.1937808394432068 -0.10321824252605438 -0.13177214562892914
0.2379905879497528 -0.44784292578697205 0.00040560669731348753
0.1811344027519226 -0.08859774470329285 -0.12899552285671234
-0.1695893257856369 0.22841520607471466 -0.06567944586277008
0.29268351197242737 0.1272665411233902 -0.10536308586597443
0.2930414378643036 -0.07640673220157623 0.07761983573436737
-0.26909536123275757 0.06357605755329132 0.10043571144342422
0.22122259438037872 0.22619038820266724 0.1317547708749771
-0.1320607215166092 0.2271757274866104 0.04870186746120453
0.10261568427085876 0.1358228623867035 -0.13482911884784698
0.2928904592990875 -0.2007557600736618 -0.08243874460458755
0.21030215919017792 -0.28428688645362854 0.08239120990037918
-0.27064773440361023 -0.11721763014793396 -0.09522368758916855
-0.043281059712171555 0.224532812833786 -0.10236148536205292
-0.03380653262138367 -0.23029226064682007 0.15745657682418823
-0.2925306558609009 0.001292948261834681 -0.26154157519340515
-0.11385922133922577 0.22735251486301422 0.08967544883489609
0.25385650992393494 -0.022165780887007713 -0.1327855885028839
0.29548150300979614 0.452816367149353 0.08794090896844864
-0.27169618010520935 0.15551216900348663 -0.020902762189507484
-0.13014452159404755 0.052065372467041016 -0.13363859057426453
-0.18972310423851013 -0.3309774696826935 0.07900276780128479
0.23383057117462158 -0.44661641120910645 0.14347536861896515
0.01709916442632675 0.12422078847885132 0.16932006180286407
0.2831532955169678 -0.40276095271110535 -0.01384621113538742
-0.25208449363708496 -0.08516641706228256 -0.13226094841957092
0.051528219133615494 0.22865399718284607 -0.03537933900952339
0.21046821773052216 0.5100082159042358 0.034814707934856415
-0.27018415927886963 -0.11068521440029144 0.1363721489906311
0.2935859262943268 -0.21983107924461365 0.12407757341861725
-0.29202160239219666 -0.4434966742992401 -0.003004644764587283
-0.058661870658397675 -0.07067619264125824 0.17078004777431488
0.1386571079492569 0.032203350216150284 0.17005552351474762
-0.2382209599018097 -0.3370840847492218 0.12849777936935425
-0.2575713098049164 -0.4646298587322235 0.023489635437726974
0.15687017142772675 0.2295733541250229 -0.07910292595624924
0.10654609650373459 0.016555840149521828 -0.13661973178386688
0.23210465908050537 0.02663559466600418 0.1679399162530899
0.2748754322528839 0.22770936787128448 -0.1078673005104065
0.056216660887002945 0.20297475159168243 -0.1324518620967865
-0.22596289217472076 0.18975114822387695 0.15443842113018036
0.215208500623703 0.5034822821617126 -0.01621076837182045
0.1360035240650177 -0.4127156436443329 0.11416057497262955
0.25233280658721924 -0.17342816293239594 -0.1316991150379181
0.23106920719146729 -0.18169556558132172 0.16791360080242157
0.08145736902952194 -0.25080686807632446 0.01153891533613205
-0.2658132016658783 -0.09366755187511444 0.12414582073688507
-0.27024319767951965 0.09999831020832062 -0.07993285357952118
-0.16337525844573975 0.3814547657966614 -0.03484020754694939
-0.2722730338573456 0.1784386932849884 0.10399141907691956
0.06940621882677078 -0.05072804167866707 -0.13343565165996552
-0.02899746410548687 0.1586160957813263 -0.134872704744339
-0.26962411403656006 0.01561429537832737 0.03533168137073517
-0.11692073196172714 0.14887477457523346 0.1717883050441742
-0.09784898906946182 0.22201429307460785 -0.11102327704429626
0.291591614484787 0.08265829086303711 -0.10041409730911255
-0.21464413404464722 -0.4022572636604309 -0.06566622108221054
-0.205658420920372 -0.3819403350353241 0.1329219788312912
0.0002594240941107273 0.10249245166778564 0.17043332755565643
-0.2715955376625061 0.21476514637470245 -0.009577586315572262
0.19023601710796356 0.4749380052089691 0.09364546090364456
0.09281183034181595 -0.2377898246049881 -0.13270002603530884
0.011702260933816433 -0.00481852050870657 -0.1313987821340561
-0.19575341045856476 -0.3201918303966522 -0.05997852236032486
-0.2676701247692108 -0.11917190998792648 0.0034638475626707077
0.1413935422897339 0.13728943467140198 0.16743208467960358
0.2510361969470978 -0.060856740921735764 -0.1329401135444641
-0.27022939920425415 0.09019356966018677 -0.07331192493438721
-0.24938203394412994 -0.2819088399410248 -0.021413441747426987
0.030088266357779503 -0.028889762237668037 -0.133723184466362
-0.00833984650671482 0.22612202167510986 -0.09558790177106857
0.17780326306819916 -0.41833770275115967 -0.06602735817432404
-0.26426079869270325 -0.46368131041526794 0.0004395458090584725
0.16637085378170013 -0.2518143653869629 0.0924387276172638
0.17101213335990906 -0.28745734691619873 -0.02622367814183235
0.18567243218421936 0.42528781294822693 -0.05142383649945259
0.013332869857549667 -0.18128421902656555 0.16807980835437775
0.2936345338821411 0.3973391652107239 -0.033459316939115524
0.1399310678243637 -0.0460994653403759 -0.1330062448978424
0.20223121345043182 0.21172955632209778 -0.13527937233448029
-0.011289509944617748 -0.2521555721759796 0.006165411323308945
-0.31929460167884827 -0.4075894355773926 0.022526657208800316
0.2783108353614807 -0.4227328598499298 -0.04548440873622894
0.29454219341278076 0.17283201217651367 0.048688292503356934
-0.14490416646003723 0.1240425780415535 -0.13701005280017853
-0.216936856508255 0.10584166646003723 -0.1358025223016739
0.13126587867736816 -0.2504103183746338 -0.046540405601263046
-0.018710121512413025 0.22671350836753845 0.01572442427277565
0.06826559454202652 0.16459619998931885 0.1710265427827835
-0.2708596885204315 -0.19906479120254517 -0.10568755120038986
-0.0766996294260025 -0.25116056203842163 -0.1151871308684349
-0.04606890678405762 0.14201901853084564 -0.1596895456314087
-0.15580059587955475 0.44483333826065063 0.05993961542844772
0.13257236778736115 -0.1372472196817398 -0.13407981395721436
0.2917447090148926 0.03716099262237549 -0.10122328251600266
0.013050474226474762 0.023722859099507332 -0.13754095137119293
-0.17390650510787964 0.4350658655166626 -0.04730691760778427
-0.2670207619667053 0.04669882357120514 -0.13388967514038086
-0.2213471233844757 0.006925217807292938 0.17091545462608337
-0.02744077518582344 -0.24953120946884155 -0.0034028321970254183
0.295360803604126 -0.10687582939863205 0.056868381798267365
0.17719821631908417 -0.285234659910202 0.05882708728313446
0.09993380308151245 -0.05668962374329567 0.1691930592060089
-0.15765279531478882 0.45909756422042847 0.050933245569467545
-0.268596351146698 -0.2159956395626068 -0.09422387182712555
-0.20821774005889893 -0.44957876205444336 0.06908176094293594
0.04834606871008873 0.22836385667324066 -0.1194060742855072
0.2679709494113922 -0.14974726736545563 0.15627068281173706
0.1052362397313118 -0.04714798182249069 -0.13341034948825836
-0.07502463459968567 0.22515730559825897 0.07081028819084167
0.16070416569709778 0.22914449870586395 -0.008911006152629852
0.13671956956386566 -0.4117964208126068 0.13003471493721008
-0.11610960960388184 0.07696033269166946 -0.13423417508602142
0.1426633894443512 -0.3994923532009125 -0.02317703887820244
-0.2669004201889038 -0.11189545691013336 0.03739895299077034
-0.10510905832052231 -0.2535894811153412 0.02087068185210228
0.25434571504592896 -0.446531742811203 -0.032850153744220734
-0.02741319127380848 0.14986157417297363 -0.13546352088451385
0.17785485088825226 0.45459187030792236 0.06876418739557266
0.25398752093315125 -0.06163156032562256 -0.1311652660369873
0.27660077810287476 -0.42515406012535095 -0.04809875041246414
-0.1609794944524765 -0.1572568416595459 0.16969232261180878
0.2579016387462616 -0.20032355189323425 0.15515179932117462
0.2733793556690216 -0.3359992504119873 -0.008687246590852737
-0.26980000734329224 -0.17401430010795593 0.09590410441160202
0.21071773767471313 0.22846047580242157 -0.03998910263180733
0.008667301386594772 -0.2522038221359253 0.09292761236429214
-0.1927189975976944 -0.18477627635002136 -0.1316768079996109
0.2924494743347168 -0.14485815167427063 -0.09923505783081055
0.28928816318511963 0.10888173431158066 -0.01568128913640976
-0.24106723070144653 -0.11097558587789536 -0.1350345015525818
-0.2687947750091553 0.1971210539340973 -0.006114039104431868
0.17482918500900269 0.3690186142921448 0.0045539820566773415
0.25726762413978577 -0.2771375775337219 -0.013487469404935837
0.1367214322090149 -0.19701482355594635 -0.1334352046251297
0.29118531942367554 0.0439615324139595 0.01258515939116478
-0.2219412922859192 -0.2527107000350952 -0.07848435640335083
-0.010450446978211403 -0.2549359202384949 0.11008812487125397
-0.18290312588214874 -0.41664689779281616 0.018816154450178146
0.05838816240429878 -0.2517405152320862 -0.04140256717801094
0.1402340978384018 0.1655135601758957 -0.13518661260604858
-0.2350168526172638 -0.4524860382080078 -0.05154145509004593
0.1413111388683319 0.1901846081018448 0.15457619726657867
-0.1830468624830246 0.23087330162525177 0.12213915586471558
-0.24420039355754852 -0.45490336418151855 0.09266140311956406
-0.1637287735939026 -0.0462399385869503 -0.1295062154531479
-0.20852914452552795 0.0666571706533432 0.16781039535999298
-0.2014036625623703 -0.42188510298728943 -0.045917682349681854
-0.04133768752217293 -0.10584619641304016 -0.13334688544273376
0.27184516191482544 -0.25034764409065247 -0.07527445256710052
-0.18310964107513428 -0.38497498631477356 0.07208605110645294
-0.2701510488986969 -0.20394906401634216 0.0734512209892273
-0.04467359557747841 0.15226231515407562 -0.15849816799163818
-0.14254213869571686 -0.1311485767364502 -0.13333112001419067
0.2923906147480011 -0.02394280582666397 -0.09422139823436737
-0.2453697770833969 -0.4592856168746948 0.08039690554141998
0.17124833166599274 -0.2518181800842285 0.13545562326908112
-0.1645861268043518 -0.3339173495769501 -0.017135491594672203
0.29484429955482483 -0.031512271612882614 -0.08055508881807327
0.2969393730163574 -0.19098640978336334 -0.07853266596794128
0.1914176344871521 -0.08751726150512695 -0.13180381059646606
0.27463674545288086 0.33044588565826416 0.06860178709030151
-0.2116217315196991 0.09536861628293991 0.16703732311725616
-0.2857581377029419 -0.4346856474876404 0.05516050383448601
0.19708894193172455 0.22752733528614044 0.007931236177682877
0.07349276542663574 -0.24933595955371857 0.13765569031238556
0.2936357259750366 0.011235222220420837 0.10485903173685074
-0.20721390843391418 0.02561699040234089 0.17001758515834808
0.025593509897589684 0.015045655891299248 -0.13427679240703583
-0.1328205019235611 0.23022086918354034 0.0028109229169785976
0.22247278690338135 0.22862878441810608 -0.061655376106500626
0.0026690815575420856 0.22800981998443604 0.021709460765123367
0.2062245011329651 -0.40650999546051025 -0.0843769907951355
0.09858261048793793 -0.10593679547309875 0.16766199469566345
-0.05397757142782211 -0.19906999170780182 -0.13243502378463745
-0.26703017950057983 -0.04653147608041763 -0.09791866689920425
0.2942369878292084 -0.13374747335910797 -0.10012636333703995
-0.3039174973964691 -0.3778419494628906 -0.06412358582019806
-0.07976437360048294 0.22662365436553955 0.10759888589382172
0.12202618271112442 0.22852419316768646 -0.008997282944619656
0.3023526668548584 -0.19207324087619781 -0.11393612623214722
0.20789706707000732 -0.17445896565914154 0.17011797428131104
0.26706838607788086 -0.3072298765182495 0.04756692796945572
0.2824910283088684 -0.3543250262737274 0.0032084051053971052
-0.15163856744766235 0.22703295946121216 -0.006076144054532051
-0.04696647822856903 -0.08699078112840652 0.16846081614494324
-0.268416166305542 -0.029456056654453278 0.13231161236763
0.30372777581214905 -0.09789881855249405 -0.09790830314159393
0.25984880328178406 -0.15227679908275604 -0.132618248462677
0.23329143226146698 0.22750180959701538 0.09445323050022125
0.1604415476322174 -0.4474155008792877 0.0662287026643753
-0.20759420096874237 -0.4509834051132202 -0.011509571224451065
-0.24642503261566162 0.24658581614494324 0.010874281637370586
-0.280771940946579 -0.40090063214302063 0.17910192906856537
0.2927078902721405 -0.07922176271677017 -0.05289500951766968
0.2908550202846527 -0.08144249022006989 -0.09606702625751495
-0.1560698300600052 0.42979684472084045 0.015104485675692558
-0.25621166825294495 -0.4441642463207245 0.08852919191122055
0.09886958450078964 -0.25290876626968384 -0.10152102261781693
-0.13650241494178772 0.22817958891391754 -0.11551646888256073
0.09774447977542877 0.005474556237459183 0.17022666335105896
-0.15382835268974304 -0.09939020127058029 -0.13361282646656036
-0.2643767297267914 0.37479081749916077 0.041685160249471664
0.2965458631515503 0.1838611215353012 0.0590859055519104
0.17689090967178345 0.23028872907161713 -0.0014027876313775778
-0.2689499258995056 -0.20125950872898102 0.0738920122385025
-0.1502646505832672 -0.28927871584892273 0.0066442545503377914
-0.05997629836201668 0.06357797980308533 -0.13404397666454315
-0.1677873283624649 0.22749552130699158 -0.02240757644176483
-0.17731665074825287 0.13605932891368866 -0.1379060447216034
-0.03195018321275711 0.1463606208562851 0.16815492510795593
-0.15725648403167725 -0.24938292801380157 -0.10822685062885284
0.0649598240852356 0.10391311347484589 -0.13532182574272156
-0.13032342493534088 0.09061408042907715 0.16938860714435577
-0.2741445004940033 -0.21196439862251282 0.005137436091899872
0.14364951848983765 0.22532686591148376 0.055596668273210526
-0.15368659794330597 0.42078638076782227 0.07026465982198715
0.11187174171209335 -0.23458604514598846 -0.1318284124135971
-0.24364258348941803 -0.16258877515792847 0.15960755944252014
0.13655878603458405 0.1360008716583252 0.16851799190044403
-0.26741743087768555 0.18569011986255646 0.02659846469759941
-0.172254279255867 -0.17964281141757965 -0.13635917007923126
-0.05340472236275673 -0.2542884945869446 -0.053933050483465195
-0.1671401709318161 0.221335768699646 0.046085458248853683
-0.13976198434829712 0.03808102011680603 0.16901752352714539
-0.26960283517837524 0.20651501417160034 -0.11322516202926636
0.2111651450395584 -0.45107781887054443 -0.015037238597869873
0.2527446746826172 0.1281827688217163 -0.13437466323375702
-0.1520257443189621 0.22547617554664612 0.006930280942469835
0.10490662604570389 -0.21680620312690735 -0.13351382315158844
-0.01522394921630621 -0.20846766233444214 -0.1323002129793167
-0.20160596072673798 -0.3946259319782257 0.12489428371191025
0.10327393561601639 0.16184966266155243 0.1656777411699295
-0.22487516701221466 0.005075383931398392 0.1687515676021576
0.0887107253074646 0.1742854118347168 -0.13543222844600677
-0.05572494864463806 0.11540821939706802 -0.13253958523273468
-0.23524488508701324 -0.2116406261920929 -0.13069669902324677
0.14496922492980957 -0.252388596534729 0.06437686085700989
0.0035551569890230894 0.2313285917043686 -0.18394319713115692
0.291415810585022 0.1718052327632904 0.10290886461734772
-0.2676352560520172 0.406145304441452 0.0292260330170393
-0.24626056849956512 -0.4669411778450012 -0.048149749636650085
-0.1398041844367981 -0.2528117001056671 -0.027665501460433006
-0.15579445660114288 0.40204912424087524 0.006668706424534321
-0.055083319544792175 0.22404871881008148 0.06450505554676056
0.08377045392990112 0.2260923534631729 0.0848531424999237
0.17343242466449738 0.3726753294467926 0.026223381981253624
0.2668132483959198 -0.25065916776657104 -0.05900772288441658
0.08208630234003067 0.13421128690242767 -0.1348389983177185
0.27370139956474304 -0.055464230477809906 -0.13256357610225677
0.10423731058835983 0.22381944954395294 0.11519418656826019
-0.17784321308135986 -0.39660462737083435 0.02028343454003334
0.1010655015707016 -0.1242622584104538 0.16649584472179413
0.09912274777889252 -0.1009344682097435 -0.1328677088022232
0.1360948085784912 0.22800490260124207 0.06508850306272507
-0.26912835240364075 0.20668812096118927 0.1058439090847969
-0.09572455286979675 -0.25716477632522583 0.08377662301063538
-0.2010955512523651 -0.1097501739859581 -0.13328081369400024
0.2437930405139923 0.5108754634857178 -0.012146860361099243
-0.27047228813171387 0.011087825521826744 0.12939965724945068
-0.2720497250556946 -0.298831582069397 0.049800895154476166
0.051304932683706284 0.2265537530183792 0.11269352585077286
-0.21587468683719635 0.22520048916339874 0.0729665607213974
0.1916043907403946 -0.25321200489997864 -0.07225005328655243
0.28883135318756104 -0.4182834327220917 0.05416128784418106
0.19001443684101105 -0.07043645530939102 -0.133628249168396
-0.11010653525590897 -0.2540363371372223 -0.07420036941766739
-0.26678505539894104 -0.08709222078323364 0.044053565710783005
-0.14123564958572388 -0.14955992996692657 0.16519388556480408
0.16051092743873596 -0.020975150167942047 0.16748586297035217
-0.2701978087425232 -0.14474758505821228 -0.011181985959410667
-0.20079006254673004 0.22647744417190552 -0.10603833198547363
0.18545129895210266 -0.1641664355993271 0.16884954273700714
0.2922365367412567 0.03021220862865448 0.12258119136095047
0.25010374188423157 -0.2511225640773773 0.11548150330781937
0.16577835381031036 -0.4442713260650635 0.08878035098314285
-0.20126405358314514 0.04011804610490799 -0.1303228735923767
-0.023166341707110405 -0.25121626257896423 -0.030108757317066193
-0.2700556218624115 0.20929205417633057 -0.03566080331802368
-0.1367865949869156 0.2267979234457016 0.09250184148550034
0.2733970582485199 0.22827377915382385 0.0649421215057373
-0.18982204794883728 -0.4262459874153137 0.0459880530834198
-0.32778051495552063 -0.38313883543014526 0.09304392337799072
0.00529987458139658 -0.06993705034255981 -0.1324271559715271
0.011768894270062447 0.23364296555519104 -0.18317022919654846
0.16266214847564697 -0.3949719965457916 -0.04948968440294266
0.22155646979808807 -0.3266507685184479 -0.07794070988893509
-0.04195190221071243 -0.25194787979125977 -0.050341490656137466
-0.24143195152282715 -0.022017642855644226 -0.2591608762741089
-0.17828193306922913 0.08395345509052277 0.1691111922264099
-0.20944844186306 -0.03456222265958786 -0.1333787441253662
0.2919979989528656 -0.21607397496700287 -0.07587796449661255
-0.22942325472831726 -0.38278451561927795 -0.08190669119358063
0.25979575514793396 0.2271633893251419 0.0965028703212738
0.2011910229921341 0.002353058196604252 0.1697823703289032
-0.3300170600414276 -0.40667274594306946 -0.004465329460799694
-0.2501293122768402 -0.14862695336341858 -0.1334085315465927
-0.28945961594581604 -0.4064207375049591 0.13770587742328644
0.2673419117927551 -0.23848973214626312 -0.13154858350753784
0.22737336158752441 0.20739416778087616 -0.1349443644285202
-0.21441709995269775 -0.04026234149932861 0.1679016500711441
