0.29488715529441833 0.2118237167596817 -0.1327369660139084
-0.2201821506023407 0.23300570249557495 0.07120316475629807
-0.22177189588546753 0.23336857557296753 -0.13260620832443237
0.20234689116477966 0.4139572083950043 -0.07548171281814575
0.29893478751182556 -0.013725308701395988 -0.12636305391788483
0.22639219462871552 0.5128903388977051 0.09357139468193054
0.28304341435432434 -0.21521610021591187 -0.13366664946079254
0.21566487848758698 0.22794872522354126 0.09409374743700027
0.051447004079818726 -0.18305161595344543 0.16206766664981842
0.13150417804718018 -0.4121703505516052 0.13253594934940338
-0.16946765780448914 0.17154660820960999 0.15637989342212677
-0.2693704068660736 0.024025948718190193 -0.13568882644176483
-0.26054325699806213 0.37762904167175293 0.09265029430389404
-0.270393043756485 -0.1321984976530075 -0.13734117150306702
-0.22000783681869507 -0.007561655715107918 0.16721884906291962
0.25454333424568176 -0.2519350051879883 0.0911155641078949
0.22312894463539124 -0.22738246619701385 0.1589306890964508
0.22136440873146057 -0.2490519881248474 0.14907518029212952
-0.2738727927207947 -0.2420748770236969 -0.06971205025911331
0.09074510633945465 -0.2047121226787567 0.15778112411499023
0.2983415424823761 -0.23180972039699554 0.14904403686523438
0.22177903354167938 -0.24819497764110565 0.09727506339550018
-0.2717808187007904 -0.14409661293029785 -0.1358901858329773
0.1542416661977768 -0.0906415730714798 -0.1351221799850464
0.22300077974796295 -0.2505870461463928 -0.12249670177698135
0.29807248711586 0.10857215523719788 -0.1314762979745865
0.19569292664527893 0.2266262173652649 -0.1327151209115982
-0.29872235655784607 -0.3108382821083069 0.1418803185224533
-0.1375470906496048 0.22875775396823883 0.08754977583885193
0.2561296820640564 0.2291964590549469 0.11423977464437485
0.010779748670756817 0.23828351497650146 -0.25172656774520874
0.168434739112854 -0.00563482940196991 0.1700388491153717
0.14884716272354126 0.16093426942825317 0.16922691464424133
0.29806625843048096 0.024530064314603806 0.1475261002779007
0.28049910068511963 -0.33959847688674927 0.06209149211645126
0.1366714984178543 -0.4050382375717163 0.08686701208353043
-0.035235561430454254 -0.2511731684207916 0.1334051489830017
0.08688576519489288 -0.25003781914711 0.15526622533798218
-0.12029064446687698 0.23046517372131348 0.12893913686275482
0.24959658086299896 -0.22424666583538055 0.1570599228143692
0.1328924596309662 -0.24993160367012024 0.1274164468050003
0.2972489595413208 -0.2280128449201584 -0.07628413289785385
-0.09200448542833328 0.22726118564605713 -0.13112786412239075
0.2327878624200821 -0.20673102140426636 0.15683171153068542
0.02530951052904129 -0.23900344967842102 -0.13125555217266083
-0.27059194445610046 0.058114975690841675 -0.13306143879890442
0.03370653837919235 -0.24119293689727783 -0.13514602184295654
0.09353683888912201 -0.2513689696788788 0.026366252452135086
-0.3250691294670105 -0.3716183006763458 -0.01604439504444599
-0.1771436631679535 0.22631685435771942 -0.13165375590324402
-0.18221397697925568 0.4622044563293457 -0.05350597947835922
-0.2662734389305115 0.21357670426368713 -0.12977780401706696
0.29558873176574707 0.21292322874069214 0.13946190476417542
0.2993575632572174 -0.11081328243017197 0.14459091424942017
-0.03623870760202408 0.1761440634727478 0.14901715517044067
-0.12299615144729614 -0.2504385709762573 0.1374802440404892
0.29696959257125854 -0.015209786593914032 0.12060866504907608
0.2401019036769867 -0.01115652360022068 -0.1386362463235855
-0.26936811208724976 -0.23977702856063843 0.039493486285209656
0.2299908995628357 -0.23940199613571167 -0.13455186784267426
-0.27379968762397766 0.12314611673355103 0.1516941636800766
-0.22813569009304047 0.22609421610832214 0.06919104605913162
0.29827290773391724 0.15634335577487946 -0.04973980039358139
-0.2705502510070801 0.20661945641040802 -0.049145981669425964
0.29596132040023804 0.19432631134986877 0.15101516246795654
-0.26972439885139465 -0.03476200997829437 -0.1337529420852661
-0.26946505904197693 0.2207723706960678 -0.13214677572250366
0.2969646155834198 0.4574625492095947 0.11507674306631088
0.050967808812856674 -0.25059574842453003 0.15950070321559906
-0.1672869175672531 0.01258668303489685 0.16932313144207
-0.1038973331451416 -0.1114865094423294 -0.13353122770786285
-0.20489978790283203 0.2274194061756134 -0.13541151583194733
0.2946997284889221 0.22331732511520386 0.10209588706493378
-0.2707917094230652 0.14333133399486542 -0.13188304007053375
-0.1987561285495758 0.22850047051906586 0.11435526609420776
0.24737323820590973 0.1446799486875534 -0.13457123935222626
0.29682406783103943 0.22484707832336426 0.1269182711839676
-0.21775059401988983 0.164351686835289 0.1597190946340561
0.2169312983751297 0.22804340720176697 0.11587236076593399
0.18739885091781616 0.4760543704032898 -0.01289300061762333
-0.12496866285800934 -0.17251870036125183 0.16781248152256012
-0.27270323038101196 0.030938949435949326 -0.133580282330513
-0.26682138442993164 -0.03422107547521591 -0.1331118941307068
-0.31691640615463257 -0.4054417312145233 0.05049595236778259
-0.2697175145149231 -0.2972199022769928 0.0675303041934967
0.22414200007915497 0.225565105676651 0.09225604683160782
-0.24817633628845215 -0.32009702920913696 0.1151011511683464
-0.09656871110200882 0.2268773764371872 -0.12403185665607452
-0.19191604852676392 0.4454473853111267 -0.06582539528608322
0.08207850158214569 0.2297436147928238 0.1358758956193924
0.29101768136024475 0.1575179398059845 -0.1318376213312149
-0.2425769567489624 0.49317774176597595 0.041275475174188614
-0.1069045141339302 0.22882744669914246 -0.12743844091892242
0.13448011875152588 -0.250887006521225 -0.11987338960170746
0.11526933312416077 -0.24815566837787628 -0.11961901187896729
-0.22250248491764069 -0.2507627606391907 -0.09057033807039261
0.11392191052436829 0.19356678426265717 -0.1352693736553192
0.2251313328742981 -0.19475962221622467 0.1573486030101776
-0.2491665780544281 0.22934943437576294 0.06183698773384094
0.25292664766311646 0.5123189687728882 0.08166637271642685
0.04840456321835518 0.2331540435552597 -0.13076455891132355
0.2623366713523865 -0.3528141975402832 0.14323531091213226
0.2178339958190918 0.004577357321977615 -0.13643641769886017
0.2901303172111511 -0.4218657612800598 0.14241719245910645
-0.1782606542110443 0.4009111225605011 -0.05994871258735657
-0.2679385244846344 0.12059906125068665 -0.13507600128650665
-0.22957797348499298 -0.45990148186683655 0.1082884892821312
-0.2081497460603714 0.17933982610702515 -0.13245689868927002
0.16135606169700623 0.01818065159022808 -0.13651110231876373
0.16693592071533203 -0.24877452850341797 -0.12326900660991669
0.23000046610832214 -0.16827085614204407 -0.132654070854187
-0.0207647904753685 0.22708766162395477 -0.1340510994195938
-0.012970498763024807 0.22530291974544525 0.10150135308504105
0.28370147943496704 -0.08115244656801224 -0.13211064040660858
-0.28592002391815186 -0.3891963064670563 -0.09908826649188995
0.2931039333343506 -0.22304995357990265 0.1419290006160736
-0.20740468800067902 0.5063062906265259 0.026887066662311554
-0.15159113705158234 0.22882527112960815 -0.1291118860244751
0.09733732789754868 0.22848306596279144 -0.1273495852947235
0.2793985605239868 -0.4444776773452759 0.16971981525421143
0.18047650158405304 -0.2856403589248657 0.06285671889781952
0.2139701545238495 0.2184886783361435 -0.13230879604816437
0.28882187604904175 -0.4281318783760071 0.16752776503562927
0.23420977592468262 -0.1351102888584137 0.1704065352678299
0.2953343689441681 -0.15926404297351837 -0.13094089925289154
0.26008105278015137 0.11538612842559814 0.15872249007225037
-0.2397044599056244 -0.24894371628761292 -0.09700554609298706
0.0023426655679941177 0.17730969190597534 0.156324565410614
0.03373967111110687 0.23051269352436066 -0.1294281929731369
-0.04891129210591316 -0.24879929423332214 -0.1238313689827919
0.28297820687294006 -0.10441473126411438 -0.1326889544725418
0.17666597664356232 0.4284937083721161 -0.011762687936425209
-0.026728741824626923 0.13344305753707886 -0.13209585845470428
0.29598763585090637 0.06506099551916122 0.14256486296653748
-0.18301056325435638 -0.33043065667152405 0.081171914935112
-0.2151796668767929 -0.34051355719566345 0.11677012592554092
0.296879380941391 0.22434605658054352 0.09715128690004349
0.2951603829860687 0.19266349077224731 0.15320856869220734
0.24784497916698456 -0.02046618051826954 0.1682237982749939
0.2126060277223587 0.23009446263313293 0.0791180431842804
0.2953628599643707 0.36250242590904236 -0.013804305344820023
0.017865397036075592 -0.1717032492160797 0.17167769372463226
0.06313718855381012 -0.21498547494411469 0.1581077128648758
-0.250242680311203 -0.4332435727119446 0.13561435043811798
0.2654847502708435 0.1292268931865692 0.15764003992080688
-0.010901346802711487 -0.004165884107351303 -0.13224351406097412
0.12252289801836014 0.1251748949289322 -0.1350022405385971
-0.09661677479743958 0.23056913912296295 0.027772046625614166
-0.08071176707744598 0.22964872419834137 0.02187217026948929
0.18986840546131134 0.4767884910106659 -0.022665034979581833
0.21069109439849854 -0.356415718793869 -0.08005577325820923
-0.011258376762270927 0.22754257917404175 -0.12789148092269897
-0.26897919178009033 0.1300087720155716 0.10080844163894653
-0.2666824460029602 0.12397110462188721 -0.131865993142128
0.2958448529243469 -0.15031777322292328 0.1550857424736023
-0.1412125527858734 0.06086620315909386 -0.13536694645881653
0.22384317219257355 0.22838416695594788 -0.12483006715774536
0.27207502722740173 0.22469128668308258 -0.1322241723537445
0.045130178332328796 -0.24801819026470184 -0.1301579773426056
0.2934790849685669 -0.004719005897641182 -0.13143281638622284
-0.2699556350708008 -0.16668382287025452 -0.14139431715011597
-0.2122235894203186 -0.44324561953544617 0.13372845947742462
0.2932777404785156 0.0940641388297081 0.15701737999916077
0.2803991138935089 -0.44376295804977417 0.034892916679382324
0.21514160931110382 0.2296915054321289 -0.0149698406457901
0.13646219670772552 -0.23941731452941895 -0.13344961404800415
-0.29637640714645386 -0.3226514756679535 0.03189067915081978
0.1798955202102661 -0.24937711656093597 -0.11842069774866104
-0.26553675532341003 0.005068428814411163 -0.1353132277727127
-0.16623227298259735 0.4722820818424225 0.03303695097565651
0.2700326442718506 -0.2470027059316635 -0.11995521187782288
0.2769017219543457 0.31741583347320557 -0.007348025217652321
0.2651473879814148 -0.4189243018627167 0.20475010573863983
0.06551143527030945 -0.2522059679031372 -0.019619591534137726
0.036262527108192444 -0.2549371123313904 0.018226388841867447
-0.2601098418235779 -0.24760809540748596 -0.08658580482006073
0.06153804063796997 -0.25587916374206543 -0.05303467437624931
-0.2915012538433075 -0.4316011071205139 -0.09407837688922882
0.23664799332618713 -0.2510835826396942 0.09033083915710449
0.21550105512142181 0.23273570835590363 0.0737064927816391
0.07279257476329803 -0.19792360067367554 0.16310735046863556
0.23103460669517517 0.1839095950126648 -0.1344497948884964
0.2637749910354614 -0.34068089723587036 0.12961217761039734
-0.271395206451416 0.04876364395022392 -0.06371115893125534
-0.18593494594097137 -0.19146527349948883 0.16383174061775208
-0.17824116349220276 0.2257573902606964 0.058634594082832336
0.16241033375263214 -0.3122255206108093 -0.019843243062496185
0.2948054373264313 0.07503165304660797 0.14602673053741455
0.29245975613594055 0.20624279975891113 -0.1300099492073059
0.1464991718530655 -0.24871781468391418 0.15031765401363373
-0.29137298464775085 -0.3999123275279999 -0.09537092596292496
-0.2713606059551239 -0.0580475740134716 -0.11860260367393494
0.26290056109428406 -0.2844802439212799 -0.00787912867963314
-0.023314226418733597 0.14681613445281982 -0.13519014418125153
-0.27242767810821533 0.11802347749471664 0.14586329460144043
0.2680259346961975 -0.44315505027770996 0.18433944880962372
0.2950226068496704 0.04981774836778641 0.15367351472377777
-0.3321891129016876 -0.3548865020275116 0.06111372634768486
0.29453882575035095 0.006123606115579605 0.15342462062835693
0.14452692866325378 -0.25012508034706116 -0.11826074123382568
0.012530826032161713 0.20829133689403534 -0.23663392663002014
0.14374756813049316 -0.09601245820522308 0.1704893559217453
0.24078109860420227 0.13357509672641754 0.16996650397777557
-0.26512715220451355 0.37428367137908936 -0.005799414124339819
-0.26996490359306335 0.14012713730335236 0.060816939920186996
-0.16773054003715515 0.22936536371707916 0.0476873517036438
0.2676537036895752 -0.13029977679252625 0.15722398459911346
-0.022169291973114014 0.22768273949623108 -0.13018503785133362
-0.10976289212703705 -0.25004246830940247 0.16274359822273254
0.2476508915424347 -0.2436433732509613 -0.13543188571929932
0.26197224855422974 0.010288700461387634 0.15768203139305115
0.1466643214225769 0.2279549390077591 0.09402234107255936
0.29515159130096436 -0.1517469882965088 -0.132879838347435
-0.0643884688615799 0.1805204451084137 0.1533481478691101
-0.09015624970197678 -0.2519146800041199 -0.03971703350543976
-0.07633405178785324 -0.19863533973693848 -0.13596202433109283
0.205562025308609 -0.24960333108901978 -0.12006757408380508
-0.2434065192937851 -0.1894485503435135 0.15335913002490997
0.2825356423854828 -0.0742078498005867 -0.13369670510292053
-0.0190589539706707 0.14062254130840302 -0.13522060215473175
-0.163083016872406 -0.32740089297294617 0.023807885125279427
0.25994807481765747 0.10854266583919525 0.1596752405166626
0.296007364988327 0.13290657103061676 -0.13172712922096252
-0.21266117691993713 -0.4503503739833832 0.11013945937156677
0.2954551577568054 -0.02206500619649887 0.15908589959144592
-0.26619306206703186 -0.24869902431964874 0.12530852854251862
0.1777605414390564 0.39013031125068665 0.08220453560352325
0.01338960975408554 0.22666311264038086 -0.17277997732162476
0.2556682825088501 -0.3273880183696747 0.11558564007282257
0.13555580377578735 0.22413772344589233 -0.1348370611667633
0.21593886613845825 0.22699077427387238 -0.0018584547797217965
-0.22803492844104767 -0.46399661898612976 -0.0179714597761631
0.29707515239715576 0.11525925248861313 0.1442500203847885
0.14394886791706085 0.23068517446517944 0.05622749775648117
-0.1763249933719635 -0.3400574028491974 0.06521999835968018
0.29761001467704773 -0.07636386901140213 0.0965886190533638
-0.08449775725603104 0.22687436640262604 0.12846052646636963
0.18955841660499573 0.4664144217967987 -0.030919812619686127
-0.00908622145652771 -0.22632193565368652 -0.13486945629119873
-0.1786876916885376 0.34285664558410645 0.07546526938676834
0.29596060514450073 0.15104854106903076 0.15724825859069824
-0.28851574659347534 -0.4145393967628479 -0.09845475107431412
0.25990432500839233 0.22524002194404602 0.12076447904109955
0.28369227051734924 -0.3748602569103241 0.13852114975452423
0.2420530617237091 0.14461492002010345 0.16881003975868225
-0.23823222517967224 -0.11698539555072784 0.15518945455551147
-0.232412189245224 -0.4432869255542755 0.1524859368801117
-0.24468198418617249 -0.0014678770676255226 -0.25742822885513306
-0.20757518708705902 0.3441999554634094 0.08466972410678864
0.20397169888019562 0.2304268628358841 -0.1289939284324646
-0.2711380124092102 -0.10838078707456589 -0.13433755934238434
0.2771906554698944 0.32061129808425903 0.015601466409862041
-0.08261536061763763 0.2282961905002594 -0.1320120096206665
0.2947300374507904 -0.07578270882368088 -0.13562417030334473
-0.19661679863929749 -0.247915580868721 -0.09706510603427887
0.3017950654029846 0.36916619539260864 0.013585633598268032
0.297808974981308 -0.09487293660640717 -0.05627017095685005
-0.2683224081993103 0.23129908740520477 0.07499402016401291
-0.27328139543533325 0.10756535083055496 -0.13410606980323792
0.2865341007709503 -0.3810606598854065 0.12209224700927734
-0.11126284301280975 0.09458384662866592 0.16826580464839935
0.27941763401031494 -0.18734654784202576 -0.13624930381774902
0.20483256876468658 -0.2764228582382202 -0.05006108805537224
0.29588350653648376 -0.20479121804237366 0.1461043506860733
-0.27024826407432556 0.06427714228630066 -0.13358554244041443
0.214446559548378 0.22799551486968994 0.08718512207269669
-0.04312429949641228 -0.2472105622291565 0.15237663686275482
0.09105265885591507 0.22543694078922272 -0.13215312361717224
0.2916766107082367 -0.2128647267818451 -0.13606581091880798
0.1363939642906189 -0.39570000767707825 0.08193384855985641
-0.2650480568408966 0.03915291279554367 -0.13436920940876007
-0.13949713110923767 0.22751294076442719 -0.1299423724412918
0.2957252860069275 0.12498769164085388 0.15419568121433258
0.029240580275654793 0.19369040429592133 -0.1365404725074768
0.2894594967365265 0.47777897119522095 0.05099339783191681
0.13343404233455658 -0.1809104084968567 0.16621075570583344
0.10391180962324142 0.18708664178848267 0.15529222786426544
0.2971082329750061 -0.08566306531429291 0.12937220931053162
0.22660304605960846 0.22425507009029388 -0.13287368416786194
-0.1591939926147461 0.4467172622680664 0.07022333145141602
0.202522873878479 -0.23954027891159058 -0.1337999701499939
-0.27021387219429016 0.2003733515739441 -0.1310080736875534
0.1287546157836914 -0.25055307149887085 -0.1314373016357422
-0.19569873809814453 -0.37963545322418213 0.12339133024215698
0.056483522057533264 0.22461557388305664 -0.13360996544361115
-0.13376028835773468 -0.06981110572814941 -0.1357487142086029
0.19630154967308044 0.2285647690296173 0.0667688325047493
-0.2704579532146454 0.2175956517457962 -0.1321106106042862
-0.270778089761734 0.2197675108909607 0.11459237337112427
-0.2687119245529175 -0.0005869331071153283 0.15226180851459503
-0.16120444238185883 0.37889349460601807 0.07119636237621307
-0.2720223069190979 0.0686647817492485 -0.13567690551280975
0.24375057220458984 0.17302855849266052 0.15589742362499237
-0.18350903689861298 0.31033292412757874 0.003778202226385474
-0.2753461003303528 0.13721825182437897 -0.13339659571647644
0.18577216565608978 0.46632182598114014 0.09869276732206345
0.16193071007728577 0.22810640931129456 0.13405543565750122
0.28859660029411316 0.1234850063920021 -0.13223201036453247
0.21377256512641907 0.16984650492668152 0.1589123010635376
-0.029593151062726974 -0.23727279901504517 -0.1344049572944641
-0.12583079934120178 -0.24881203472614288 -0.08809679746627808
0.26447004079818726 0.47490444779396057 -0.06419273465871811
0.2512073218822479 -0.23653648793697357 -0.13182488083839417
0.06847427785396576 -0.24801155924797058 0.1639501452445984
0.059717725962400436 -0.25042030215263367 0.15750136971473694
0.037342142313718796 0.17835457623004913 0.1518082320690155
0.2969449460506439 0.19419173896312714 0.08442480862140656
0.20884960889816284 -0.24843965470790863 0.13378261029720306
-0.0006727003492414951 0.17728112637996674 -0.13545095920562744
-0.2744913101196289 -0.40971145033836365 0.15315347909927368
0.21100576221942902 -0.2498185783624649 -0.12277983129024506
0.29167428612709045 -0.1705341935157776 -0.13261547684669495
0.053645774722099304 -0.011716390028595924 -0.1378791779279709
0.039403036236763 0.2285487949848175 0.09340323507785797
0.25847911834716797 0.06177225336432457 0.15647731721401215
0.24799060821533203 0.17160099744796753 0.15581244230270386
-0.27068373560905457 -0.10196103155612946 -0.13313701748847961
-0.231646329164505 0.22918987274169922 0.1347464770078659
0.29686057567596436 -0.23812204599380493 -0.09855368733406067
-0.2182813584804535 -0.2501809298992157 0.13103988766670227
0.16857397556304932 -0.27113306522369385 0.017322547733783722
0.22846607863903046 -0.2493533194065094 -0.12203482538461685
0.2850731313228607 -0.3580009937286377 0.07571256160736084
-0.20482853055000305 0.34226688742637634 0.08390700072050095
0.1459316611289978 0.22815614938735962 -0.1286775767803192
-0.26991012692451477 -0.13604162633419037 -0.12537801265716553
-0.023219196125864983 -0.2515369951725006 0.000614633783698082
0.04751646891236305 0.23058448731899261 -0.0160333514213562
-0.22328859567642212 -0.36495694518089294 0.15648339688777924
0.2960319221019745 -0.03102065622806549 -0.1241617500782013
-0.1481548249721527 -0.2506847381591797 -0.077342689037323
0.1975027471780777 0.18162433803081512 -0.13505148887634277
-0.24925082921981812 -0.2786644697189331 0.04699965566396713
-0.03260494023561478 0.13187378644943237 -0.13405126333236694
-0.23914854228496552 -0.24997419118881226 -0.04641097038984299
0.27181604504585266 -0.09655356407165527 -0.13275130093097687
0.29706916213035583 0.07828161865472794 0.14466586709022522
0.29700565338134766 0.07215721160173416 -0.022981252521276474
-0.2135622650384903 -0.449695348739624 0.1230575442314148
-0.24267442524433136 -0.36614808440208435 0.18610762059688568
-0.2664819359779358 -0.03930315375328064 -0.13489222526550293
-0.23535293340682983 -0.46931663155555725 0.049706920981407166
-0.17249581217765808 0.22844702005386353 0.1098807230591774
0.046976543962955475 -0.2005956470966339 0.1559796780347824
0.2940637469291687 0.35433441400527954 -0.014963658526539803
-0.11417326331138611 0.0891939327120781 0.17133252322673798
-0.33743929862976074 -0.3859193027019501 0.04416432976722717
-0.3271254599094391 -0.3924297094345093 0.08333783596754074
0.13654236495494843 -0.3671329617500305 0.10466738790273666
0.14974768459796906 -0.4169826805591583 -0.012139360420405865
0.2966313064098358 0.05910145118832588 0.14423184096813202
0.22696085274219513 0.5154515504837036 0.08561334013938904
-0.26578429341316223 0.023242544382810593 -0.13459840416908264
-0.26884230971336365 0.0648215040564537 -0.13395996391773224
-0.23082423210144043 0.22539648413658142 -0.07953772693872452
0.2964610159397125 0.22290165722370148 0.0795823484659195
-0.26738855242729187 0.02566859871149063 -0.13305847346782684
-0.033693742007017136 0.23142394423484802 0.13368915021419525
-0.23321160674095154 -0.4475604295730591 -0.05023211985826492
0.25862959027290344 -0.2893034517765045 0.059575557708740234
0.2102964222431183 -0.2893431484699249 -0.06187932938337326
-0.2725219428539276 0.06797797232866287 -0.08622199296951294
-0.2642034888267517 -0.0949273556470871 -0.1356239914894104
-0.27184659242630005 -0.053361162543296814 -0.13069748878479004
0.1935456246137619 0.4455515444278717 -0.05307022109627724
-0.26567745208740234 0.06932174414396286 -0.13382023572921753
0.29450544714927673 0.4090932607650757 0.08567402511835098
-0.27067968249320984 -0.0965462252497673 -0.12798358500003815
0.25591301918029785 -0.3648642301559448 0.1662679761648178
0.2568531632423401 0.34010952711105347 0.10386313498020172
-0.20120085775852203 0.22678935527801514 0.134784996509552
-0.26993006467819214 -0.2433481067419052 -0.1087956428527832
0.23216034471988678 -0.24477030336856842 0.13205507397651672
0.23537351191043854 0.22650422155857086 -0.1357809454202652
0.012692371383309364 0.17428092658519745 0.15791133046150208
-0.22100882232189178 -0.3653513789176941 0.15558169782161713
-0.17147491872310638 -0.2187599539756775 0.1594729721546173
0.24957376718521118 0.22742033004760742 0.08648797869682312
-0.1927063763141632 0.2072756588459015 -0.13339915871620178
-0.2714308798313141 -0.02850930206477642 -0.13423824310302734
0.2956298887729645 0.21458879113197327 0.147548645734787
-0.0017375238239765167 0.15499550104141235 0.16941559314727783
-0.13387803733348846 -0.24607641994953156 -0.12939637899398804
-0.20535525679588318 0.16467443108558655 -0.13242805004119873
-0.0020324857905507088 -0.25270310044288635 -0.04267494007945061
0.17151981592178345 0.40590551495552063 0.022197958081960678
-0.2974182367324829 -0.3269912302494049 0.013496443629264832
0.209711492061615 0.22832755744457245 0.03267780318856239
0.18531997501850128 0.42393946647644043 -0.04848438501358032
0.30013972520828247 -0.09371581673622131 0.14458581805229187
0.2662680149078369 0.14031541347503662 0.1529361754655838
0.2249186635017395 -0.3912963569164276 0.19694247841835022
-0.2704167068004608 -0.23611049354076385 0.06774982810020447
-0.2511230707168579 0.22762641310691833 -0.13305483758449554
-0.25199010968208313 0.11009621620178223 0.15477591753005981
0.2601894438266754 -0.2798515260219574 -0.03478569537401199
-0.032008443027734756 -0.19886119663715363 0.15560221672058105
0.15403294563293457 -0.23911741375923157 -0.13292139768600464
-0.12111638486385345 0.17821024358272552 0.1516716331243515
-0.013193607330322266 0.12000799179077148 -0.13237515091896057
0.29806771874427795 0.1314953714609146 0.019915077835321426
-0.27118730545043945 0.08711979538202286 -0.13161668181419373
0.12055785953998566 0.22671547532081604 -0.13276606798171997
0.2718568742275238 -0.24843138456344604 -0.12057219445705414
0.18822374939918518 -0.25006023049354553 -0.12944118678569794
-0.2059711068868637 -0.3604530692100525 -0.06611835211515427
0.15260754525661469 -0.33275875449180603 0.07272963225841522
0.2763158977031708 -0.44438955187797546 0.1722705066204071
-0.2391439527273178 0.49608683586120605 0.0383746437728405
0.18781203031539917 0.3659955561161041 0.08839070051908493
0.23766306042671204 -0.1430061012506485 0.1693030148744583
-0.27327778935432434 -0.03362223505973816 -0.13563288748264313
-0.1563752293586731 -0.22470352053642273 0.1608879119157791
-0.08504363894462585 0.07409945875406265 0.1702435463666916
0.08116654306650162 0.155289888381958 0.1728406697511673
-0.25023022294044495 0.23189343512058258 -0.13363388180732727
-0.26799800992012024 -0.026438718661665916 0.15420520305633545
-0.2506198287010193 0.22866514325141907 0.08549536019563675
-0.04956294223666191 0.18271569907665253 0.15025973320007324
-0.2703138291835785 -0.1665826439857483 -0.133495032787323
0.1819172352552414 0.45255544781684875 -0.016074705868959427
-0.26797056198120117 -0.16456234455108643 -0.13398917019367218
-0.193522110581398 -0.24521750211715698 0.1554781198501587
0.2605777680873871 0.03584182634949684 0.15920095145702362
0.29703953862190247 -0.11713776737451553 0.1556975245475769
-0.2529776692390442 -0.23500974476337433 -0.13367491960525513
0.2974407970905304 -0.219899982213974 -0.05591124668717384
-0.2602507770061493 -0.07657334953546524 -0.13430914282798767
0.2687709331512451 -0.24304211139678955 -0.1321553736925125
0.009863661602139473 0.14373186230659485 -0.1355772763490677
0.2985552251338959 -0.02008533850312233 0.14452773332595825
0.2947116494178772 -0.23426400125026703 0.04176716506481171
-0.27210912108421326 0.23223567008972168 -0.01644708216190338
0.26838943362236023 -0.07196900993585587 0.15909788012504578
0.29133617877960205 0.3862290680408478 -0.04546097666025162
0.21545784175395966 0.23127131164073944 -0.0560091957449913
0.27841463685035706 -0.25227969884872437 -0.11129245907068253
-0.26902320981025696 -0.2296285629272461 -0.13657888770103455
-0.14113838970661163 0.17514365911483765 0.15242984890937805
-0.2707694172859192 -0.1726517677307129 -0.07772640883922577
-0.09929678589105606 -0.2134101539850235 0.15675733983516693
0.2870272397994995 -0.2281971275806427 -0.133384570479393
-0.100253626704216 0.23029690980911255 -0.12616947293281555
-0.27044931054115295 -0.0668478012084961 0.07173392921686172
0.1939709186553955 -0.44856366515159607 0.059935905039310455
0.2530021071434021 -0.17769654095172882 0.15887781977653503
0.2745930552482605 -0.3200688362121582 0.019080940634012222
0.27852556109428406 -0.44362372159957886 0.09252151846885681
0.2987902760505676 0.02974732592701912 0.14305074512958527
-0.18950453400611877 -0.3604813516139984 0.10014745593070984
0.2525525689125061 0.11435148119926453 0.16128067672252655
0.16936923563480377 0.16277100145816803 0.16643086075782776
0.14296144247055054 -0.37692540884017944 0.07177342474460602
0.23643314838409424 -0.24919530749320984 -0.10517185926437378
-0.1845548301935196 0.22810237109661102 -0.13017505407333374
-0.2711494266986847 -0.02331245318055153 -0.13574594259262085
0.2141680270433426 0.22814783453941345 -0.12980413436889648
-0.013222677633166313 0.22902816534042358 -0.12498167902231216
-0.26986032724380493 -0.07460599392652512 0.11799878627061844
0.07558637112379074 -0.24668462574481964 -0.12283508479595184
-0.27108171582221985 0.07294106483459473 -0.1355196237564087
-0.2741568684577942 -0.09930822253227234 -0.13184887170791626
0.13540197908878326 -0.4042070209980011 0.08720892667770386
-0.2487228512763977 0.23172949254512787 -0.13201972842216492
0.2973617911338806 -0.09739182144403458 -0.13003145158290863
-0.26927101612091064 0.22920386493206024 0.1129140555858612
0.24086514115333557 0.05900897830724716 0.16678380966186523
0.07608363032341003 0.19238093495368958 -0.135665163397789
-0.16139373183250427 0.4584324061870575 0.02998969331383705
0.3008616268634796 0.421283096075058 0.05679502338171005
0.20220616459846497 0.3381973206996918 0.07652153074741364
-0.27264347672462463 -0.195966899394989 -0.1327527016401291
0.26755470037460327 0.49717283248901367 -0.016771284863352776
0.29631251096725464 0.20510825514793396 0.12145821750164032
0.24095503985881805 0.13935557007789612 0.16837336122989655
0.2540517747402191 -0.2885996699333191 -0.053248029202222824
0.17994281649589539 0.012456502765417099 -0.1368037462234497
-0.26656943559646606 -0.00019697844982147217 -0.13465264439582825
-0.2693140506744385 0.18703174591064453 -0.13239656388759613
0.26077017188072205 0.0782214105129242 0.15528079867362976
-0.2560082972049713 0.2226383090019226 -0.13494622707366943
0.2830185294151306 -0.44487062096595764 0.10914642363786697
-0.18012885749340057 0.46038976311683655 -0.04898963123559952
0.2694884240627289 -0.31202006340026855 0.07235877215862274
-0.2715012729167938 0.05710083618760109 -0.1336960345506668
-0.26744699478149414 -0.18299604952335358 -0.13430531322956085
0.29835250973701477 -0.07376554608345032 0.1561969816684723
0.2948824465274811 -0.06734350323677063 0.15555334091186523
0.28566500544548035 -0.22865623235702515 -0.13326148688793182
-0.0686430037021637 0.12562640011310577 0.16699007153511047
-0.25903037190437317 -0.08827052265405655 -0.1352633684873581
0.2968713939189911 0.14577704668045044 0.14540639519691467
-0.27169477939605713 -0.17576532065868378 -0.056626029312610626
0.0664541944861412 0.22712965309619904 -0.12913286685943604
0.2155805081129074 0.23095332086086273 -0.0031441659666597843
-0.25629302859306335 0.33676883578300476 0.0005935478257015347
-0.2991216778755188 -0.400986909866333 0.12255312502384186
0.2410934418439865 -0.13725504279136658 0.17205548286437988
-0.2691957652568817 -0.13882538676261902 -0.0877949446439743
-0.26975446939468384 -0.17740952968597412 -0.1319333016872406
-0.19535613059997559 -0.3945840001106262 0.12767863273620605
-0.27193400263786316 0.09112851321697235 -0.13250111043453217
-0.26939865946769714 0.008623873814940453 -0.1321583092212677
0.2440645694732666 -0.06103800982236862 0.17227894067764282
0.06727807223796844 -0.226662740111351 -0.13263662159442902
-0.27108314633369446 -0.1673784703016281 0.14891627430915833
-0.28787171840667725 -0.38153836131095886 0.20016926527023315
0.29795515537261963 -0.1529272198677063 -0.13134726881980896
-6.068497896194458e-05 0.0942312628030777 -0.13571639358997345
-0.2701937258243561 0.08044632524251938 0.023463085293769836
0.23914732038974762 -0.0025496501475572586 -0.13671943545341492
0.2707596719264984 -0.37951940298080444 0.17109106481075287
0.24696806073188782 -0.24138721823692322 -0.13610991835594177
-0.24606968462467194 0.2303939014673233 -0.061360348016023636
-0.05718040093779564 -0.2208465188741684 0.1597600281238556
-0.0656806156039238 -0.05834299325942993 -0.13204634189605713
-0.2656956613063812 0.38397255539894104 0.06678824871778488
-0.24174953997135162 0.49524039030075073 0.05511962249875069
-0.15840540826320648 -0.29540741443634033 -0.01190535444766283
-0.16562598943710327 -0.3326249420642853 -0.002862728200852871
0.2934718728065491 0.4194171130657196 -0.01902388036251068
-0.2639088034629822 0.14319080114364624 -0.1316327303647995
0.18069662153720856 0.4104064702987671 0.08681012690067291
-0.11647951602935791 0.2269963026046753 -0.13374640047550201
4.99822199344635e-05 0.16555657982826233 0.1642940789461136
-0.3100503385066986 -0.3939265012741089 0.09323301166296005
-0.19238227605819702 -0.27651435136795044 0.07043260335922241
0.1545589715242386 0.17794154584407806 0.15235771238803864
-0.27086102962493896 0.1209884062409401 -0.05510343611240387
-0.190827876329422 0.226272851228714 -0.1279851794242859
0.28385990858078003 0.37440410256385803 -0.05786631628870964
-0.2561330497264862 -0.34140387177467346 0.15554194152355194
0.2282523512840271 0.2268301099538803 -0.07949203252792358
-0.17545050382614136 0.3310035169124603 0.005873826332390308
0.29505884647369385 -0.17456312477588654 0.14821822941303253
0.2622617185115814 -0.3471992611885071 0.13015244901180267
-0.1553138941526413 -0.24509185552597046 -0.1264277845621109
0.17230208218097687 -0.3533078134059906 0.14113640785217285
-0.2680096924304962 0.057870201766490936 -0.13635364174842834
-0.19420360028743744 0.1715271919965744 -0.1310720145702362
-0.17492322623729706 0.42767876386642456 -0.04899827018380165
-0.07698933780193329 0.22932793200016022 -0.12766814231872559
-0.14387193322181702 -0.2487734854221344 0.1493658572435379
0.2944566607475281 0.2168271243572235 -0.1041971892118454
-0.2721865177154541 -0.19894784688949585 -0.13282988965511322
0.003114987164735794 0.16823862493038177 0.1598481386899948
0.2956043481826782 0.21792364120483398 0.14590927958488464
0.07623450458049774 -0.055062856525182724 0.17131103575229645
-0.16031299531459808 0.3881722688674927 0.03363873437047005
0.297465056180954 0.13471002876758575 -0.07764605432748795
-0.09209443628787994 0.19956760108470917 0.15534719824790955
0.06714297831058502 -0.2485295683145523 -0.13206645846366882
0.08334722369909286 -0.2486417293548584 -0.12018769234418869
0.12064680457115173 -0.2512052357196808 0.1423790156841278
0.04243239760398865 0.0949343889951706 -0.13535970449447632
-0.3074781596660614 -0.3986668288707733 -0.080199234187603
-0.19460660219192505 -0.1814335137605667 0.16388969123363495
-0.054257676005363464 -0.2533785104751587 0.1557573825120926
0.29114365577697754 -0.08288025856018066 -0.1350475698709488
0.283251017332077 -0.09395616501569748 -0.13262763619422913
-0.272727370262146 -0.19791355729103088 0.15188685059547424
-0.11775526404380798 -0.25038039684295654 -0.0964500829577446
0.2349403351545334 0.22572830319404602 -0.13457363843917847
0.23545680940151215 -0.27869945764541626 0.08383461087942123
0.26845601201057434 0.12679816782474518 0.15343010425567627
-0.26360616087913513 0.4029525816440582 0.0537031851708889
0.29804715514183044 0.3761177659034729 0.07594988495111465
0.239885613322258 -0.10256258398294449 0.16942553222179413
0.10809659957885742 0.23254936933517456 -0.12964415550231934
0.25134551525115967 -0.35980743169784546 0.16056138277053833
-0.28788161277770996 -0.3242007791996002 0.00753107899799943
0.2811933159828186 -0.44164711236953735 0.038658276200294495
0.2888130247592926 -0.4035024642944336 0.11372044682502747
-0.27066490054130554 -0.13171163201332092 -0.10292652249336243
0.20747868716716766 0.16742484271526337 0.1561197191476822
-0.03756137564778328 0.1615525484085083 -0.1683080494403839
0.2847568094730377 -0.043045155704021454 -0.13061672449111938
0.28395652770996094 -0.3609674572944641 0.10952422022819519
-0.2653881907463074 0.14464321732521057 -0.13564938306808472
-0.24723583459854126 0.13427181541919708 0.15738286077976227
-0.11196015775203705 0.2313361018896103 -0.13169071078300476
-0.2488938719034195 0.18373732268810272 0.15461499989032745
-0.3263218104839325 -0.35809555649757385 0.15716710686683655
0.29863396286964417 -0.11397947371006012 0.15291070938110352
-0.26229995489120483 0.2006160318851471 -0.13502109050750732
-0.27558255195617676 -0.4199768304824829 0.11480217427015305
0.07413630932569504 -0.24905194342136383 -0.12791959941387177
0.2904941439628601 -0.040085308253765106 -0.13349755108356476
-0.17633618414402008 -0.374237060546875 0.03699902072548866
0.2970341742038727 0.21056106686592102 0.14775466918945312
0.27941375970840454 -0.23539239168167114 -0.13384388387203217
-0.20494747161865234 -0.18343861401081085 0.16622628271579742
0.03911581635475159 0.22900524735450745 -0.13045376539230347
-0.2166929394006729 0.22764594852924347 -0.1245780885219574
-0.313310444355011 -0.32056260108947754 0.12421776354312897
0.14303883910179138 0.07338918745517731 -0.13424015045166016
-0.06781237572431564 0.2282259464263916 -0.1332649290561676
0.19095298647880554 0.22869375348091125 0.09973802417516708
-0.2279874086380005 0.5023579597473145 0.06205478683114052
0.24275638163089752 0.3902176320552826 -0.09645889699459076
0.007285557687282562 0.19540844857692719 0.15685820579528809
-0.12885782122612 0.22846552729606628 -0.12354373931884766
0.2800280749797821 -0.16158035397529602 -0.1340343952178955
0.09813833236694336 0.23115012049674988 -0.1314225196838379
-0.16634498536586761 -0.33015236258506775 0.0010058972984552383
0.3005565106868744 -0.0665740817785263 0.14709177613258362
-0.12417012453079224 -0.21011723577976227 0.1560441553592682
-0.20407384634017944 0.42773082852363586 0.09008973091840744
0.20016247034072876 0.05268717557191849 0.17197658121585846
-0.19431647658348083 -0.33470243215560913 0.09491506963968277
0.14136642217636108 -0.25135430693626404 0.13077428936958313
0.039640266448259354 0.10505160689353943 -0.13501736521720886
0.047202061861753464 0.09841729700565338 -0.13522961735725403
-0.2703920006752014 -0.11185693740844727 -0.13072341680526733
-0.16821759939193726 0.3693413734436035 -0.0317821204662323
0.2808387279510498 -0.35395094752311707 0.1226838082075119
0.29846832156181335 0.2262323945760727 0.10953180491924286
-0.26496562361717224 0.3864131271839142 0.015080190263688564
-0.2607855200767517 0.45490574836730957 0.004773368593305349
0.2516357898712158 0.2263098657131195 -0.1359589695930481
-0.27167603373527527 0.12648405134677887 0.15299092233181
0.293203741312027 0.05736647546291351 0.1518542319536209
-0.17216713726520538 -0.3563483655452728 0.018312273547053337
0.2814498245716095 -0.4410674571990967 0.11827624589204788
0.2847808301448822 -0.44204482436180115 0.10009067505598068
-0.26486003398895264 0.19122187793254852 -0.13695888221263885
-0.27279505133628845 -0.46913138031959534 -0.05183766782283783
-0.07588370889425278 0.2333228439092636 -0.02343616634607315
0.2818911373615265 -0.4414500892162323 0.11006265878677368
0.17293494939804077 -0.3170260488986969 -0.03981788828969002
0.20979438722133636 -0.4457857608795166 0.15145257115364075
-0.038806766271591187 -0.19485944509506226 0.15714044868946075
0.3003885746002197 0.4423229992389679 0.04875769838690758
0.29044726490974426 0.015734679996967316 -0.1288633793592453
0.297117680311203 0.0670168325304985 0.14737379550933838
-0.2716338336467743 0.17632144689559937 0.08319622278213501
-0.04893661290407181 0.06755311787128448 0.17044134438037872
0.01880936697125435 0.22900892794132233 -0.1267746090888977
0.010078027844429016 0.16400575637817383 -0.13483180105686188
-0.26554256677627563 0.40672871470451355 0.07357821613550186
-0.022385042160749435 0.2310628592967987 -0.03288421034812927
-0.2707924246788025 -0.12647667527198792 -0.1324164867401123
0.2835161089897156 -0.2293708622455597 -0.13279907405376434
-0.270265132188797 0.11325810849666595 -0.1339995414018631
-0.27096325159072876 0.04808341711759567 -0.13267335295677185
0.006590906996279955 0.16814829409122467 -0.13215355575084686
0.17999446392059326 0.22673079371452332 -0.12988214194774628
0.06812231987714767 -0.1717618703842163 0.16957369446754456
0.29676201939582825 0.20524512231349945 0.1477438509464264
0.1398915797472 -0.40243247151374817 0.052963823080062866
0.2774951756000519 0.47411084175109863 -0.039027001708745956
0.26228925585746765 -0.37548911571502686 0.17215979099273682
-0.1954261064529419 0.3367852568626404 0.06596488505601883
-0.16682256758213043 -0.23343273997306824 -0.1343899965286255
-0.3004036247730255 -0.3386240601539612 -0.014289844781160355
-0.18735197186470032 0.22661936283111572 -0.1284559816122055
-0.2662307918071747 -0.06555111706256866 -0.13088953495025635
0.18891189992427826 0.20800386369228363 -0.13641151785850525
-0.010396454483270645 0.16310980916023254 -0.13533088564872742
0.2944948375225067 -0.1607082337141037 -0.12972429394721985
0.23725615441799164 -0.12097705155611038 0.16905024647712708
0.2690053880214691 -0.3878782093524933 -0.0766516923904419
0.2385571002960205 -0.14167840778827667 0.16414755582809448
-0.14454466104507446 -0.23612190783023834 -0.1322624832391739
0.2970014810562134 -0.09191667288541794 0.13801619410514832
0.29665079712867737 0.06214604526758194 0.12277979403734207
0.29642271995544434 0.17766518890857697 0.15051236748695374
0.26966357231140137 -0.31658491492271423 0.08642010390758514
-0.19153189659118652 -0.24772559106349945 0.1530177891254425
-0.21587012708187103 0.22091715037822723 -0.13274997472763062
0.1911623328924179 0.22845156490802765 0.08789991587400436
0.25456029176712036 0.04655212163925171 0.1597396582365036
0.2917354106903076 0.004539330489933491 -0.13160181045532227
-0.24380502104759216 -0.08499069511890411 0.1553826779127121
-0.24453531205654144 -0.30722323060035706 -0.07338332384824753
-0.2944369316101074 -0.30828019976615906 0.12391658127307892
-0.27106940746307373 -0.1451600044965744 -0.13206414878368378
-0.26994189620018005 -0.16490092873573303 -0.13186705112457275
0.2936658561229706 -0.22767336666584015 0.03340480104088783
0.296225368976593 0.219715416431427 -0.011302303522825241
0.07252398878335953 -0.1896023452281952 0.1638181358575821
0.2952536940574646 0.15960268676280975 -0.09144413471221924
0.2884623408317566 -0.09296845644712448 -0.1300409734249115
0.29636865854263306 -0.037083499133586884 0.14550507068634033
0.28119203448295593 -0.20704469084739685 -0.13550294935703278
-0.257680207490921 0.37384241819381714 -0.03594757616519928
-0.15963499248027802 -0.25162768363952637 0.08138949424028397
-0.03465940058231354 0.22747546434402466 -0.13256007432937622
0.17961746454238892 0.4402451515197754 0.09038203209638596
0.29335346817970276 0.4628274142742157 0.07258207350969315
-0.21644514799118042 -0.005066694226115942 0.16676388680934906
0.2972717881202698 -0.1599401980638504 0.15413284301757812
0.2819574177265167 -0.12950532138347626 -0.1333601474761963
-0.29142725467681885 0.040613021701574326 -0.27614128589630127
-0.2902359068393707 -0.36028504371643066 -0.07317424565553665
-0.16187657415866852 0.4626789093017578 0.03543884679675102
0.09469655156135559 -0.25289297103881836 -0.12822073698043823
0.2735584080219269 0.38066044449806213 -0.0748264342546463
0.28680163621902466 -0.3868871331214905 0.07614519447088242
-0.2914435863494873 -0.025439605116844177 -0.2786244750022888
-0.2266472578048706 0.23435741662979126 -0.13466589152812958
0.2647566497325897 -0.1580306738615036 0.15671931207180023
0.28454211354255676 -0.034777671098709106 -0.1294293999671936
0.18677714467048645 0.23301687836647034 0.1368056833744049
0.2967532277107239 0.2166425883769989 0.004832364618778229
0.23429401218891144 -0.24162383377552032 -0.13212865591049194
0.21061329543590546 0.47041773796081543 -0.06807208061218262
-0.0177154503762722 0.1944895088672638 0.15512491762638092
-0.08972913026809692 -0.2453291267156601 -0.12949159741401672
0.19703057408332825 -0.3170274496078491 0.10135552287101746
0.09920855611562729 -0.23710279166698456 -0.1321418583393097
-0.27037161588668823 0.22781628370285034 -0.10594308376312256
-0.2263939082622528 -0.217256560921669 0.15790805220603943
0.24829597771167755 0.22290246188640594 -0.13462622463703156
0.1690516322851181 -0.2498081773519516 -0.11680534482002258
-0.2707616686820984 0.0012895520776510239 0.07707204669713974
0.24763205647468567 -0.23767107725143433 -0.13184349238872528
-0.24707718193531036 0.33151307702064514 -0.01673809252679348
0.26849377155303955 0.4872664511203766 -0.03764858841896057
0.06662920862436295 0.17887938022613525 0.15393799543380737
-0.2987821102142334 -0.3976026177406311 -0.08206266164779663
-0.21576309204101562 0.16339357197284698 0.1580192744731903
0.2947680354118347 -0.10172829777002335 0.14313289523124695
0.22678129374980927 -0.4439529776573181 -0.05553301423788071
-0.1430225372314453 0.22866091132164001 0.12753571569919586
0.23429447412490845 -0.3143809735774994 -0.07415208965539932
0.2952013313770294 -0.02398042008280754 -0.13146227598190308
0.2686094641685486 0.3294820487499237 0.06561019271612167
0.2847810983657837 -0.04945093393325806 -0.13461172580718994
0.2213100641965866 0.5092335343360901 0.0987420529127121
-0.2883189916610718 -0.3965790271759033 -0.08944921940565109
0.18721336126327515 0.47263798117637634 0.09319595247507095
0.2967816889286041 0.22368164360523224 0.14208993315696716
0.2975847125053406 0.4498850405216217 0.08622712641954422
-0.09130299836397171 0.23137938976287842 -0.13060390949249268
0.295246958732605 -0.2221406251192093 0.14423730969429016
-0.07122901827096939 0.14402474462985992 -0.13424892723560333
-0.3287184238433838 -0.3484916090965271 0.06325145065784454
-0.2740474045276642 -0.3810594975948334 -0.10181943327188492
0.24499915540218353 0.17425984144210815 0.15429244935512543
0.2829727828502655 -0.38171762228012085 -0.0054067280143499374
-0.2719172537326813 0.22403326630592346 -0.10526949167251587
-0.02333124727010727 0.22758647799491882 -0.12509219348430634
0.020193710923194885 0.17776133120059967 0.15578728914260864
-0.15973995625972748 0.229065403342247 0.10613769292831421
-0.2526697814464569 0.4267556071281433 -0.0466991625726223
0.2365749329328537 -0.4409761130809784 -0.058746132999658585
0.134192556142807 -0.23369832336902618 -0.13489846885204315
0.07518881559371948 -0.09036829322576523 0.1704399734735489
0.21438191831111908 0.22914403676986694 -0.1294771134853363
-0.25437936186790466 0.1815495640039444 0.1558137834072113
-0.1024128645658493 0.05523858964443207 0.1700827181339264
-0.2683587074279785 -0.0898529440164566 -0.1391468048095703
-0.2680647373199463 -0.014021184295415878 -0.13418805599212646
0.2964368462562561 0.19628751277923584 0.15158140659332275
-0.08672042936086655 0.23083794116973877 0.02472487837076187
-0.203670471906662 -0.0022220835089683533 0.16677433252334595
-0.04780716821551323 0.17885392904281616 0.15033391118049622
-0.000850799260661006 -0.25005683302879333 0.03460665047168732
0.18611720204353333 0.20909753441810608 -0.1348152458667755
-0.18400581181049347 0.17595677077770233 0.16324833035469055
-0.22652415931224823 0.22807370126247406 -0.09922429919242859
0.02423884905874729 -0.021549899131059647 0.1720489263534546
0.09532441198825836 -0.1738378405570984 0.1687716245651245
-0.1867784857749939 0.00696418434381485 -0.13472692668437958
0.2053220570087433 0.35688015818595886 -0.06711085885763168
0.30012452602386475 -0.21603505313396454 0.036036547273397446
0.18115714192390442 0.4193268120288849 -0.03060097061097622
0.15216395258903503 -0.3968471586704254 -0.014961091801524162
0.28176698088645935 -0.4436732232570648 0.11739695072174072
0.24062488973140717 -0.0834885761141777 0.16868963837623596
-0.17967134714126587 -0.09973382949829102 0.17016161978244781
-0.2709251940250397 -0.42419561743736267 0.11343355476856232
-0.15878823399543762 0.423728346824646 0.043507494032382965
-0.1511382758617401 0.10016096383333206 -0.1313176155090332
-0.2689265310764313 -0.023628398776054382 -0.1291688084602356
-0.23987096548080444 -0.3698910176753998 0.17561602592468262
-0.25887760519981384 0.36302414536476135 -0.030673330649733543
0.20282061398029327 0.3184593915939331 0.0043991003185510635
0.28202110528945923 -0.10749419778585434 -0.12977534532546997
-0.23643003404140472 -0.3518982231616974 -0.08685491979122162
0.04165974259376526 0.16694022715091705 -0.1356876641511917
0.20488323271274567 0.22842726111412048 0.042586300522089005
-0.22419056296348572 0.43261390924453735 0.09349040687084198
0.30060258507728577 -0.1718650907278061 -0.1340050846338272
-0.00258652213960886 0.22876079380512238 0.045474763959646225
0.1793150007724762 -0.2531450390815735 -0.02138923481106758
0.03421296924352646 -0.2394455373287201 -0.13493074476718903
0.2951809763908386 -0.018516995012760162 0.14730900526046753
0.2977771461009979 -0.19904103875160217 0.08187958598136902
-0.21539916098117828 0.2359439581632614 -0.13225321471691132
0.09445998072624207 0.22367626428604126 -0.13348808884620667
