0.21797165274620056 0.15902818739414215 0.16952134668827057
0.2390914112329483 -0.24940240383148193 0.14721159636974335
0.25732502341270447 0.32217472791671753 0.06010027229785919
0.2994963526725769 0.008082854561507702 -0.11973454058170319
-0.16780449450016022 0.3419700562953949 0.04016786441206932
-0.23575951159000397 -0.2542071044445038 0.04676736891269684
-0.28260892629623413 0.03005451336503029 -0.2415226548910141
0.10303601622581482 0.17211684584617615 0.1511443704366684
0.23716655373573303 -0.4406869411468506 -0.08971308171749115
-0.2708938419818878 0.21314360201358795 -0.11567129194736481
-0.216642364859581 0.44763636589050293 -0.07659252732992172
0.25513699650764465 -0.25473690032958984 0.009854116477072239
0.1169537678360939 -0.1908431202173233 0.15621793270111084
-0.33105233311653137 -0.3633168339729309 0.050906870514154434
-0.20393583178520203 -0.4095301926136017 0.14230477809906006
-0.18988710641860962 0.2807144224643707 0.022859374061226845
-0.05570313706994057 -0.24892756342887878 -0.128643199801445
0.2339058518409729 0.2779920995235443 -0.018198389559984207
0.15167494118213654 -0.44526854157447815 0.0840432196855545
0.22889068722724915 0.22936704754829407 -0.0431550107896328
-0.2020615190267563 0.22149713337421417 -0.13615931570529938
0.07612685114145279 -0.18798525631427765 0.1605767458677292
-0.22336991131305695 -0.44539445638656616 0.14576831459999084
-0.2541486322879791 0.22853560745716095 -0.12447669357061386
0.24785928428173065 -0.1635672152042389 0.1612207144498825
0.2498534768819809 0.12115151435136795 0.15696464478969574
0.1956813931465149 -0.25257349014282227 0.07427692413330078
-0.258075475692749 0.29117411375045776 -0.33405211567878723
0.2947770655155182 -0.2492578625679016 -0.06925260275602341
0.2830926477909088 -0.18775595724582672 0.15956677496433258
0.2044277787208557 0.16964231431484222 0.15781624615192413
-0.19736404716968536 0.3374956548213959 -0.34123462438583374
-0.19070111215114594 0.4996655583381653 0.06122415512800217
0.25141772627830505 -0.2524167001247406 -0.037107549607753754
-0.26332730054855347 0.16175982356071472 -0.3377659022808075
-0.23826554417610168 0.3811141550540924 0.11541451513767242
0.18369799852371216 0.21429041028022766 -0.13564877212047577
0.2701570689678192 0.33636125922203064 -0.05908280983567238
0.28411564230918884 -0.2507012188434601 -0.11276324838399887
0.19207042455673218 0.22947776317596436 0.15478846430778503
-0.23661787807941437 0.25474950671195984 -0.014696333557367325
-0.023645229637622833 0.2598881721496582 -0.21845407783985138
-0.2720079720020294 -0.01721193827688694 -0.13415499031543732
-0.2055976539850235 0.32786405086517334 -0.3570989966392517
0.2982860505580902 -0.06723308563232422 -0.11717044562101364
-0.23638975620269775 0.4248596727848053 0.09657614678144455
-0.2687627673149109 0.220686137676239 0.145827054977417
-0.23190154135227203 -0.0303858183324337 0.15401893854141235
-0.0015267778653651476 0.17376558482646942 0.14952391386032104
-0.27584922313690186 0.20158563554286957 -0.3128385841846466
-0.24026116728782654 -0.2606823444366455 0.006998521741479635
-0.028107445687055588 0.22038818895816803 0.1568991094827652
-0.020505430176854134 0.1825617104768753 -0.14090581238269806
-0.3317447602748871 -0.35235878825187683 0.17317289113998413
-0.2630763053894043 0.22885958850383759 0.031571242958307266
0.08715823292732239 -0.2494371235370636 0.1505889892578125
0.2800314426422119 0.22805708646774292 -0.1192900538444519
0.2551394999027252 0.12701717019081116 0.15103240311145782
0.29562267661094666 0.07386332750320435 -0.12079814076423645
0.29739004373550415 -0.22620074450969696 -0.1265261322259903
-0.2632118761539459 -0.032048266381025314 -0.22227820754051208
-0.15183040499687195 -0.26969704031944275 0.02717633731663227
-0.17802876234054565 0.47714531421661377 0.10650727897882462
0.1959219127893448 -0.44311678409576416 0.20303772389888763
0.27325764298439026 -0.3779909610748291 0.1664838045835495
0.25458285212516785 -0.007923410274088383 0.15255874395370483
-0.23771780729293823 0.4286288917064667 0.10384242236614227
-0.21097250282764435 -0.06615931540727615 0.16856548190116882
0.025972703471779823 0.24373915791511536 -0.25635236501693726
0.2038826048374176 0.30471333861351013 0.025091055780649185
-0.30414849519729614 -0.4458935558795929 -0.08805567026138306
-0.011884859763085842 -0.25013604760169983 0.145514115691185
-0.25503695011138916 -0.3401177227497101 -0.08185410499572754
0.29741787910461426 0.22357630729675293 -0.0546603761613369
0.254257470369339 -0.443225622177124 -0.07218129187822342
-0.03127516433596611 0.17969205975532532 -0.20660366117954254
-0.2751309275627136 -0.004562838934361935 -0.3092380464076996
0.2788659632205963 0.48634058237075806 0.1180434599518776
-0.2295178472995758 0.04825060814619064 0.15243828296661377
-0.05796163156628609 -0.24786987900733948 0.15289466083049774
0.20971833169460297 -0.25156399607658386 -0.054543495178222656
0.051585692912340164 0.11610410362482071 -0.15232248604297638
-0.2670140266418457 -0.14261415600776672 -0.13448767364025116
0.0881984680891037 0.16954587399959564 0.15493477880954742
-0.09685022383928299 -0.20366863906383514 0.1577356457710266
-0.20918326079845428 0.33026501536369324 -0.3327293395996094
0.2961086630821228 0.22549523413181305 -0.003756975755095482
-0.28387483954429626 0.17029006779193878 -0.31023016571998596
0.18773558735847473 -0.26356056332588196 -0.03233178332448006
0.06384799629449844 0.11866267770528793 -0.13532906770706177
-0.04382636398077011 0.28702881932258606 -0.2824966013431549
0.015912270173430443 0.17314757406711578 0.15000715851783752
-0.2964251637458801 -0.41652712225914 -0.09168287366628647
-0.22247947752475739 -0.11904319375753403 0.16492201387882233
-0.2816368639469147 -0.006340343970805407 -0.30254995822906494
-0.26269403100013733 0.23359715938568115 0.11473789066076279
-0.2610063850879669 -0.2479022890329361 0.1514182686805725
0.29815590381622314 0.037006642669439316 -0.13225789368152618
-0.24870134890079498 -0.02736661210656166 -0.23253995180130005
-0.2601701021194458 0.026483867317438126 -0.3157167136669159
0.24078130722045898 0.22659727931022644 -0.037063248455524445
0.02593366615474224 0.21552929282188416 -0.13543592393398285
-0.014643238857388496 0.2651820778846741 -0.21664954721927643
-0.2941707372665405 -0.3773641586303711 0.20077288150787354
0.18096494674682617 0.3345538079738617 0.00574982725083828
-0.024508323520421982 0.18408864736557007 -0.21593442559242249
0.017875252291560173 0.10638727247714996 -0.19498033821582794
-0.23465333878993988 0.3154379427433014 -0.35422438383102417
0.2697561979293823 -0.4321366548538208 -0.0708046704530716
0.2348029911518097 0.5113086700439453 -0.014367755502462387
-0.19031037390232086 -0.16781416535377502 0.16919487714767456
0.2680162191390991 0.2803090512752533 0.005950934253633022
0.25462546944618225 -0.253150999546051 -0.0034245813731104136
-0.23029738664627075 0.2299516797065735 -0.042725570499897
-0.19020351767539978 0.47025805711746216 -0.05128927901387215
0.21289773285388947 0.5130006670951843 0.019641585648059845
-0.16355818510055542 -0.2538556158542633 0.05777622014284134
0.06633692234754562 0.14320148527622223 -0.14212587475776672
0.3009454011917114 -0.043052006512880325 0.15502171218395233
-0.23936998844146729 0.38340824842453003 0.11658374965190887
-0.25153088569641113 0.22934098541736603 0.05160171911120415
0.20100481808185577 0.33622702956199646 -0.046742409467697144
-0.22982637584209442 0.4593755602836609 -0.0633404552936554
-0.16463810205459595 0.460917592048645 0.09138656407594681
-0.26000550389289856 0.22893713414669037 0.05999171733856201
-0.09450671821832657 -0.20439767837524414 0.158155620098114
0.20665326714515686 -0.25449123978614807 -0.043504662811756134
-0.12309463322162628 0.1769479215145111 0.14708776772022247
0.29857534170150757 0.128605917096138 -0.13315683603286743
-0.2613832950592041 0.2536941468715668 -0.3239419758319855
0.13944028317928314 -0.4353175461292267 0.02150966227054596
-0.1950100213289261 0.3628469705581665 -0.07150060683488846
0.29261595010757446 0.41057828068733215 0.11916191875934601
0.270935982465744 -0.44279736280441284 -0.055509500205516815
0.20552270114421844 0.22851532697677612 0.03573053330183029
-0.2429162561893463 0.4735117256641388 -0.037635475397109985
-0.2570982277393341 0.1975431740283966 -0.33854514360427856
-0.23795360326766968 0.30870896577835083 0.03162505477666855
-0.07506265491247177 -0.24169202148914337 0.15729095041751862
0.2838410437107086 0.486480176448822 -0.001117837498895824
-0.264310359954834 0.1227734312415123 0.1549779325723648
0.1970704346895218 0.4849698841571808 0.11407598853111267
0.2975707948207855 -0.2214793711900711 -0.1347314417362213
0.2553165853023529 -0.3094721734523773 0.0961633175611496
0.2612094283103943 0.3532983958721161 -0.0841522291302681
-0.2400611788034439 0.4922243654727936 0.007274452596902847
0.06675498187541962 0.13561773300170898 -0.13842380046844482
-0.032141704112291336 0.2165105789899826 -0.20075388252735138
-0.13543710112571716 -0.24822412431240082 -0.13626189529895782
-0.2568962872028351 -0.05227920040488243 0.1565084606409073
0.030217546969652176 0.09093734622001648 -0.13433346152305603
-0.24836164712905884 -0.06242230534553528 -0.23252400755882263
0.2838377058506012 0.3325723707675934 -0.024319898337125778
0.22830361127853394 0.2288375049829483 0.15506936609745026
0.2543705999851227 -0.2609298527240753 -0.0287079568952322
-0.2132604718208313 -0.07744006812572479 0.16838303208351135
0.27814188599586487 0.2332492470741272 0.01118532195687294
0.2504798471927643 -0.27399009466171265 0.06880365312099457
-0.21353775262832642 0.5013585090637207 -0.015498155727982521
0.23674055933952332 0.27303728461265564 0.041906584054231644
-0.26994597911834717 0.22884362936019897 -0.3546525835990906
0.20711804926395416 -0.2525922954082489 0.06576894223690033
-0.22620904445648193 -0.45399701595306396 0.12741471827030182
-0.03292619436979294 0.2974923551082611 -0.30221134424209595
-0.10422704368829727 0.3148677945137024 -0.3215145170688629
0.2527766525745392 -0.3478367030620575 0.1409713476896286
-0.0009020752622745931 0.2977496385574341 -0.2788272500038147
-0.13479040563106537 0.22725993394851685 -0.1335182785987854
-0.19074013829231262 0.48842859268188477 0.1058727279305458
0.29580432176589966 -0.07957625389099121 0.14329075813293457
0.29790499806404114 -0.15149742364883423 0.1457635462284088
0.24594345688819885 0.40572959184646606 -0.09364286810159683
-0.23281848430633545 0.2769823968410492 -0.014674967154860497
-0.051838405430316925 0.29897913336753845 -0.2708532512187958
0.016660133376717567 0.27485471963882446 -0.2322339117527008
0.24539707601070404 0.37997886538505554 0.11217711865901947
-0.16383670270442963 0.3544211685657501 -0.02464984729886055
-0.13496842980384827 0.22719261050224304 -0.13712507486343384
0.2675618827342987 -0.43009471893310547 0.20261012017726898
-0.27477869391441345 0.018612386658787727 0.15738888084888458
-0.23695623874664307 0.31229081749916077 -0.01489410363137722
-0.2707273066043854 0.21662279963493347 0.10068027675151825
-0.24624256789684296 -0.04560472071170807 -0.28142738342285156
-0.22803643345832825 0.06353247910737991 0.15867853164672852
0.06177983433008194 0.16004715859889984 -0.13873876631259918
0.2835350036621094 0.22788842022418976 0.15765520930290222
-0.2747804820537567 0.02986474335193634 -0.31772634387016296
0.22563974559307098 0.2732248604297638 -0.018801890313625336
-0.24924489855766296 0.34487417340278625 0.07512497901916504
0.17147156596183777 -0.2518410086631775 -0.024499746039509773
-0.21099819242954254 0.3076663613319397 0.04463811591267586
0.29809391498565674 0.21772165596485138 0.049273017793893814
0.04369927942752838 0.19066904485225677 -0.2241240292787552
-0.17888562381267548 0.3190076947212219 0.0007440309273079038
0.15691544115543365 -0.4451678991317749 0.13787268102169037
-0.10916116088628769 -0.24353675544261932 -0.13520482182502747
-0.32414373755455017 -0.4283798038959503 -0.07507526129484177
0.07588696479797363 -0.19287368655204773 0.15341317653656006
-0.010509886778891087 0.27858203649520874 -0.2820188105106354
0.22071349620819092 -0.42157161235809326 0.20524470508098602
-0.05903792381286621 -0.17658573389053345 0.16977941989898682
-0.19086046516895294 0.3246185779571533 -0.027879545465111732
0.24896268546581268 -0.0625222772359848 0.16219577193260193
-0.18116658926010132 0.2224903255701065 -0.13603147864341736
-0.18203921616077423 -0.24034322798252106 -0.1357545107603073
0.15022234618663788 -0.17980611324310303 0.16960519552230835
-0.251991331577301 0.3502373695373535 -0.03345642611384392
0.2319931536912918 0.3447973132133484 0.11410483717918396
-0.22320552170276642 0.14998921751976013 0.16666065156459808
-0.24492833018302917 0.2552919387817383 0.02848532237112522
0.07315215468406677 -0.1767546832561493 0.16984203457832336
-0.2584323287010193 0.08177340775728226 -0.30580437183380127
0.2305896282196045 0.3249046504497528 0.06399726122617722
-0.20791077613830566 -0.2728687524795532 0.07751154899597168
0.23013849556446075 -0.25239813327789307 -0.06741887331008911
-0.26851072907447815 0.227179154753685 -0.07635528594255447
-0.27162081003189087 -0.1810443103313446 -0.12703853845596313
-0.009740919806063175 0.2161913961172104 -0.16704605519771576
-0.1860424280166626 -0.25370216369628906 0.07725562155246735
-0.04438126087188721 0.29926517605781555 -0.2564850449562073
-0.22788116335868835 -0.24645096063613892 -0.131293386220932
-0.2811954915523529 0.09299514442682266 -0.2761083245277405
-0.22713720798492432 0.4640083611011505 0.09985760599374771
-0.23264600336551666 -0.07816515117883682 0.15469880402088165
-0.21134325861930847 0.503007709980011 0.04823681712150574
0.2106991559267044 0.4495489299297333 -0.078547902405262
0.2976776659488678 0.07850614190101624 -0.1352032572031021
-0.26928675174713135 0.10662614554166794 0.1367368996143341
-0.27147144079208374 -0.178788423538208 -0.1331585794687271
0.3015608489513397 0.2255726456642151 0.09237059205770493
0.292988121509552 0.2274484783411026 0.11745987087488174
-0.20931746065616608 -0.24876898527145386 -0.12945997714996338
0.048536498099565506 0.18369074165821075 -0.13738664984703064
0.27668705582618713 0.30685049295425415 0.015617496334016323
-0.18748262524604797 0.1735815852880478 0.15207818150520325
-0.24931420385837555 -0.2472599595785141 0.15277919173240662
-0.25634151697158813 0.2292606234550476 0.03610651195049286
0.17298507690429688 0.16860902309417725 0.15866434574127197
0.23087289929389954 0.5065791606903076 0.11584849655628204
0.06483849138021469 -0.24732661247253418 0.15997453033924103
0.07479770481586456 0.2322695106267929 0.14505790174007416
-0.2534412741661072 -0.04193698614835739 -0.2407194823026657
-0.1945568323135376 0.460100382566452 0.09428200125694275
-0.20118007063865662 0.30041971802711487 -0.01906324364244938
-0.2605436444282532 0.005787212401628494 -0.1350788176059723
0.1913139820098877 0.40330687165260315 0.11735311895608902
-0.19042111933231354 0.3650093078613281 0.11351369321346283
0.26185479760169983 0.24341772496700287 0.04212014749646187
-0.17984539270401 0.31444039940834045 0.02012365311384201
-0.28545624017715454 0.13859662413597107 -0.30705526471138
-0.2125633955001831 -0.2392587810754776 -0.1348375529050827
-0.016220467165112495 0.1863158494234085 -0.14337337017059326
-0.27322959899902344 0.21598604321479797 -0.09133166819810867
0.01113514881581068 -0.17293570935726166 0.16992135345935822
0.18410439789295197 0.16688303649425507 0.15966889262199402
-0.15286867320537567 0.32045191526412964 -0.32867857813835144
0.2910638451576233 -0.43721693754196167 0.09208530932664871
-0.267089307308197 -0.2528182566165924 -0.08263541013002396
0.264306902885437 0.3151714503765106 -0.026164598762989044
-0.2716951370239258 -0.1917738914489746 -0.12372095882892609
-0.16675490140914917 0.32518628239631653 -0.3307371139526367
-0.239458829164505 0.42017844319343567 0.1012599915266037
0.25400927662849426 -0.01136712171137333 0.14992158114910126
-0.08979492634534836 0.31323862075805664 -0.32476744055747986
-0.18184158205986023 0.4761677086353302 0.10822886973619461
0.24681192636489868 0.23721067607402802 -0.030196091160178185
-0.13394257426261902 0.33061912655830383 -0.3147355914115906
0.009781201370060444 -0.19754132628440857 0.1472591757774353
-0.18600799143314362 0.3908819854259491 0.09576358646154404
0.04413922503590584 0.22704151272773743 0.15371456742286682
-0.2707783281803131 0.10693060606718063 -0.13283805549144745
-0.2689460813999176 0.08750211447477341 -0.2699343264102936
-0.1262788325548172 0.15859539806842804 0.16873545944690704
-0.1990986466407776 0.3087499141693115 0.04293180629611015
-0.011367108672857285 0.2869250476360321 -0.2868179976940155
0.1803530901670456 0.4149245321750641 0.10431477427482605
0.03405702859163284 -0.23144324123859406 0.1561650186777115
0.24147631227970123 0.34985318779945374 -0.08389992266893387
0.2227751910686493 0.28356602787971497 -0.01970580406486988
0.2955690622329712 0.43360915780067444 0.11823403090238571
0.28617024421691895 0.37143468856811523 0.11456682533025742
-0.16318129003047943 0.4486919939517975 0.09785117954015732
-0.0070744724944233894 0.19257938861846924 -0.14445023238658905
-0.2211366593837738 0.40653127431869507 -0.0809878334403038
0.16808995604515076 -0.24945886433124542 0.03794817253947258
0.294385701417923 0.12311982363462448 0.15599028766155243
-0.27531808614730835 -0.022911369800567627 0.15856191515922546
0.2549649178981781 -0.26341724395751953 -0.002405205275863409
0.2964382767677307 0.08805042505264282 0.15162131190299988
-0.2601087987422943 0.19604428112506866 -0.31566300988197327
0.2649698555469513 0.26646697521209717 -0.005024297162890434
-0.10163131356239319 0.2276904433965683 0.15508723258972168
-0.20933672785758972 0.2686683237552643 0.04446712136268616
0.28890642523765564 -0.40687859058380127 0.1799778938293457
0.1743079274892807 -0.2511606216430664 0.004931434988975525
0.21991612017154694 0.2943078279495239 -0.019275004044175148
0.21237528324127197 -0.268429696559906 0.07487507164478302
-0.1916981339454651 0.33310461044311523 0.052384816110134125
-0.24732699990272522 -0.24094253778457642 -0.13583746552467346
-0.26861631870269775 -0.2500453591346741 -0.08619972318410873
-0.05900678038597107 0.16313587129116058 0.16073431074619293
0.2647010087966919 0.4603579342365265 -0.07614515721797943
-0.15534207224845886 0.31958600878715515 -0.33528250455856323
-0.21520595252513885 0.17127105593681335 0.15014727413654327
0.2918086647987366 0.45867934823036194 0.12060810625553131
-0.3357933759689331 -0.35897910594940186 0.13865286111831665
-0.016834955662488937 0.2765585482120514 -0.28199347853660583
-0.25843513011932373 0.20434221625328064 -0.3425196409225464
0.22698096930980682 0.2795370817184448 0.03998121619224548
-0.33110442757606506 -0.3807234764099121 0.0840960219502449
0.2666425406932831 0.22405628859996796 0.1578858345746994
-0.25761643052101135 0.2335892915725708 0.005815811455249786
-0.19904538989067078 0.2897907495498657 0.03712518513202667
0.1293690949678421 0.2102518528699875 0.1612551361322403
-0.22043126821517944 0.47217294573783875 -0.059782885015010834
-0.17904183268547058 -0.19760458171367645 0.147719144821167
-0.20567235350608826 0.2333504557609558 -0.03297106921672821
-0.27127209305763245 -0.24911274015903473 -0.028292357921600342
-0.02923324890434742 0.15634457767009735 0.169563889503479
0.24293360114097595 0.33991193771362305 -0.07168793678283691
-0.2715889811515808 -0.09605725109577179 -0.12317370623350143
-0.24564068019390106 0.22593533992767334 -0.13563397526741028
-0.21999776363372803 0.131688192486763 0.16466578841209412
-0.23583315312862396 0.4041996896266937 0.09872961044311523
-0.2400343418121338 0.27232998609542847 0.007693945895880461
0.289114385843277 0.13676609098911285 0.15879707038402557
0.15797767043113708 -0.3683640658855438 0.12541261315345764
0.15717102587223053 -0.4002704918384552 0.17240697145462036
0.29455050826072693 0.3946327567100525 0.118576280772686
-0.2607792913913727 -0.060643572360277176 -0.29256537556648254
0.02988424152135849 0.11817789077758789 -0.13489040732383728
-0.25680580735206604 -0.06441354006528854 0.1557256132364273
-0.267811119556427 -0.06281094253063202 -0.22074775397777557
-0.049613818526268005 0.32076558470726013 -0.30355632305145264
-0.28047358989715576 0.2283908873796463 -0.3318222165107727
0.04070424661040306 -0.25104662775993347 -0.12214937061071396
0.17760509252548218 -0.2594115436077118 0.03661360219120979
-0.2100226879119873 0.39155977964401245 -0.08436331897974014
0.2848087251186371 0.22803710401058197 -0.0984799936413765
0.19542188942432404 0.45190301537513733 0.11381298303604126
0.14490751922130585 -0.44324395060539246 0.1218390017747879
0.25877928733825684 0.07656124979257584 0.15542466938495636
0.2746291160583496 -0.359863817691803 0.13789205253124237
-0.2529643177986145 0.23038306832313538 -0.35297611355781555
-0.11570288240909576 0.32284361124038696 -0.3106093108654022
-0.2779783308506012 -0.31116384267807007 0.12911435961723328
-0.20598527789115906 0.23120176792144775 -0.03565341979265213
-0.029361816123127937 0.17016832530498505 -0.2064126878976822
-0.2597211003303528 0.44731786847114563 0.1107720211148262
-0.06614075601100922 0.3282310962677002 -0.2915137708187103
-0.29559236764907837 -0.41461825370788574 -0.09173128008842468
0.05868350714445114 0.19324836134910583 -0.18782146275043488
0.29866600036621094 -0.11570306867361069 -0.12448838353157043
0.02123831957578659 0.2825689911842346 -0.2607767879962921
-0.2700919508934021 -0.25049644708633423 0.07310476154088974
0.14105957746505737 -0.4423404932022095 0.06049242615699768
0.27881303429603577 -0.4457749128341675 0.005246974527835846
-0.2720189392566681 -0.19783294200897217 0.15735161304473877
-0.15270739793777466 -0.26367539167404175 -0.014798395335674286
-0.2226455956697464 0.3259231746196747 -0.34210139513015747
0.20405642688274384 -0.2544803321361542 0.08064776659011841
-0.26558956503868103 -0.24877962470054626 -0.12552009522914886
0.23542632162570953 0.49325236678123474 -0.06490882486104965
0.2813871502876282 -0.00369937252253294 0.15603338181972504
-0.20745110511779785 0.22808372974395752 -0.11831468343734741
-0.2562568783760071 0.075457863509655 -0.29816338419914246
0.23690620064735413 0.3668493628501892 -0.09076594561338425
-0.18049804866313934 0.31734180450439453 0.008869946002960205
0.21342788636684418 0.2926490008831024 -0.009633738547563553
-0.06738196313381195 -0.2028987556695938 0.1591009795665741
0.12138663232326508 0.21730181574821472 0.15694105625152588
-0.23683682084083557 -0.13408933579921722 0.156590536236763
-0.26448601484298706 -0.07910709083080292 0.15328869223594666
0.05225770175457001 0.22989273071289062 -0.20880082249641418
-0.2720913589000702 -0.015341462567448616 -0.2231108695268631
-0.2652607560157776 -0.21263577044010162 -0.13584062457084656
-0.1830938309431076 0.281324177980423 0.021001433953642845
-0.23055344820022583 0.04027162864804268 0.15050499141216278
-0.12480493634939194 0.16405212879180908 0.1597685068845749
0.2877706289291382 0.007396773900836706 0.15699996054172516
-0.2707844078540802 -0.08159863948822021 -0.2745065689086914
-0.015319167636334896 0.10369648784399033 -0.15202966332435608
-0.24263912439346313 0.2565212845802307 -0.3483784794807434
-0.2791924774646759 0.059496041387319565 -0.2483898401260376
0.29771319031715393 -0.0886726826429367 0.1451493203639984
0.27747806906700134 0.4559052884578705 0.12581250071525574
0.2814145088195801 0.34427401423454285 0.09317795932292938
-0.23672637343406677 0.30029791593551636 -0.33220475912094116
-0.2622818946838379 -0.14083179831504822 0.16128268837928772
0.29897332191467285 0.11836663633584976 -0.1269749253988266
0.2983683943748474 -0.0305484626442194 -0.1268845498561859
-0.2712561786174774 -0.07368594408035278 -0.1350173056125641
0.29920974373817444 -0.2429981827735901 0.006357669364660978
0.0411125123500824 -0.19454021751880646 0.15416079759597778
-0.2660796642303467 -0.0961056724190712 0.1554337590932846
0.28567802906036377 0.17259365320205688 0.15779447555541992
0.26367419958114624 -0.25195369124412537 0.038477055728435516
0.20786023139953613 0.22042030096054077 0.15856170654296875
-0.008902848698198795 0.304444819688797 -0.26442834734916687
-0.26927685737609863 0.16097360849380493 -0.33847594261169434
0.26599445939064026 -0.38357675075531006 -0.07794250547885895
-0.18454883992671967 0.35971707105636597 -0.06538863480091095
0.15216274559497833 -0.3697510361671448 0.12153177708387375
-0.2577154338359833 -0.025417104363441467 -0.2248816043138504
-0.2630390226840973 0.22648249566555023 0.03023184835910797
-0.22801701724529266 0.3399876058101654 -0.05102644860744476
-0.2383914291858673 -0.26120778918266296 0.03066914714872837
0.29278987646102905 0.44473832845687866 0.12323952466249466
-0.2588793635368347 -0.0628838911652565 -0.13632550835609436
-0.16229216754436493 0.31339481472969055 -0.34572887420654297
-0.17328444123268127 0.34561774134635925 -0.039063964039087296
-0.17208954691886902 0.4485222101211548 -0.04616547375917435
0.0009267524583265185 0.18464778363704681 -0.13781511783599854
-0.20407186448574066 0.32625991106033325 -0.03391784429550171
0.2838084399700165 0.1751878559589386 0.1573605090379715
0.19781532883644104 0.42771074175834656 0.10552773624658585
0.2477201670408249 -0.25212517380714417 0.07335536181926727
-0.23669211566448212 0.49755874276161194 0.013024695217609406
0.2987900376319885 0.19446760416030884 -0.13255591690540314
0.24696601927280426 -0.3837134540081024 -0.08967223763465881
0.24580994248390198 -0.3981703221797943 -0.08888938277959824
0.2448347955942154 -0.1355682760477066 0.16581963002681732
-0.3024553954601288 -0.39522480964660645 -0.08548568189144135
-0.20116913318634033 0.23011071979999542 -0.13792870938777924
0.28742384910583496 -0.25005781650543213 0.12489524483680725
-0.19872510433197021 0.4618207514286041 0.08960983157157898
-0.176265686750412 0.3707335889339447 0.10259586572647095
-0.2547888457775116 -0.23173612356185913 -0.13456924259662628
-0.3242730498313904 -0.4197007715702057 -0.04479358717799187
0.25718799233436584 -0.2381470650434494 -0.13427653908729553
-0.21498455107212067 0.32871899008750916 -0.33291083574295044
-0.2661711275577545 0.1521521359682083 -0.299777626991272
0.2868242561817169 -0.25112468004226685 -0.09877851605415344
-0.2700585126876831 0.053811341524124146 -0.24264614284038544
-0.25452208518981934 0.2304551750421524 0.02260158769786358
0.21554812788963318 -0.24768441915512085 -0.1317947804927826
0.24831856787204742 0.5106683373451233 0.006514938548207283
0.22253426909446716 0.22889819741249084 -0.12587308883666992
-0.061939787119627 -0.1931292861700058 0.15288949012756348
0.2663044035434723 -0.38826853036880493 0.19008150696754456
-0.1515716314315796 -0.2682260572910309 0.026787428185343742
0.29637610912323 0.001812538830563426 -0.1382237821817398
0.26670539379119873 0.22961153090000153 0.0514087937772274
0.29496684670448303 -0.1144823208451271 0.15035927295684814
-0.029945392161607742 0.31570225954055786 -0.268362820148468
-0.22434985637664795 -0.448815256357193 0.14866235852241516
0.2639196813106537 0.15473727881908417 0.1558009535074234
0.011637800373136997 0.21509550511837006 -0.13343556225299835
0.20516470074653625 -0.4325973689556122 -0.08326953649520874
0.2981105446815491 0.005473254714161158 -0.12666837871074677
0.21889308094978333 -0.2405214160680771 0.15751345455646515
0.006673439871519804 0.17279700934886932 0.15610595047473907
0.05030417814850807 0.18176867067813873 -0.13936011493206024
-0.016548888757824898 0.24742332100868225 -0.1995687633752823
0.051706284284591675 0.22734501957893372 0.1547321379184723
0.22335980832576752 0.2989717125892639 -0.021038779988884926
0.2494645118713379 -0.11303103715181351 0.16245774924755096
0.29381948709487915 0.22915828227996826 -0.023211242631077766
0.119175024330616 -0.17625518143177032 0.1698106825351715
0.1567648947238922 0.22151826322078705 0.15693967044353485
-0.2370942234992981 -0.06680087000131607 0.1534605175256729
-0.12140382826328278 0.2292727828025818 0.15007509291172028
-0.17408764362335205 0.23167407512664795 0.02983931079506874
0.21835555136203766 -0.2506694793701172 -0.136036679148674
-0.2600422501564026 -0.31410834193229675 0.1222255602478981
-0.2270527333021164 0.3582800626754761 0.11020100861787796
-0.0324985533952713 0.11765959113836288 -0.15099230408668518
0.28954848647117615 -0.43483787775039673 0.13385078310966492
-0.2150767296552658 -0.044302765280008316 0.17146596312522888
-0.25618240237236023 0.14995457231998444 -0.13606153428554535
0.1454174518585205 -0.4276444613933563 0.15983077883720398
-0.2626765966415405 0.42116084694862366 0.1040889173746109
-0.2484346628189087 -0.38843101263046265 0.20316672325134277
-0.16770876944065094 0.4825882017612457 0.03354325518012047
-0.046934839338064194 0.12454448640346527 -0.13492317497730255
0.2870188355445862 -0.2513556480407715 -0.04565683379769325
-0.2841186821460724 -0.053084127604961395 -0.27848827838897705
-0.23170998692512512 0.34917959570884705 -0.06500851362943649
0.1281370371580124 0.1736278235912323 0.1494096964597702
0.03716196119785309 0.11148171126842499 -0.19678173959255219
-0.031048940494656563 -0.23730164766311646 -0.13302311301231384
-0.2205217331647873 -0.15886914730072021 0.16532745957374573
0.0027317421045154333 0.19821475446224213 -0.1494024693965912
-0.2845381796360016 0.014709561131894588 -0.31156018376350403
-0.2740350067615509 -0.08764509111642838 -0.24298489093780518
-0.2615554630756378 -0.08019191026687622 -0.277386337518692
-0.2021597921848297 -0.2692062556743622 0.07595527917146683
-0.24103938043117523 -0.47406241297721863 -0.034353386610746384
0.24689552187919617 0.10687008500099182 0.16249710321426392
-0.19539985060691833 0.28619876503944397 -0.012976267375051975
0.2358349859714508 -0.3565851151943207 -0.08768332749605179
-0.2433924823999405 -0.3187560737133026 -0.07883699983358383
0.2955959737300873 0.015701696276664734 0.15804900228977203
-0.037350185215473175 0.18647024035453796 -0.17521291971206665
0.2899600565433502 0.01521062571555376 0.1567753553390503
-0.25688472390174866 -0.047658536583185196 -0.29396292567253113
-0.17629118263721466 0.2424316108226776 0.006308828946202993
-0.27076104283332825 0.2260666787624359 -0.011360909789800644
-0.20037196576595306 0.4389641284942627 -0.07591938227415085
0.16625791788101196 -0.25257375836372375 0.03330506756901741
-0.23126374185085297 -0.26160770654678345 0.05441705510020256
0.26550060510635376 -0.4110039472579956 0.1967928260564804
-0.2393495738506317 0.4518727660179138 -0.06330439448356628
0.2909792363643646 -0.2509331703186035 0.06314492970705032
-0.33197498321533203 -0.364075243473053 0.1382542848587036
-0.3344045579433441 -0.3599485754966736 0.14308805763721466
0.27100715041160583 -0.24383607506752014 -0.13546982407569885
-0.1801358014345169 0.33911004662513733 -0.3274717330932617
-0.18707410991191864 0.40913933515548706 0.0869826078414917
-0.3041018843650818 -0.33057668805122375 0.1930840015411377
-0.2648760974407196 -0.24549733102321625 -0.12239442020654678
0.03426518663764 0.2626742720603943 -0.23358508944511414
-0.09508994966745377 0.21321412920951843 -0.13564443588256836
-0.2715619206428528 -0.01978158764541149 -0.12844382226467133
-0.22919638454914093 -0.3195336163043976 -0.0803358182311058
0.11046998202800751 0.2208598256111145 -0.13893601298332214
0.2623961567878723 -0.2683579921722412 0.01300086360424757
0.04422261565923691 0.24747276306152344 -0.2383502870798111
-0.12285824120044708 0.18389379978179932 0.15616630017757416
-0.2711285352706909 -0.23998868465423584 -0.02264782227575779
-0.032638031989336014 0.20979009568691254 -0.17964312434196472
0.21613222360610962 -0.2471977025270462 0.15125153958797455
0.16896870732307434 -0.3926924765110016 0.1780790388584137
0.27797940373420715 -0.44536876678466797 0.13503697514533997
0.034847792237997055 0.2286243438720703 -0.1217489019036293
0.014382962137460709 0.21123498678207397 0.1568853259086609
0.026498621329665184 0.2610902488231659 -0.25980883836746216
-0.07460089772939682 0.32543158531188965 -0.3140627443790436
0.27200689911842346 0.22847212851047516 0.053409963846206665
-0.23156839609146118 0.3893599808216095 -0.07976385205984116
0.2027994692325592 0.4028088450431824 0.10465407371520996
-0.20141516625881195 -0.17860881984233856 0.16914135217666626
0.26956477761268616 0.2499757558107376 0.0072842976078391075
-0.2793497145175934 -0.31264275312423706 0.14376911520957947
-0.2647920548915863 -0.31774255633354187 0.1311902552843094
0.08435066044330597 0.22621163725852966 0.13672403991222382
-0.22849637269973755 -0.47800394892692566 -0.0033153765834867954
0.061533790081739426 0.17854954302310944 0.1555546671152115
-0.2335909754037857 -0.44774681329727173 0.13972049951553345
-0.223108172416687 -0.07310567051172256 0.16351976990699768
-0.16628822684288025 0.22864870727062225 -0.003617993788793683
-0.23323138058185577 0.10122913122177124 0.15542905032634735
0.18851177394390106 0.3768070340156555 0.1053362786769867
-0.27155613899230957 -0.1781468540430069 0.14523009955883026
-0.27974945306777954 -0.01685747317969799 -0.3067472577095032
0.23987998068332672 0.4357772767543793 -0.09177859127521515
0.29434481263160706 0.4445658028125763 0.12818270921707153
-0.03795035183429718 0.1228267103433609 -0.15420830249786377
-0.2690219581127167 -0.11529215425252914 -0.1265513151884079
0.016208311542868614 0.1663074940443039 0.16440613567829132
-0.1397171914577484 -0.23946285247802734 -0.1352549046278
-0.07948589324951172 0.16476412117481232 0.16180604696273804
0.2976333200931549 0.03207440301775932 0.14029186964035034
-0.22336849570274353 -0.11130794882774353 0.15850143134593964
-0.26635485887527466 0.35758814215660095 0.04363212734460831
-0.25443172454833984 0.35267186164855957 0.06123492866754532
0.23509491980075836 -0.049236077815294266 0.16988462209701538
-0.2640029489994049 -0.19655893743038177 -0.13862378895282745
-0.17669478058815002 0.24276980757713318 0.018095850944519043
0.2550482451915741 0.49543169140815735 -0.0462019108235836
-0.27075695991516113 0.21213358640670776 -0.05715417489409447
-0.10325542092323303 0.2273038923740387 0.15385232865810394
0.29702791571617126 0.09635657072067261 -0.13528303802013397
-0.27566292881965637 0.036163199692964554 -0.24034838378429413
0.0006142882048152387 0.3008287847042084 -0.2652524709701538
-0.2011965662240982 0.47279810905456543 0.10011792927980423
0.14645327627658844 0.1595756560564041 0.16792689263820648
0.24776339530944824 0.060037966817617416 0.16198936104774475
-0.18336698412895203 0.3179032802581787 -0.012210125103592873
0.19392381608486176 0.18442586064338684 0.15958726406097412
0.013117176480591297 -0.1859852820634842 0.1668049693107605
-0.26822611689567566 0.013542324304580688 -0.13261018693447113
-0.013433355838060379 -0.24904051423072815 0.15493439137935638
-0.02302573435008526 0.12519706785678864 -0.19804653525352478
0.3016599714756012 0.04184042662382126 -0.12860704958438873
0.24190308153629303 0.47603291273117065 -0.0752398744225502
0.24692104756832123 -0.008716481737792492 0.16278497874736786
-0.2736949920654297 0.1833314299583435 0.145900160074234
-0.0346757210791111 0.1841774731874466 -0.16223612427711487
0.2883760631084442 -0.4412907361984253 0.14015650749206543
-0.28105297684669495 -0.08085443079471588 -0.25998976826667786
0.2850349545478821 -0.37853777408599854 0.14526894688606262
-0.21786858141422272 0.313558965921402 -0.33177971839904785
-0.2228558361530304 -0.2989002764225006 -0.07342538982629776
0.2555869519710541 0.30739232897758484 0.048013731837272644
0.2870156466960907 0.22027553617954254 0.15982189774513245
-0.2712743282318115 -0.23623332381248474 0.02085462398827076
0.24249888956546783 0.08957816660404205 0.1697491854429245
-0.08461940288543701 0.17819339036941528 0.15444234013557434
-0.15079699456691742 -0.25671494007110596 0.037118375301361084
-0.2829420864582062 0.08831845968961716 -0.3139442801475525
-0.26973703503608704 -0.012111385352909565 -0.13288648426532745
-0.03193426504731178 0.19236552715301514 -0.1620580404996872
0.24197368323802948 0.26784956455230713 -0.01826503314077854
-0.22015152871608734 -0.3037753999233246 -0.06867784261703491
0.2865312695503235 -0.19225293397903442 0.1575893610715866
-0.024957111105322838 0.31356051564216614 -0.27089327573776245
-0.27167296409606934 -0.05786687508225441 -0.12163232266902924
-0.25467076897621155 0.3570263385772705 0.07239090651273727
0.24932356178760529 -0.28136804699897766 -0.05767172574996948
-0.26939857006073 -0.23583103716373444 -0.024640405550599098
-0.09731059521436691 -0.24464809894561768 -0.1336229145526886
-0.25822368264198303 0.03586876392364502 0.15649017691612244
-0.015547510236501694 0.24436984956264496 -0.19791099429130554
0.28140389919281006 0.11323164403438568 -0.1347714513540268
0.21573014557361603 0.22392621636390686 0.1450507640838623
0.28880611062049866 -0.24479180574417114 0.15464571118354797
0.209100142121315 0.41644564270973206 -0.07969576865434647
-0.15836887061595917 0.33082684874534607 -0.34711742401123047
0.27509722113609314 0.36902916431427 0.1270606517791748
0.25597235560417175 0.2870318293571472 -0.017479408532381058
-0.06545023620128632 -0.1838744729757309 0.16866382956504822
-0.26429468393325806 0.07183969765901566 -0.31732067465782166
-0.2663346529006958 0.050386253744363785 -0.2463887333869934
-0.2167608141899109 0.4329265356063843 -0.0805697813630104
-0.21660660207271576 0.39777427911758423 -0.08322180807590485
-0.03608206659555435 0.19038797914981842 -0.1835341900587082
-0.33092206716537476 -0.40414687991142273 -0.05423945188522339
-0.27337318658828735 0.13015216588974 0.15334901213645935
0.23937591910362244 0.4826323091983795 -0.06993347406387329
-0.0878925770521164 0.3316619396209717 -0.3097229301929474
-0.33431434631347656 -0.3478185832500458 0.13526248931884766
-0.012391974218189716 0.1008983626961708 -0.14102309942245483
0.2564942240715027 -0.3403625786304474 0.12832851707935333
-0.20715509355068207 -0.2539648711681366 0.0783524289727211
0.22589163482189178 0.3021641969680786 0.04489309713244438
0.00010442256461828947 0.1579178273677826 0.16717717051506042
-0.152822345495224 0.17919668555259705 0.15538138151168823
-0.2231331765651703 0.48268207907676697 -0.048772238194942474
0.2122519314289093 0.24629920721054077 -0.013641387224197388
-0.2851862907409668 -0.4594077467918396 -0.07412659376859665
0.22328129410743713 -0.20616097748279572 0.15598845481872559
0.28505781292915344 0.37020987272262573 -0.06237989664077759
-0.26771485805511475 -0.24751660227775574 0.007068598177284002
0.2890249490737915 -0.40377679467201233 0.17414718866348267
0.2972504496574402 0.14981408417224884 -0.11867911368608475
-0.21496370434761047 0.114371158182621 0.1693701297044754
-0.25411373376846313 0.24820899963378906 -0.36164170503616333
0.26805296540260315 -0.4048566520214081 0.19627003371715546
-0.25902611017227173 -0.2420027256011963 -0.13796859979629517
0.2637447118759155 0.5142577886581421 0.028803441673517227
-0.24667030572891235 -0.05872385576367378 -0.23221734166145325
0.2447216808795929 0.012673484161496162 0.166793555021286
-0.2531554102897644 -0.22925321757793427 -0.13585348427295685
-0.28039035201072693 0.2130213975906372 -0.3436993360519409
0.24436581134796143 -0.31352102756500244 0.1063983216881752
-0.2478693723678589 -0.47284507751464844 0.006812082603573799
0.2103554904460907 0.510466456413269 0.058794207870960236
-0.27263858914375305 0.14584769308567047 0.15028005838394165
0.24210040271282196 -0.13206462562084198 0.16910028457641602
-0.18843938410282135 0.4749607443809509 -0.045785464346408844
0.2928370535373688 -0.2423073947429657 0.05825112760066986
0.2941070795059204 0.4014662206172943 0.11906068027019501
0.20232076942920685 0.41145777702331543 0.10806455463171005
-0.001023770309984684 -0.25062787532806396 -0.11896790564060211
-0.2416856735944748 0.3181193470954895 -0.33291399478912354
-0.031237930059432983 0.15752744674682617 -0.1367526352405548
-0.015348642133176327 0.24891379475593567 -0.25987759232521057
-0.22316406667232513 -0.09432045370340347 0.1620054692029953
-0.2127416878938675 0.37614676356315613 0.10791987180709839
-0.27021095156669617 -0.2383607178926468 -0.008479438722133636
-0.3359406292438507 -0.37572911381721497 0.08494211733341217
-0.23065303266048431 -0.45196977257728577 0.13136611878871918
-0.22731611132621765 -0.1045798808336258 0.159832164645195
0.2979396879673004 0.1410852074623108 -0.13052606582641602
0.0435495562851429 0.1303909569978714 -0.20471885800361633
0.02553936280310154 0.0908382460474968 -0.1347837746143341
-0.29256486892700195 -0.4584006071090698 -0.06339754909276962
-0.2644970715045929 -0.23908427357673645 0.1523849368095398
0.2743989825248718 0.40523433685302734 0.12411445379257202
-0.07561617344617844 0.3123044967651367 -0.3241385817527771
-0.13268031179904938 -0.18849022686481476 0.15449902415275574
0.23456893861293793 0.49343615770339966 -0.058373257517814636
-0.26869311928749084 0.16793838143348694 0.15821512043476105
0.12262627482414246 -0.18369492888450623 0.16663016378879547
-0.14634789526462555 0.231035977602005 0.15187208354473114
-0.21018442511558533 -0.41435831785202026 0.16354206204414368
-0.1779642254114151 0.4905715882778168 0.08304069936275482
0.06255702674388885 0.17425566911697388 -0.17567268013954163
0.15293119847774506 0.18361252546310425 0.15630635619163513
0.2691075801849365 0.2902301251888275 0.02603481523692608
-0.13662022352218628 0.15225423872470856 0.16965311765670776
-0.27154791355133057 -0.23012150824069977 0.1448589265346527
-0.24762606620788574 -0.026468323543667793 -0.24457776546478271
-0.04442189261317253 0.3116379976272583 -0.2660030126571655
-0.22864778339862823 -0.11282830685377121 0.1518135368824005
-0.22291406989097595 0.34893572330474854 -0.06610395759344101
-0.20652157068252563 0.2857884168624878 0.04413364455103874
0.2310841977596283 -0.3093191683292389 -0.0750555470585823
0.2983575463294983 -0.02102944441139698 -0.12352488189935684
0.2993297874927521 -0.24940656125545502 0.022105520591139793
-0.2813408672809601 -0.017615634948015213 -0.22841207683086395
0.04038205370306969 0.10316409915685654 -0.1445511281490326
0.2640433609485626 0.4666267931461334 0.11468148976564407
-0.2259630709886551 0.22856886684894562 -0.03461340069770813
0.23193974792957306 0.3141249120235443 -0.03264053165912628
-0.27128270268440247 0.20552611351013184 0.14348770678043365
-0.058242153376340866 0.21559669077396393 0.15497873723506927
0.2396770566701889 0.2531648278236389 0.04046232998371124
-0.26014795899391174 -0.3382234275341034 -0.08361923694610596
0.0023080757819116116 0.18826442956924438 -0.14013193547725677
-0.01665981486439705 0.1815006136894226 -0.1352369636297226
0.2692627012729645 0.37312304973602295 0.12887363135814667
0.028288882225751877 0.24030902981758118 -0.25129178166389465
0.29776355624198914 -0.25063836574554443 -0.06494835764169693
-0.22919529676437378 0.10256753861904144 0.14887173473834991
0.08534229546785355 -0.2502738833427429 -0.12503431737422943
0.1580342799425125 0.22106575965881348 0.15855762362480164
0.20304347574710846 0.33445754647254944 -0.04661477357149124
-0.23522454500198364 0.45455488562583923 -0.0638064295053482
-0.14471940696239471 0.32647502422332764 -0.34495633840560913
0.12447762489318848 -0.25012731552124023 0.1439782828092575
-0.2736108601093292 0.22314198315143585 0.04786437004804611
0.2899191975593567 -0.2093982994556427 0.15790051221847534
0.22902792692184448 0.28788265585899353 0.04306865856051445
-0.3282431960105896 -0.40758776664733887 -0.0635976493358612
-0.24966543912887573 0.22936660051345825 0.05435666814446449
-0.2587430775165558 -0.4107920527458191 0.197347953915596
-0.3367256224155426 -0.35936108231544495 0.096474289894104
0.21065206825733185 0.38113394379615784 0.11429975181818008
-0.2593807876110077 0.4387539029121399 0.11107136309146881
-0.2838103771209717 0.1876145601272583 -0.3335055112838745
-0.23921547830104828 -0.28306668996810913 -0.0603601448237896
-0.2201937437057495 0.46043071150779724 0.0948329046368599
-0.23910312354564667 0.4015880227088928 0.10350917279720306
0.22025781869888306 0.34774723649024963 0.11280796676874161
0.29475849866867065 0.20574752986431122 0.15682421624660492
0.20412224531173706 0.419717013835907 0.10442986339330673
-0.23099155724048615 -0.4548723101615906 0.12067046761512756
0.008182724937796593 -0.25237753987312317 -0.12490490078926086
0.21012911200523376 0.5097601413726807 0.08643641322851181
0.2849169075489044 -0.2506532073020935 0.11370472609996796
0.205071821808815 0.3075067102909088 0.01155113335698843
0.19454459846019745 0.3737793266773224 0.11411787569522858
-0.2626384198665619 -0.01232693251222372 0.15849220752716064
0.2835230827331543 -0.2529086470603943 -0.04760221019387245
-0.30188921093940735 -0.44187602400779724 -0.08665195852518082
0.11880873143672943 0.22630636394023895 0.1525397151708603
0.23114913702011108 0.18301816284656525 0.15626153349876404
0.025110747665166855 0.25219425559043884 -0.2587358355522156
0.13306716084480286 0.16325591504573822 0.16415871679782867
-0.2756665349006653 -0.39460450410842896 0.1957303136587143
0.2542445659637451 -0.1657339185476303 0.1556077003479004
-0.13155227899551392 0.31897181272506714 -0.3292151391506195
-0.09777169674634933 0.33586686849594116 -0.30559661984443665
0.25935328006744385 0.27845296263694763 0.032319437712430954
-0.20484966039657593 0.3010803461074829 -0.34641557931900024
-0.266885906457901 -0.24834959208965302 -0.028114764019846916
-0.2727619707584381 0.20646968483924866 -0.31020525097846985
0.29806452989578247 0.10687140375375748 -0.12961161136627197
-0.006610062904655933 -0.18929409980773926 0.1586122214794159
-0.1876188963651657 0.3028838336467743 0.027544859796762466
-0.28470197319984436 0.11567516624927521 -0.3080274164676666
0.2465682178735733 0.3407737910747528 -0.07079113274812698
0.2036222517490387 0.4297634959220886 0.10155519098043442
0.2401365041732788 0.36519938707351685 0.12449606508016586
0.2952469289302826 -0.14733406901359558 -0.13114792108535767
-0.2645083963871002 0.008789180777966976 -0.31038540601730347
-0.212123841047287 0.43701064586639404 -0.07736893743276596
-0.1465848982334137 -0.19331322610378265 0.15649846196174622
0.2858550548553467 0.3405635356903076 -0.033297065645456314
-0.1021541953086853 0.3240402042865753 -0.3021436333656311
0.06390391290187836 0.22878898680210114 0.15521851181983948
-0.27374646067619324 0.1561659425497055 0.1436508595943451
0.2861059606075287 -0.4424365162849426 0.02283911220729351
0.2575264573097229 0.4069664776325226 0.10601978749036789
-0.00532789109274745 -0.24976356327533722 0.15051476657390594
0.23174726963043213 -0.2481251209974289 0.15399013459682465
0.18130968511104584 -0.25678324699401855 -0.014229720458388329
0.1685318648815155 -0.4319152235984802 0.1910429149866104
-0.23664920032024384 0.3422856628894806 -0.0455830879509449
-0.2320236712694168 0.1502646505832672 0.15557041764259338
-0.2788947522640228 -0.30932721495628357 0.11725836992263794
-0.2718382477760315 -0.46998849511146545 -0.06016102060675621
-0.024495616555213928 0.2572837173938751 -0.21815316379070282
0.2078840583562851 0.22869083285331726 -0.026874801144003868
-0.27196362614631653 -0.170739084482193 -0.12933729588985443
-0.1909065991640091 -0.21191789209842682 0.1534678190946579
0.055850304663181305 0.20719553530216217 -0.2163218855857849
0.1306980550289154 -0.247716024518013 -0.13517437875270844
-0.27217018604278564 -0.23237960040569305 0.12036088854074478
-0.18016231060028076 0.36166486144065857 -0.06027422845363617
-0.2718609869480133 0.11069313436746597 -0.2801884114742279
0.2200101912021637 0.4161745011806488 0.09957113862037659
0.2880275547504425 0.38477668166160583 0.12324951589107513
0.13479268550872803 -0.429198682308197 0.10305507481098175
0.24247100949287415 0.03563191741704941 0.16979631781578064
0.28865501284599304 -0.39108553528785706 0.14817394316196442
-0.18991431593894958 0.32798153162002563 -0.32846614718437195
0.24892933666706085 0.243269681930542 0.048089589923620224
-0.23421111702919006 -0.28896376490592957 0.08779904991388321
-0.2808343172073364 0.16052860021591187 -0.3049795925617218
