0.23567669093608856 0.4476754367351532 0.10664698481559753
-0.2453586608171463 0.36625704169273376 -0.06407355517148972
0.2955203056335449 -0.23421740531921387 0.14710479974746704
0.26663753390312195 -0.4217008352279663 -0.07402335107326508
0.23692050576210022 0.38580122590065 -0.09374897927045822
0.1693723350763321 0.21621067821979523 0.15814173221588135
-0.2722698152065277 -0.31944161653518677 0.1393033266067505
0.2939815819263458 -0.2506072521209717 0.09845418483018875
0.2315293550491333 0.3173086941242218 0.06036289781332016
0.29645687341690063 0.40730974078178406 0.1247694343328476
0.23701012134552002 0.31725406646728516 -0.03767741471529007
-0.2153014838695526 -0.1170957162976265 0.16616952419281006
0.29430335760116577 0.19515754282474518 0.14364832639694214
-0.2608069181442261 -0.25126028060913086 -0.04236423224210739
-0.26167863607406616 -0.35631000995635986 -0.09149239957332611
0.17087134718894958 -0.2718854248523712 -0.016108494251966476
0.29402196407318115 -0.06669813394546509 0.1510239541530609
-0.21200181543827057 -0.4149230718612671 0.1695975363254547
0.2905784547328949 -0.05505078285932541 -0.13525046408176422
-0.2714651823043823 0.015265284106135368 0.14659321308135986
-0.297931045293808 -0.38237860798835754 -0.08038526028394699
0.11522896587848663 -0.12556040287017822 0.16987694799900055
0.2926683723926544 0.048809632658958435 -0.13404297828674316
0.26741737127304077 -0.23999135196208954 -0.13643373548984528
-0.27960506081581116 -0.44778379797935486 -0.07889821380376816
-0.27233099937438965 -0.07756026834249496 -0.01906188763678074
0.014548882842063904 0.0876755565404892 -0.13500259816646576
0.2972118854522705 0.14888325333595276 0.07146603614091873
0.2542123794555664 0.09329936653375626 0.15446971356868744
-0.2999614477157593 -0.3331586718559265 0.19006843864917755
0.07836087048053741 0.030473213642835617 -0.13337521255016327
0.28289884328842163 -0.1981077790260315 -0.13313078880310059
-0.030091263353824615 -0.24927294254302979 -0.008296986110508442
0.2959745526313782 -0.13557617366313934 0.1548248827457428
-0.2297409474849701 -0.23747894167900085 -0.13498279452323914
-0.17944756150245667 0.2293611764907837 0.07538449019193649
0.2757650315761566 0.3638734817504883 0.12749609351158142
0.023791760206222534 0.16318459808826447 0.15983520448207855
0.001635029911994934 -0.24802541732788086 -0.12906669080257416
-0.21360671520233154 0.16602742671966553 0.15358111262321472
0.2859117090702057 -0.097748301923275 0.15484128892421722
-0.26231226325035095 0.42760971188545227 0.1083221435546875
-0.26866087317466736 -0.19676700234413147 0.042169664055109024
-0.1735323667526245 0.170832559466362 0.15240149199962616
0.2770044505596161 0.44099706411361694 -0.06907454878091812
0.11203747242689133 -0.19431371986865997 0.1530848890542984
-0.14450210332870483 0.2272287905216217 -0.12801231443881989
0.21846747398376465 -0.44768384099006653 0.19211320579051971
0.11672884225845337 -0.25188228487968445 0.10103480517864227
-0.2317376434803009 0.11174140125513077 -0.13437841832637787
0.27086779475212097 -0.43831199407577515 -0.061945587396621704
-0.3307732343673706 -0.4108455777168274 -0.053201835602521896
0.29279598593711853 0.2096226066350937 -0.1333829164505005
-0.2611224353313446 -0.3316010534763336 -0.07386474311351776
-0.047039248049259186 0.22309307754039764 -0.12913291156291962
-0.27032899856567383 0.12347811460494995 -0.09976115077733994
0.21624234318733215 0.5121414065361023 0.01363716647028923
-0.2663823366165161 0.1501750499010086 0.15667369961738586
0.0418306440114975 -0.2441551387310028 0.15373076498508453
0.28945207595825195 -0.1941262185573578 0.15557947754859924
0.23845286667346954 -0.12818196415901184 0.16629990935325623
-0.19828200340270996 0.22316327691078186 -0.13370563089847565
-0.2673683166503906 0.12925323843955994 -0.1348234862089157
-0.2505171000957489 0.22908508777618408 -0.03964120149612427
0.2967594563961029 -0.04732000082731247 0.14525166153907776
-0.15812240540981293 0.3517169654369354 0.008147292770445347
-0.2633228600025177 0.09733786433935165 0.15674640238285065
0.04186365008354187 0.0902191773056984 -0.13488857448101044
-0.037959758192300797 -0.19567202031612396 0.1531880646944046
-0.06353390216827393 0.007037527859210968 -0.1370086371898651
-0.17818650603294373 0.4535287022590637 -0.047914475202560425
0.2924036979675293 0.13481850922107697 0.14524678885936737
-0.023346073925495148 0.14891317486763 0.16731144487857819
-0.2404567450284958 0.2661413550376892 0.023358140140771866
-0.256285160779953 -0.026739884167909622 0.15661324560642242
0.2932221591472626 0.05655977129936218 -0.1317511945962906
-0.267182320356369 -0.026658084243535995 -0.1339751034975052
0.2915620803833008 0.21251130104064941 -0.13449375331401825
-0.255118191242218 -0.24849367141723633 0.12182429432868958
0.008538573980331421 0.22468270361423492 -0.112379290163517
0.29632773995399475 -0.003240901045501232 0.14960816502571106
-0.14717087149620056 -0.005769461393356323 0.16985084116458893
-0.14691542088985443 0.2284068614244461 -0.12424398958683014
0.26578205823898315 -0.250252366065979 -0.0021592313423752785
0.20626993477344513 0.2947845458984375 0.014606636017560959
0.2217509150505066 -0.3281770348548889 -0.07860323786735535
0.2883623242378235 0.36467674374580383 0.11281304061412811
-0.08385886251926422 0.21296724677085876 -0.13076047599315643
0.034591611474752426 0.2168254405260086 0.15757712721824646
-0.2692599892616272 -0.04196246340870857 -0.13322192430496216
0.04434015974402428 0.09886203706264496 -0.13629423081874847
0.08631354570388794 -0.24786050617694855 -0.12312690913677216
0.2808308005332947 0.03581393510103226 -0.13508868217468262
-0.2698737382888794 -0.04668378829956055 -0.10267461091279984
0.15809094905853271 -0.19476650655269623 0.1529758870601654
0.2578410804271698 -0.15904046595096588 0.15503506362438202
-0.17929019033908844 -0.24596907198429108 0.15516629815101624
-0.2693633437156677 0.20541483163833618 -0.13659076392650604
0.19208113849163055 0.3936963379383087 0.11608657240867615
0.2884579598903656 -0.0978236198425293 0.15516602993011475
-0.09105271100997925 -0.16901814937591553 0.16981542110443115
0.2922970652580261 0.2105664163827896 -0.1359691321849823
-0.07691618800163269 -0.19394414126873016 0.15184286236763
-0.2707858979701996 0.032488785684108734 -0.12258664518594742
-0.23164023458957672 -0.4753711223602295 0.007596518844366074
-0.27156516909599304 -0.23958517611026764 -0.06035280227661133
-0.27145102620124817 0.1823299527168274 -0.1250828355550766
-0.2141077071428299 -0.2709945738315582 0.07444483786821365
0.2491074949502945 -0.07353922724723816 -0.13466204702854156
-0.14582417905330658 -0.25308260321617126 0.03856620565056801
-0.19168305397033691 0.22840945422649384 -0.07744099944829941
0.29109829664230347 -0.1425909698009491 -0.13509292900562286
-0.18866389989852905 0.1585083305835724 0.1649700105190277
0.007943077944219112 -0.24582397937774658 0.14458242058753967
0.24028418958187103 -0.28405341506004333 0.08274590969085693
-0.11544942110776901 0.21776404976844788 0.15693728625774384
0.2734162211418152 0.4891555905342102 0.11973565816879272
-0.2667064964771271 -0.20149925351142883 -0.1350492238998413
0.2395697981119156 -0.3844388723373413 -0.09112894535064697
-0.2694064676761627 -0.24444371461868286 0.12229146808385849
0.19545675814151764 0.37972015142440796 0.11670684814453125
-0.2733452022075653 -0.13342854380607605 0.14411363005638123
-0.13323847949504852 -0.23425710201263428 -0.1335824429988861
0.20674052834510803 0.2250094711780548 0.15566161274909973
0.22514674067497253 -0.25024986267089844 -0.09818999469280243
-0.33486831188201904 -0.3706609010696411 0.03951220214366913
-0.26188257336616516 0.1625320315361023 0.157070592045784
0.2631579637527466 0.3711088001728058 0.12809106707572937
0.2952074706554413 -0.23955504596233368 0.051469434052705765
0.28889772295951843 -0.44284921884536743 0.1225060224533081
0.2487252950668335 0.07245199382305145 0.1549244523048401
0.29332587122917175 0.12095791101455688 -0.13316497206687927
-0.15946392714977264 0.46419557929039 0.046855147927999496
-0.2682669460773468 -0.04081294313073158 -0.13442692160606384
-0.05328359454870224 0.22492019832134247 0.15588407218456268
0.23275570571422577 -0.4418738782405853 -0.05992734432220459
-0.10078781843185425 -0.24806973338127136 0.14337347447872162
-0.32979094982147217 -0.374942421913147 0.11369289457798004
-0.276973694562912 -0.39450791478157043 -0.09286381304264069
0.2963622808456421 -0.22840140759944916 -0.11773667484521866
0.28392457962036133 -0.4176563024520874 0.18572676181793213
0.19958099722862244 -0.16808049380779266 0.16491469740867615
-0.18340325355529785 0.31421953439712524 0.003842391539365053
0.2932329773902893 -0.056403085589408875 -0.13034865260124207
-0.28700998425483704 -0.40186652541160583 -0.09153738617897034
0.25525736808776855 0.2127072960138321 -0.13377462327480316
0.29616543650627136 0.1465614140033722 0.14256669580936432
0.039406441152095795 0.09372864663600922 -0.13563808798789978
0.11191213130950928 -0.24831345677375793 0.14945164322853088
0.2950761020183563 -0.24584750831127167 0.14323464035987854
0.2467404156923294 0.122686468064785 0.16394618153572083
0.21164782345294952 0.22882162034511566 0.0326593741774559
0.18009203672409058 -0.17709402740001678 0.16892506182193756
-0.1230267733335495 -0.24909788370132446 0.0549595020711422
0.287795752286911 0.024213865399360657 -0.13655903935432434
0.1530003547668457 0.21675492823123932 0.15765058994293213
0.2871167063713074 0.3605248034000397 -0.05496228486299515
0.26935678720474243 0.21222561597824097 0.15562652051448822
0.29140880703926086 -0.43367254734039307 0.08485753834247589
-0.2694738507270813 0.00475793331861496 -0.133561372756958
0.22190871834754944 -0.2467210739850998 0.1494409441947937
-0.21224643290042877 -0.280625581741333 0.07931394129991531
-0.28575578331947327 -0.005689509212970734 -0.2974635064601898
0.26683226227760315 0.4096372723579407 -0.08279531449079514
-0.07007421553134918 0.21858824789524078 0.15685859322547913
0.045302022248506546 -0.24365617334842682 -0.13481082022190094
-0.18445542454719543 0.3372904062271118 -0.03717475011944771
0.26376330852508545 -0.44295215606689453 -0.062262438237667084
0.02390226162970066 0.07235541194677353 0.17141714692115784
0.21236911416053772 0.3293730616569519 -0.04673401638865471
-0.2051914930343628 0.22331003844738007 -0.13464632630348206
0.2747149169445038 0.22718015313148499 -0.03406316041946411
0.27794069051742554 0.40911445021629333 -0.07417407631874084
-0.2388945072889328 -0.4604242742061615 0.0717429667711258
-0.24558469653129578 -0.24512121081352234 -0.1267850250005722
0.29161790013313293 0.22848817706108093 0.07832156121730804
-0.2337590456008911 -0.47548553347587585 -0.016226354986429214
0.043952200561761856 0.10068362951278687 -0.13558082282543182
0.28796058893203735 -0.07359679788351059 -0.13421931862831116
0.23859946429729462 0.31416091322898865 -0.035386353731155396
0.11427946388721466 0.12894393503665924 -0.1359875202178955
-0.06390205770730972 -0.1789221167564392 0.1684385985136032
0.2847338914871216 0.22430098056793213 0.1540318876504898
-0.12033326923847198 -0.01981768012046814 0.16916511952877045
0.27535280585289 -0.04967090114951134 -0.1347607970237732
0.11349038034677505 0.15560966730117798 0.16739384829998016
0.29845157265663147 0.21596531569957733 0.08014295250177383
0.2956392168998718 -0.09472421556711197 0.14675375819206238
0.25851932168006897 -0.34199196100234985 -0.07413222640752792
0.1348506510257721 -0.43139809370040894 0.09384588897228241
-0.33485931158065796 -0.3659798502922058 0.11283936351537704
0.19885759055614471 -0.4431460201740265 -0.06950976699590683
0.065045066177845 0.1141476184129715 -0.1354145109653473
-0.21724927425384521 -0.009562507271766663 0.16683901846408844
0.15239466726779938 -0.016901720315217972 -0.13538648188114166
-0.038593441247940063 0.2294895350933075 -0.122213214635849
0.23484280705451965 0.04585474357008934 0.1690310537815094
0.01805463619530201 0.08059006184339523 0.16983236372470856
0.28649258613586426 -0.1305617243051529 0.15501274168491364
-0.012955354526638985 0.2806098461151123 -0.28462859988212585
-0.25271913409233093 0.34110546112060547 0.04427352920174599
0.03739297389984131 0.22771970927715302 -0.18501615524291992
-0.03078758716583252 0.22858653962612152 0.025915516540408134
0.05147320032119751 0.20764008164405823 -0.22055990993976593
-0.17460791766643524 0.22781454026699066 0.14637969434261322
-0.1312105506658554 -0.23628167808055878 -0.13519062101840973
-0.2008845955133438 0.3191126585006714 -0.025701232254505157
0.22939655184745789 -0.2809548079967499 -0.05989638715982437
-0.22978901863098145 0.13276779651641846 0.1525222808122635
-0.18487831950187683 0.3349331021308899 0.046992529183626175
-0.2704203724861145 0.22722089290618896 0.03275515139102936
0.22037498652935028 0.2230284959077835 0.15621908009052277
0.13655437529087067 -0.43086564540863037 0.10393862426280975
0.06410962343215942 0.1344573199748993 -0.13484235107898712
0.29234281182289124 0.21452392637729645 -0.13498938083648682
-0.0035474710166454315 -0.24448122084140778 -0.13378199934959412
0.2581656575202942 -0.22150565683841705 0.15704356133937836
-0.16310840845108032 -0.30578941106796265 0.052369020879268646
-0.33048951625823975 -0.3406975269317627 0.1520686000585556
0.297853022813797 0.21293485164642334 -0.01955622434616089
0.24978402256965637 -0.00915023684501648 -0.1350412517786026
0.10709173232316971 0.22713087499141693 0.1420033723115921
-0.2220880538225174 0.24502113461494446 -0.027108486741781235
0.08334372937679291 -0.24340368807315826 0.15283507108688354
0.294981449842453 0.1290571689605713 0.14460274577140808
-0.09593861550092697 -0.24386700987815857 0.1523137390613556
-0.22924496233463287 0.48340094089508057 -0.037945546209812164
0.03593314811587334 0.09020292013883591 -0.13600961863994598
-0.22827354073524475 -0.4653395712375641 0.07832885533571243
-0.16189225018024445 -0.25223439931869507 0.06313318014144897
0.2287117838859558 -0.2766774892807007 -0.057590775191783905
0.2882762551307678 -0.014973102137446404 0.15455354750156403
0.2958066761493683 0.07324378937482834 0.09051509201526642
0.2748016119003296 0.23030230402946472 0.032546885311603546
-0.1929491013288498 0.4941639006137848 -0.014244144782423973
-0.24408337473869324 -0.3597424626350403 -0.09026659280061722
0.07484043389558792 0.17239023745059967 0.15493658185005188
0.2965528070926666 -0.25416621565818787 0.055925872176885605
0.06750801205635071 0.15521252155303955 -0.13100393116474152
0.2901306748390198 0.21950769424438477 -0.1320941001176834
0.2951493561267853 -0.21831099689006805 -0.051434844732284546
-0.26941677927970886 -0.13316237926483154 0.1455433964729309
0.04107428342103958 0.15978890657424927 -0.213825985789299
0.28978288173675537 -0.44030946493148804 0.11978492140769958
-0.06412191689014435 0.16686752438545227 0.15590529143810272
0.02400202676653862 0.22927626967430115 0.1445903480052948
0.2961364984512329 0.2003055363893509 0.15412943065166473
0.2934468686580658 0.06453920155763626 -0.13255496323108673
-0.33351996541023254 -0.3579483926296234 0.154876247048378
0.2965552508831024 -0.04994713142514229 -0.12189987301826477
0.24051271378993988 -0.04570888727903366 0.16665688157081604
-0.23163148760795593 -0.4754910469055176 -0.008488521911203861
0.060279443860054016 0.20186206698417664 -0.20895540714263916
0.21269038319587708 0.3942835330963135 -0.08405803889036179
-0.30489522218704224 -0.39379844069480896 -0.07924600690603256
-0.13906681537628174 0.22170758247375488 -0.13519194722175598
0.2413848638534546 -0.18403507769107819 0.16155777871608734
-0.21612104773521423 0.22625818848609924 -0.1325301080942154
-0.1692851036787033 0.2291783094406128 -0.0102663803845644
0.20173785090446472 0.22822685539722443 0.01722041890025139
0.04483042657375336 -0.23579496145248413 -0.134518101811409
0.06298037618398666 0.22703588008880615 -0.09976987540721893
0.28898781538009644 0.05621369928121567 -0.13533741235733032
-0.2686299979686737 -0.025878310203552246 -0.1338355541229248
0.25220125913619995 -0.010057438164949417 0.1531924456357956
0.11579587310552597 0.22717100381851196 0.14402471482753754
-0.18577814102172852 -0.02998236194252968 0.1701432168483734
-0.27076485753059387 -0.10438216477632523 0.14762695133686066
-0.19215941429138184 0.4053691625595093 -0.07681401073932648
-0.2047780454158783 0.012950301170349121 0.1695604771375656
-0.20215660333633423 -0.06363271921873093 -0.13551193475723267
0.2902582585811615 -0.013106308877468109 0.15499728918075562
0.011766950599849224 -0.24848903715610504 -0.04252038896083832
0.28260231018066406 -0.435660183429718 -0.02703794464468956
-0.267004132270813 0.19355100393295288 -0.13427497446537018
0.2898675799369812 -0.43253082036972046 0.18165960907936096
0.28350308537483215 0.06702600419521332 0.15500110387802124
0.2956349849700928 0.14453527331352234 0.15208639204502106
-0.23390604555606842 -0.47049999237060547 0.06280705332756042
-0.26965031027793884 -0.24251605570316315 -0.09269250929355621
0.25319716334342957 -0.24350565671920776 -0.13112550973892212
-0.26710864901542664 0.12287987023591995 0.15549543499946594
0.2853719890117645 -0.40764161944389343 0.17747661471366882
-0.2684583365917206 0.0038477741181850433 -0.13249839842319489
-0.07287070155143738 0.15348315238952637 0.16741608083248138
-0.2705034613609314 0.21832697093486786 0.09929490089416504
-0.22677373886108398 -0.29662108421325684 -0.0689995288848877
0.09925279021263123 0.22786182165145874 0.07428881525993347
0.2360842525959015 0.06821772456169128 0.1683109849691391
-0.06638174504041672 -0.19517764449119568 0.1521393358707428
0.2409050017595291 -0.18865211308002472 0.15789124369621277
0.22990573942661285 0.3501134514808655 0.10988447815179825
-0.16116349399089813 -0.24548880755901337 0.15352702140808105
0.2962174415588379 -0.0964420884847641 0.14635451138019562
-0.22095587849617004 0.009425359778106213 0.1634426862001419
0.295442670583725 0.2166677713394165 -0.1316836178302765
0.0228282380849123 -0.2461104840040207 -0.13170018792152405
0.2080579698085785 0.22121044993400574 0.1563498079776764
0.27389436960220337 0.31614020466804504 0.032740283757448196
0.2931268811225891 0.2255663126707077 0.0751507505774498
-0.2689383327960968 0.217267245054245 -0.132502019405365
0.2388671636581421 0.06676944345235825 0.1686510443687439
-0.014123176224529743 0.29253777861595154 -0.24113669991493225
0.18322545289993286 -0.18722566962242126 0.15631967782974243
0.26726704835891724 -0.336701899766922 -0.06562763452529907
-0.2132602035999298 0.24409717321395874 0.050117895007133484
0.2595342993736267 0.022650055587291718 0.15455348789691925
-0.21326929330825806 0.4505383372306824 -0.0738653764128685
-0.27168217301368713 0.22339488565921783 -0.08538411557674408
-0.03560946136713028 0.12826749682426453 -0.1366528868675232
-0.3302117586135864 -0.36513030529022217 0.1405804604291916
-0.26328790187835693 -0.09529094398021698 -0.1376408189535141
0.05255254730582237 0.09766480326652527 -0.13574934005737305
0.021398356184363365 0.14806872606277466 0.1691594272851944
0.29383575916290283 -0.09814052283763885 0.14669500291347504
0.24289260804653168 0.40387293696403503 0.10529860109090805
0.17965856194496155 0.42081061005592346 0.11348607391119003
0.11255843937397003 0.15339429676532745 0.16749411821365356
0.298880398273468 -0.13645552098751068 0.15367576479911804
0.23158451914787292 -0.06768683344125748 0.17053283751010895
0.2911597192287445 0.12929518520832062 -0.13591615855693817
0.17342586815357208 -0.2667069435119629 -0.018107876181602478
0.28784412145614624 -0.394407719373703 0.009725014679133892
-0.20693665742874146 0.08923984318971634 0.17109975218772888
0.2672361135482788 0.22943894565105438 -0.029203560203313828
-0.2706042230129242 -0.2391284704208374 -0.048860814422369
-0.011150063946843147 0.1473126858472824 0.17009682953357697
-0.2697051465511322 -0.19590792059898376 -0.129778191447258
-0.21643050014972687 -0.2451302707195282 0.15527139604091644
-0.15366239845752716 -0.24130716919898987 -0.13443505764007568
-0.2702491581439972 0.1902943253517151 -0.12110496312379837
-0.2641960680484772 -0.022987987846136093 -0.13489823043346405
-0.26272690296173096 -0.18985044956207275 -0.13421961665153503
0.15265485644340515 -0.44257184863090515 0.05014023929834366
-0.07993880659341812 -0.0073096733540296555 0.167815163731575
-0.0006923179607838392 0.1389707624912262 -0.21254807710647583
-0.07958574593067169 0.17072390019893646 0.15228919684886932
-0.2954661250114441 -0.4111649990081787 -0.09038237482309341
-0.2679795026779175 -0.1307847797870636 0.1547466665506363
0.23895397782325745 0.2274678647518158 -0.12354493141174316
-0.246205672621727 -0.4723051190376282 -0.04243898391723633
-0.2551966905593872 0.22964566946029663 -0.027261100709438324
-0.26948514580726624 -0.198331817984581 0.14714279770851135
-0.2601686716079712 0.0969410240650177 -0.1335076242685318
0.15037676692008972 0.22434565424919128 -0.13107290863990784
-0.22891341149806976 -0.33140188455581665 -0.08073791116476059
-0.2595556974411011 -0.13868018984794617 -0.13489361107349396
-0.26777204871177673 0.19889181852340698 -0.1330958604812622
-0.2860529124736786 -0.3169960081577301 0.15521059930324554
-0.2597578167915344 0.009500257670879364 -0.13435083627700806
-0.026884378865361214 0.1663268655538559 -0.13783003389835358
0.2998145818710327 0.43313294649124146 0.03540903702378273
0.2881341576576233 0.19825291633605957 -0.13539691269397736
-0.27079641819000244 0.12722918391227722 -0.12738169729709625
-0.1484685242176056 0.17276062071323395 0.15273115038871765
-0.16008611023426056 0.22880125045776367 0.0037948419339954853
0.11644691228866577 -0.24819721281528473 0.14300721883773804
0.2892404794692993 -0.19759601354599 0.15535880625247955
0.29087668657302856 0.21216386556625366 -0.13318873941898346
0.2845873236656189 -0.046140097081661224 0.1547820270061493
-0.26995083689689636 -0.2066715657711029 0.151012122631073
0.2949388325214386 -0.08549582958221436 0.14970044791698456
0.07584051787853241 -0.24662922322750092 0.15013854205608368
0.003570729400962591 0.17585647106170654 0.15692299604415894
-0.2706071436405182 -0.23779520392417908 0.08890548348426819
0.1139005571603775 -0.18567639589309692 0.1603000909090042
-0.019776154309511185 0.1691158413887024 -0.13705570995807648
-0.15945769846439362 -0.34303829073905945 0.004389461129903793
0.02718423679471016 0.18166044354438782 -0.14254428446292877
0.290324330329895 -0.012857362627983093 -0.13445642590522766
0.2527024745941162 -0.1898537576198578 0.1497587263584137
0.07576196640729904 0.2263750582933426 -0.12065885215997696
-0.26822227239608765 0.042317092418670654 -0.13431517779827118
0.2925664186477661 0.20896001160144806 -0.1346067190170288
-0.21939903497695923 -0.4622529447078705 0.08320438861846924
-0.2695169746875763 -0.33093905448913574 -0.06371511518955231
0.2904627323150635 0.18966664373874664 -0.1362534612417221
0.20493343472480774 0.227596253156662 0.040013816207647324
0.2834950089454651 -0.09518396109342575 0.15434275567531586
0.04009991139173508 0.1821538656949997 -0.14243870973587036
0.2966425120830536 0.2082274705171585 -0.025043904781341553
0.25514501333236694 0.10186345875263214 0.15367257595062256
0.24735786020755768 0.06703269481658936 0.15836022794246674
-0.26989954710006714 -0.2187226116657257 -0.12441077083349228
-0.017319517210125923 -0.21117112040519714 -0.1348123997449875
0.2264307737350464 -0.23566681146621704 -0.13445475697517395
-0.23446381092071533 0.3623296022415161 0.11160057038068771
0.2729865610599518 0.41100093722343445 -0.07501333206892014
-0.19793051481246948 -0.24781066179275513 -0.13000090420246124
-0.05733243748545647 -0.1667613834142685 0.16994714736938477
0.06607716530561447 0.13473449647426605 -0.1338433474302292
0.06621572375297546 0.14174379408359528 -0.1346834897994995
-0.24186007678508759 0.36797475814819336 0.11013242602348328
-0.20555883646011353 0.46006283164024353 0.09112225472927094
-0.161702498793602 -0.19578960537910461 0.15172256529331207
-0.16846929490566254 0.23082415759563446 0.000620279461145401
-0.267490416765213 -0.24222426116466522 -0.1079169511795044
0.26595333218574524 0.2291305810213089 0.061757855117321014
0.2890784442424774 -0.014455869793891907 -0.1357363611459732
-0.2692508399486542 0.1580744981765747 0.1531287133693695
-0.27053529024124146 -0.23081660270690918 -0.13078095018863678
-0.24922391772270203 0.3531346023082733 -0.052619483321905136
-0.11375050246715546 -0.2494095265865326 -0.12501996755599976
0.17980048060417175 0.4014374017715454 0.1019303947687149
0.12974813580513 0.2272728830575943 0.14314311742782593
0.22292602062225342 0.1798984408378601 0.15319068729877472
-0.26637232303619385 0.14712388813495636 -0.13605019450187683
0.24295517802238464 0.37040984630584717 -0.09000282734632492
0.24596548080444336 -0.13361632823944092 0.15559035539627075
-0.24387454986572266 0.2239726483821869 -0.13390709459781647
-0.2452172040939331 0.3313877582550049 -0.022257274016737938
0.14149624109268188 0.2150329202413559 0.15774643421173096
0.26874732971191406 0.23139815032482147 -0.09928552806377411
-0.26869773864746094 -0.03850613161921501 -0.13666270673274994
-0.2693386971950531 0.13474547863006592 -0.1308743804693222
0.2972291111946106 0.13892711699008942 0.14445631206035614
-0.06283513456583023 0.22494328022003174 -0.12871013581752777
0.2433570772409439 0.44672873616218567 -0.08771631866693497
-0.26406070590019226 -0.46288201212882996 -0.06538350880146027
0.2976982891559601 -0.13592703640460968 0.1492837369441986
0.2952808439731598 -0.2422964870929718 -0.09398016333580017
-0.2710143029689789 -0.12500549852848053 -0.12637068331241608
-0.25483259558677673 -0.24907463788986206 0.06073257699608803
0.1850193738937378 -0.4491523802280426 0.11911894381046295
0.20052394270896912 -0.2561178207397461 0.06519677489995956
-0.22352303564548492 -0.4503035545349121 0.12244309484958649
0.2562953233718872 0.483491450548172 -0.061583295464515686
-0.26689594984054565 -0.24752284586429596 0.06493542343378067
-0.2385433167219162 0.4682144224643707 0.11528129130601883
-0.27042657136917114 -0.15071146190166473 -0.026756098493933678
0.275850385427475 0.34917718172073364 0.11150778830051422
-0.3365600109100342 -0.37620335817337036 0.0078072333708405495
0.29126766324043274 0.21503445506095886 -0.13408522307872772
-0.09172610938549042 0.22706574201583862 -0.05500662326812744
0.23883429169654846 -0.02994118630886078 0.1678527593612671
0.22756345570087433 0.014970071613788605 -0.135006844997406
-0.10475771874189377 -0.23888082802295685 0.155753955245018
-0.2698960602283478 -0.18843859434127808 -0.1296882927417755
0.2558336853981018 -0.24538399279117584 -0.1354455202817917
0.29185110330581665 0.1608789712190628 0.15617690980434418
-0.26512014865875244 -0.005473139230161905 0.1567411571741104
-0.08053063601255417 -0.23624542355537415 -0.1354321539402008
-0.26198384165763855 0.23109403252601624 -0.03948801010847092
0.2887164354324341 -0.0029992908239364624 -0.13530240952968597
0.2888002097606659 -0.43542689085006714 0.01651349477469921
-0.26933687925338745 -0.021912766620516777 -0.059693071991205215
-0.2509976327419281 -0.2492983043193817 0.05711492896080017
0.012386227026581764 0.17611563205718994 0.15515480935573578
0.2053900510072708 -0.2564821243286133 0.06860919296741486
-0.2911711037158966 0.07536953687667847 -0.2763504683971405
0.2467823028564453 -0.3357557952404022 -0.08082237839698792
-0.232151061296463 0.08506280928850174 0.15391793847084045
0.16214270889759064 -0.24883083999156952 -0.1286381483078003
0.1905476301908493 0.3965102434158325 0.11538660526275635
-0.2506053149700165 0.2312646359205246 -0.037362728267908096
-0.25875845551490784 -0.24787944555282593 0.08990522474050522
0.15617920458316803 -0.4319882094860077 -0.034247104078531265
0.05891287326812744 -0.1807536780834198 0.1632157564163208
0.06034828722476959 -0.2480527013540268 -0.12421823292970657
-0.26795604825019836 0.22636692225933075 -0.05824840068817139
-0.17226099967956543 0.4331399202346802 -0.04864603653550148
-0.2641308903694153 -0.2418152242898941 -0.13372837007045746
0.24617871642112732 -0.2884094715118408 -0.05865289270877838
0.2875801622867584 -0.4364469647407532 0.013379424810409546
0.07013377547264099 0.16808627545833588 0.15441778302192688
-0.23910582065582275 -0.30937179923057556 0.10402899980545044
-0.2604530453681946 -0.25045183300971985 -0.06373408436775208
-0.26829013228416443 0.21345695853233337 -0.13272131979465485
0.2404213547706604 -0.027967210859060287 0.1687023937702179
-0.07159454375505447 0.21572178602218628 0.15681405365467072
0.20174086093902588 0.5004070401191711 0.10054169595241547
0.2919265329837799 -0.005979549139738083 0.15480689704418182
0.21500694751739502 0.21576067805290222 -0.13472571969032288
0.250338613986969 -0.4436523914337158 -0.07677239179611206
0.2958224415779114 -0.24167422950267792 -0.062124449759721756
-0.2546093165874481 -0.24551522731781006 0.15076720714569092
-0.2376055121421814 -0.2462397664785385 -0.12636297941207886
-0.1619865745306015 0.22712691128253937 0.01151975616812706
-0.18643371760845184 -0.25822633504867554 0.06967440247535706
0.2897298336029053 -0.022904686629772186 0.15493126213550568
-0.2700263559818268 -0.1908278912305832 0.12131885439157486
0.20024554431438446 0.4771912395954132 0.11586473882198334
-0.17724043130874634 0.2095889002084732 -0.13509775698184967
-0.2522072494029999 0.48166316747665405 0.1003815159201622
-0.2175786793231964 0.22511056065559387 -0.1323722004890442
0.1648273766040802 -0.2508156895637512 0.016291392967104912
0.06308043003082275 -0.2425372302532196 0.15442724525928497
0.04975792020559311 0.13744588196277618 -0.1962558627128601
0.2844253480434418 0.3499552309513092 0.09742483496665955
-0.002027418464422226 -0.18449869751930237 0.15933763980865479
0.24059860408306122 -0.40896931290626526 -0.09112472832202911
-0.25993064045906067 0.1839883029460907 0.15733309090137482
0.05338999629020691 0.21710580587387085 -0.2018238753080368
0.28540685772895813 -0.38426196575164795 0.13294222950935364
0.11049187183380127 0.1550227701663971 0.16803975403308868
0.22270721197128296 0.17215579748153687 0.153334379196167
0.22050714492797852 -0.24197906255722046 -0.1341669112443924
-0.1839733123779297 0.338137686252594 -0.03782929480075836
0.23630750179290771 0.22861595451831818 0.10567168146371841
-0.15762458741664886 0.4626903533935547 0.046283602714538574
-0.22054225206375122 0.3602888584136963 -0.07440610975027084
-0.22009891271591187 0.17513839900493622 0.1527945101261139
0.2697065472602844 -0.40105345845222473 -0.07287096977233887
0.024479184299707413 0.2283380925655365 -0.18161694705486298
0.2964819669723511 -0.12313971668481827 -0.09097626060247421
0.29072117805480957 0.20852753520011902 -0.1347677856683731
0.2676998972892761 -0.42886969447135925 -0.06664475053548813
-0.2694952189922333 -0.13950315117835999 0.038860905915498734
-0.26641300320625305 -0.2015213817358017 -0.13512271642684937
0.23642221093177795 0.4383712708950043 -0.09109104424715042
0.2892085015773773 0.47657302021980286 0.03305159509181976
0.21771037578582764 -0.2464052438735962 0.1513281911611557
-0.2692570090293884 -0.23288539052009583 -0.13012364506721497
0.0941687822341919 -0.05980774387717247 -0.13336478173732758
-0.22761662304401398 0.4988391101360321 0.02672365866601467
-0.19335134327411652 0.4854013919830322 -0.035552795976400375
0.25042101740837097 -0.20112693309783936 0.15385305881500244
0.2871861755847931 -0.4261459708213806 0.177323117852211
-0.05716010928153992 -0.23360802233219147 -0.13687197864055634
-0.2703185975551605 -0.1707765758037567 0.1467679888010025
-0.26107585430145264 -0.2981012463569641 0.09411399066448212
0.29426056146621704 0.15589119493961334 0.15128502249717712
0.06163744628429413 0.16982486844062805 0.15343508124351501
-0.2703647017478943 -0.05772377923130989 0.03287539631128311
0.2917296588420868 -0.18998563289642334 0.15517792105674744
0.18556654453277588 -0.15569619834423065 -0.1346651017665863
-0.2735321819782257 -0.238008052110672 -0.042678333818912506
0.12146668136119843 0.22934590280056 0.08102676272392273
0.2905690670013428 -0.17989617586135864 0.15551994740962982
-0.3255939185619354 -0.4157344400882721 -0.028924109414219856
0.2502458095550537 0.0872509628534317 0.15436634421348572
0.2407246232032776 0.11608967930078506 0.17196816205978394
-0.33759671449661255 -0.37806254625320435 0.025751346722245216
0.2953406572341919 0.04229814186692238 0.1457863450050354
0.12873037159442902 -0.23805469274520874 0.15535280108451843
0.2361750602722168 0.09920989722013474 0.16754518449306488
-0.23989810049533844 0.27316948771476746 0.01809793896973133
0.21104474365711212 0.4857228994369507 -0.051335252821445465
0.2850019335746765 -0.11168241500854492 -0.1329285353422165
-0.22851964831352234 -0.057660214602947235 0.15392693877220154
0.11605550348758698 0.22730107605457306 -0.09961637854576111
-0.22638341784477234 0.4008257985115051 -0.08061884343624115
0.21723856031894684 0.49466174840927124 -0.04221177473664284
-0.21542750298976898 -0.44028013944625854 0.142582967877388
0.29778608679771423 0.16999757289886475 0.030405554920434952
0.28051748871803284 0.054643698036670685 -0.13518428802490234
-0.03206032142043114 0.10985927283763885 -0.1383216232061386
0.29408103227615356 0.1504167765378952 0.1529364287853241
0.29437190294265747 0.2203366607427597 0.13256867229938507
-0.29403677582740784 -0.4282148778438568 -0.0895819440484047
-0.15806321799755096 0.44021525979042053 0.06580722332000732
0.292048841714859 0.22168025374412537 0.009162615984678268
0.2967550754547119 0.218448206782341 0.10654740035533905
0.16778045892715454 -0.2509400546550751 0.02890225686132908
0.1594310700893402 -0.18019607663154602 0.16220316290855408
0.2878133952617645 0.2204539179801941 -0.1330464482307434
0.20495736598968506 0.23319189250469208 0.02724747732281685
-0.27016010880470276 -0.12035872042179108 -0.12404408305883408
0.21986524760723114 0.2312152236700058 0.04992455616593361
0.18303632736206055 0.37194499373435974 -0.036652352660894394
0.2929166257381439 0.0021223847288638353 0.1536770462989807
0.18807020783424377 -0.1805042326450348 0.16593892872333527
0.23424337804317474 -0.36628058552742004 -0.08889032155275345
0.1676698923110962 0.07351253926753998 -0.135140523314476
-0.27137184143066406 0.22124625742435455 -0.09232652932405472
0.03156063333153725 0.09194742143154144 -0.13423752784729004
0.137587308883667 0.16731810569763184 0.15307562053203583
0.28596386313438416 -0.24980667233467102 0.15223428606987
0.285073459148407 0.22649914026260376 -0.13126321136951447
0.21011948585510254 0.2298562377691269 -0.007369088474661112
0.2471812218427658 0.1351887285709381 0.16084246337413788
0.03632567077875137 -0.14236120879650116 -0.1345694214105606
0.29103559255599976 0.2185806930065155 -0.13365507125854492
-0.27098941802978516 -0.1577780842781067 -0.12805870175361633
0.21993723511695862 0.29398855566978455 -0.017536187544465065
0.1971227526664734 -0.2513331472873688 -0.050720468163490295
0.2839251160621643 0.46517252922058105 -0.029301011934876442
0.2955597937107086 -0.04813571274280548 0.14385753870010376
-0.2680155336856842 -0.02264917641878128 -0.13630761206150055
0.2929954528808594 -0.113551564514637 0.1548669934272766
0.15475457906723022 -0.44431039690971375 0.058114465326070786
-0.26736167073249817 0.12885230779647827 -0.13351991772651672
0.2950066924095154 -0.2480446845293045 0.142597958445549
-0.24469208717346191 0.486151784658432 -0.00860622338950634
0.29042932391166687 -0.00015226704999804497 0.15511161088943481
-0.1677016317844391 -0.17311392724514008 0.17125530540943146
-0.26998502016067505 -0.17528492212295532 -0.12961140275001526
0.20338280498981476 -0.24677394330501556 0.1443232297897339
0.295084685087204 -0.159536674618721 0.14990821480751038
0.06436417996883392 0.06818053126335144 -0.1330474615097046
-0.27064087986946106 0.12866391241550446 -0.10068994760513306
0.2521210312843323 -0.21406260132789612 -0.13517747819423676
0.2809146046638489 -0.2164812833070755 -0.13515521585941315
0.26903319358825684 -0.41994625329971313 0.19761861860752106
0.2938045859336853 -0.25262850522994995 0.11382327228784561
0.23288534581661224 -0.37167248129844666 -0.0894659161567688
-0.2497227042913437 -0.4490327537059784 -0.06221821904182434
-0.23463298380374908 0.24792836606502533 -0.025986656546592712
-0.19893048703670502 0.3298376202583313 0.0534573569893837
0.1858905404806137 0.1686033308506012 0.15495498478412628
0.2747122049331665 0.22208912670612335 0.15693479776382446
0.2923679053783417 -0.12878566980361938 0.15519176423549652
-0.26902514696121216 -0.24317221343517303 0.02821875922381878
0.2802974581718445 0.030890800058841705 -0.135385200381279
0.2985866665840149 -0.17677611112594604 -0.07649920880794525
0.291868656873703 0.21598602831363678 -0.13450315594673157
0.22516557574272156 0.22103425860404968 0.1560421884059906
-0.13193407654762268 -0.23394308984279633 -0.13358734548091888
0.0008159428834915161 0.00409633107483387 0.16761083900928497
-0.24916160106658936 -0.416902631521225 0.1966208815574646
-0.2484230101108551 -0.24578672647476196 -0.13292603194713593
0.06276486068964005 -0.24458861351013184 -0.13279065489768982
-0.23538535833358765 0.22707554697990417 -0.13425901532173157
-0.2307819426059723 -0.16254793107509613 0.1541241705417633
-0.005178812891244888 -0.23471148312091827 0.15557201206684113
0.29441359639167786 0.04964938014745712 -0.13026903569698334
0.029276158660650253 -0.17734716832637787 0.1680101454257965
-0.04383636265993118 -0.031628888100385666 0.17029280960559845
-0.2407141625881195 0.22834444046020508 -0.1324860006570816
0.21213462948799133 0.21710538864135742 -0.13428737223148346
-0.21670037508010864 -0.11452250182628632 0.16641104221343994
0.2465590387582779 0.22977852821350098 -0.04745064303278923
0.2831631898880005 0.22603313624858856 0.060866329818964005
0.28929847478866577 -0.07312291860580444 0.15472179651260376
0.23522666096687317 0.34695935249328613 0.11162283271551132
0.29063472151756287 0.21500042080879211 -0.13356561958789825
-0.06669951975345612 0.22474510967731476 -0.12852594256401062
-0.26915261149406433 -0.0010350625962018967 -0.12335299700498581
-0.24325749278068542 0.39913350343704224 -0.07064288854598999
0.28400275111198425 -0.4047033190727234 0.1798284947872162
0.15649761259555817 -0.44259077310562134 0.0176103375852108
0.2945515513420105 -0.18194381892681122 0.13883960247039795
-0.26909172534942627 -0.15011896193027496 -0.0031937621533870697
-0.03638453409075737 -0.2487301081418991 0.0630529597401619
0.26207804679870605 0.2306722104549408 -0.029942478984594345
-0.08512101322412491 -0.17064689099788666 0.16801239550113678
-0.06122463941574097 0.1754591464996338 0.15413257479667664
-0.251090407371521 -0.048581644892692566 -0.2829163372516632
-0.1567598134279251 0.4443090558052063 0.017599547281861305
-0.2956652343273163 -0.34619370102882385 -0.03427469730377197
-0.022413231432437897 0.1710304170846939 -0.13809621334075928
0.1657591015100479 -0.26738858222961426 0.01675686053931713
-0.15469475090503693 -0.18778210878372192 0.161360502243042
-0.24936190247535706 0.24614661931991577 -0.0036618076264858246
-0.26557308435440063 0.1821621060371399 -0.13529762625694275
-0.01755475625395775 0.22967952489852905 -0.034463439136743546
0.014767996966838837 -0.19082359969615936 0.15226897597312927
0.29554352164268494 -0.07899856567382812 0.14489975571632385
-0.2037709653377533 -0.3979239761829376 -0.05344066768884659
0.29742974042892456 0.21824240684509277 0.029978636652231216
0.2357465624809265 -0.1762288510799408 0.16574442386627197
0.20011883974075317 0.21523942053318024 -0.13453316688537598
0.29234710335731506 0.21846048533916473 -0.13356204330921173
0.24976393580436707 -0.04387784004211426 0.15368987619876862
0.27663707733154297 -0.011032618582248688 -0.13557212054729462
-0.2701566517353058 -0.1357874572277069 -0.12897329032421112
0.14931036531925201 0.15624457597732544 0.16819600760936737
-0.2133161723613739 -0.4011019170284271 0.16606269776821136
0.28923696279525757 -0.23555704951286316 -0.1343756765127182
0.2935731112957001 0.4573751389980316 0.033287420868873596
-0.07440951466560364 0.22581562399864197 -0.12498830258846283
-0.1808670163154602 -0.24335801601409912 0.1550057828426361
-0.2653076648712158 -0.3819822072982788 0.204240620136261
-0.3287569582462311 -0.3818732798099518 0.07388382405042648
0.2652512490749359 -0.28761354088783264 0.03829185664653778
0.16374914348125458 -0.19750577211380005 0.153802752494812
0.28071069717407227 -0.44309279322624207 0.08890953660011292
-0.2635672688484192 0.36780309677124023 0.053317151963710785
0.10860320925712585 -0.24402505159378052 -0.13480700552463531
-0.256559818983078 0.20091021060943604 0.155954048037529
-0.013637376017868519 0.1704283356666565 0.15293344855308533
-0.27002570033073425 -0.24049074947834015 -0.04038906842470169
0.003059983253479004 0.15170589089393616 0.16874535381793976
-0.05230584740638733 -0.1698695570230484 0.16982057690620422
-0.26884981989860535 0.18665650486946106 -0.12187784910202026
-0.16600953042507172 0.21978092193603516 -0.13582465052604675
-0.2693524956703186 0.2191191017627716 -0.10020510107278824
-0.18112727999687195 0.23027555644512177 -0.026456769555807114
0.28564566373825073 -0.08651114255189896 0.15547989308834076
-0.1661299169063568 0.2284810096025467 0.025497164577245712
0.2954729199409485 0.018546808511018753 -0.08368575572967529
0.2103426158428192 -0.24434414505958557 -0.1327257752418518
-0.17051056027412415 -0.24160751700401306 0.1563328206539154
-0.2052973210811615 -0.12828075885772705 0.16841959953308105
0.25295203924179077 0.07031532377004623 0.1507459282875061
0.29291439056396484 0.46048033237457275 0.014781235717236996
0.1115197166800499 0.22870631515979767 -0.1200340986251831
-0.269869863986969 0.06072772294282913 -0.13540063798427582
0.013162408955395222 0.10022427141666412 -0.13461416959762573
0.1906208097934723 -0.2692181169986725 -0.04236498475074768
-0.27052628993988037 -0.07665901631116867 -0.12892568111419678
-0.15329568088054657 -0.2516595423221588 0.0619182214140892
0.225873202085495 -0.24696025252342224 0.1453840732574463
0.28153520822525024 0.22620759904384613 0.055997252464294434
0.21215589344501495 0.43152692914009094 0.1006040945649147
0.0179330725222826 0.2260552942752838 -0.09594900161027908
0.2524179220199585 -0.24612656235694885 -0.13337403535842896
0.2776505649089813 -0.3945428729057312 -0.05420026183128357
0.24035879969596863 -0.3790002465248108 -0.09060665965080261
0.26411402225494385 -0.2505912482738495 0.06416592001914978
0.2874402105808258 0.16964882612228394 -0.13613702356815338
0.03779761865735054 -0.24929063022136688 0.059322621673345566
0.244631826877594 -0.4387884736061096 -0.044964585453271866
-0.26265251636505127 0.41776299476623535 0.10609075427055359
-0.23027534782886505 -0.11707079410552979 0.15506750345230103
0.06224208325147629 0.1301608830690384 -0.13759475946426392
-0.01244509220123291 -0.23413628339767456 0.15547242760658264
0.08921048790216446 -0.2467884123325348 0.15002945065498352
0.07480844110250473 0.16915644705295563 -0.1347401887178421
0.23791104555130005 0.013877571560442448 0.1676998883485794
-0.14079314470291138 0.22827057540416718 0.14734673500061035
0.23342376947402954 0.08868319541215897 0.17043687403202057
0.16423356533050537 0.21884635090827942 -0.13399645686149597
-0.3312397301197052 -0.4026542007923126 -0.04229532182216644
-0.2657707631587982 -0.2433568835258484 -0.13247983157634735
-0.26893433928489685 -0.023239709436893463 -0.13498008251190186
0.27312853932380676 -0.44596579670906067 0.1870383471250534
-0.2833491861820221 0.10243290662765503 -0.3057284951210022
-0.2650362551212311 -0.08070012927055359 0.15489839017391205
-0.2035212218761444 0.05019393190741539 0.16951949894428253
-0.15677402913570404 -0.3276144564151764 -0.0015296018682420254
-0.17342618107795715 0.4295978844165802 -0.04983876645565033
0.24713025987148285 0.002353377640247345 0.15829019248485565
0.26627790927886963 0.30627673864364624 -0.01572219654917717
-0.31330183148384094 -0.43482887744903564 -0.06175491213798523
-0.2693071961402893 -0.16209152340888977 -0.1256018429994583
0.3034951984882355 0.42183926701545715 0.010593084618449211
0.2955862283706665 -0.2455749213695526 0.035316385328769684
-0.2682074010372162 0.10070692002773285 0.15390990674495697
-0.23919981718063354 0.3557702302932739 0.10032360255718231
0.0048109544441103935 0.18328653275966644 -0.13977158069610596
-0.2711353898048401 0.1779840886592865 -0.12419336289167404
0.29457420110702515 -0.04875180125236511 0.002120986580848694
-0.14905481040477753 -0.19418710470199585 0.15054580569267273
-0.25665414333343506 -0.3193836808204651 -0.06942199170589447
-0.27151283621788025 -0.23919004201889038 -0.05931422486901283
-0.26936960220336914 -0.30838292837142944 0.1200573742389679
0.2945612967014313 -0.22807200253009796 -0.12435538321733475
-0.1663210690021515 -0.25157371163368225 0.06674406677484512
-0.20931145548820496 -0.24989467859268188 -0.06469680368900299
-0.21781699359416962 0.4225909113883972 -0.08185754716396332
0.28639528155326843 -0.057706885039806366 0.1543015092611313
-0.26047804951667786 -0.22213126718997955 0.15588104724884033
0.17214927077293396 -0.3948937654495239 0.17577683925628662
0.2973485291004181 0.10404491424560547 -0.12160180509090424
0.12485209107398987 -0.25038495659828186 -0.05638747662305832
0.06336305290460587 0.1343156099319458 -0.13625676929950714
-0.2696276903152466 -0.06516081094741821 -0.12737438082695007
-0.1891769915819168 -0.26986977458000183 0.07301978766918182
0.18900054693222046 -0.19017477333545685 0.15146873891353607
-0.2752586901187897 -0.3789787292480469 0.2066963165998459
0.28021377325057983 0.22302503883838654 -0.13268454372882843
0.2645336389541626 -0.39115145802497864 -0.07535965740680695
0.0222671777009964 0.22522340714931488 -0.12636791169643402
-0.01754220388829708 -0.16897091269493103 -0.13490444421768188
0.08110834658145905 -0.23812392354011536 -0.13376127183437347
0.2950654625892639 0.08932802826166153 0.14385101199150085
-0.03334358334541321 0.14955535531044006 -0.1961997002363205
-0.25418877601623535 0.355591744184494 0.07828608900308609
-0.008123714476823807 0.0862056165933609 -0.1381862759590149
0.29264286160469055 -0.12581096589565277 0.15453222393989563
0.28152161836624146 -0.3653000593185425 0.12819510698318481
0.28830212354660034 0.22292791306972504 -0.13127490878105164
-0.21877458691596985 -0.2905125916004181 -0.06537972390651703
-0.2706996202468872 -0.0696195736527443 -0.07266992330551147
-0.08953864127397537 0.21123167872428894 -0.13369561731815338
0.236892968416214 0.08826132118701935 0.1676650494337082
-0.11429836601018906 -0.24944430589675903 0.028177443891763687
-0.21976569294929504 0.3329930305480957 0.061159778386354446
-0.33361756801605225 -0.3563079833984375 0.07771548628807068
-0.26848742365837097 0.05665924772620201 0.15322993695735931
0.20294666290283203 0.03573085367679596 -0.13426579535007477
-0.2151775360107422 -0.2614227533340454 -0.054062701761722565
0.2894391417503357 -0.09856610745191574 -0.1347777396440506
-0.23408636450767517 0.09721118211746216 0.15466436743736267
-0.016337445005774498 -0.25067636370658875 -0.12111036479473114
-0.268066942691803 0.0523957759141922 -0.13454091548919678
-0.267965167760849 0.2239907830953598 0.14314796030521393
-0.24155065417289734 0.4719364643096924 0.11522285640239716
0.26099979877471924 -0.3677762448787689 0.16225574910640717
-0.11767653375864029 0.17277121543884277 0.15258577466011047
0.2501206398010254 -0.1567041128873825 0.154886394739151
0.21099252998828888 0.43785953521728516 -0.07953998446464539
0.29356226325035095 -0.24889636039733887 0.03391067683696747
0.009434896521270275 0.2244616597890854 0.1502070277929306
0.04421789571642876 -0.1709485948085785 0.16984550654888153
0.2878182530403137 0.22582894563674927 -0.1176336258649826
-0.221981942653656 -0.46926429867744446 0.04176678508520126
-0.28660088777542114 -0.44729700684547424 -0.08169078826904297
-0.20790354907512665 0.007797890342772007 0.1700025498867035
-0.3316275477409363 -0.35392943024635315 0.1668921709060669
