-0.11769382655620575 0.16951864957809448 0.15579478442668915
-0.27191784977912903 0.0268036350607872 -0.12490494549274445
-0.2800421416759491 -0.38281717896461487 -0.08811056613922119
-0.1108531504869461 0.3173283338546753 -0.33485934138298035
-0.27019307017326355 0.25793614983558655 -0.34678521752357483
-0.244228795170784 0.3486071527004242 0.10124925523996353
-0.2712017893791199 0.06351068615913391 -0.12204375863075256
-0.2574686110019684 0.06772547960281372 0.15547966957092285
-0.19213652610778809 0.3800122141838074 -0.08226463943719864
0.0264138113707304 0.22180284559726715 -0.24516049027442932
-0.1987222135066986 -0.24312514066696167 0.1575547158718109
0.15795081853866577 0.23152557015419006 0.14679694175720215
-0.2647559642791748 -0.24280709028244019 -0.02980610728263855
-0.19238145649433136 -0.24469882249832153 0.155944362282753
0.22825303673744202 -0.24023884534835815 0.15655702352523804
-0.02990441396832466 0.21261750161647797 -0.20468442142009735
0.29459160566329956 0.22519201040267944 0.041936520487070084
0.28367215394973755 -0.4126744270324707 0.18859145045280457
0.1418294757604599 -0.4310629665851593 0.13498692214488983
-0.2566140294075012 0.22776652872562408 -0.31972673535346985
0.25105443596839905 -0.3534504175186157 -0.08467048406600952
0.25147882103919983 -0.34151721000671387 -0.08182816207408905
0.14610929787158966 -0.24127070605754852 0.1602042317390442
0.21472375094890594 -0.2519892156124115 -0.04622262716293335
0.22790366411209106 0.4779670536518097 0.10565679520368576
-0.25833964347839355 0.10205966234207153 0.1545429676771164
0.2260982096195221 -0.2514351010322571 -0.07862560451030731
0.13958100974559784 -0.4407051205635071 0.04076624661684036
-0.2660438120365143 -0.3555145859718323 -0.08789757639169693
0.24764400720596313 0.16688770055770874 0.16102443635463715
0.2960803210735321 -0.10971864312887192 0.16034428775310516
-0.2676800489425659 0.11699903011322021 0.15840180218219757
-0.22951656579971313 0.15410763025283813 0.1519894003868103
0.24431434273719788 0.5069307088851929 0.11658573895692825
-0.26620253920555115 -0.24264903366565704 0.14730259776115417
-0.22177362442016602 0.11124881356954575 0.15875256061553955
-0.21968284249305725 -0.16122889518737793 0.16616190969944
0.00540498411282897 0.22261235117912292 0.15434321761131287
0.29493120312690735 0.21788379549980164 -0.012486311607062817
-0.2413564920425415 0.39826712012290955 -0.07875198870897293
-0.22028125822544098 0.22924919426441193 -0.051502980291843414
0.2630828320980072 -0.3873051702976227 -0.07785478979349136
0.1707305908203125 0.1727706640958786 0.15363898873329163
0.24613551795482635 -0.2940525710582733 0.08948516100645065
-0.3008679151535034 -0.31720170378685 0.16368278861045837
-0.2123183310031891 -0.24083848297595978 -0.13378746807575226
-0.07200761884450912 0.32210469245910645 -0.31737199425697327
0.18493309617042542 0.22850625216960907 0.1526055634021759
-0.26049327850341797 0.188766747713089 -0.34073513746261597
-0.24520912766456604 -0.2951354682445526 0.07732758671045303
-0.26836860179901123 0.19601155817508698 0.15204238891601562
0.2092246413230896 0.3166676163673401 -0.01764628477394581
-0.22032485902309418 -0.015988918021321297 0.15718971192836761
-0.2636002004146576 -0.21519607305526733 -0.13187859952449799
0.1802346259355545 -0.2549522817134857 -0.004120281897485256
-0.20744523406028748 0.5033244490623474 0.08345554769039154
0.184125155210495 0.16418716311454773 0.1621503382921219
0.2984275817871094 0.22084282338619232 -0.056295350193977356
-0.20489604771137238 0.4674641788005829 -0.06689322739839554
-0.15089842677116394 0.3337564766407013 -0.338338166475296
-0.02864719182252884 0.17907679080963135 -0.20792916417121887
-0.1796312779188156 0.3164556920528412 -0.00018611806444823742
0.21755264699459076 0.36231857538223267 0.11971643567085266
-0.3017007112503052 -0.438202440738678 -0.08030842989683151
0.2020217776298523 0.16487258672714233 0.16134722530841827
0.2470168024301529 0.009598282165825367 0.1612490713596344
0.22784042358398438 -0.2723105251789093 0.07681456208229065
-0.267980694770813 -0.24785955250263214 0.13762781023979187
0.05685438588261604 0.21240729093551636 -0.2072502076625824
-0.22791990637779236 -0.04026602953672409 0.1533709466457367
0.031283337622880936 0.17687876522541046 0.14623431861400604
0.2308676689863205 0.47893911600112915 -0.06828746199607849
-0.08727187663316727 -0.25019076466560364 -0.1284143626689911
-0.21680626273155212 -0.4580340087413788 0.13681729137897491
-0.1413625031709671 0.17273487150669098 0.15241923928260803
-0.264706552028656 -0.1538345217704773 0.15711358189582825
0.2930367588996887 0.15336738526821136 -0.13382767140865326
-0.2768910825252533 0.21813851594924927 -0.3277285695075989
0.2099606841802597 0.2847945988178253 0.019318219274282455
-0.08935225009918213 0.3314112722873688 -0.29618948698043823
-0.22159309685230255 -0.27792948484420776 0.07384082674980164
-0.22556501626968384 -0.4322148263454437 0.17759893834590912
-0.26626819372177124 -0.47313228249549866 -0.04834890365600586
-0.19701062142848969 -0.17923668026924133 0.16304658353328705
-0.17519502341747284 0.48786306381225586 0.08278840780258179
-0.20586466789245605 -0.23637433350086212 0.1577731817960739
-0.0836339145898819 0.3090083599090576 -0.31752002239227295
0.21097445487976074 -0.34942471981048584 -0.07317794114351273
0.2610477805137634 -0.37001484632492065 -0.07952329516410828
-0.2639200687408447 0.23022213578224182 -0.011163180693984032
0.21088555455207825 0.26076117157936096 0.016505643725395203
-0.24592311680316925 -0.06211545318365097 -0.25063493847846985
0.29000139236450195 0.34679028391838074 0.06345347315073013
0.27836358547210693 0.3630622625350952 0.1215021014213562
0.05880385637283325 0.22726456820964813 0.14081090688705444
0.2954770028591156 -0.14367739856243134 0.16134199500083923
0.05316474288702011 0.2295270711183548 -0.13102777302265167
-0.24816790223121643 -0.0002597058191895485 -0.29796314239501953
-0.2744339406490326 -0.3610149919986725 0.20090292394161224
-0.17620418965816498 -0.24791428446769714 -0.036476023495197296
-0.24419370293617249 0.49075955152511597 0.09176218509674072
-0.032981663942337036 0.22456328570842743 -0.21059510111808777
-0.038633089512586594 0.22745679318904877 -0.13006997108459473
0.046071894466876984 0.15398696064949036 0.1683635711669922
0.20095276832580566 -0.4464600086212158 -0.0687067061662674
0.26891788840293884 0.24981017410755157 0.004698277451097965
0.27326640486717224 -0.24466748535633087 -0.13485944271087646
0.29698359966278076 -0.007686907425522804 0.15729770064353943
0.0992443710565567 -0.19782410562038422 0.14968882501125336
-0.20212969183921814 0.4574677646160126 0.0894734188914299
0.28594261407852173 -0.4408089816570282 0.19082044064998627
-0.13396437466144562 0.2283751517534256 -0.12860573828220367
0.2550157606601715 0.34227341413497925 -0.06769970804452896
-0.33604010939598083 -0.3658972978591919 0.09018515050411224
-0.2721010744571686 -0.3685404658317566 -0.08796994388103485
0.27390921115875244 -0.44275325536727905 0.1939554214477539
0.18768373131752014 -0.18632906675338745 0.16419731080532074
0.009543344378471375 0.287835955619812 -0.2681500017642975
0.043788351118564606 0.11865302920341492 -0.19970354437828064
0.21019819378852844 0.5008419752120972 0.008478879928588867
-0.02772270329296589 0.18056438863277435 -0.13918755948543549
-0.11129724979400635 0.158247172832489 0.16727705299854279
0.22105734050273895 -0.25117984414100647 0.1521146148443222
-0.19221512973308563 0.3834579885005951 0.0979808047413826
0.21813097596168518 -0.2574925124645233 -0.04727832227945328
-0.2774220108985901 0.0673796683549881 -0.31917449831962585
0.1521081030368805 -0.4480125308036804 0.05702754110097885
-0.23931865394115448 0.40116867423057556 0.10401611775159836
0.06731580942869186 0.22644037008285522 -0.127995565533638
-0.2383444458246231 -0.3936317265033722 0.1916259229183197
-0.34072190523147583 -0.3830658197402954 0.021025201305747032
-0.2379351705312729 0.33796703815460205 0.07109589874744415
-0.24749231338500977 -0.29439234733581543 0.08281803876161575
0.2854408919811249 -0.22479137778282166 0.1599023938179016
-0.027649350464344025 0.18081629276275635 -0.14703799784183502
0.274783730506897 0.3511641323566437 0.1095317006111145
-0.22791855037212372 0.4377107620239258 -0.08045069128274918
0.18085379898548126 0.16703203320503235 0.15822282433509827
-0.049387816339731216 0.32608717679977417 -0.28271135687828064
-0.23076237738132477 -0.4097502827644348 0.1882007122039795
-0.021247023716568947 0.3110368847846985 -0.28210458159446716
0.30120325088500977 -0.010467136278748512 -0.12837111949920654
0.23399718105793 0.2987297475337982 -0.02098746970295906
-0.22985868155956268 0.4984186887741089 -0.005934313405305147
0.01300896517932415 0.16332824528217316 0.16481682658195496
0.2116183042526245 -0.2038038820028305 0.1570698767900467
0.2683180868625641 0.4020107388496399 -0.08225403726100922
-0.282694548368454 -0.005900354124605656 -0.23002366721630096
0.19788792729377747 -0.2640939950942993 -0.034646425396203995
-0.1795806586742401 0.4165413975715637 0.09687744826078415
0.2345777153968811 -0.24193128943443298 0.15169131755828857
0.06707118451595306 0.16806261241436005 -0.136086106300354
-0.14922714233398438 0.1795157939195633 0.15528307855129242
0.29891180992126465 -0.0771099403500557 -0.12912122905254364
0.07431251555681229 0.16457092761993408 0.1647060066461563
-0.221415176987648 0.17194722592830658 0.15418045222759247
-0.2494134157896042 0.4042380154132843 0.1163514107465744
-0.2813446521759033 -0.021753324195742607 -0.2992765009403229
0.20496642589569092 -0.4373680651187897 -0.07923799008131027
-0.268092542886734 0.14801250398159027 0.15135549008846283
-0.21047113835811615 0.30615267157554626 0.04541819542646408
0.2661309838294983 0.22451865673065186 0.15846285223960876
-0.0669722706079483 0.16733041405677795 0.1581777185201645
0.05011475086212158 0.188261479139328 -0.15179386734962463
0.2544298768043518 -0.2625797390937805 0.015968456864356995
-0.028241941705346107 0.2935997545719147 -0.2997696101665497
-0.04391179978847504 -0.24228979647159576 -0.1357845962047577
-0.22325199842453003 0.28910112380981445 -0.019319742918014526
0.27489057183265686 -0.43703484535217285 -0.05368099734187126
0.293471097946167 -0.2442561239004135 0.14185373485088348
0.17007310688495636 0.16937962174415588 0.153365358710289
0.29644104838371277 -0.08448899537324905 0.1597745418548584
-0.0562518946826458 0.32251009345054626 -0.30224165320396423
0.22095483541488647 0.29697078466415405 -0.015253277495503426
0.2993781268596649 -0.04682222381234169 -0.1318286508321762
0.2838744521141052 -0.3890123963356018 0.17984962463378906
-0.03653485327959061 0.18393665552139282 -0.13628624379634857
0.06303083151578903 0.2122829556465149 0.15765607357025146
-0.27046120166778564 0.1711522936820984 0.15364590287208557
-0.2675015926361084 -0.08891367167234421 -0.23967388272285461
0.27175697684288025 -0.24741551280021667 -0.13495709002017975
0.0572560653090477 0.199355810880661 -0.2050776183605194
0.08401422947645187 0.2117769420146942 -0.1349567323923111
-0.20965251326560974 0.23336303234100342 -0.03209501877427101
-0.2017456591129303 0.16172060370445251 0.16833528876304626
-0.030188344419002533 0.14070077240467072 -0.1990768164396286
0.29908180236816406 -0.13413220643997192 -0.1315992921590805
0.2867427170276642 -0.4179992973804474 0.1894991248846054
0.23758240044116974 -0.08950427174568176 0.1699148565530777
0.17247463762760162 0.22814346849918365 0.15327668190002441
-0.200079083442688 0.1764988750219345 0.14934152364730835
0.05282672122120857 0.22308588027954102 -0.21911942958831787
0.2693711519241333 0.37272968888282776 0.12760107219219208
-0.2208758294582367 0.31115221977233887 0.047126397490501404
0.11256657540798187 0.22921879589557648 -0.12761929631233215
0.05372921749949455 0.2145816683769226 -0.1916416883468628
0.19388677179813385 -0.43362361192703247 0.20050401985645294
-0.14387325942516327 0.3257761001586914 -0.3438035845756531
0.25192132592201233 -0.32411786913871765 -0.07752277702093124
0.07679680734872818 0.17182782292366028 0.14899814128875732
-0.2922046184539795 -0.3190670311450958 0.16765372455120087
0.04771684482693672 0.21408426761627197 -0.22872242331504822
0.2997976243495941 0.02695474587380886 -0.1352834403514862
0.252949059009552 -0.3079424798488617 -0.07124076038599014
-0.2320789247751236 0.3805076479911804 0.1157151386141777
0.01530627440661192 0.09966228157281876 -0.14055615663528442
-0.25869372487068176 0.010615509003400803 -0.23704807460308075
0.23632854223251343 -0.2524207830429077 -0.08786387741565704
0.21620282530784607 0.5081791281700134 -0.0034568076953291893
0.18528813123703003 0.4365207552909851 0.11213580518960953
-0.27371102571487427 -0.3703906834125519 -0.08584223687648773
-0.27718567848205566 0.13852280378341675 -0.3284664750099182
-0.09711503982543945 0.22635473310947418 -0.13516640663146973
-0.2472396343946457 0.2262503206729889 -0.11826475709676743
-0.26104632019996643 0.1111307442188263 -0.3181319832801819
0.28664129972457886 -0.24858936667442322 -0.12189612537622452
0.1717016100883484 -0.43458497524261475 -0.05475281924009323
0.05786297470331192 0.17612549662590027 -0.13670040667057037
0.23866938054561615 0.46860164403915405 0.10285705327987671
0.1168077364563942 -0.24583637714385986 0.1546163707971573
-0.2764754891395569 0.12837909162044525 -0.314388245344162
0.2202574908733368 -0.26645615696907043 0.074045330286026
-0.1654607206583023 0.16890688240528107 0.15442276000976562
-0.21459174156188965 0.3947024643421173 -0.0858321338891983
0.23117975890636444 -0.18523627519607544 0.16751685738563538
-0.25868719816207886 -0.37778767943382263 0.20407681167125702
-0.26032140851020813 -0.2892701327800751 0.07903024554252625
-0.21577560901641846 0.3240172863006592 -0.33413317799568176
-0.20738103985786438 0.3325541913509369 0.06148506700992584
-0.27857017517089844 0.15908847749233246 -0.33439165353775024
0.28237077593803406 0.3600485920906067 0.10994289070367813
0.2933460474014282 -0.25373396277427673 0.05927892029285431
-0.2408580332994461 0.4746374487876892 0.11216049641370773
0.2961537837982178 -0.256071001291275 0.10174816101789474
-0.28256773948669434 -0.03574096038937569 -0.289992094039917
-0.2711470127105713 0.07619627565145493 -0.1302255392074585
-0.31574469804763794 -0.42030078172683716 -0.07999187707901001
-0.20005077123641968 0.4809635877609253 -0.0545063391327858
-0.006848189514130354 0.19402830302715302 -0.13576450943946838
-0.20192138850688934 0.3114873766899109 -0.3590192496776581
0.046197179704904556 0.12266675382852554 -0.1357734203338623
0.26494213938713074 -0.36157742142677307 -0.07380254566669464
-0.27132484316825867 0.22627460956573486 -0.0718478262424469
-0.2601907551288605 0.012631363235414028 -0.31811439990997314
-0.22067049145698547 0.0008325725793838501 0.159926638007164
0.2798728346824646 0.1576160490512848 0.15627607703208923
-0.007784784771502018 -0.19135040044784546 0.15455949306488037
0.23743431270122528 -0.26095151901245117 -0.05632215738296509
-0.036823756992816925 0.1739543378353119 -0.19698548316955566
0.2920266091823578 -0.43703991174697876 0.13360150158405304
-0.17778871953487396 -0.2482157200574875 -0.03622063249349594
-0.2634802460670471 0.026505330577492714 0.15659938752651215
-0.2562241852283478 0.21594803035259247 -0.3173689842224121
-0.06054600328207016 0.3243095278739929 -0.30362004041671753
-0.22439107298851013 -0.27805444598197937 -0.05659307911992073
0.272284597158432 0.32258549332618713 -0.03301389887928963
0.28104132413864136 0.33022454380989075 -0.02783041261136532
-0.2029971033334732 0.33787477016448975 -0.05497702211141586
-0.2698943316936493 0.25747549533843994 -0.3562029004096985
0.016424279659986496 0.27020397782325745 -0.22165818512439728
-0.21122518181800842 -0.4727468192577362 0.07998053729534149
-0.2592048943042755 0.1981770247220993 -0.3161375820636749
-0.007707899436354637 -0.1834237277507782 0.16683779656887054
0.2951967418193817 0.2198389321565628 0.04252370074391365
0.24881364405155182 0.17705334722995758 0.15464450418949127
-0.18894928693771362 0.24656368792057037 0.040978580713272095
-0.24286706745624542 0.3670332431793213 0.11328458040952682
-0.21750801801681519 -0.16518822312355042 0.1698053628206253
0.19563502073287964 0.4908449053764343 0.09171713888645172
-0.15930059552192688 0.1629955917596817 0.16708391904830933
0.03935707360506058 0.10363153368234634 -0.1507226526737213
0.20598173141479492 0.30142882466316223 0.008394150994718075
-0.3310607373714447 -0.3514787554740906 0.16925138235092163
0.2995454668998718 0.14518284797668457 0.15724921226501465
-0.23876222968101501 0.2608691453933716 -0.34334954619407654
0.25456538796424866 0.0542578399181366 0.15226803719997406
0.2374243289232254 -0.242640420794487 0.1519598513841629
-0.28201979398727417 -0.035559967160224915 -0.23573581874370575
0.263317346572876 0.45764943957328796 -0.07855340093374252
0.25524893403053284 -0.038131460547447205 0.1555774062871933
-0.16706587374210358 0.387908011674881 0.09937060624361038
-0.09506239742040634 0.3306214213371277 -0.32334187626838684
0.24749960005283356 -0.26789042353630066 0.06179691478610039
0.26262927055358887 0.4306694567203522 -0.08348441123962402
0.22062063217163086 -0.2483818680047989 0.07773531228303909
0.2562369704246521 0.2726516127586365 0.03304695338010788
-0.035042840987443924 0.19002678990364075 -0.18626561760902405
0.2917512059211731 0.22774702310562134 -0.017558235675096512
-0.28381019830703735 0.02926667220890522 -0.2425580769777298
0.25124630331993103 0.16540482640266418 0.1560710370540619
-0.01727335713803768 0.1038990467786789 -0.17471696436405182
-0.25277432799339294 -0.29367297887802124 0.08155802637338638
-0.13588756322860718 -0.1826333999633789 0.16602429747581482
-0.24718186259269714 -0.3281015455722809 -0.07917644083499908
-0.28471097350120544 0.05818463861942291 -0.2653103470802307
-0.031653810292482376 0.25300776958465576 -0.22529667615890503
-0.17090758681297302 -0.2625678479671478 -0.033469341695308685
-0.23218058049678802 0.31357675790786743 -0.3531213700771332
0.2982426583766937 0.17593273520469666 0.15274320542812347
0.21693095564842224 0.24886055290699005 0.04502684250473976
0.07214723527431488 0.15515869855880737 0.1671336591243744
-0.28332042694091797 0.1210450753569603 -0.3115277886390686
-0.2170259952545166 -0.18407346308231354 0.1604803055524826
0.21155929565429688 0.3610694408416748 0.11820739507675171
0.21250247955322266 0.24134430289268494 -0.014018300920724869
-0.2774752378463745 0.06617417186498642 -0.3198072910308838
-0.17885105311870575 0.33518338203430176 -0.33754098415374756
-0.2728208899497986 0.22156363725662231 0.11300614476203918
-0.25109443068504333 -0.045851681381464005 -0.22668424248695374
-0.22951661050319672 0.2797960638999939 -0.3402475118637085
0.009360259398818016 -0.22854727506637573 0.15505504608154297
0.29974794387817383 -0.15911586582660675 -0.13451692461967468
0.2725890278816223 0.30720579624176025 -0.00628641014918685
-0.15550433099269867 0.35036998987197876 0.018902849406003952
0.09334108978509903 0.1711198389530182 0.1532353162765503
0.22803111374378204 0.5048168897628784 -0.024088015779852867
-0.2896503210067749 0.0485338494181633 -0.2630235552787781
-0.22537066042423248 -0.3008427619934082 -0.06581065058708191
-0.2803744375705719 0.0900154635310173 -0.3150748610496521
-0.26360997557640076 0.02251703478395939 -0.23439069092273712
-0.2249974012374878 0.2960062623023987 -0.01931615360081196
0.27957427501678467 0.4708956778049469 0.12963302433490753
-0.21047396957874298 0.29841238260269165 -0.34587788581848145
-0.22059087455272675 0.36727115511894226 0.11483880877494812
0.02256767824292183 -0.2337125539779663 0.15407907962799072
-0.21978673338890076 -0.1822843849658966 0.16498278081417084
0.2639921009540558 0.29828906059265137 -0.009983418509364128
-0.265664666891098 0.10985296964645386 -0.28127700090408325
-0.249089315533638 0.02853289619088173 -0.30299612879753113
-0.19366022944450378 0.2780940532684326 -0.00998863484710455
-0.21791516244411469 0.22935599088668823 0.0656377300620079
0.02216433733701706 0.28049543499946594 -0.265361487865448
0.29889973998069763 -0.12294439971446991 -0.12754051387310028
0.2642853558063507 0.2762797474861145 0.007031250279396772
0.2865411937236786 0.14052900671958923 0.1558125913143158
0.23754975199699402 0.03843933716416359 0.16865099966526031
0.235619455575943 0.06875701993703842 0.16782808303833008
-0.3381859064102173 -0.3565252423286438 0.13202325999736786
-0.27017444372177124 0.2231522500514984 -0.11484275013208389
0.2928753197193146 0.10345777869224548 -0.13423356413841248
-0.17945878207683563 0.3122110664844513 0.02039809338748455
-0.0067952824756503105 0.1923280954360962 -0.14233461022377014
0.29692763090133667 0.20323024690151215 -0.12009221315383911
0.2422841191291809 -0.4266468584537506 -0.09030117094516754
0.23756137490272522 -0.1816425621509552 0.1674737185239792
-0.25403961539268494 0.05099582299590111 -0.2570122480392456
-0.2531437873840332 0.22963890433311462 0.029433250427246094
-0.269229531288147 -0.21569693088531494 -0.1295819878578186
-0.01862579956650734 -0.24564914405345917 0.15441113710403442
0.29393064975738525 0.1408965289592743 -0.1245436817407608
-0.28288498520851135 -0.004890649113804102 -0.29876869916915894
0.2968251705169678 -0.17589378356933594 -0.1250181794166565
0.20560070872306824 -0.261502742767334 -0.03995969891548157
0.24254216253757477 0.1387401670217514 0.16616570949554443
-0.2576732635498047 0.1643526256084442 0.15626929700374603
0.09962350130081177 0.22768312692642212 0.14383447170257568
-0.2544652223587036 -0.05996027588844299 -0.29075324535369873
0.2401813417673111 0.2170727550983429 -0.13488301634788513
0.2660280764102936 -0.3506009578704834 0.13444429636001587
0.2225814014673233 0.4877510368824005 0.11714685708284378
-0.21187593042850494 0.2463551163673401 0.05227070674300194
-0.3350793123245239 -0.3443050682544708 0.16956934332847595
-0.03400829806923866 0.18374678492546082 -0.17228883504867554
0.2907555103302002 0.08949870616197586 0.15946903824806213
-0.26786649227142334 -0.03574641793966293 -0.13267438113689423
0.27893829345703125 0.46138274669647217 0.1272474080324173
-0.2812710702419281 0.14218565821647644 -0.317972868680954
-0.28121188282966614 0.018185457214713097 -0.24434296786785126
0.22861550748348236 0.4767799973487854 -0.06887270510196686
-0.11418509483337402 0.3311188817024231 -0.32821059226989746
0.28892338275909424 0.23021529614925385 0.02293090894818306
0.22314822673797607 -0.3927844166755676 0.1881582885980606
0.2827838957309723 0.35900816321372986 0.11184947192668915
-0.26034000515937805 -0.2508552670478821 0.06071261316537857
-0.27225786447525024 0.2236231118440628 0.052303899079561234
0.0736473947763443 0.15665926039218903 -0.1364506185054779
-0.3379778265953064 -0.36763110756874084 0.060474518686532974
0.13995008170604706 -0.4395243525505066 0.1510453224182129
0.25009408593177795 0.2316320687532425 0.06339870393276215
-0.17949171364307404 0.24655865132808685 0.01693490706384182
-0.2228580266237259 0.4842367172241211 0.11263646930456161
-0.24930784106254578 -0.4806562662124634 -0.03466177359223366
0.09014944732189178 0.22723259031772614 0.15274299681186676
0.28125855326652527 0.22815024852752686 0.112039715051651
-0.17783710360527039 0.2146500200033188 0.15829254686832428
-0.2651634216308594 -0.03561915084719658 -0.13311031460762024
-0.31267330050468445 -0.4277898669242859 -0.07972011715173721
0.2678397595882416 0.29378169775009155 0.0019390017259866
-0.16297802329063416 0.33721625804901123 -0.3318985104560852
0.23439623415470123 0.35603392124176025 0.12252136319875717
0.22509849071502686 0.22169692814350128 0.1530619114637375
-0.23049558699131012 -0.26681217551231384 -0.021702401340007782
-0.2360488325357437 0.25530800223350525 0.03773031383752823
0.022741975262761116 0.19339916110038757 -0.13546931743621826
0.011294764466583729 0.27361351251602173 -0.2720096707344055
-0.2217313051223755 0.26678723096847534 0.04421252757310867
0.19005903601646423 0.17039228975772858 0.15317553281784058
-0.23940104246139526 -0.24457544088363647 -0.12868744134902954
-0.053397856652736664 0.3193538784980774 -0.3050157129764557
-0.19242382049560547 0.24532033503055573 0.04152877628803253
0.1476050466299057 -0.4415009915828705 0.14592590928077698
-0.335669606924057 -0.3833644390106201 0.004517795518040657
-0.23853743076324463 0.26180675625801086 -0.34949207305908203
0.2965887784957886 -0.2561475932598114 0.033225007355213165
0.07863721996545792 0.21603626012802124 0.15680378675460815
-0.2648461163043976 -0.1595156490802765 -0.13257858157157898
-0.2668518126010895 -0.17943666875362396 0.16157786548137665
0.17405396699905396 -0.2501293122768402 0.03307793661952019
-0.02312927134335041 0.2060128152370453 -0.22159403562545776
-0.2603610157966614 -0.20232632756233215 -0.1329674869775772
-0.2186754047870636 -0.47607919573783875 0.06576882302761078
0.22125446796417236 0.49274778366088867 0.11975827068090439
0.2854901850223541 -0.4327210485935211 -0.021437162533402443
-0.2688664197921753 -0.24506081640720367 -0.12770020961761475
0.2884979844093323 -0.44207438826560974 0.03728439658880234
-0.264607310295105 0.19071437418460846 0.1558426022529602
-0.015665413811802864 0.1750485599040985 0.15063390135765076
-0.13681979477405548 0.21727575361728668 0.1562032550573349
-0.20569470524787903 -0.44645941257476807 0.14476150274276733
-0.21708321571350098 0.035026539117097855 0.16528616845607758
0.20060281455516815 0.3387003242969513 -0.039514828473329544
-0.2853987216949463 -0.00589769147336483 -0.23982354998588562
-0.269157737493515 -0.2497219741344452 0.13816437125205994
0.28132182359695435 -0.3807980418205261 0.16616149246692657
0.2661203444004059 0.3248506188392639 -0.04279631748795509
-0.2795506715774536 0.2205878496170044 -0.3401956856250763
0.2579677402973175 0.17360611259937286 0.1549382209777832
-0.22876736521720886 -0.2514365613460541 -0.04845713824033737
0.22220316529273987 0.3479195535182953 0.1116160973906517
0.3035694360733032 -0.21974670886993408 -0.12881776690483093
0.047592490911483765 -0.19961285591125488 0.15392158925533295
-0.010438286699354649 0.18889035284519196 -0.22561179101467133
-0.024993296712636948 0.22662444412708282 0.14250284433364868
0.27225401997566223 0.3469446897506714 0.10577454417943954
0.2156074196100235 0.2512790262699127 0.03326248750090599
0.225089430809021 0.47287434339523315 0.10443846881389618
0.1884603649377823 0.3346744477748871 -0.01513244304805994
-0.25965508818626404 -0.05634039640426636 0.1575501561164856
-0.2266063243150711 0.09233710169792175 0.15279656648635864
0.21973614394664764 -0.25066936016082764 0.14688967168331146
-0.04333809018135071 0.3198806047439575 -0.2828752398490906
-0.0096304165199399 0.18958425521850586 -0.1374892294406891
0.22375352680683136 0.23572470247745514 -0.024927016347646713
-0.21532069146633148 -0.004571191966533661 0.16593565046787262
0.2463298887014389 0.4900950789451599 -0.05542474240064621
-0.218466117978096 -0.4719042479991913 0.0871109813451767
-0.1449219137430191 0.2165868729352951 0.16080234944820404
0.27757132053375244 -0.37178152799606323 0.1579744964838028
-0.19493533670902252 0.22904829680919647 -0.06067783385515213
-0.24752935767173767 0.2421034276485443 0.029108494520187378
0.25385046005249023 0.24445202946662903 0.044244419783353806
0.23630112409591675 -0.19288378953933716 0.15334880352020264
0.17631661891937256 -0.4420950412750244 -0.05756054073572159
-0.23280422389507294 0.18256276845932007 0.15182681381702423
0.17452946305274963 0.15789392590522766 0.16656383872032166
-0.26300477981567383 0.01705740951001644 -0.13197191059589386
0.20906254649162292 -0.2559674084186554 -0.04115697368979454
-0.23434364795684814 0.31068092584609985 0.038634028285741806
-0.20263715088367462 0.30610576272010803 -0.33797141909599304
0.29691246151924133 0.21965190768241882 0.1138663962483406
-0.26038190722465515 0.442121684551239 0.12064635008573532
-0.20868642628192902 0.48990678787231445 0.11548399925231934
0.26590263843536377 0.2753322124481201 0.014494819566607475
-0.3344980478286743 -0.34299877285957336 0.16838817298412323
0.025317227467894554 0.2525329887866974 -0.2587697505950928
0.06896426528692245 0.16376543045043945 0.16291843354701996
0.015465114265680313 -0.24217639863491058 -0.1311444491147995
0.29644185304641724 -0.25906381011009216 0.12345892190933228
-0.18713849782943726 0.35594141483306885 -0.06020708754658699
-0.2369948774576187 0.3837437033653259 -0.07403068244457245
-0.2206534892320633 0.1525387167930603 0.16081102192401886
0.0544181726872921 0.19620750844478607 -0.134638711810112
0.19801396131515503 0.45191431045532227 0.11409543454647064
-0.2684231698513031 0.09903886169195175 0.1567978411912918
0.2289067506790161 0.4488442540168762 -0.08354789018630981
-0.2736564576625824 -0.014923266135156155 -0.3091714382171631
-0.2568398714065552 -0.10070069879293442 -0.24806968867778778
0.29751744866371155 0.1834210753440857 0.1506432443857193
-0.24131523072719574 0.4514421224594116 -0.06898212432861328
-0.23900288343429565 0.3200576901435852 0.03832900896668434
0.24909646809101105 -0.14978034794330597 0.1586579829454422
0.18359459936618805 -0.4435518682003021 -0.06543906033039093
-0.19658809900283813 0.23712757229804993 0.04528801888227463
0.03522319346666336 0.2622354030609131 -0.23436474800109863
0.2852869927883148 -0.44264495372772217 0.1410113275051117
-0.24876542389392853 0.3261524736881256 -0.00968585629016161
-0.23898203670978546 0.02954591065645218 -0.13068249821662903
0.2983270585536957 -0.21883992850780487 0.1446867138147354
-0.22533637285232544 -0.31183943152427673 0.09140786528587341
-0.2710151970386505 0.1714136004447937 -0.12402139604091644
-0.15881970524787903 0.1932612657546997 -0.13787683844566345
0.283427894115448 0.09721064567565918 -0.1348234862089157
-0.20102140307426453 0.33846572041511536 0.0725165456533432
0.25806188583374023 -0.44205689430236816 -0.0604470930993557
-0.16899874806404114 0.42850247025489807 -0.04001276195049286
-0.2602123022079468 0.3704362213611603 -0.03254465386271477
-0.23137542605400085 0.19642488658428192 -0.1336563676595688
0.0172427985817194 0.22787415981292725 0.06568436324596405
-0.20414358377456665 0.015202939510345459 0.1691562384366989
0.22994256019592285 -0.224887415766716 0.15611764788627625
-0.27272671461105347 -0.022415662184357643 -0.13167329132556915
0.1512080430984497 0.22600804269313812 0.041262391954660416
-0.32867431640625 -0.3495728075504303 0.17792485654354095
-0.24484261870384216 -0.043202415108680725 -0.1354275494813919
0.2439715415239334 -0.22678926587104797 -0.1333371251821518
-0.3292636573314667 -0.3807576298713684 0.08540836721658707
-0.22411639988422394 -0.44498470425605774 0.15313570201396942
-0.017964448779821396 0.23175883293151855 0.07051585614681244
0.18954649567604065 0.3285614550113678 0.020391643047332764
-0.2421489655971527 -0.34722697734832764 -0.07673723250627518
0.2790861427783966 -0.13231949508190155 0.15565399825572968
0.2882644832134247 -0.44257721304893494 0.15220840275287628
-0.069886714220047 0.2283065766096115 -0.11750845611095428
-0.2725861370563507 -0.014763929881155491 -0.0018146336078643799
-0.15871813893318176 0.22598060965538025 -0.12749752402305603
-0.11114124953746796 0.22638516128063202 -0.12603378295898438
0.27564457058906555 0.21407267451286316 -0.13540716469287872
0.2863888442516327 -0.0161519143730402 -0.13233838975429535
-0.17991143465042114 -0.02558315545320511 0.16891871392726898
-0.171468123793602 0.3400901257991791 -0.02141433022916317
0.2621592581272125 -0.1297599971294403 0.16021348536014557
0.28352823853492737 -0.027233704924583435 -0.1324511617422104
-0.2686198055744171 0.09769947081804276 -0.12863792479038239
-0.2445944994688034 0.25968486070632935 0.02083362266421318
-0.26986202597618103 -0.1972801387310028 0.11068356782197952
0.1931765079498291 0.4557124376296997 -0.04508952796459198
-0.015628710389137268 0.22654278576374054 -0.12806741893291473
0.19972513616085052 -0.24929207563400269 0.11646640300750732
-0.041892003268003464 0.1512373685836792 0.16873705387115479
-0.22559182345867157 0.1965206414461136 -0.13351905345916748
0.29595696926116943 0.22157248854637146 -0.05704236775636673
-0.21329006552696228 -0.325865238904953 0.09890381991863251
-0.1577000468969345 -0.12283740937709808 -0.13535626232624054
0.18371133506298065 -0.2498973309993744 -0.10150856524705887
0.03978555276989937 0.20979532599449158 -0.1672958880662918
0.29807165265083313 -0.15267373621463776 0.15564918518066406
-0.2939068377017975 0.02221458964049816 -0.2695358693599701
0.248001366853714 0.07671733945608139 0.15616269409656525
-0.006571096368134022 -0.19567468762397766 0.15336020290851593
-0.2694149613380432 -0.010949080809950829 -0.12305423617362976
0.04931546747684479 0.2029428631067276 0.157594695687294
-0.13927093148231506 0.17911097407341003 -0.14014483988285065
0.10944115370512009 0.17275506258010864 0.15393629670143127
-0.04077275097370148 0.22756759822368622 -0.12560395896434784
-0.24167494475841522 -0.22496026754379272 -0.13027095794677734
0.22513097524642944 -0.1478225588798523 -0.13393357396125793
-0.2657853066921234 -0.18635109066963196 -0.1277024745941162
0.19936373829841614 0.43773984909057617 -0.06130116432905197
-0.24162550270557404 -0.2480788677930832 -0.07468953728675842
0.21777600049972534 -0.02186991646885872 -0.13463909924030304
0.18898580968379974 0.06253013759851456 0.17011672258377075
0.2995508015155792 -0.10827532410621643 -0.05963689833879471
-0.1955740749835968 0.16068343818187714 0.16017955541610718
-0.13623489439487457 0.22716842591762543 -0.12762394547462463
-0.27228349447250366 0.1882123500108719 0.13800323009490967
0.20474518835544586 0.23102989792823792 0.09902659058570862
-0.22743141651153564 0.2023192197084427 -0.13117900490760803
0.23151913285255432 -0.44390544295310974 0.06789432466030121
0.29546838998794556 0.43637681007385254 -0.007038923446089029
0.0800507441163063 0.14434777200222015 -0.13108105957508087
0.03120681270956993 0.10193102061748505 -0.1676989495754242
0.2985774874687195 0.20300085842609406 0.14922556281089783
0.20143775641918182 0.359803706407547 -0.059045687317848206
-0.12449324131011963 0.20455685257911682 0.15721015632152557
0.23958829045295715 -0.30981022119522095 0.10658752918243408
-0.27012133598327637 0.0065627321600914 -0.12850019335746765
-0.26271453499794006 -0.40056419372558594 -0.08123263716697693
-0.11523362994194031 -0.24694083631038666 -0.12169225513935089
0.2841746509075165 -0.44285258650779724 0.16292662918567657
-0.17267176508903503 0.22522640228271484 -0.12631136178970337
0.23183569312095642 -0.13448117673397064 0.16782252490520477
0.2898452877998352 0.020304515957832336 -0.13349109888076782
0.2372025102376938 -0.33003899455070496 -0.07994434982538223
-0.2618926465511322 -0.47459691762924194 -0.046160660684108734
0.14215423166751862 -0.39395642280578613 -0.0140870101749897
-0.23364759981632233 0.3428002595901489 0.0842675045132637
0.14417694509029388 -0.23296023905277252 -0.1295464038848877
-0.16910898685455322 0.2304214984178543 -0.048582449555397034
0.22424431145191193 -0.42532965540885925 -0.08687756210565567
-0.2520286440849304 0.4587274491786957 -0.04330381378531456
-0.2681082785129547 -0.05808575078845024 -0.11926788091659546
0.287723571062088 0.05674731731414795 -0.13424468040466309
0.29735395312309265 0.2245435267686844 0.07314751297235489
0.2960830330848694 0.16609898209571838 0.13733971118927002
0.07653037458658218 0.09231115877628326 -0.13534116744995117
-0.21602469682693481 -0.3740001916885376 -0.07329565286636353
-0.03488815575838089 0.08666951954364777 -0.13533703982830048
-0.1672787219285965 -0.35192885994911194 0.05484180897474289
0.02574300393462181 0.07169955968856812 -0.13586032390594482
-0.26587098836898804 0.43598729372024536 0.03929946571588516
0.22980152070522308 0.014627182856202126 0.1699717789888382
-0.2662957012653351 0.016426576301455498 0.15017291903495789
0.29735419154167175 0.07959064841270447 0.15309661626815796
0.27608251571655273 -0.33900997042655945 0.1020846962928772
-0.1009308248758316 0.22930271923542023 0.08317600935697556
-0.3197952210903168 -0.35099542140960693 0.19748100638389587
0.27887144684791565 -0.20351938903331757 -0.1348174810409546
0.04368001967668533 -0.19383522868156433 0.16106070578098297
-0.16789111495018005 0.4787730574607849 0.0762544572353363
0.280056893825531 -0.4444587826728821 0.15770313143730164
0.15685895085334778 -0.3611997067928314 0.10959121584892273
0.12688378989696503 0.22434690594673157 -0.1309545338153839
0.04385964199900627 0.22264283895492554 -0.1271364837884903
-0.0878986045718193 0.22669880092144012 0.11759597063064575
0.24783548712730408 0.16082407534122467 0.15721307694911957
-0.25674253702163696 0.46085935831069946 0.09149347245693207
-0.15437820553779602 -0.2882755398750305 0.026963233947753906
-0.18585267663002014 0.19003301858901978 -0.1407291144132614
0.07507319003343582 0.10553465038537979 -0.13845890760421753
-0.2525237202644348 0.32759934663772583 0.010532870888710022
0.148885577917099 0.22706253826618195 -0.12191908061504364
-0.08725462108850479 0.18740564584732056 -0.13745616376399994
0.29982250928878784 -0.17747867107391357 -0.13683654367923737
-0.27019408345222473 -0.06772248446941376 -0.13077899813652039
0.29138243198394775 -0.09842467308044434 -0.13044990599155426
-0.23661282658576965 -0.33702754974365234 0.12380000948905945
-0.09483157098293304 0.11970631033182144 0.16569514572620392
-0.1041603535413742 0.14271165430545807 0.16843339800834656
-0.26604992151260376 0.08956222236156464 -0.12847521901130676
-0.18654340505599976 -0.08459668606519699 0.17041456699371338
-0.27312201261520386 0.2192319929599762 -0.003214865457266569
0.15750892460346222 -0.23631897568702698 -0.13323849439620972
-0.1400223970413208 0.20431241393089294 -0.13276082277297974
-0.24860212206840515 0.17531724274158478 0.15556295216083527
0.29845619201660156 0.1571096032857895 0.15565139055252075
-0.01983737386763096 0.2261316329240799 -0.12435454875230789
0.29884275794029236 0.07442782819271088 -0.13426141440868378
0.049450963735580444 0.11521443724632263 0.1683199405670166
0.05802331864833832 -0.24959026277065277 0.1505255550146103
-0.15467016398906708 -0.2704163193702698 -0.01946110650897026
-0.1017938032746315 0.13945335149765015 0.16448751091957092
0.10220547020435333 0.1666303277015686 0.1593676060438156
-0.07026141881942749 0.2257191240787506 -0.12321814894676208
0.2923228442668915 0.21802303194999695 -0.12011578679084778
0.20170858502388 -0.23837801814079285 -0.13570557534694672
0.28530994057655334 -0.25115007162094116 -0.042389556765556335
0.11824683845043182 0.17261098325252533 0.15531261265277863
-0.2711139917373657 -0.08572909981012344 0.13621996343135834
0.28499525785446167 0.3827696442604065 -0.056373581290245056
0.14492952823638916 -0.35750988125801086 0.04547747224569321
-0.24671557545661926 -0.371624618768692 0.1915396749973297
-0.2522628903388977 0.1809719204902649 -0.13297075033187866
-0.20157933235168457 0.15647318959236145 0.16761326789855957
0.18516021966934204 -0.3938792943954468 0.1846620738506317
0.2989637851715088 -0.05256365239620209 -0.030215591192245483
-0.16098609566688538 -0.35373908281326294 0.012076422572135925
0.2889249622821808 0.47354790568351746 0.10451075434684753
-0.2695634663105011 0.17546845972537994 -0.10532528162002563
-0.30991464853286743 -0.31887102127075195 0.14596976339817047
0.29716697335243225 0.2136572301387787 0.12192683666944504
-0.2358304262161255 0.18610522150993347 0.15610098838806152
0.3004586696624756 0.16637977957725525 0.1611921638250351
0.2509610056877136 0.13553208112716675 0.15422166883945465
0.25088563561439514 -0.4017878770828247 -0.08724077045917511
-0.3353951871395111 -0.3505782186985016 0.10907387733459473
0.29985928535461426 0.030498452484607697 -0.045117780566215515
-0.26531916856765747 0.4476616084575653 0.0629778504371643
-0.26597052812576294 -0.13973525166511536 -0.09434585273265839
0.163053959608078 -0.40812328457832336 0.18026036024093628
0.2956483066082001 -0.08845755457878113 -0.05506831407546997
0.2909276485443115 -0.08190533518791199 -0.13339641690254211
0.2760295867919922 -0.0783914104104042 -0.1327744871377945
0.1574409157037735 0.22577273845672607 0.10689259320497513
-0.27906346321105957 -0.4610477089881897 -0.06018422544002533
0.2992956042289734 0.2164417803287506 0.14258749783039093
-0.2388511300086975 0.20197108387947083 -0.1309741586446762
0.2872898578643799 -0.17144116759300232 -0.13373097777366638
-0.26804065704345703 0.22244228422641754 0.08683066070079803
0.22821003198623657 0.03727966174483299 0.16816462576389313
0.2966746687889099 0.1098875105381012 0.16196736693382263
0.12015577405691147 0.22800971567630768 -0.13097970187664032
0.2983551025390625 0.4347170293331146 0.023767728358507156
-0.1838614046573639 0.16549693048000336 0.1579548418521881
0.16112452745437622 -0.41861242055892944 0.17991094291210175
0.17887447774410248 0.21752136945724487 -0.1325850933790207
-0.2699602246284485 -0.08161646872758865 -0.13054564595222473
-0.2390562891960144 0.02813676744699478 -0.13398687541484833
0.23670360445976257 -0.3484346568584442 0.14579446613788605
-0.16360104084014893 0.1727297008037567 0.15909311175346375
0.18590418994426727 0.47051745653152466 0.020902171730995178
0.2982945144176483 0.2090456485748291 0.1099192276597023
-0.028632236644625664 0.23075585067272186 -0.12386228144168854
-0.07927071303129196 0.20475687086582184 -0.13546006381511688
0.26602715253829956 -0.4433070719242096 0.1955125629901886
0.04056026414036751 0.13595089316368103 -0.13735921680927277
0.2994735836982727 -0.025825396180152893 -0.10870568454265594
-0.153140589594841 0.3819325566291809 0.034631308168172836
0.23643101751804352 0.13468611240386963 0.16244909167289734
0.294879287481308 -0.041602883487939835 0.1552518904209137
-0.2700746953487396 0.21562674641609192 0.11844383180141449
0.2967202961444855 0.4495374858379364 0.027939969673752785
-0.21820640563964844 -0.3939872980117798 0.17994822561740875
0.297372430562973 0.21537618339061737 0.13067829608917236
0.25413942337036133 -0.4459313750267029 0.19290363788604736
0.29190510511398315 -0.15230803191661835 -0.13575246930122375
-0.23577880859375 0.19997155666351318 -0.13565810024738312
-0.1547359973192215 0.4206130802631378 0.07132784277200699
0.24843013286590576 -0.44346848130226135 0.19241370260715485
0.2973279058933258 0.21997925639152527 0.09667282551527023
0.01625089906156063 0.22788158059120178 0.06534570455551147
-0.14262709021568298 0.16101838648319244 0.16431280970573425
-0.26619526743888855 0.21373432874679565 -0.1197972446680069
-0.287351131439209 -0.4493964612483978 -0.03138300031423569
-0.2706056237220764 -0.028239432722330093 -0.1312274932861328
0.20172643661499023 -0.38771599531173706 0.1826515942811966
0.21448320150375366 -0.1969904750585556 0.15681785345077515
0.29921162128448486 0.22066643834114075 0.10299721360206604
0.2707083821296692 -0.31680914759635925 0.022473398596048355
0.29140764474868774 0.06619344651699066 -0.13470898568630219
0.09900419414043427 0.14902371168136597 -0.13485008478164673
-0.2686499357223511 0.224147230386734 0.012757806107401848
0.2977558374404907 0.21636752784252167 0.10062903165817261
-0.2695982754230499 -0.13241659104824066 -0.11240612715482712
0.02935413084924221 0.22788868844509125 -0.13010451197624207
-0.2688137888908386 0.17588678002357483 -0.12514999508857727
0.2992262542247772 -0.14905475080013275 -0.08558186888694763
-0.2747279405593872 -0.32839909195899963 0.15601511299610138
-0.08803863078355789 -0.24906276166439056 0.13234564661979675
-0.26515665650367737 -0.46575313806533813 -0.041681572794914246
0.227218896150589 -0.4002087414264679 -0.08506516367197037
0.11366452276706696 0.2288990169763565 0.10808496922254562
-0.1398259997367859 0.03155135735869408 -0.13497793674468994
-0.17919796705245972 -0.12567098438739777 0.16930042207241058
-0.21758030354976654 0.21201708912849426 -0.1353645771741867
-0.26629623770713806 0.21695011854171753 0.048974454402923584
-0.05762036517262459 -0.20575127005577087 0.1563282161951065
0.2142508327960968 0.14292263984680176 0.16920267045497894
-0.24831001460552216 -0.22050929069519043 0.1554027497768402
-0.27076059579849243 -0.19978660345077515 0.04230677708983421
0.2956044375896454 -0.024492230266332626 0.15733274817466736
-0.26316404342651367 0.43548861145973206 -0.029139405116438866
-0.20649820566177368 -0.44509410858154297 0.13758069276809692
0.2983587384223938 0.07494461536407471 -0.12196151912212372
0.1726101189851761 0.22792130708694458 -0.12978224456310272
0.29493916034698486 0.4195678234100342 -0.016305046156048775
0.24953104555606842 0.21151399612426758 -0.13717350363731384
0.18153934180736542 -0.24755269289016724 -0.12012328207492828
0.1738474816083908 0.18577533960342407 0.15639127790927887
0.0583324171602726 -0.02486400306224823 -0.12893947958946228
-0.2022833377122879 0.04881991446018219 0.1712304651737213
0.18905280530452728 -0.2963176369667053 -0.04571424052119255
0.2836660146713257 -0.029123643413186073 -0.13331396877765656
-0.20779839158058167 -0.41986924409866333 0.16252680122852325
0.18071439862251282 0.4320923984050751 0.09867531806230545
-0.16708365082740784 0.47627994418144226 0.06950769573450089
-0.13159267604351044 0.22832871973514557 -0.12695476412773132
-0.1601453274488449 -0.3453414738178253 0.015500362031161785
0.14117325842380524 -0.408777117729187 0.13645429909229279
-0.303592324256897 -0.4172275960445404 0.03404003381729126
-0.2132442146539688 -0.46359652280807495 0.07755610346794128
0.2168741524219513 -0.2381286919116974 -0.13221409916877747
-0.269070029258728 0.02691524289548397 -0.12847426533699036
0.17132367193698883 -0.24852804839611053 0.05935034900903702
-0.2175634354352951 -0.2503458261489868 -0.07793860882520676
0.08266124129295349 0.2283836454153061 -0.11216886341571808
0.22954893112182617 0.22717732191085815 -0.12924012541770935
0.1400967240333557 0.2111297845840454 -0.1356458067893982
-0.14850559830665588 0.19316735863685608 -0.13537649810314178
-0.21795450150966644 -0.4738914370536804 0.04525043070316315
0.21774111688137054 -0.2838025391101837 -0.05833064764738083
0.28302285075187683 -0.4425727128982544 0.157819002866745
-0.26956936717033386 -0.014208920300006866 -0.13110996782779694
-0.043029237538576126 0.17113792896270752 0.15372329950332642
-0.3050457239151001 -0.42827337980270386 -0.015755673870444298
-0.26650670170783997 0.4262886047363281 0.05732288956642151
-0.18590214848518372 -0.22151686251163483 0.15727679431438446
0.2824743390083313 -0.35337182879447937 0.04972117394208908
-0.14253643155097961 0.20095182955265045 -0.1344784051179886
0.22594952583312988 -0.2385132610797882 -0.13658499717712402
0.2350340485572815 0.5158161520957947 0.026968125253915787
0.1762726604938507 0.4068254828453064 0.008267991244792938
0.12607441842556 0.19774876534938812 -0.1356968879699707
-0.09814899414777756 0.17345428466796875 0.1549505889415741
-0.2727530598640442 0.1931435465812683 -0.12703374028205872
-0.20631174743175507 -0.10889541357755661 0.1676253229379654
0.18719986081123352 0.22856537997722626 0.07730312645435333
-0.12907440960407257 -0.248691588640213 0.09025231748819351
-0.2871745824813843 -0.3672327399253845 -0.07717147469520569
0.24637937545776367 -0.25146937370300293 -0.12030400335788727
-0.08261293917894363 0.19531342387199402 -0.13448135554790497
0.20291057229042053 -0.24949532747268677 0.09287270158529282
0.29743248224258423 0.2183476686477661 -0.11757519096136093
-0.2552451193332672 -0.10882213711738586 -0.13505400717258453
0.29655033349990845 0.20530715584754944 -0.12022032588720322
-0.24366337060928345 0.2269386649131775 -0.12447366118431091
-0.19326406717300415 0.15481293201446533 0.16665087640285492
0.29305291175842285 -0.23080600798130035 0.15153361856937408
0.23257513344287872 -0.3305226266384125 0.11875107139348984
0.2978249192237854 0.21595704555511475 0.003551062196493149
0.2764875590801239 0.32925406098365784 0.06986036151647568
-0.2589784860610962 -0.2908129096031189 0.051025763154029846
-0.2416035234928131 -0.24867437779903412 -0.12604929506778717
