-0.11186438798904419 0.2280796617269516 -0.041929371654987335
0.054170649498701096 -0.20294493436813354 -0.13654391467571259
-0.1485438048839569 0.11747428774833679 0.16928300261497498
0.2981738746166229 -0.12488686293363571 -0.10592047870159149
0.11445074528455734 -0.08777183294296265 -0.13657112419605255
-0.2701334059238434 0.16942614316940308 -0.045973628759384155
-0.28686755895614624 -0.461637943983078 -0.049887578934431076
0.2732333242893219 0.010159384459257126 -0.13590216636657715
0.23240169882774353 0.40418723225593567 0.10169441998004913
-0.18790677189826965 -0.37550434470176697 0.0870547965168953
0.2977485954761505 0.4149131774902344 -0.024924026802182198
0.0028277046512812376 -0.03440992906689644 -0.1356981098651886
0.1863710731267929 -0.3572503328323364 0.1361362487077713
-0.1305897980928421 -0.21697679162025452 0.1545223444700241
-0.26768526434898376 -0.05707855895161629 0.10927217453718185
-0.2702043354511261 -0.04624015465378761 -0.030168015509843826
-0.1932079792022705 0.0744556412100792 0.1697639375925064
-0.05810084939002991 0.2077716439962387 0.1562739908695221
-0.1416253298521042 0.23199132084846497 0.08594308793544769
0.28362923860549927 -0.41379794478416443 -0.02246793359518051
0.20820803940296173 -0.4435000717639923 0.030492953956127167
-0.1360716074705124 0.12034814059734344 -0.13586337864398956
-0.15679813921451569 0.4235920310020447 -0.016020439565181732
-0.10496513545513153 0.23149387538433075 0.11374139040708542
-0.1780996024608612 -0.06171839311718941 -0.13555766642093658
-0.26996707916259766 0.00798773393034935 0.04794052243232727
0.01972082257270813 -0.05464189127087593 -0.1359611451625824
-0.021385446190834045 -0.0174984410405159 0.16853128373622894
-0.2679344415664673 -0.11480548232793808 0.12095163017511368
0.14778092503547668 -0.06154555082321167 0.16839753091335297
-0.3258957862854004 -0.3934255540370941 -0.04783746972680092
-0.26970037817955017 -0.018582763150334358 -0.017888428643345833
0.22100986540317535 -0.06333964318037033 -0.136831596493721
0.03266404569149017 -0.02611413039267063 -0.13613048195838928
0.2978461682796478 0.14860671758651733 0.007059765979647636
-0.13389989733695984 -0.05219802260398865 0.16849394142627716
-0.2698425352573395 -0.04254115745425224 0.134267196059227
0.058224648237228394 -0.02994968742132187 0.16737888753414154
0.1946191042661667 -0.4490779638290405 0.10101871937513351
-0.26718103885650635 0.39443275332450867 0.07423239946365356
-0.11189907789230347 0.22842176258563995 0.08929961919784546
0.2492750734090805 -0.37493371963500977 -0.08842295408248901
0.21232478320598602 0.23385730385780334 -0.09381940215826035
0.162373349070549 -0.4453529119491577 0.11726979911327362
-0.2596704363822937 -0.4707414209842682 -0.017295094206929207
0.005275452975183725 -0.16984952986240387 -0.13473325967788696
0.017201878130435944 0.1774897277355194 -0.13628245890140533
0.024589352309703827 -0.2261093705892563 0.15649929642677307
0.03665056452155113 -0.1723387986421585 -0.13598327338695526
-0.26686176657676697 0.20322473347187042 -0.022666987031698227
-0.19097639620304108 -0.43215036392211914 0.023724401369690895
0.017130430787801743 -0.11172820627689362 -0.14019989967346191
0.020440885797142982 0.25562044978141785 -0.20662721991539001
-0.08457309752702713 -0.1375843733549118 0.16677184402942657
0.04218588396906853 -0.08596550673246384 -0.13557516038417816
-0.27258819341659546 -0.17037810385227203 0.07756485790014267
0.18345385789871216 0.44215619564056396 -0.025178752839565277
-0.17807398736476898 0.18106819689273834 -0.13606391847133636
-0.18256643414497375 -0.4075089693069458 0.018706973642110825
-0.2491222620010376 0.1661190539598465 0.1550583839416504
0.15375415980815887 0.062446027994155884 -0.1367645561695099
-0.25410789251327515 -0.2505207657814026 0.10517537593841553
-0.32265350222587585 -0.3923182785511017 0.07965268939733505
-0.1936558336019516 0.0830264613032341 -0.1365823596715927
0.29680174589157104 -0.19027544558048248 -0.04130528122186661
0.2961152195930481 -0.04519270732998848 -0.024891383945941925
-0.2699662744998932 -0.014866504818201065 -0.12820574641227722
0.1900579184293747 0.156914621591568 -0.1394457370042801
-0.06116027012467384 -0.2259501814842224 -0.1363212913274765
-0.2445685863494873 -0.3361492455005646 0.13855485618114471
0.11999785155057907 0.16920608282089233 -0.1357729136943817
-0.23854288458824158 0.20801475644111633 0.15769989788532257
0.1845289170742035 -0.37495163083076477 -0.07140985131263733
0.20663660764694214 0.051594458520412445 0.1689298152923584
0.19000661373138428 0.002885907655581832 -0.13705004751682281
-0.26939234137535095 -0.12676076591014862 -0.119039386510849
0.22084808349609375 0.009893164038658142 -0.13507863879203796
-0.2669137418270111 0.13017667829990387 -0.08237176388502121
0.2950512766838074 -0.052518587559461594 -0.0683322474360466
-0.15671159327030182 0.4019410014152527 -0.01013980619609356
-0.285776287317276 -0.4110178053379059 0.11849807947874069
0.04556197300553322 0.22720126807689667 -0.11960580199956894
0.3014741837978363 -0.1591579169034958 0.12042469531297684
0.22658424079418182 -0.17316634953022003 -0.1359492689371109
0.2075621485710144 0.12001048028469086 0.16875268518924713
-0.27130430936813354 -0.19010020792484283 0.058799389749765396
-0.04715543985366821 -0.2511913776397705 0.08762213587760925
-0.271876722574234 -0.03771521523594856 -0.01902059279382229
0.2974872589111328 -0.049745168536901474 0.054509662091732025
-0.256048321723938 0.22905273735523224 0.07766946405172348
0.29840654134750366 0.43985679745674133 0.09740797430276871
0.2602449953556061 -0.249441996216774 -0.07513310015201569
0.27267226576805115 -0.06261446326971054 0.1574021279811859
0.12628161907196045 -0.25244390964508057 0.12326015532016754
0.29976367950439453 0.3663995563983917 0.056194283068180084
-0.2712659239768982 0.18178829550743103 -0.0015448650810867548
0.2559214234352112 -0.3849121034145355 0.18425101041793823
-0.1982104331254959 -0.42120933532714844 0.09344252198934555
0.14943763613700867 -0.37131109833717346 -0.018689844757318497
-0.27028337121009827 -0.1709250509738922 0.11799882352352142
0.06554467231035233 -0.11633150279521942 -0.13193324208259583
-0.048686202615499496 0.1093224287033081 0.16875727474689484
-0.16524282097816467 0.39995673298835754 -0.042384810745716095
0.12682414054870605 0.1216573640704155 0.16609130799770355
0.2367849498987198 -0.44902661442756653 0.13061976432800293
0.2795155644416809 -0.11514640599489212 -0.13606895506381989
-0.2680438756942749 -0.4305662214756012 0.10587716847658157
-0.13428448140621185 -0.08897104114294052 -0.1397562474012375
0.293387234210968 -0.05794195085763931 -0.1177101880311966
-0.22812806069850922 -0.3317977786064148 0.11262372881174088
0.12231030315160751 -0.20903857052326202 -0.13689646124839783
-0.17645592987537384 -0.24726946651935577 0.14016439020633698
0.15526314079761505 0.11947684735059738 -0.13576433062553406
0.1888568103313446 0.38489478826522827 0.10043368488550186
0.2968170642852783 -0.005083146970719099 -0.0533452183008194
-0.2093638777732849 -0.14955808222293854 -0.13669469952583313
0.14132708311080933 -0.3749768137931824 0.09771367907524109
-0.028204644098877907 0.2255358099937439 -0.10413059592247009
0.06875380873680115 -0.15646734833717346 -0.13234901428222656
0.23047636449337006 -0.10449108481407166 0.16878637671470642
0.2515765428543091 -0.36852458119392395 -0.08633542060852051
0.2876540720462799 -0.39255744218826294 0.09873801469802856
0.17096997797489166 0.11843863874673843 0.16517630219459534
-0.12687274813652039 -0.06942778080701828 0.16598017513751984
-0.12028796225786209 -0.1724565029144287 0.16719481348991394
0.11473819613456726 0.07035195827484131 -0.13582633435726166
0.0203474760055542 -0.16540051996707916 -0.13612507283687592
-0.16003639996051788 -0.32797107100486755 0.025864334776997566
-0.27080172300338745 0.14868223667144775 -0.11697112768888474
-0.045775432139635086 -0.2531212866306305 -0.05634140223264694
0.2968040704727173 -0.04058454558253288 -0.0754181295633316
-0.2516387403011322 0.1828123778104782 0.15914058685302734
0.05025415122509003 -0.2510165274143219 0.0587281659245491
0.29848843812942505 0.08566108345985413 -0.10923321545124054
-0.16462525725364685 -0.19142642617225647 -0.13624833524227142
0.18656983971595764 -0.018416699022054672 -0.13873089849948883
0.1544657200574875 -0.4459213316440582 0.05890413373708725
0.27873989939689636 -0.34334826469421387 0.0892714411020279
-0.1174241378903389 -0.08004479855298996 -0.13566076755523682
0.2161267250776291 -0.2950764000415802 0.09046412259340286
0.16290999948978424 0.0974542573094368 -0.1348252296447754
-0.19276054203510284 -0.4138116240501404 0.09609777480363846
-0.025288278236985207 0.03854841738939285 0.16853560507297516
0.13113656640052795 0.226299449801445 0.1120486631989479
-0.27022868394851685 -0.19208988547325134 -0.10359913110733032
0.2938004434108734 0.47000956535339355 0.008748992346227169
-0.18234600126743317 -0.16767044365406036 -0.13220223784446716
0.27597877383232117 0.05999934300780296 0.1543058604001999
-0.16529574990272522 0.22869405150413513 -0.03403475508093834
0.11782576143741608 0.07194235920906067 0.16751950979232788
0.17746341228485107 0.3619181513786316 0.049144137650728226
0.10455410182476044 -0.11887691169977188 0.16964104771614075
0.154835507273674 0.04797365143895149 0.16681164503097534
0.29862040281295776 0.1955333650112152 0.07574395090341568
-0.13912682235240936 -0.25039711594581604 -0.08471349626779556
-0.2658400535583496 -0.20817945897579193 0.02257593162357807
0.13734622299671173 -0.4165339767932892 0.11263434588909149
0.15712778270244598 -0.34899887442588806 -0.03070084936916828
-0.06523246318101883 0.2292349487543106 0.06840690970420837
-0.27177175879478455 -0.1446446031332016 0.11409464478492737
-0.1682339906692505 0.4278464913368225 -0.04937288165092468
0.28736013174057007 0.4277162253856659 -0.05919448286294937
0.30208468437194824 0.4221794307231903 0.036296240985393524
-0.16100503504276276 0.15598084032535553 0.16798794269561768
0.16884386539459229 -0.05013876035809517 -0.13743720948696136
-0.08374892175197601 -0.012046076357364655 -0.13569079339504242
0.17387284338474274 0.09916027635335922 -0.13587847352027893
0.25710219144821167 -0.06159729138016701 -0.1360001415014267
-0.15930123627185822 0.44292962551116943 0.08105316013097763
-0.208180770277977 -0.35893547534942627 -0.07361654937267303
0.04786517098546028 -0.21509024500846863 -0.13661536574363708
-0.1750226616859436 -0.32575154304504395 -0.034700363874435425
-0.24625751376152039 -0.28337961435317993 -0.014480008743703365
-0.058981165289878845 -0.05921858921647072 -0.1363663226366043
-0.07335859537124634 0.060451239347457886 0.1684340536594391
-0.08969397097826004 0.08620036393404007 0.1679098904132843
0.1150801032781601 -0.06125345826148987 -0.1361447125673294
-0.2697054147720337 -0.2306119054555893 -0.0220603309571743
-0.1718771904706955 -0.009603681974112988 0.16849036514759064
0.17447222769260406 -0.2715159058570862 0.04127982258796692
0.21345052123069763 -0.3523400127887726 -0.08516322821378708
0.2998540997505188 0.355373740196228 0.028603555634617805
0.19159498810768127 0.48858222365379333 0.023297332227230072
-0.2853056490421295 -0.05811983719468117 -0.26684147119522095
-0.15375417470932007 0.10810822248458862 0.1704385131597519
-0.1478816121816635 -0.2507617771625519 0.08581848442554474
-0.1891963630914688 -0.10595927387475967 0.1698380410671234
0.2972157895565033 -0.12835143506526947 0.12603098154067993
0.17646579444408417 -0.05991522595286369 0.1674734503030777
0.2879902422428131 -0.37421393394470215 -0.012527402490377426
0.079218290746212 -0.25403571128845215 0.07652085274457932
0.10175788402557373 -0.10667361319065094 0.1685863733291626
0.18965451419353485 0.41821643710136414 -0.05365828052163124
0.10772033035755157 -0.24863694608211517 0.06475917994976044
-0.2614828050136566 -0.31492045521736145 0.1315167099237442
0.29716718196868896 0.12764672935009003 0.10066533833742142
0.17151764035224915 -0.25054696202278137 -0.07335592061281204
0.09592048078775406 -0.25126197934150696 0.08468186110258102
0.30123671889305115 0.1261671483516693 0.08739496022462845
-0.06957204639911652 0.08479757606983185 0.16504958271980286
0.16803579032421112 0.0048529719933867455 -0.13872452080249786
0.23657380044460297 0.22926491498947144 -0.12493787705898285
-0.07401800900697708 -0.25282013416290283 0.14138437807559967
0.2970907688140869 -0.1865205317735672 -0.0020272345282137394
-0.2421020120382309 -0.2512511610984802 0.11578503251075745
0.1153751015663147 0.22796405851840973 0.09800709784030914
-0.21145373582839966 -0.4122941195964813 -0.06294997781515121
-0.008023465983569622 -0.09759138524532318 -0.1383620947599411
-0.15964485704898834 -0.2521832287311554 0.0896894633769989
-0.2287127822637558 -0.47076085209846497 -0.02610764466226101
-0.021608563140034676 -0.1525600105524063 -0.13600145280361176
0.12818533182144165 -0.13678188621997833 -0.1353527009487152
-0.06656356900930405 -0.13408122956752777 -0.13352631032466888
-0.2472219467163086 0.028011711314320564 -0.2843012809753418
0.15687593817710876 -0.14400556683540344 0.1655368059873581
0.2969778776168823 -0.0446091927587986 -0.11370129883289337
0.036056630313396454 -0.2465740144252777 -0.10269453376531601
-0.22769401967525482 -0.4117172360420227 -0.07660967111587524
-0.19195447862148285 -0.35549700260162354 0.0820998027920723
0.2706950008869171 -0.23162896931171417 0.15533383190631866
-0.19337840378284454 -0.216811403632164 0.15600045025348663
-0.16194920241832733 0.3526303470134735 0.046317797154188156
-0.17010119557380676 0.23262181878089905 0.11691150814294815
0.19311656057834625 -0.25121238827705383 0.12585575878620148
0.2880440652370453 0.4842444360256195 0.08226273953914642
-0.26561543345451355 -0.02740303985774517 0.006079013459384441
-0.1652602255344391 -0.35438886284828186 0.03253641352057457
0.14459602534770966 -0.16736185550689697 -0.1367310732603073
0.17171795666217804 0.023925883695483208 -0.13466037809848785
0.1881306767463684 -0.05538962781429291 0.16731712222099304
-0.0917922854423523 -0.05161274969577789 0.1709756702184677
-0.30560585856437683 -0.39092227816581726 0.1316334754228592
-0.26828306913375854 -0.02289152517914772 -0.13381531834602356
0.2950053811073303 0.46010079979896545 0.07368557900190353
-0.13009892404079437 0.11022909730672836 0.16927646100521088
0.18448752164840698 -0.214625746011734 0.15772607922554016
0.09629744291305542 -0.00821658130735159 -0.13598689436912537
-0.008818278089165688 -0.1660158783197403 0.16860052943229675
0.19784913957118988 -0.19179803133010864 -0.1384083330631256
0.2840902507305145 -0.3667229413986206 -0.03433169052004814
-0.11310309171676636 0.1435070037841797 0.16913557052612305
-0.2843538224697113 -0.06203252077102661 -0.25942179560661316
-0.18885749578475952 -0.4175224006175995 -0.001495990203693509
-0.15821371972560883 -0.07761383056640625 0.17093735933303833
0.297504186630249 0.08055605739355087 0.047823790460824966
-0.2109866440296173 0.07441595196723938 0.16754931211471558
0.30229663848876953 0.4212488830089569 -0.010314516723155975
0.2955714464187622 -0.15099748969078064 -0.039059799164533615
0.29965442419052124 0.4293517470359802 0.04732266813516617
0.1499062478542328 -0.027780847623944283 0.16981472074985504
-0.05684584006667137 -0.08130455762147903 -0.13363830745220184
0.1877322494983673 -0.11656656116247177 -0.13758957386016846
-0.17371617257595062 0.033650003373622894 0.17129018902778625
0.2947532534599304 -0.22663505375385284 -0.11737702786922455
0.2972131073474884 -0.22758421301841736 0.0883059948682785
0.25219205021858215 0.22936001420021057 -0.06505056470632553
0.21738088130950928 0.02447645366191864 -0.1361420750617981
-0.19104935228824615 -0.367129385471344 0.08055958151817322
-0.27036407589912415 -0.15792374312877655 0.09964875131845474
0.2649340331554413 -0.44633832573890686 -0.03763989359140396
-0.021347709000110626 0.11957160383462906 0.16856662929058075
0.15854468941688538 -0.320875346660614 0.05919476971030235
0.19129866361618042 0.47460612654685974 -0.016528349369764328
0.18946124613285065 0.374488890171051 -0.038903653621673584
0.29705744981765747 0.028411557897925377 -0.008180603384971619
0.29597100615501404 -0.08230629563331604 -0.09759996086359024
-0.11521348357200623 0.22999075055122375 0.1131487488746643
-0.14322829246520996 -0.25083932280540466 -0.11629658192396164
0.07812294363975525 -0.17489291727542877 -0.1387946754693985
0.12330453842878342 -0.057030707597732544 -0.13556768000125885
-0.013510927557945251 0.13992810249328613 -0.1367126852273941
-0.21778637170791626 0.22910654544830322 0.0921114981174469
0.2783600986003876 -0.3587733507156372 -0.048875387758016586
-0.16327868402004242 -0.24950489401817322 0.11516553908586502
0.2907828092575073 0.4793013334274292 0.05914382264018059
-0.09312453866004944 0.22906479239463806 0.09259416908025742
-0.29597213864326477 -0.434396356344223 0.02167079597711563
0.16044394671916962 -0.44616609811782837 0.09746783971786499
0.14489254355430603 -0.2494731843471527 0.1304197907447815
0.1727246344089508 0.1020568311214447 0.16611948609352112
-0.08346439152956009 -0.24801111221313477 -0.04623446986079216
0.14023837447166443 -0.383949875831604 0.06669140607118607
-0.08910248428583145 -0.023694725707173347 -0.13565228879451752
0.2966940104961395 0.464530885219574 0.051633916795253754
0.2493371218442917 -0.37685641646385193 -0.08856815099716187
0.04564354941248894 -0.25066882371902466 0.10704344511032104
0.03473390266299248 0.06519640237092972 -0.13726885616779327
0.16782595217227936 -0.2758431136608124 -0.014395631849765778
-0.21907685697078705 -0.2519744634628296 0.10158060491085052
0.29982542991638184 0.4086299240589142 -0.005403751041740179
0.2974683940410614 -0.21156428754329681 0.12265540659427643
-0.14267325401306152 0.06975837796926498 -0.135771706700325
0.24396982789039612 -0.44760823249816895 0.1431027501821518
-0.2743869423866272 0.11813744157552719 -0.11000747978687286
0.12305030971765518 -0.2062169909477234 0.15509462356567383
-0.14281821250915527 -0.24615903198719025 0.1324884444475174
0.12496890127658844 0.12564820051193237 -0.1371729075908661
0.21186573803424835 -0.3340114951133728 0.11842967569828033
0.26134854555130005 -0.29897862672805786 -0.056020159274339676
-0.16237354278564453 -0.17030024528503418 -0.13807624578475952
0.09803193062543869 -0.2350919395685196 -0.13463999330997467
-0.16453611850738525 0.3455747663974762 -0.01566528156399727
-0.10838069021701813 0.02401088923215866 0.1688077598810196
-0.2673492729663849 -0.18594226241111755 -0.016790200024843216
-0.27255871891975403 -0.01967872865498066 0.04528027027845383
0.1944701075553894 0.48169007897377014 0.09670017659664154
-0.11617376655340195 0.16108109056949615 -0.13606783747673035
0.2477497160434723 -0.29344773292541504 0.08730681240558624
-0.09781867265701294 0.05590366944670677 0.17160172760486603
-0.20267200469970703 -0.3554113209247589 0.10549762099981308
0.10970687866210938 -0.2514474391937256 0.02384716086089611
0.24443025887012482 -0.2507473826408386 -0.11935219913721085
0.05862029641866684 0.020462192595005035 0.16842983663082123
0.10235371440649033 -0.2505201995372772 0.1334870606660843
-0.07668574154376984 -0.026133811101317406 0.16846291720867157
-0.2698766887187958 0.05063287541270256 0.12441001087427139
-0.26967623829841614 -0.022873306646943092 0.01179473102092743
-0.21537460386753082 0.1236325278878212 -0.139970064163208
-0.26904046535491943 0.07266541570425034 0.006915700621902943
0.191055566072464 0.22929219901561737 0.004668151494115591
-0.2160046547651291 -0.3504163324832916 -0.07976334542036057
-0.25247088074684143 0.4715505838394165 -0.011280844919383526
-0.049910787492990494 0.2285754233598709 0.06746973097324371
-0.017800601199269295 -0.25080543756484985 0.049552906304597855
-0.2697622776031494 0.0041701593436300755 0.0032765716314315796
-0.26150578260421753 -0.45462679862976074 0.04239575192332268
0.021725885570049286 0.053978562355041504 -0.13591505587100983
0.2938228249549866 0.06775966286659241 -0.075483039021492
-0.27125194668769836 0.09583359211683273 -0.09263072907924652
0.2668800950050354 -0.10866425931453705 0.15580113232135773
-0.2693732678890228 -0.1208324283361435 -0.10214846581220627
0.13604356348514557 -0.12499938905239105 -0.13741947710514069
-0.2679680585861206 0.15823300182819366 -0.08058308809995651
0.22208531200885773 -0.026441005989909172 0.1704593449831009
-0.15963923931121826 0.45882463455200195 0.0810960903763771
-0.2703818678855896 0.04437058046460152 -0.13761550188064575
-0.0026870714500546455 0.22686636447906494 -0.11930643767118454
-0.2699427306652069 -0.07061717659235 -0.132952481508255
-0.24497170746326447 -0.3271571099758148 0.1263190656900406
0.06999743729829788 0.22634902596473694 -0.11127398163080215
-0.2638847529888153 0.35876619815826416 -0.011530708521604538
0.05976599082350731 -0.25175735354423523 0.05712132900953293
-0.3100453317165375 -0.3991938531398773 0.08157826960086823
-0.17993947863578796 0.07764371484518051 -0.13067910075187683
-0.007937674410641193 0.11741773784160614 -0.13553917407989502
0.021766388788819313 0.2293948233127594 0.08111511915922165
0.27564603090286255 0.32853373885154724 -0.036062031984329224
0.11221133917570114 0.2291443794965744 0.07946404814720154
0.07541698962450027 0.10231166332960129 0.16651369631290436
0.14173650741577148 -0.3832869529724121 0.023357490077614784
0.061787642538547516 0.2299017757177353 -0.04369768500328064
-0.18241570889949799 -0.4160795509815216 0.01883072406053543
-0.10141383111476898 0.22925709187984467 0.13218681514263153
-0.2707251012325287 0.14270098507404327 -0.003108226228505373
-0.015215963125228882 0.2283545881509781 0.06469807773828506
-0.27948838472366333 -0.3335515856742859 -0.0523507259786129
0.07331667840480804 0.22849048674106598 0.07993751019239426
0.043715544044971466 -0.24715062975883484 0.06860315054655075
-0.26679322123527527 -0.16357764601707458 -0.06390871852636337
0.1915520429611206 0.08151892572641373 -0.13571099936962128
-0.0231084693223238 -0.2509211599826813 -0.004386317916214466
-0.09598782658576965 -0.24922272562980652 0.1243714839220047
0.22387324273586273 -0.3379502296447754 0.12659744918346405
-0.19608895480632782 0.066994808614254 -0.1366146057844162
-0.23696255683898926 0.2295740842819214 0.0983080118894577
-0.19116169214248657 -0.43123847246170044 0.02171367034316063
0.29560014605522156 -0.16597872972488403 -0.025583745911717415
0.08931709080934525 -0.2509945333003998 0.0816945880651474
0.24016346037387848 0.2286074161529541 0.12147001922130585
0.13433535397052765 0.03763553127646446 0.16843822598457336
-0.19487950205802917 -0.085516057908535 0.1702951192855835
0.1159549206495285 -0.09897433966398239 0.16982817649841309
-0.2818205952644348 -0.33421072363853455 0.18053872883319855
0.2972361743450165 0.001150290947407484 0.06459985673427582
0.1325950026512146 0.19839394092559814 -0.1369228959083557
-0.2721487879753113 -0.2384302020072937 -0.07442831248044968
0.14962147176265717 -0.1330300271511078 0.1683911681175232
0.022754449397325516 0.22812426090240479 0.0035843215882778168
0.13248403370380402 -0.0728369951248169 -0.13622906804084778
0.2979778051376343 0.1959657371044159 0.0009997483575716615
-0.2728450894355774 0.12347503006458282 -0.1156025379896164
0.02968011051416397 -0.12058641016483307 -0.1340959519147873
0.2991008162498474 0.15652070939540863 0.010446070693433285
0.22023315727710724 -0.19205056130886078 -0.13395385444164276
-0.24194377660751343 -0.4529564380645752 0.10505269467830658
0.07459934800863266 -0.25265616178512573 0.11699536442756653
-0.01901446282863617 -0.009631965309381485 -0.13587169349193573
-0.20283807814121246 -0.1565333604812622 0.1709669977426529
-0.16122518479824066 -0.13631471991539001 -0.13579541444778442
0.12736253440380096 -0.2505009174346924 0.08292211592197418
0.022271858528256416 -0.2518031895160675 -0.01660536415874958
0.288968026638031 0.4536067843437195 -0.0470210500061512
-0.006246104836463928 -0.17194727063179016 -0.13959716260433197
0.025644922628998756 0.22721652686595917 -0.11768530309200287
0.20746952295303345 0.3588201701641083 -0.07166898995637894
-0.2678294777870178 0.39296454191207886 0.03218275308609009
0.04648252949118614 0.23037487268447876 0.040373291820287704
-0.11472167819738388 -0.22014112770557404 0.15620723366737366
0.2869220972061157 -0.3626694083213806 0.08179985731840134
-0.2746829390525818 0.08314241468906403 -0.05666707083582878
-0.014588506892323494 0.22923673689365387 -0.03614705428481102
0.02604304626584053 0.06599365174770355 0.16843654215335846
-0.2575746774673462 -0.2951890528202057 0.07113855332136154
0.05684685334563255 0.15633580088615417 0.16656814515590668
-0.27387577295303345 -0.12967164814472198 -0.08125714957714081
0.15338248014450073 0.22559833526611328 -0.07889385521411896
0.1059393659234047 -0.07637801766395569 -0.13758939504623413
-0.08576658368110657 -0.018298346549272537 0.16981099545955658
-0.18284055590629578 -0.3641025722026825 -0.04517557844519615
-0.06371193379163742 0.12322080135345459 0.1688700169324875
0.003613120410591364 -0.07777728140354156 0.17198458313941956
-0.27690497040748596 -0.44367802143096924 0.04959660768508911
-0.03986950218677521 0.08370786905288696 0.1687144637107849
0.2982614040374756 -0.05333242565393448 -0.08200283348560333
-0.31172260642051697 -0.33505383133888245 0.08560316264629364
0.22236274182796478 0.5049524903297424 -0.023496318608522415
-0.02916489914059639 -0.1987489014863968 -0.13632513582706451
0.20790931582450867 0.432052344083786 -0.07740963995456696
0.13976320624351501 0.05159159377217293 -0.1368078887462616
0.12275738269090652 -0.24991187453269958 -0.04331855848431587
-0.30419978499412537 -0.4279538691043854 0.014934216625988483
-0.24353964626789093 0.4359419047832489 -0.06606218218803406
0.271527498960495 -0.2540769577026367 0.026947051286697388
0.27894115447998047 0.4972548484802246 -0.0017330076079815626
-0.2553626596927643 -0.44149065017700195 0.10795231908559799
-0.17054226994514465 0.36728110909461975 -0.050015222281217575
0.2977035343647003 0.3880879878997803 -0.021187597885727882
0.20914871990680695 0.4453982412815094 -0.06922093033790588
0.05591019615530968 -0.25062036514282227 -0.007352649234235287
-0.2695031464099884 -0.16482895612716675 0.04490707069635391
-0.2904069125652313 -0.4045586585998535 0.13380885124206543
0.21488164365291595 0.09213127940893173 0.16674110293388367
0.2959662973880768 -0.1769150048494339 -0.02181928977370262
-0.10780622810125351 -0.1539360135793686 0.1683025360107422
0.021818188950419426 0.11518886685371399 0.16864658892154694
-0.26771280169487 -0.2201995849609375 0.01624121144413948
-0.26563358306884766 0.41032251715660095 0.08184777200222015
-0.0452546551823616 -0.19137120246887207 -0.13631442189216614
0.1995043158531189 0.4843435287475586 -0.040041759610176086
0.22980591654777527 0.22904843091964722 -0.0861060619354248
0.2540079951286316 0.22959448397159576 -0.11660973727703094
-0.0005045830621384084 0.22698655724525452 0.030568493530154228
-0.26886501908302307 0.19316183030605316 -0.04242141544818878
-0.25068429112434387 0.4770985543727875 0.006375487428158522
0.02978694811463356 0.1765364706516266 -0.2230183482170105
0.22590214014053345 -0.4485529959201813 0.0973229706287384
-0.2635791003704071 -0.4427182674407959 0.07982126623392105
-0.241044282913208 -0.0066227070055902 -0.13612082600593567
0.11245717108249664 -0.017161088064312935 -0.13603511452674866
0.11580006033182144 -0.14982879161834717 0.1683104932308197
-0.07448959350585938 -0.2511518597602844 -0.05870716646313667
0.2563367187976837 -0.2959270477294922 -0.049925122410058975
-0.27392062544822693 0.0742630884051323 0.010434377007186413
0.17954987287521362 -0.054829373955726624 0.16854256391525269
-0.26944699883461 0.17430222034454346 0.051412347704172134
0.10885609686374664 0.22841650247573853 0.06513213366270065
-0.26869997382164 0.16155515611171722 -0.09321707487106323
0.24392561614513397 0.05991441011428833 -0.137692391872406
0.14262232184410095 -0.4218480587005615 0.15014447271823883
0.14820514619350433 -0.4206315577030182 -0.010277939960360527
0.018162043765187263 -0.1441711187362671 -0.13600173592567444
-0.10000480711460114 -0.11445344239473343 -0.1358630210161209
-0.09229125082492828 -0.16978831589221954 -0.13511838018894196
0.06079702451825142 -0.25058117508888245 -0.04247436672449112
0.19098599255084991 0.07081854343414307 -0.13574713468551636
-0.27099019289016724 -0.20782318711280823 0.10472548007965088
0.29623278975486755 -0.15335099399089813 -0.01020424347370863
0.29864799976348877 0.20892928540706635 0.10205341875553131
-0.3026173710823059 -0.4073265492916107 0.09491743892431259
0.22589877247810364 -0.1571449339389801 -0.1359374076128006
0.08291547745466232 -0.25318896770477295 -0.06863149255514145
-0.25529420375823975 -0.4286024570465088 0.1547311246395111
0.031469978392124176 0.14479266107082367 -0.13602706789970398
0.23882439732551575 -0.44759640097618103 0.16881777346134186
-0.23724590241909027 0.22776669263839722 -0.10842392593622208
-0.25611981749534607 0.38169142603874207 -0.04024791717529297
-0.23163804411888123 0.49408531188964844 -0.017610492184758186
-0.1570466011762619 -0.25200316309928894 0.10335755348205566
0.08824241906404495 -0.07383827865123749 -0.14224377274513245
0.0803067535161972 0.2280530482530594 0.0062770233489573
0.05162471905350685 -0.2104886919260025 -0.1366031914949417
0.2710636258125305 0.12864771485328674 -0.13573098182678223
0.02183724381029606 0.20399653911590576 0.1560577005147934
0.2972583472728729 -0.16179947555065155 0.1330728530883789
0.2968584895133972 -0.20610962808132172 0.02846779301762581
0.2819427251815796 -0.32985177636146545 0.012928489595651627
-0.20447155833244324 -0.44769686460494995 -0.01218530721962452
-0.11540864408016205 0.2280000001192093 -0.044642359018325806
-0.2706940174102783 -0.22640511393547058 0.10652492195367813
0.3006087839603424 0.42205744981765747 -0.00031295037479139864
-0.0639520213007927 0.025720223784446716 -0.1332683265209198
-0.2701410949230194 0.05278007313609123 -0.020289400592446327
-0.1591728925704956 -0.2966492772102356 0.03469898924231529
0.230758935213089 -0.1678115576505661 -0.13628622889518738
-0.07884152978658676 0.22770418226718903 0.06908702105283737
-0.12423745542764664 0.06077314540743828 -0.13553094863891602
0.2967163920402527 -0.10636036843061447 0.05574280396103859
-0.1636611968278885 -0.09945318102836609 0.16834412515163422
0.153708353638649 -0.2543672025203705 0.02397812157869339
0.2554738223552704 0.3967585563659668 -0.09380824118852615
-0.17916597425937653 0.22954753041267395 0.07033336907625198
0.11719204485416412 0.2283511459827423 -0.04792115092277527
0.14606598019599915 -0.09788279980421066 0.16831275820732117
0.19287271797657013 -0.44464248418807983 -0.04355088993906975
-0.07704633474349976 0.2316746711730957 0.03528570756316185
0.11565195769071579 -0.25092729926109314 0.024273032322525978
-0.2672828733921051 0.07041250914335251 0.12174854427576065
0.29867851734161377 0.11965500563383102 0.1288660168647766
-0.21634209156036377 0.11397052556276321 -0.13421081006526947
-0.10129478573799133 0.2291930466890335 0.12414506822824478
-0.19496293365955353 0.11371293663978577 0.16760800778865814
-0.13077735900878906 -0.017015520483255386 -0.13673557341098785
-0.2692844867706299 0.003710526041686535 0.12819904088974
-0.16867823898792267 0.22810275852680206 -0.06655938178300858
0.20747551321983337 -0.4472928047180176 -0.03662330284714699
0.08447492867708206 0.10494737327098846 -0.13702747225761414
-0.2716459631919861 0.0038036592304706573 0.015836110338568687
-0.2476162314414978 0.3243793845176697 0.027719391509890556
0.15244615077972412 -0.061982572078704834 -0.1362389177083969
0.2969440221786499 -0.1889103800058365 0.028522886335849762
0.07142040133476257 -0.25382378697395325 0.013810984790325165
-0.253469854593277 0.37294840812683105 -0.053583577275276184
0.29969722032546997 -0.17995332181453705 -0.11176726967096329
-0.16198888421058655 -0.3380352258682251 0.023620404303073883
-0.14637254178524017 -0.25477567315101624 0.12515705823898315
0.2970565855503082 0.1585501730442047 0.005901744589209557
-0.02802618220448494 0.2269614338874817 -0.07730554044246674
-0.2926155924797058 0.06097695231437683 -0.28258016705513
0.14531631767749786 0.2265375852584839 0.05549944192171097
-0.27435502409935 -0.23540212213993073 -0.027082430198788643
0.28844210505485535 0.33183300495147705 0.03439962863922119
-0.17430268228054047 -0.1567097306251526 0.16731449961662292
0.28416433930397034 -0.39303484559059143 -0.003941984847187996
-0.2248798906803131 -0.4234431982040405 -0.06783521920442581
-0.310424268245697 -0.38644659519195557 0.13975907862186432
0.17680150270462036 0.42984840273857117 0.0077695357613265514
-0.3311450183391571 -0.37380093336105347 0.011281589046120644
0.29757216572761536 0.2084222137928009 -0.07447680830955505
-0.07810638099908829 -0.25350940227508545 -0.111907958984375
0.062364302575588226 -0.012316761538386345 -0.13600043952465057
0.09057760238647461 -0.0831209123134613 -0.1347694844007492
-0.2694295346736908 0.15099076926708221 0.020812321454286575
0.20665514469146729 0.4837161600589752 -0.04416367784142494
-0.2463310807943344 -0.2865915298461914 0.06510834395885468
-0.20786060392856598 0.11339942365884781 -0.13298529386520386
0.23110570013523102 -0.07771898806095123 0.16762442886829376
0.1855122447013855 -0.14049185812473297 -0.13869991898536682
-0.16790926456451416 0.42032018303871155 -0.04410090669989586
-0.21425823867321014 -0.37171998620033264 0.13679946959018707
-0.0821341797709465 0.11205947399139404 0.16901296377182007
0.03620034456253052 0.1869223564863205 -0.22444194555282593
-0.24994176626205444 -0.4577687680721283 -0.06494224071502686
0.1968744546175003 0.22866728901863098 0.01794348657131195
0.2919773459434509 -0.40514519810676575 0.07405026257038116
0.14542463421821594 -0.36911913752555847 -0.0024869567714631557
0.11290823668241501 -0.24969512224197388 -0.03655247390270233
-0.2578742504119873 0.3377421796321869 -0.00017548480536788702
-0.2708655893802643 0.07764928787946701 0.10887489467859268
-0.05970208719372749 0.11970669031143188 -0.13596111536026
0.25924134254455566 0.2319674789905548 -0.1278853416442871
-0.26719143986701965 -0.07069800794124603 0.003241470083594322
0.2936933636665344 0.4693831205368042 0.021937185898423195
0.13774657249450684 -0.41563284397125244 0.03058191016316414
0.1535295695066452 0.035643383860588074 0.16856884956359863
0.1602642834186554 -0.44704127311706543 0.09675610065460205
0.2540780305862427 0.4068359434604645 -0.09427283704280853
0.29709094762802124 -0.05006595700979233 -0.09451235830783844
-0.010506266728043556 0.159690260887146 -0.13607807457447052
-0.03994488716125488 0.16601347923278809 -0.1752280294895172
-0.14232029020786285 0.22929589450359344 0.07542551308870316
0.22659550607204437 0.13784834742546082 0.17005127668380737
0.24007847905158997 0.4007733464241028 0.10507097840309143
0.2693479657173157 0.12470672279596329 0.15632349252700806
0.15124374628067017 -0.22354935109615326 -0.13656172156333923
-0.08103463798761368 0.04159959405660629 -0.13423731923103333
0.1547127515077591 -0.013691762462258339 -0.13803569972515106
-0.08991268277168274 -0.2568129599094391 -0.059501901268959045
-0.1810935139656067 0.1433354616165161 -0.13379773497581482
0.24635757505893707 0.04143739119172096 -0.133101686835289
0.19748754799365997 -0.4479289650917053 0.10332370549440384
-0.20158180594444275 -0.21706514060497284 -0.13645963370800018
0.1798248142004013 0.23320886492729187 0.04324527829885483
0.13496778905391693 -0.25399959087371826 0.1092795804142952
0.19087432324886322 0.020727870985865593 -0.13606584072113037
-0.23051713407039642 -0.3783603608608246 0.17542514204978943
-0.16883206367492676 -0.24778275191783905 0.13256432116031647
0.21275754272937775 -0.10105070471763611 -0.1362476646900177
-0.270328164100647 0.12829360365867615 -0.07728923112154007
-0.20583926141262054 -0.12374750524759293 0.16421838104724884
-0.16876065731048584 -0.2515091300010681 0.1232157051563263
0.18535438179969788 -0.24964524805545807 0.07182610780000687
-0.267645001411438 0.21471454203128815 -0.01665065623819828
0.07235032320022583 -0.0469505712389946 0.1683153659105301
-0.27009981870651245 0.05308997258543968 -0.06793336570262909
-0.14915846288204193 0.10661739110946655 0.16927756369113922
-0.02661505900323391 -0.0662265419960022 0.16235464811325073
-0.18953989446163177 -0.41320717334747314 0.08474341034889221
-0.19580018520355225 -0.4406060576438904 0.042848385870456696
0.2577177882194519 0.0741034671664238 -0.13409779965877533
-0.27385422587394714 -0.04152766987681389 0.10060679167509079
-0.18588735163211823 -0.39154553413391113 0.08226048201322556
-0.21544577181339264 -0.36717522144317627 -0.07876593619585037
0.29829922318458557 -0.22345997393131256 -0.06708773225545883
0.2672049105167389 -0.25193506479263306 -0.03670575097203255
-0.2689213156700134 0.209829181432724 0.08941896259784698
0.27857232093811035 -0.3569715619087219 -0.03916211053729057
-0.19417525827884674 0.4094773828983307 -0.07813845574855804
-0.034892477095127106 -0.004200946073979139 0.1684427410364151
0.04337899759411812 0.1647416055202484 -0.13620004057884216
-0.2679945230484009 -0.039267975836992264 0.01247708685696125
-0.25017374753952026 0.07601828128099442 -0.1377493441104889
0.10845816135406494 -0.0689873918890953 -0.13836626708507538
-0.2709237337112427 0.004072315059602261 0.1395363211631775
0.28240203857421875 -0.42135676741600037 -0.027403218671679497
-0.2700430750846863 0.15029822289943695 0.0011546695604920387
-0.2112727016210556 -0.3478395640850067 0.10708191245794296
0.2555248439311981 -0.39002880454063416 0.1885131299495697
-0.176648810505867 -0.22744250297546387 -0.13439308106899261
-0.31905803084373474 -0.3731197714805603 -0.026364609599113464
-0.03351470082998276 0.15745441615581512 -0.1919059008359909
0.15187139809131622 -0.23393753170967102 0.15721271932125092
-0.2531319260597229 0.3411737084388733 0.0176863893866539
0.20386257767677307 -0.38992950320243835 -0.08348695188760757
0.18310341238975525 -0.12124107033014297 -0.13554690778255463
-0.2556365728378296 -0.2927027642726898 0.0011516744270920753
0.06309240311384201 0.08514685183763504 -0.13806413114070892
0.13002528250217438 0.03364124149084091 0.1660023033618927
-0.1491013765335083 0.09970436245203018 -0.1326354295015335
-0.002033689059317112 -0.24772103130817413 0.07093711942434311
-0.013401389122009277 0.11521214246749878 0.16599510610103607
0.17667101323604584 0.23002661764621735 0.0306065883487463
-0.264646977186203 -0.21099194884300232 -0.08415577560663223
0.295239120721817 -0.13218142092227936 -0.015812747180461884
-0.24321892857551575 -0.04873790964484215 0.1604100912809372
-0.29807743430137634 -0.412820428609848 0.09016379714012146
-0.31600409746170044 -0.3844749331474304 -0.03608632832765579
0.11485784500837326 -0.23349402844905853 -0.13705259561538696
0.2592636048793793 -0.16199102997779846 -0.1359834223985672
0.06825342774391174 -0.07237275689840317 0.1695505678653717
-0.1975201666355133 0.3426833152770996 0.08529459685087204
0.29663199186325073 0.08056177943944931 -0.10170686990022659
0.13224735856056213 0.22878916561603546 0.03472036123275757
-0.18128453195095062 -0.28618720173835754 -0.05039342865347862
0.13870984315872192 -0.10432437807321548 -0.136351078748703
-0.08141406625509262 0.06872101128101349 -0.13635830581188202
0.12719199061393738 -0.18334153294563293 -0.13674531877040863
0.2306073009967804 0.3412737250328064 0.10754518955945969
-0.07557524740695953 0.04398518428206444 0.17147739231586456
-0.22050604224205017 0.13921630382537842 -0.13710442185401917
-0.17095144093036652 -0.3886784017086029 0.00988712813705206
-0.02523234859108925 0.16365915536880493 -0.135056272149086
-0.07301758974790573 -0.0740312933921814 0.1679406315088272
0.17451773583889008 0.06071092188358307 0.16866467893123627
0.2753552198410034 0.11592602729797363 0.15666422247886658
-0.2418181300163269 0.09072519093751907 -0.13238708674907684
0.20461250841617584 -0.08452362567186356 0.16867835819721222
-0.24812257289886475 0.01569119282066822 -0.2518780827522278
-0.14774397015571594 -0.14966434240341187 0.16831637918949127
0.14818055927753448 -0.4160200357437134 0.15764360129833221
-0.26770082116127014 -0.1489315927028656 0.04851122200489044
-0.2693312466144562 -0.052729349583387375 0.06089824438095093
0.282570481300354 0.4939739406108856 0.04261859133839607
0.04111364483833313 -0.2507491409778595 0.03202403336763382
-0.26982808113098145 0.04642891511321068 -0.13175491988658905
0.26729100942611694 0.08873428404331207 0.15700533986091614
0.28157827258110046 -0.4054868519306183 -0.036305639892816544
0.2976124882698059 -0.014519277960062027 0.11042206734418869
-0.11906179040670395 -0.01624300703406334 0.16910657286643982
0.30041471123695374 0.20614153146743774 0.13162647187709808
0.05554625764489174 -0.2502337694168091 -0.029194777831435204
-0.07036633789539337 -0.20138892531394958 -0.13750986754894257
-0.14749012887477875 0.06583738327026367 -0.13724157214164734
0.29929763078689575 0.12950922548770905 -0.1144319549202919
0.29953452944755554 -0.020592274144291878 0.12138252705335617
0.29340600967407227 0.44004952907562256 -0.035331785678863525
-0.19376793503761292 -0.43234121799468994 0.01887504942715168
0.09744029492139816 -0.009768513031303883 0.16931107640266418
0.04727870225906372 -0.06811147928237915 -0.13588637113571167
0.29681557416915894 -0.1471925526857376 -0.008832339197397232
0.0386328250169754 -0.04560019075870514 -0.13593754172325134
0.19572818279266357 -0.1953330785036087 -0.13539326190948486
-0.27100369334220886 -0.09548333287239075 0.07882653176784515
0.22462308406829834 -0.2133011370897293 -0.1335870921611786
-0.19522635638713837 0.12930753827095032 -0.13814911246299744
0.1857176423072815 0.36200204491615295 0.06483209878206253
-0.08480218052864075 -0.23256605863571167 0.157535120844841
0.2970644235610962 -0.22401660680770874 0.05443354696035385
0.16760335862636566 0.2297792136669159 -0.0609721764922142
0.29780834913253784 0.06889583170413971 0.09115283191204071
0.23324351012706757 -0.03350396081805229 0.16771453619003296
-0.27005714178085327 0.20265987515449524 0.10499544441699982
0.000957852927967906 -0.11086481809616089 -0.13604570925235748
-0.207318514585495 -0.43829426169395447 0.09752152115106583
-0.2716551721096039 0.10104690492153168 -0.024983257055282593
-0.2691141366958618 0.024126864969730377 -0.07897130399942398
-0.19082781672477722 -0.2503977119922638 -0.11514551192522049
0.2666813135147095 -0.09234662353992462 0.1560576856136322
-0.06461796909570694 -0.2487490028142929 -0.0219705980271101
-0.0941186174750328 -0.2512585520744324 0.11947643011808395
-0.16236138343811035 -0.2809949815273285 0.04782610014081001
-0.24611109495162964 -0.4566919505596161 -0.06281176954507828
-0.1822839081287384 -0.25246626138687134 0.0973464697599411
0.2670906186103821 -0.25193774700164795 -0.05150855332612991
0.23998883366584778 -0.4486607611179352 0.14823788404464722
0.0336165726184845 0.22815226018428802 0.07029082626104355
0.2209104746580124 -0.4151095449924469 -0.09219380468130112
0.2062654048204422 -0.0501510426402092 0.1699935793876648
-0.08600594848394394 0.04129509627819061 0.17121271789073944
-0.2744494378566742 0.16005346179008484 -0.042032599449157715
-0.04170598089694977 0.049126774072647095 0.16867460310459137
0.1934371441602707 -0.1473189741373062 0.16882479190826416
0.23591682314872742 -0.40898939967155457 -0.09331952035427094
0.2238583266735077 0.018191469833254814 0.1722937822341919
-0.27034685015678406 -0.028227664530277252 0.04784825071692467
-0.15480026602745056 0.0742017850279808 0.16916806995868683
-0.2448263317346573 -0.4389450252056122 0.14445848762989044
-0.17020581662654877 -0.3864569365978241 0.024936359375715256
0.21891163289546967 -0.4076691269874573 -0.0901508554816246
0.18274517357349396 -0.07550878077745438 0.16514421999454498
-0.23204120993614197 -0.25082841515541077 -0.0822477787733078
0.2967069149017334 -0.08632068336009979 -0.07751625776290894
0.2817744016647339 -0.34094420075416565 -0.016586244106292725
0.15656904876232147 0.11405723541975021 0.16723988950252533
-0.2480538785457611 0.06335805356502533 -0.1364865005016327
-0.06028961390256882 0.23251426219940186 0.02389145828783512
-0.16007556021213531 -0.03800525888800621 -0.13558737933635712
-0.2571439743041992 -0.4786940813064575 -0.0006024364265613258
-0.13331332802772522 -0.25064805150032043 -0.11108773201704025
-0.15719152987003326 -0.2846391201019287 -0.005511055700480938
0.18971313536167145 0.020583342760801315 -0.13800740242004395
0.02869916334748268 0.16891619563102722 -0.13628144562244415
-0.29264524579048157 -0.3471458852291107 -0.04688816890120506
-0.047651082277297974 -0.07933683693408966 0.17037712037563324
0.07003430277109146 -0.15106989443302155 -0.13632701337337494
-0.24293985962867737 0.20749036967754364 0.15371255576610565
-0.2663944661617279 0.3847672641277313 0.04082662612199783
0.20504143834114075 -0.4488849937915802 0.16039718687534332
-0.20774365961551666 -0.44149085879325867 -0.031792111694812775
0.12436553835868835 0.15206243097782135 -0.13473209738731384
0.21771745383739471 0.12490648031234741 0.16884475946426392
0.1563214659690857 -0.4035452902317047 -0.04653182998299599
-0.005897563882172108 -0.02235007844865322 -0.13588494062423706
0.2572801411151886 0.22918681800365448 -0.06005940958857536
0.07655493915081024 0.10704851895570755 0.16967856884002686
-0.15656118094921112 0.4464411437511444 0.06901602447032928
-0.100984588265419 0.062105096876621246 0.17008131742477417
-0.20428335666656494 -0.36602476239204407 0.1104397103190422
-0.16714610159397125 -0.11457202583551407 -0.13380110263824463
0.17147722840309143 0.10258682072162628 -0.13805003464221954
0.29823845624923706 0.08409489691257477 -0.09839413315057755
0.30185890197753906 0.43181824684143066 0.02996370755136013
-0.23649440705776215 0.22689883410930634 -0.1112985834479332
-0.27219510078430176 0.1282489001750946 0.13530690968036652
-0.26183241605758667 -0.30513930320739746 -0.041613660752773285
0.01075112447142601 0.09757767617702484 -0.170602947473526
-0.18951718509197235 0.5036075711250305 0.05695250257849693
0.010824713855981827 0.05931658297777176 0.16703052818775177
-0.27037718892097473 -0.2163686454296112 0.08887334167957306
-0.2667287588119507 0.017288874834775925 0.09769348800182343
0.2973266839981079 -0.004424158483743668 0.04717320203781128
-0.03924157842993736 -0.1575402021408081 0.1684420257806778
0.2972770631313324 0.01780848391354084 0.06045211851596832
0.29686689376831055 -0.15517933666706085 0.008420035243034363
0.29568246006965637 0.009614570066332817 -0.08528700470924377
-0.1845596581697464 -0.2516641318798065 0.12284737080335617
-0.2012494057416916 -0.1751914620399475 -0.13616368174552917
-0.2517433166503906 0.05328383296728134 -0.1385195404291153
0.25729605555534363 0.0678892731666565 -0.13688085973262787
0.2659108340740204 0.4040946960449219 -0.08987788110971451
0.2683731019496918 -0.3503122329711914 -0.0647180899977684
0.18839143216609955 0.22669798135757446 0.03216930106282234
0.16705134510993958 -0.4474969506263733 0.14236144721508026
0.2580011487007141 0.3254668712615967 0.0724894255399704
-0.26214051246643066 -0.46715047955513 0.0004526740522123873
-0.10842057317495346 0.22967934608459473 -0.027244500815868378
0.2995438277721405 0.15482176840305328 0.13552643358707428
0.08918444067239761 -0.16394776105880737 0.16874274611473083
-0.2689420282840729 -0.13642479479312897 0.05469729006290436
-0.012744302861392498 0.12046563625335693 0.16995762288570404
0.23251213133335114 -0.30690062046051025 0.10072413831949234
0.04970867931842804 -0.25095856189727783 0.1195213571190834
-0.2719651162624359 0.1426403522491455 -0.026393160223960876
-0.27107638120651245 0.1445963829755783 0.058964330703020096
-0.25280123949050903 0.05256974324584007 0.15686333179473877
0.29895883798599243 0.38106098771095276 0.05758603662252426
-0.06914763152599335 -0.2553204298019409 0.057212457060813904
0.27572017908096313 -0.25230589509010315 -0.011484887450933456
