0.012247899547219276 0.25391528010368347 -0.20284520089626312
0.2952224910259247 -0.10122343897819519 -0.04422794654965401
0.29343974590301514 -0.2147466242313385 0.06950987875461578
0.1417153775691986 -0.18671080470085144 -0.13910014927387238
0.18398940563201904 0.46789464354515076 0.09026143699884415
0.29587510228157043 0.12142272293567657 0.143276184797287
0.2763129770755768 -0.44468775391578674 0.13124434649944305
-0.10988330841064453 -0.18015043437480927 0.1558651179075241
0.28399279713630676 -0.2487371861934662 -0.09909502416849136
-0.2734808027744293 -0.2188199758529663 0.0736030712723732
0.24857589602470398 0.005521874874830246 0.1595603972673416
0.29610180854797363 -0.02628292888402939 0.1619044840335846
-0.2870163023471832 -0.4388705790042877 0.012813525274395943
-0.08691223710775375 -0.24729932844638824 0.03710988909006119
0.16333237290382385 0.2278762310743332 0.13386572897434235
0.03724398836493492 0.14552940428256989 -0.21242453157901764
-0.26982399821281433 -0.08889610320329666 0.13743790984153748
-0.26926758885383606 -0.22637659311294556 -0.1302892565727234
-0.2337912768125534 -0.25609636306762695 -0.06335444003343582
-0.24781091511249542 0.3706601858139038 -0.052431508898735046
-0.25582215189933777 -0.2949385344982147 0.006502432748675346
-0.22071146965026855 0.06286083906888962 0.1669607311487198
0.20688913762569427 0.3808974027633667 -0.07512061297893524
0.20219627022743225 0.17344433069229126 0.1548556685447693
0.28337687253952026 -0.03369325399398804 -0.1363096982240677
0.28503918647766113 -0.22777768969535828 -0.13630171120166779
-0.0756567120552063 -0.251003235578537 0.0754888728260994
0.24534951150417328 -0.24030135571956635 -0.13768894970417023
-0.2660749554634094 -0.33676663041114807 -0.08145280927419662
0.294513076543808 0.1710197627544403 0.15219247341156006
0.05451902747154236 0.2315724492073059 -0.13405683636665344
0.04204293340444565 -0.2484004646539688 0.1452711671590805
-0.2706235945224762 0.1881731003522873 -0.13262450695037842
-0.2684626281261444 0.21318383514881134 -0.13407480716705322
-0.1687583178281784 0.4779876172542572 0.009392024017870426
0.2927563190460205 0.10768134891986847 0.15416845679283142
0.2780352830886841 0.4939306378364563 0.00830065831542015
-0.19513382017612457 0.503547191619873 0.052061498165130615
-0.20514024794101715 0.5019785761833191 0.027813883498311043
0.06532806903123856 0.23006241023540497 -0.1382189840078354
0.1918521374464035 0.4884992837905884 0.017727764323353767
-0.17281250655651093 0.33594071865081787 -0.017534837126731873
0.2946975529193878 0.14733390510082245 0.1543835997581482
-0.14729948341846466 -0.25066113471984863 -0.11381271481513977
-0.04394397512078285 0.22756847739219666 -0.13598871231079102
-0.2731175124645233 -0.13835729658603668 -0.12491407245397568
0.1353820562362671 -0.2485729157924652 -0.13770060241222382
0.2842917740345001 0.20600910484790802 -0.1313471645116806
0.2868647277355194 0.18182457983493805 -0.1350788176059723
-0.07029849290847778 0.22661104798316956 -0.1334495097398758
0.2654606103897095 -0.2933357059955597 -0.022950898855924606
-0.2671848237514496 0.2090415358543396 -0.12952230870723724
-0.006814852356910706 -0.24906831979751587 -0.12609641253948212
0.28539419174194336 -0.41250932216644287 0.01590108871459961
0.16534148156642914 -0.17530834674835205 0.159483402967453
0.18110206723213196 -0.24134139716625214 -0.13670887053012848
-0.2644461989402771 0.4287715554237366 0.04931427538394928
-0.27143919467926025 -0.08101823925971985 -0.06012021750211716
0.2937418222427368 -0.1252519190311432 0.1399761140346527
0.2984689772129059 0.055576156824827194 -0.11489151418209076
-0.2683009207248688 0.15898793935775757 -0.1280720829963684
-0.27089351415634155 -0.24869510531425476 -0.002032969146966934
-0.053428519517183304 0.22713039815425873 -0.13392490148544312
0.2820478081703186 -0.14511342346668243 -0.13664041459560394
-0.26912593841552734 -0.12763825058937073 0.14114174246788025
0.0022169940639287233 0.22274553775787354 -0.04389511048793793
-0.27017727494239807 -0.018394896760582924 -0.12928321957588196
-0.2766234874725342 -0.44986414909362793 0.015399694442749023
-0.2621939480304718 0.3765273094177246 0.08288363367319107
0.21095898747444153 -0.3015861213207245 -0.06161465495824814
0.26551249623298645 -0.3153165280818939 0.09815998375415802
-0.06882815062999725 0.23232413828372955 0.06844232231378555
0.23705463111400604 0.22457318007946014 -0.13548824191093445
0.28523358702659607 -0.0526265986263752 -0.1345430314540863
0.2864127457141876 -0.3666829764842987 0.025768902152776718
-0.27045774459838867 -0.15486428141593933 -0.13016794621944427
0.13420122861862183 0.22771692276000977 0.09774065762758255
-0.03705192357301712 -0.22289355099201202 0.15296714007854462
0.2339419424533844 -0.2891119718551636 0.08131396770477295
-0.20327436923980713 -0.0727420374751091 0.1662050187587738
0.17673052847385406 -0.2500922679901123 -0.1071731299161911
-0.2695109248161316 -0.10123682022094727 0.13765892386436462
0.18232831358909607 -0.4155108630657196 -0.07069752365350723
-0.26953914761543274 0.05737892538309097 -0.1297953724861145
0.062251362949609756 -0.2483578324317932 0.09971228986978531
0.2953214645385742 -0.05834069848060608 0.14624515175819397
-0.2412567138671875 -0.4743949770927429 0.02416776306927204
-0.207413911819458 -0.008654648438096046 0.16545739769935608
0.2860424816608429 -0.03928249329328537 -0.1341373324394226
-0.27327489852905273 -0.42036911845207214 0.12159748375415802
-0.2701115310192108 0.00574147654697299 -0.12790504097938538
0.2927851676940918 0.05130268633365631 0.11744755506515503
0.23369018733501434 0.12197079509496689 0.16662441194057465
-0.2670001685619354 -0.16523629426956177 -0.12334205955266953
0.1937839388847351 0.1925038993358612 0.15287883579730988
-0.2570016086101532 0.218970388174057 -0.13440068066120148
0.022263947874307632 -0.23637257516384125 -0.13522033393383026
-0.267923504114151 -0.2467919886112213 0.02096574939787388
-0.18213379383087158 0.22558288276195526 -0.13010725378990173
0.28476178646087646 0.2086249440908432 -0.1345352679491043
-0.2962595224380493 -0.4553603529930115 -0.08027355372905731
0.2832317650318146 -0.4443799555301666 0.1635705679655075
0.23054689168930054 -0.03527755290269852 0.1662437468767166
-0.3229616582393646 -0.4236218333244324 -0.047998372465372086
0.2381504327058792 0.22834783792495728 -0.13844548165798187
0.1361881047487259 -0.38223040103912354 0.07769414782524109
0.2997819185256958 0.3593331575393677 0.029853399842977524
-0.17240361869335175 0.23065245151519775 0.1369178146123886
0.08311574906110764 -0.20069314539432526 0.14819759130477905
0.21620576083660126 -0.30574479699134827 -0.06973527371883392
0.29672929644584656 0.19654515385627747 0.15530791878700256
-0.24635998904705048 -0.12700510025024414 0.15368758141994476
-0.19812756776809692 -0.4289778172969818 0.07097593694925308
0.10942496359348297 0.22648262977600098 -0.13769416511058807
0.1621096134185791 -0.44766950607299805 0.004207362420856953
-0.13802370429039001 0.22594764828681946 -0.13699962198734283
0.23215720057487488 -0.0015523191541433334 -0.13813555240631104
0.16738516092300415 0.062083110213279724 0.16814208030700684
-0.2685449719429016 0.14857302606105804 -0.13308177888393402
-0.26447203755378723 -0.17860233783721924 -0.07033191621303558
0.04005846008658409 -0.22297488152980804 0.15241612493991852
0.007467052433639765 0.2291746884584427 -0.13314081728458405
-0.14279767870903015 0.23043695092201233 0.12452258169651031
0.21526406705379486 0.2306879162788391 -0.0013544182293117046
-0.15455514192581177 0.3983283042907715 0.029240459203720093
0.2171172797679901 -0.18487520515918732 0.15824979543685913
0.0790911540389061 -0.1876847743988037 0.1548243910074234
-0.16433486342430115 0.4588243067264557 -0.010128621011972427
0.18406234681606293 0.4738110303878784 0.009222682565450668
0.22532562911510468 -0.1691642850637436 0.16324907541275024
0.2833022177219391 -0.37430936098098755 0.12071006745100021
-0.2704692482948303 0.21528485417366028 -0.11846953630447388
0.2085406482219696 -0.21680261194705963 -0.13765597343444824
-0.13824300467967987 -0.22534702718257904 0.15522471070289612
-0.26959851384162903 -0.13690809905529022 0.14206232130527496
-0.2502121329307556 -0.2512194514274597 -0.07659141719341278
-0.2714187502861023 0.1164228543639183 0.13183815777301788
0.035399239510297775 -0.22739018499851227 0.15501686930656433
-0.26846808195114136 0.2011222243309021 -0.13401861488819122
0.2986200451850891 0.1119585633277893 -0.08514455705881119
0.2839430868625641 -0.06536415219306946 -0.13773642480373383
-0.26844093203544617 0.0444929301738739 -0.12599067389965057
-0.1840277910232544 -0.22442148625850677 -0.13865342736244202
-0.27402254939079285 -0.16531683504581451 -0.002715557813644409
0.2770324647426605 -0.17203937470912933 0.16041570901870728
-0.2702796161174774 0.03655422478914261 -0.12902624905109406
0.03450362756848335 -0.18187861144542694 0.16029101610183716
-0.15741217136383057 0.4029145836830139 0.005743499379605055
0.19418196380138397 -0.24130722880363464 -0.13688546419143677
-0.09997206926345825 -0.25033968687057495 0.08592644333839417
-0.20114311575889587 0.15149860084056854 0.1643134355545044
0.29211029410362244 0.07968902587890625 0.1532914638519287
-0.2102181315422058 -0.274467408657074 -0.06080172210931778
0.12604102492332458 0.16084638237953186 0.16333621740341187
0.11568265408277512 0.214060977101326 -0.13636720180511475
-0.18306207656860352 -0.40352970361709595 0.04105215147137642
-0.2964599132537842 -0.3226631283760071 0.06639540195465088
-0.19522738456726074 -0.031693920493125916 0.1687440574169159
-0.23925776779651642 -0.25394490361213684 -0.056725338101387024
0.1992584615945816 0.46739640831947327 -0.05133114755153656
-0.27165424823760986 -0.207998588681221 0.034351885318756104
0.28440701961517334 0.04926054924726486 -0.13647471368312836
0.03831055015325546 0.2235778570175171 -0.13663047552108765
0.28683534264564514 0.48459938168525696 0.04286383092403412
-0.24823787808418274 -0.38452938199043274 0.19589263200759888
-0.26898646354675293 0.4201437830924988 0.03364754468202591
-0.2587096393108368 -0.2479216456413269 -0.10836067795753479
-0.01793971285223961 -0.11003873497247696 -0.1406840831041336
-0.1799873262643814 0.4563630223274231 -0.05635380744934082
-0.2703244090080261 -0.15127435326576233 -0.1247829869389534
-0.26544809341430664 0.4010371267795563 0.09514901041984558
0.2939854562282562 0.19334907829761505 0.03160140663385391
-0.25681552290916443 0.11423395574092865 0.15350976586341858
-0.10377458482980728 -0.23161548376083374 0.15372273325920105
0.29722708463668823 0.36064034700393677 -0.00933383870869875
-0.2675432860851288 -0.19427113234996796 0.13424625992774963
0.25267183780670166 0.5071962475776672 -0.015206939540803432
0.28444817662239075 -0.08879224956035614 -0.1364511102437973
-0.23914508521556854 0.21508373320102692 -0.13354673981666565
-0.22700564563274384 0.4936768710613251 -0.012669946998357773
0.18720442056655884 -0.13386410474777222 -0.13761179149150848
-0.11833953857421875 0.18491065502166748 -0.13521116971969604
0.2946188151836395 -0.09897574782371521 0.1530448943376541
-0.13003452122211456 -0.25115251541137695 0.04111094772815704
0.2982723116874695 0.40058618783950806 0.10089122503995895
-0.20588219165802002 -0.34079623222351074 0.09868565946817398
-0.259948194026947 0.09865164011716843 -0.1287132054567337
-0.27164384722709656 -0.09338172525167465 -0.1277906447649002
0.2728439271450043 -0.3181595802307129 -0.0009988006204366684
0.2942464053630829 0.015552565455436707 0.14739583432674408
-0.2488139420747757 -0.469046950340271 -0.052410729229450226
0.013858409598469734 0.1722763180732727 -0.22247380018234253
0.036257218569517136 -0.1744767427444458 0.16588833928108215
0.29284048080444336 -0.05430859699845314 0.15882985293865204
-0.1996486634016037 -0.24849902093410492 0.1463048905134201
0.2821123003959656 -0.4436752498149872 0.14493277668952942
-0.041421398520469666 -0.2459515631198883 0.14580124616622925
0.09677451848983765 -0.08160342276096344 0.16555586457252502
0.03158913552761078 0.1695675253868103 0.15752461552619934
-0.16667592525482178 0.4728285074234009 0.013596714474260807
0.16589003801345825 0.2261962592601776 -0.1407301425933838
-0.264493465423584 0.15499749779701233 -0.1367204487323761
-0.09400108456611633 0.18297076225280762 -0.1368218958377838
-0.270671546459198 -0.040890883654356 0.13406841456890106
0.12247790396213531 -0.24809381365776062 0.1401011198759079
-0.2716960310935974 0.1920008510351181 0.12989351153373718
0.2847554385662079 -0.10074073821306229 -0.1372220814228058
0.29332438111305237 -0.07801082730293274 0.15657494962215424
0.09775084257125854 -0.25266578793525696 0.08060701936483383
-0.2692051827907562 0.2147209346294403 -0.12066178023815155
-0.16454651951789856 0.1539750099182129 0.16524048149585724
0.2941417694091797 -0.23197801411151886 0.1503576785326004
-0.08305815607309341 0.22051508724689484 -0.13204053044319153
-0.266475647687912 0.22123104333877563 -0.1337023675441742
0.2994278073310852 0.3642699420452118 0.04805271327495575
-0.10671267658472061 0.21030046045780182 0.1571611762046814
-0.32443585991859436 -0.3324494957923889 0.16310666501522064
-0.09871567785739899 -0.246551051735878 0.14670777320861816
-0.10072600096464157 -0.25285017490386963 0.001957423985004425
0.12213938683271408 -0.24478359520435333 -0.13588093221187592
-0.26390495896339417 -0.23827359080314636 -0.13359038531780243
0.2757512331008911 0.23015961050987244 0.07139229029417038
-0.15072645246982574 0.22686296701431274 0.05209466814994812
-0.09405691921710968 0.22314420342445374 -0.13141512870788574
-0.2703269124031067 0.027598703280091286 -0.1289881020784378
0.29583072662353516 -0.21741487085819244 0.11804940551519394
-0.2052513211965561 -0.33313319087028503 -0.06824386864900589
-0.09246165305376053 0.22749274969100952 0.012844469398260117
0.23026897013187408 0.06359769403934479 0.1705641746520996
-0.02932128496468067 -0.2479827105998993 -0.12390653043985367
0.03804256394505501 0.17700815200805664 -0.13597699999809265
0.29335102438926697 -0.19732517004013062 0.15602092444896698
-0.27036136388778687 0.19311092793941498 -0.13328687846660614
0.28362393379211426 -0.21881304681301117 -0.13428166508674622
0.25591328740119934 0.16912995278835297 -0.13869445025920868
0.13591967523097992 -0.24964088201522827 -0.038801174610853195
0.06406392902135849 0.1854434758424759 0.15780583024024963
-0.2633853256702423 -0.006704829633235931 -0.1342092603445053
0.2862170338630676 -0.17220503091812134 -0.13371078670024872
0.30046647787094116 0.3544589579105377 -0.0030690564308315516
0.23158755898475647 -0.17757725715637207 0.14813457429409027
-0.20431378483772278 0.40533676743507385 -0.08083109557628632
0.2110595405101776 0.16407383978366852 0.16316354274749756
0.2945560812950134 0.15818357467651367 0.1491977870464325
-0.053420376032590866 -0.24830463528633118 -0.13320179283618927
-0.013518411666154861 -0.2533314824104309 -0.1263621747493744
-0.2597504258155823 0.3532285690307617 -0.006623761262744665
0.24257013201713562 -0.23472516238689423 -0.1362721025943756
-0.26758626103401184 -0.04382861778140068 -0.1249089166522026
-0.2701700031757355 0.2095845639705658 -0.12876001000404358
0.2668702006340027 0.48630160093307495 -0.039389848709106445
0.14667929708957672 -0.34141406416893005 0.015599459409713745
0.2871752381324768 -0.1799704134464264 -0.13460245728492737
0.2812339663505554 -0.051641643047332764 -0.1369776576757431
-0.26398923993110657 0.41129353642463684 0.028680622577667236
0.22602005302906036 0.12764203548431396 0.1655588448047638
0.001178056001663208 -0.23637133836746216 -0.13581332564353943
-0.20690375566482544 -0.07515330612659454 0.16709858179092407
0.27484405040740967 -0.4444551467895508 0.1738046258687973
-0.11079283058643341 -0.22859196364879608 0.15453726053237915
-0.2562444806098938 0.4260976016521454 -0.039491746574640274
0.1954771727323532 -0.24926437437534332 0.0833575651049614
-0.1402638703584671 0.15104562044143677 0.17037591338157654
0.18649274110794067 0.45725053548812866 -0.03207041323184967
-0.15655937790870667 0.43557503819465637 0.0016258331015706062
0.2586660087108612 -0.4128629267215729 0.1937907338142395
-0.22044937312602997 0.2240062803030014 -0.12517665326595306
-0.2712930142879486 0.02706228196620941 0.1351414918899536
-0.24493549764156342 -0.3015691936016083 -0.06996050477027893
0.2953416407108307 0.22806058824062347 -0.04745299369096756
-0.029322996735572815 -0.2525734007358551 -0.10197286307811737
-0.20043551921844482 0.2181401252746582 -0.13291561603546143
0.17877212166786194 0.40709859132766724 0.09802018851041794
-0.18966883420944214 -0.1428421288728714 -0.13796551525592804
-0.21206532418727875 -0.07871390879154205 0.16618779301643372
-0.11176115274429321 -0.17249269783496857 0.16517695784568787
0.2728996276855469 0.22842378914356232 -0.09348133951425552
-0.1200769692659378 -0.177682563662529 0.1585865020751953
0.1787179857492447 0.36266589164733887 -0.001707947812974453
-0.17194333672523499 0.46816614270210266 -0.012315629981458187
0.19432100653648376 -0.38723593950271606 0.1713263839483261
-0.2099769115447998 -0.18825502693653107 0.15921951830387115
0.08200492709875107 0.12271080911159515 -0.13709259033203125
0.2874361574649811 -0.4196801483631134 0.15882204473018646
0.2808872163295746 -0.3777143359184265 -0.031987231224775314
0.17478486895561218 -0.248110830783844 0.13937965035438538
-0.15817095339298248 0.40613070130348206 -0.01830105111002922
-0.09164662659168243 -0.09509958326816559 0.16550210118293762
0.2604425549507141 -0.14528751373291016 0.15247824788093567
-0.208194762468338 0.05160055309534073 0.16675706207752228
0.024203650653362274 -0.24454663693904877 -0.1362726092338562
-0.21311154961585999 -0.04017943516373634 0.16637413203716278
0.10892675071954727 -0.2496902346611023 0.1448674499988556
-0.2705422639846802 -0.1605122834444046 0.1344519406557083
-0.21070848405361176 -0.10116209089756012 0.16658903658390045
-0.25388044118881226 0.4198083281517029 -0.04918685555458069
-0.2075876146554947 0.23042896389961243 0.1190350204706192
-0.2820112109184265 -0.44866830110549927 -0.004062112420797348
-0.22373859584331512 -0.25121012330055237 -0.13303670287132263
0.16121995449066162 0.22846902906894684 0.12310029566287994
-0.13800114393234253 0.19719384610652924 -0.1350405514240265
0.26789966225624084 0.4103453457355499 -0.0779857411980629
0.19295504689216614 -0.3514960706233978 0.13029342889785767
-0.18223796784877777 0.4881134331226349 -0.012255956418812275
0.21542444825172424 -0.04318081960082054 -0.13871169090270996
-0.1678164005279541 0.16138818860054016 -0.131678506731987
0.2148173600435257 -0.45010367035865784 0.11098314821720123
0.18043342232704163 0.4256737530231476 -0.026425018906593323
0.3016621470451355 0.3923914134502411 0.07532943040132523
0.29086217284202576 -0.1004633903503418 0.14112377166748047
0.29464924335479736 -0.19825921952724457 0.10723341256380081
-0.20515690743923187 -0.32619068026542664 0.0891268253326416
0.2983427047729492 -0.17857524752616882 0.07533617317676544
0.22410757839679718 -0.170399010181427 0.16592857241630554
0.13384011387825012 -0.19246649742126465 0.14647039771080017
-0.27049678564071655 -0.24732249975204468 -0.04654305428266525
0.2215927690267563 -0.23469364643096924 -0.1384616196155548
-0.01429532840847969 0.06758546084165573 -0.13714221119880676
-0.2370818704366684 -0.3766210079193115 0.17914660274982452
-0.21557363867759705 0.2315375804901123 -0.13683857023715973
0.17314130067825317 0.417292982339859 -0.006665342953056097
-0.2595858573913574 0.45899704098701477 0.06354742497205734
0.2567497491836548 -0.35676613450050354 0.1430642157793045
0.2914597988128662 0.17892016470432281 0.15892422199249268
0.21949051320552826 -0.2358863800764084 -0.1363326609134674
0.2856496572494507 0.028195900842547417 -0.13542094826698303
0.2912212610244751 0.16303978860378265 0.15784387290477753
0.29928886890411377 0.37194207310676575 0.07671011239290237
0.19963914155960083 0.502782940864563 0.048012446612119675
-0.22953973710536957 -0.36222147941589355 0.15510112047195435
0.28119009733200073 0.3808801770210266 -0.06791599094867706
0.002434847876429558 -0.2527611553668976 -0.0683017373085022
-0.3114587664604187 -0.3957965075969696 -0.0765722244977951
-0.1566382795572281 0.45179203152656555 0.040021900087594986
-0.2678188979625702 -0.10532034933567047 -0.13626722991466522
0.18257257342338562 0.22536872327327728 -0.13790461421012878
-0.2894099950790405 -0.029262354597449303 -0.27523326873779297
0.2943347692489624 -0.20608428120613098 0.1532319188117981
0.18419243395328522 0.4260713458061218 -0.04096890240907669
0.15254448354244232 -0.3338806629180908 0.02705172263085842
-0.044142402708530426 0.2256186604499817 -0.13844497501850128
-0.13858669996261597 0.2231321781873703 -0.13487280905246735
0.1569419503211975 0.22755111753940582 -0.13909296691417694
0.28656449913978577 -0.38709914684295654 0.018573975190520287
-0.2697683572769165 -0.06622114777565002 0.13634507358074188
-0.2701350152492523 0.20446506142616272 -0.13494320213794708
-0.27029094099998474 -0.18175223469734192 -0.12325551360845566
0.2953738272190094 -0.21020987629890442 0.08409098535776138
-0.18777932226657867 0.22240988910198212 -0.1333872377872467
-0.27113407850265503 -0.20731210708618164 0.06531555950641632
-0.2617490887641907 -0.002169286832213402 -0.13444587588310242
-0.20774397253990173 0.022158190608024597 0.16617414355278015
0.29238420724868774 0.20468181371688843 0.12968021631240845
-0.27364581823349 -0.02737548016011715 -0.12749391794204712
-0.2690858542919159 -0.10185202211141586 -0.1271248459815979
0.1518993377685547 -0.4451015591621399 0.09789879620075226
0.1468692421913147 -0.2476312816143036 -0.13475541770458221
-0.2021210491657257 -0.4463915526866913 0.011304670013487339
0.23996099829673767 -0.2508610785007477 0.13301298022270203
0.283978134393692 -0.16230297088623047 -0.13608068227767944
0.23487284779548645 -0.04460487514734268 0.16771350800991058
0.2966776490211487 -0.11192737519741058 0.13605166971683502
0.28787463903427124 -0.1387137472629547 -0.1383061408996582
-0.26399821043014526 0.2126968502998352 -0.13406124711036682
-0.2480643093585968 -0.48156076669692993 -0.03241566941142082
0.2274097502231598 0.15175649523735046 0.16552680730819702
0.2926703989505768 -0.028577357530593872 0.15546712279319763
-0.1357882171869278 -0.24937424063682556 -0.12856906652450562
0.29450523853302 -0.17777931690216064 0.13499343395233154
0.27315860986709595 -0.44359472393989563 0.14601683616638184
-0.13349050283432007 -0.19360260665416718 0.14737017452716827
-0.302709698677063 -0.42622077465057373 0.01775497943162918
-0.2034115046262741 -0.4064965546131134 0.14125387370586395
0.2931233048439026 0.07632467895746231 -0.11035165190696716
0.21991148591041565 -0.17021143436431885 -0.14474931359291077
0.18029820919036865 0.45449134707450867 -0.007384798489511013
0.29359960556030273 0.1756288707256317 0.16186481714248657
-0.11289171874523163 0.1674848198890686 0.1562177538871765
-0.29176458716392517 0.04844018071889877 -0.27639561891555786
-0.25883063673973083 -0.41521939635276794 -0.08969549834728241
-0.17637525498867035 0.22710950672626495 -0.048765603452920914
-0.06789805740118027 0.12075954675674438 0.16625024378299713
0.30021196603775024 0.4016755521297455 0.044355571269989014
0.23216919600963593 -0.29200732707977295 0.0861290991306305
0.22007715702056885 0.23359547555446625 -0.1365325152873993
0.2683566212654114 -0.41407573223114014 -0.07848075032234192
-0.2527688145637512 -0.25289663672447205 -0.09680411964654922
0.24274827539920807 0.22786639630794525 -0.0921008437871933
-0.20152384042739868 -0.20554019510746002 -0.13552197813987732
-0.10711565613746643 -0.21704648435115814 0.15327060222625732
-0.2734493911266327 -0.0768488198518753 -0.12880025804042816
-0.2709798514842987 0.17092753946781158 -0.02365032583475113
-0.26805076003074646 0.1568698287010193 -0.1312500685453415
-0.03197461739182472 0.16692079603672028 0.1565375030040741
0.2797519266605377 0.0833379477262497 -0.13821937143802643
0.03206267207860947 -0.17446251213550568 0.1685381382703781
-0.31661269068717957 -0.34486913681030273 0.05460503697395325
-0.2698737382888794 0.09771256893873215 0.13606245815753937
-0.26110121607780457 -0.048892542719841 -0.13299953937530518
-0.2703775465488434 0.15112994611263275 -0.13051500916481018
-0.1313362419605255 0.10520419478416443 0.1667468249797821
0.2918034791946411 0.21106381714344025 0.14931315183639526
0.2651893198490143 -0.2528700530529022 0.12454671412706375
0.29197928309440613 0.19392599165439606 0.15615372359752655
-0.1595461368560791 0.22696717083454132 0.10904686897993088
-0.12646102905273438 -0.24977436661720276 -0.12955105304718018
-0.26947662234306335 -0.24075660109519958 0.0962413027882576
-0.08360176533460617 -0.24641023576259613 -0.12947098910808563
-0.10748746991157532 0.2211296260356903 -0.13508979976177216
-0.18978798389434814 0.22669826447963715 -0.13371117413043976
-0.20685036480426788 0.2285396158695221 -0.12629321217536926
-0.08284124732017517 0.12183208763599396 0.1679624319076538
-0.2713731527328491 0.06252379715442657 -0.13009873032569885
-0.27265647053718567 -0.2477993667125702 0.005942078307271004
-0.31644266843795776 -0.4013156294822693 -0.0789557695388794
0.03864429518580437 0.23064519464969635 -0.04201819747686386
0.2967594563961029 0.1908179223537445 0.10411480069160461
-0.2699219286441803 -0.17468920350074768 -0.12393291294574738
-0.2447436898946762 0.029434487223625183 0.15132872760295868
0.29376915097236633 -0.0769697055220604 0.1559642255306244
0.2433665245771408 0.22969570755958557 0.09145666658878326
0.26375627517700195 0.3267587423324585 -0.05214374139904976
0.2963913083076477 0.07342065125703812 0.14610707759857178
-0.10658914595842361 0.20472994446754456 0.15952403843402863
0.17561927437782288 -0.4116976261138916 0.1831217110157013
-0.27073201537132263 0.13260285556316376 -0.12973222136497498
-0.26992374658584595 0.12023243308067322 -0.1304999738931656
0.13746798038482666 -0.18964709341526031 0.14776955544948578
-0.2737277150154114 0.22304528951644897 0.04300408810377121
0.29518988728523254 -0.1798643171787262 0.14946812391281128
0.024107737466692924 -0.06547659635543823 -0.13634701073169708
-0.12356976419687271 0.20188789069652557 0.15748021006584167
0.01092540007084608 0.20022791624069214 -0.1356736570596695
0.26612159609794617 -0.3372346758842468 -0.051421158015728
-0.25866565108299255 -0.013254404067993164 -0.1343473345041275
-0.3116860091686249 -0.41862547397613525 0.01642964966595173
-0.26942163705825806 0.19791877269744873 -0.1344020664691925
-0.13061806559562683 0.22344481945037842 -0.1352551132440567
0.272179514169693 -0.37052175402641296 -0.06123194843530655
-0.2115643322467804 -0.254615843296051 -0.08663532882928848
-0.18883761763572693 0.22717159986495972 0.1046118512749672
0.09808773547410965 -0.2496156394481659 0.03335248678922653
-0.2612641453742981 0.024701818823814392 -0.1303880214691162
-0.2545607089996338 -0.05462511628866196 -0.13526874780654907
-0.02916446141898632 0.14982223510742188 0.16836191713809967
0.29617398977279663 0.4200206995010376 -0.032424699515104294
0.00555848516523838 0.19158607721328735 0.15596310794353485
0.17712312936782837 0.38122475147247314 -0.005428029224276543
-0.09322816133499146 0.22561298310756683 -0.13313470780849457
0.2817634046077728 -0.23220407962799072 -0.13846120238304138
0.16691988706588745 -0.2543453872203827 -0.10091660916805267
-0.25838279724121094 -0.11107621341943741 -0.13776060938835144
-0.27173832058906555 0.20354720950126648 0.12242168188095093
-0.268432080745697 -0.12807710468769073 -0.13520798087120056
0.22946619987487793 -0.14567430317401886 0.16540171205997467
-0.19448329508304596 0.15409456193447113 0.16385039687156677
-0.2724379301071167 -0.04649178311228752 0.11776673048734665
-0.08376595377922058 -0.09872591495513916 0.16877709329128265
0.27357131242752075 0.477470725774765 -0.05263390764594078
0.2836131155490875 0.1255072057247162 -0.1354997456073761
0.21852904558181763 -0.4460446536540985 0.18626080453395844
-0.009627520106732845 0.22887340188026428 -0.09056508541107178
0.1542297750711441 -0.1901279240846634 0.1536688208580017
0.29774361848831177 0.4564914405345917 0.11050532758235931
0.22893254458904266 -0.010988682508468628 0.16667768359184265
0.036517754197120667 0.04672111198306084 -0.13710905611515045
-0.19559143483638763 -0.24689483642578125 -0.12972895801067352
0.2863645851612091 -0.41804203391075134 0.1777399331331253
0.22583143413066864 0.5127686262130737 0.0910017192363739
0.02921966090798378 0.15282726287841797 0.16849616169929504
-0.27808234095573425 0.005151741206645966 -0.13308008015155792
-0.022037753835320473 0.22790969908237457 0.0309528149664402
-0.2116336226463318 0.002862557303160429 0.16760192811489105
-0.21417702734470367 -0.3473000228404999 -0.0747145265340805
-0.25369343161582947 0.017205704003572464 0.1526227742433548
0.0218962375074625 0.20993325114250183 -0.16172896325588226
-0.26866719126701355 -0.12072984129190445 -0.127311110496521
-0.0817614495754242 -0.17798587679862976 0.15824803709983826
0.23657648265361786 0.37938013672828674 -0.08479040116071701
0.27775463461875916 -0.43974608182907104 0.0337168350815773
0.2907308340072632 0.00703347846865654 0.155498668551445
0.2686508297920227 0.22690877318382263 0.08312816172838211
0.06424097716808319 -0.18737751245498657 0.15230825543403625
-0.15963634848594666 0.3734212815761566 0.07127054780721664
0.22959142923355103 0.03469087556004524 0.16851377487182617
-0.15413610637187958 -0.29714083671569824 0.004960088524967432
-0.06978895515203476 0.13686710596084595 0.16351893544197083
-0.037723444402217865 0.22717879712581635 0.020577173680067062
-0.2620704472064972 0.07065344601869583 -0.13112059235572815
-0.0940401628613472 0.16649052500724792 0.15739354491233826
0.29208600521087646 -0.04641047865152359 0.1523599624633789
0.2807096540927887 -0.25411051511764526 -0.0483110249042511
0.28692927956581116 -0.20357976853847504 -0.1343410760164261
0.2669462561607361 0.3162277340888977 -0.0237444881349802
-0.27088463306427 0.04090823233127594 -0.12549558281898499
-0.1861085295677185 0.00016547739505767822 -0.1343715339899063
0.19899016618728638 0.43528395891189575 -0.06460097432136536
-0.2035357505083084 -0.428818017244339 0.12462474405765533
0.04497750848531723 0.14333178102970123 -0.1358402818441391
-0.26816296577453613 -0.03772817924618721 -0.12872837483882904
0.177822083234787 0.22618503868579865 -0.14014852046966553
0.2230527102947235 -0.24016280472278595 -0.1353207379579544
-0.26284024119377136 0.37780332565307617 -0.006986845284700394
0.1501428484916687 -0.121632881462574 -0.14045315980911255
0.2758021950721741 0.13101305067539215 0.15409135818481445
-0.3332307040691376 -0.3873409330844879 0.059763599187135696
0.16370889544487 -0.44593095779418945 0.10293547809123993
-0.15671367943286896 0.22562456130981445 -0.07268598675727844
0.19553035497665405 -0.24659980833530426 0.1402522474527359
0.04228764772415161 -0.24582159519195557 -0.13784995675086975
0.19478090107440948 0.22692401707172394 -0.1371549665927887
0.08056790381669998 -0.18848943710327148 0.1468631625175476
0.2827742099761963 -0.4278745651245117 -0.01289919763803482
-0.13354647159576416 -0.17242097854614258 0.16750028729438782
0.23231744766235352 -0.29009273648262024 0.08147408068180084
-0.2871773838996887 -0.4460698068141937 -0.08063863962888718
0.28604450821876526 -0.05769059807062149 -0.13599728047847748
-0.26994749903678894 -0.003902684897184372 -0.12836617231369019
-0.20806455612182617 -0.3146841526031494 -0.06915366649627686
-0.15661408007144928 0.44566696882247925 0.03945260867476463
-0.31973230838775635 -0.3350647985935211 0.13401436805725098
0.029028531163930893 0.13576069474220276 -0.13594967126846313
0.29494738578796387 -0.19169284403324127 0.1369214653968811
0.20227062702178955 -0.4448768198490143 0.06842905282974243
-0.1771659255027771 0.22614869475364685 -0.042587630450725555
-0.2525849938392639 -0.2510269284248352 0.07606031745672226
-0.2740573585033417 -0.2142990678548813 -0.12906640768051147
0.11856228858232498 -0.18687480688095093 0.1516493707895279
-0.2687048316001892 0.000977708026766777 0.1386054903268814
0.213052898645401 0.0029688049107789993 -0.14039026200771332
-0.27081725001335144 0.03652682900428772 -0.12990806996822357
0.2803271412849426 -0.22253718972206116 -0.13450980186462402
-0.2699264585971832 0.03781917691230774 -0.12888512015342712
-0.20344343781471252 0.14455345273017883 0.16398458182811737
0.11955451965332031 -0.25140535831451416 0.06645211577415466
-0.29107919335365295 0.025521881878376007 -0.27808430790901184
0.29197943210601807 0.2108287215232849 0.14272618293762207
0.29355406761169434 -0.0007367543876171112 0.1578279435634613
0.29109641909599304 0.21431273221969604 0.13464856147766113
0.15748122334480286 -0.3250584304332733 0.04001665115356445
0.27480775117874146 -0.016241928562521935 -0.13935643434524536
0.2800291180610657 -0.44464242458343506 0.17046253383159637
-0.26195329427719116 -0.45818111300468445 -0.0691269263625145
-0.26767697930336 -0.07238871604204178 -0.1282113790512085
0.20917128026485443 0.23010088503360748 0.06645925343036652
-0.2978805601596832 -0.3143307864665985 0.12859582901000977
-0.2687162160873413 -0.0017842315137386322 0.1424451768398285
0.28520146012306213 -0.16827484965324402 -0.13255517184734344
-0.21724337339401245 -0.46813610196113586 0.03462027758359909
-0.17967556416988373 0.18332768976688385 -0.13460488617420197
0.005972806364297867 0.03209545463323593 -0.1332368403673172
-0.14521974325180054 -0.2472771257162094 -0.12826712429523468
0.06116698682308197 -0.09748232364654541 0.16707460582256317
-0.33564120531082153 -0.4049122929573059 -0.02119404636323452
-0.2863733470439911 -0.43956199288368225 0.0344490222632885
0.22923694550991058 0.18939751386642456 0.1543433964252472
-0.03147315979003906 -0.25004851818084717 0.13213053345680237
0.2456904947757721 -0.11823657900094986 0.16229741275310516
0.12943154573440552 0.22526772320270538 -0.14159619808197021
-0.2704453766345978 0.002134854905307293 0.07728403061628342
-0.09772788733243942 0.20999352633953094 0.16013997793197632
0.22177410125732422 -0.24052977561950684 -0.13686951994895935
0.11045132577419281 0.15832823514938354 0.1621738076210022
-0.1651766002178192 -0.1722445785999298 0.16594897210597992
0.2947193384170532 0.21792614459991455 0.14739637076854706
0.17074720561504364 -0.4466632306575775 0.03770287334918976
0.2938992977142334 0.20718789100646973 0.15429529547691345
-0.2627891004085541 0.43176978826522827 0.037949468940496445
0.2609516382217407 -0.28676706552505493 0.02620995044708252
-0.02281830459833145 0.22743284702301025 -0.13259491324424744
0.21880492568016052 -0.40531256794929504 -0.08762843906879425
-0.0975598394870758 -0.24850663542747498 0.14461438357830048
-0.20720437169075012 -0.3670193552970886 0.1116258054971695
-0.03707586228847504 -0.2520851194858551 0.1322481334209442
-0.26681071519851685 0.18728064000606537 -0.12880536913871765
-0.2700492739677429 0.14616063237190247 -0.13069353997707367
0.14178243279457092 -0.1836337447166443 -0.1419067680835724
0.036423660814762115 0.19160744547843933 -0.13706360757350922
0.10283100605010986 0.1703139692544937 0.15619167685508728
0.23984698951244354 -0.032722778618335724 0.16684535145759583
0.15066270530223846 -0.4279351532459259 -0.041840702295303345
0.29529866576194763 -0.040008481591939926 0.07236600667238235
-0.19544674456119537 -0.4190080463886261 0.08488015830516815
0.2961888313293457 -0.16404126584529877 -0.03133142739534378
0.039800070226192474 0.17937423288822174 -0.13617320358753204
0.05323386937379837 -0.11343836784362793 -0.13798344135284424
-0.20242945849895477 0.21936604380607605 -0.13453839719295502
0.002543812617659569 0.1693187952041626 0.15452469885349274
0.14199531078338623 -0.3953719437122345 -0.013568244874477386
0.02079608477652073 -0.19163013994693756 -0.13966572284698486
-0.2687678635120392 -0.13796231150627136 -0.125654399394989
-0.27075058221817017 0.00752311572432518 -0.12792089581489563
-0.27256861329078674 -0.07529158145189285 -0.13459499180316925
-0.2662692964076996 -0.30155879259109497 0.007603676989674568
0.2781410813331604 -0.4427672028541565 0.10957988351583481
-0.2007746398448944 0.22591286897659302 -0.12969237565994263
0.2527693808078766 0.030737869441509247 -0.13788540661334991
0.15713030099868774 -0.23539192974567413 -0.13234513998031616
-0.20844493806362152 -0.011202266439795494 0.16943621635437012
0.2721911668777466 -0.23635846376419067 -0.1374126523733139
-0.13828466832637787 -0.2501015365123749 0.06215676665306091
0.28502485156059265 0.0480637326836586 -0.13546477258205414
0.29774612188339233 0.07492527365684509 0.14530731737613678
-0.24828292429447174 0.22441793978214264 -0.04218437522649765
-0.24866081774234772 0.03802327811717987 -0.29821449518203735
0.14706888794898987 0.22650621831417084 -0.13943834602832794
-0.21415084600448608 -0.4351808428764343 0.15263476967811584
-0.005401310510933399 0.2266538143157959 -0.13892073929309845
0.2797738313674927 0.07304245978593826 -0.1316249668598175
0.2534385025501251 -0.3295535445213318 0.11469515413045883
-0.31364598870277405 -0.4215176999568939 -0.030986906960606575
-0.04074211046099663 0.1571742445230484 -0.18398264050483704
0.18783216178417206 -0.23450809717178345 -0.13685983419418335
0.29526472091674805 0.17519140243530273 0.008349552750587463
0.29313215613365173 0.2147059589624405 0.15335144102573395
0.24088798463344574 -0.02930387854576111 0.16129133105278015
0.19594286382198334 0.3310526907444 -0.027425728738307953
0.2095378041267395 -0.24923983216285706 0.08986374735832214
0.13118496537208557 -0.4179871082305908 0.06713533401489258
0.06508855521678925 -0.237848162651062 -0.1334063857793808
0.2824907600879669 -0.08270113170146942 -0.13685131072998047
0.16684341430664062 0.2276521623134613 -0.1403384804725647
-0.16119930148124695 0.399179071187973 -0.018285509198904037
0.2804611325263977 -0.1201336607336998 -0.13277840614318848
-0.26287606358528137 -0.05218060314655304 -0.13354963064193726
-0.07847253978252411 0.22186002135276794 -0.13624300062656403
0.10061459243297577 -0.2482871562242508 -0.13551801443099976
-0.27203354239463806 0.12252439558506012 -0.1287364512681961
0.14883080124855042 -0.3761814534664154 0.11919128894805908
-0.2210264950990677 0.22195552289485931 -0.13352586328983307
-0.2606378197669983 0.2146562933921814 -0.13399992883205414
-0.028879959136247635 0.2276412546634674 0.10171446949243546
-0.26370352506637573 0.3672659993171692 0.024500571191310883
-0.25966909527778625 -0.053710006177425385 -0.131998673081398
-0.13877111673355103 -0.25351575016975403 -0.024986647069454193
0.29956087470054626 0.4412180185317993 0.04478606581687927
0.08588283509016037 -0.2475678026676178 -0.12816771864891052
0.07051260769367218 -0.2511136531829834 -0.10147079825401306
0.29255127906799316 -0.05978073924779892 0.159048929810524
0.2946683466434479 -0.15286044776439667 0.15311019122600555
-0.2661076486110687 0.18100202083587646 -0.13136596977710724
0.004575834609568119 0.23338404297828674 -0.18612994253635406
0.29479318857192993 -0.2112579345703125 0.14007101953029633
0.14388702809810638 0.22823110222816467 -0.14042367041110992
-0.002863273024559021 -0.22680887579917908 0.15284396708011627
0.20475110411643982 -0.24035491049289703 -0.1377897411584854
-0.18185605108737946 -0.24876567721366882 0.14674903452396393
0.19476626813411713 0.31800273060798645 0.01835905760526657
0.19856330752372742 -0.24792271852493286 -0.11830373108386993
0.2845807373523712 0.4812229573726654 -0.01538237277418375
0.291708379983902 0.22092407941818237 0.12831588089466095
-0.23738646507263184 -0.05652908235788345 0.15348808467388153
-0.05469178780913353 -0.17436903715133667 0.1681903749704361
0.20948059856891632 -0.23819126188755035 -0.1366153061389923
0.05490594357252121 0.22643287479877472 -0.13050059974193573
-0.26332277059555054 0.18047082424163818 -0.13399246335029602
0.27356579899787903 -0.23112714290618896 -0.13717374205589294
0.19306953251361847 -0.24885903298854828 -0.1340528428554535
0.2313142567873001 -0.10996568202972412 0.17136092483997345
0.29401764273643494 0.13229361176490784 -0.06635268777608871
0.18021082878112793 -0.2551093101501465 -0.09912717342376709
0.21738411486148834 0.5072739124298096 0.08946257829666138
-0.1951465606689453 -0.17620640993118286 0.15809783339500427
0.23763510584831238 -0.2936255931854248 0.08847179263830185
0.24611559510231018 0.4122409224510193 0.10299848020076752
0.1962415724992752 -0.3178156018257141 0.08704837411642075
-0.24635712802410126 0.3317379355430603 -0.017570191994309425
-0.027521319687366486 -0.2524825632572174 -0.060587696731090546
0.08963334560394287 0.16912472248077393 0.15699872374534607
0.2682318687438965 0.19280782341957092 0.1561983823776245
-0.30819031596183777 -0.33783531188964844 0.047627657651901245
0.285393089056015 -0.15788257122039795 -0.13526086509227753
-0.25468453764915466 -0.3377380669116974 0.14578847587108612
0.2890503704547882 0.47705861926078796 0.09235113859176636
-0.26661017537117004 -0.32445788383483887 0.13818737864494324
0.007447881158441305 -0.24903136491775513 0.09646575152873993
0.3040149211883545 0.40807434916496277 0.04941190779209137
0.07539162784814835 0.22607813775539398 -0.13835354149341583
0.18541976809501648 0.34088563919067383 -0.020572690293192863
-0.29025521874427795 0.07387062907218933 -0.2938493490219116
0.047514475882053375 0.015069782733917236 0.16617989540100098
-0.2702261805534363 0.00428289407864213 -0.12931574881076813
-0.02626873180270195 -0.04493950307369232 0.16909079253673553
0.29668715596199036 -0.14088936150074005 0.15280956029891968
0.2291223555803299 -0.3047417998313904 -0.07329216599464417
0.25483739376068115 -0.44346994161605835 -0.05043938755989075
0.2835451662540436 0.02871159464120865 -0.13460871577262878
-0.040407612919807434 0.22316446900367737 -0.1316494643688202
-0.24052070081233978 -0.3687829077243805 0.17698147892951965
0.2006664276123047 -0.40584084391593933 -0.0790838748216629
-0.2670222222805023 0.11927900463342667 -0.13738572597503662
0.27199146151542664 -0.2504960596561432 -0.13341158628463745
-0.19704997539520264 -0.40057316422462463 0.12315670400857925
0.22698292136192322 -0.2479691058397293 0.10554128885269165
0.032965026795864105 0.09048581123352051 -0.13568349182605743
0.21328623592853546 0.22619931399822235 0.07556736469268799
0.08994262665510178 0.22736455500125885 -0.13311421871185303
-0.270888090133667 0.0869997963309288 -0.12993749976158142
0.23537671566009521 -0.1777724027633667 0.16162267327308655
-0.041029948741197586 -0.2116566300392151 0.1532255858182907
0.1562521904706955 -0.2380460500717163 -0.13852588832378387
-0.24602282047271729 -0.3460952937602997 0.15132108330726624
0.2659066617488861 -0.2487698793411255 -0.13207343220710754
-0.22165164351463318 -0.22379861772060394 0.15557390451431274
0.1403936743736267 0.19878323376178741 0.1558479219675064
-0.2604507803916931 -0.2459656447172165 0.1336369663476944
-0.2422143518924713 -0.03316652029752731 0.15265996754169464
0.15043115615844727 -0.44617754220962524 0.09425048530101776
-0.270155131816864 -0.17316314578056335 -0.13556215167045593
0.011956137605011463 -0.2495357096195221 0.11745533347129822
0.2195454239845276 -0.24918587505817413 0.0914529412984848
-0.2706364393234253 0.18493184447288513 -0.1323820799589157
-0.005719930864870548 -0.2486514300107956 -0.09561537951231003
-0.16023968160152435 -0.3292388916015625 -0.013749015517532825
0.19787991046905518 -0.44440653920173645 0.17694135010242462
-0.1841370016336441 0.22833089530467987 0.059443794190883636
-0.021997777745127678 0.22784832119941711 -0.13364143669605255
-0.040980782359838486 0.14549307525157928 -0.179610937833786
-0.2734547257423401 0.1002473309636116 -0.1316169947385788
0.2816428542137146 0.22752666473388672 0.08227843791246414
-0.26986655592918396 0.19764938950538635 -0.12952156364917755
0.2989502549171448 0.3589462637901306 0.04961182177066803
0.2951004207134247 -0.05944998189806938 0.15926852822303772
-0.20101238787174225 0.2034125179052353 0.15623322129249573
0.16648201644420624 -0.4442691206932068 0.0003177523612976074
0.19909769296646118 0.3157423138618469 0.012968102470040321
-0.2084425687789917 -0.055077433586120605 0.1674845665693283
0.29931947588920593 0.4440336227416992 0.05671079829335213
0.279727041721344 0.21885429322719574 -0.13549388945102692
-0.23272018134593964 -0.4800556004047394 0.030416060239076614
-0.19955167174339294 -0.43246132135391235 -0.03298744559288025
0.2013091892004013 -0.4481912851333618 -0.03726375102996826
0.031887393444776535 0.22622378170490265 -0.1377509981393814
-0.18802550435066223 -0.399174302816391 0.07846581190824509
-0.07298444211483002 -0.24950142204761505 0.1483364999294281
0.04843100905418396 0.14159271121025085 -0.2058483362197876
0.2558070421218872 -0.25196516513824463 0.10477079451084137
0.12967067956924438 -0.24335861206054688 -0.13762767612934113
-0.26796093583106995 0.1968173086643219 0.1289762258529663
-0.15844754874706268 0.22736668586730957 -0.13272085785865784
0.22573697566986084 -0.23956361413002014 -0.13770848512649536
0.038497380912303925 0.22608834505081177 -0.13473749160766602
0.2912803590297699 0.07890181243419647 -0.13494697213172913
-0.2655912935733795 0.16364683210849762 -0.13445022702217102
0.154159277677536 -0.24754707515239716 -0.13537105917930603
0.2100706696510315 -0.4448150396347046 -0.052326202392578125
-0.10085985064506531 0.22685357928276062 -0.13455896079540253
-0.017629997804760933 0.22719326615333557 0.023860972374677658
-0.2701624035835266 -0.010716810822486877 -0.12880735099315643
0.15649883449077606 0.22790397703647614 0.1315508484840393
-0.2669370472431183 0.1748332977294922 -0.139373317360878
-0.13368704915046692 0.05714525654911995 -0.13265502452850342
-0.10549074411392212 0.22627343237400055 -0.12907922267913818
0.2957252264022827 -0.18290892243385315 -0.058903731405735016
-0.3108921945095062 -0.3432275354862213 0.03752592206001282
-0.2639162540435791 0.42557045817375183 0.022929517552256584
0.007785199210047722 0.15855906903743744 0.16616563498973846
-0.28726035356521606 -0.3794551193714142 -0.08720660209655762
-0.27272769808769226 -0.12614287436008453 -0.12540312111377716
-0.26777344942092896 0.20574672520160675 -0.13321058452129364
0.29365429282188416 0.22870400547981262 0.017768792808055878
0.26811665296554565 -0.4435426592826843 0.08038829267024994
-0.27118873596191406 0.14254163205623627 0.13309510052204132
-0.24853640794754028 -0.35611072182655334 -0.0909552350640297
0.009904659353196621 0.17411133646965027 -0.13404583930969238
-0.27230095863342285 -0.2274213433265686 -0.03894766420125961
0.2955039441585541 0.3552064001560211 -0.0097327446565032
0.15884196758270264 -0.29671815037727356 0.007988888770341873
0.2935023009777069 -0.22244496643543243 0.11834882944822311
0.2945577800273895 0.17127487063407898 0.15032213926315308
-0.27140963077545166 0.07177021354436874 -0.10262081027030945
-0.20939306914806366 0.09336668252944946 0.166146382689476
-0.28735771775245667 -0.03870437666773796 -0.24437330663204193
0.12758928537368774 0.22532200813293457 -0.14140574634075165
0.02302912063896656 -0.2510010004043579 0.08310029655694962
-0.27128416299819946 -0.11848779022693634 -0.1298426389694214
-0.20908653736114502 -0.4280361831188202 0.11568666994571686
0.2972823977470398 0.21303507685661316 -0.07141521573066711
-0.18837863206863403 0.2253255844116211 -0.12823905050754547
-0.16131992638111115 -0.2897838056087494 -0.02911277860403061
-0.018345491960644722 -0.25270676612854004 -0.013241707347333431
-0.08234841376543045 -0.20940198004245758 0.1521807312965393
-0.26757583022117615 0.1940537542104721 0.132889986038208
-0.26866409182548523 -0.04401593655347824 0.13582003116607666
0.2004067599773407 0.15958577394485474 -0.13591624796390533
-0.04557960107922554 0.22309023141860962 0.12358012795448303
-0.21518655121326447 -0.08901812136173248 0.16724549233913422
-0.2635424733161926 0.40929466485977173 -0.02179030328989029
-0.18010076880455017 -0.2519422173500061 -0.13130059838294983
