-0.20116102695465088 -0.2552741467952728 -0.058261774480342865
-0.25566697120666504 -0.2365618348121643 0.15762677788734436
0.27540868520736694 -0.4419243335723877 0.18841961026191711
-0.19377030432224274 0.4736982583999634 0.09746912866830826
0.29527366161346436 0.043641310185194016 -0.1278299242258072
0.298723042011261 0.07726538926362991 -0.12389442324638367
-0.2562542259693146 0.03609108552336693 -0.3105989992618561
0.040646035224199295 0.23564542829990387 -0.2380104511976242
-0.32559365034103394 -0.34092187881469727 0.18896478414535522
0.23424890637397766 -0.24508413672447205 -0.13629981875419617
-0.03797980397939682 0.3200492262840271 -0.2891788184642792
-0.2458128035068512 0.2552506625652313 -0.33510851860046387
-0.05003034695982933 0.22295106947422028 0.15220756828784943
-0.20208770036697388 0.492099791765213 0.11090109497308731
0.29705098271369934 0.19317734241485596 -0.1255258172750473
-0.22081226110458374 -0.03623194247484207 0.1623343527317047
-0.26606249809265137 0.2265525609254837 0.04440454766154289
0.25601479411125183 0.12242159247398376 0.1543235331773758
-0.22374826669692993 -0.4601178765296936 0.09418486058712006
0.06386372447013855 -0.20028650760650635 0.15444378554821014
0.21517890691757202 -0.42989903688430786 0.2035878300666809
0.25352227687835693 -0.25208213925361633 0.023540765047073364
0.0811808630824089 0.21293671429157257 0.15647727251052856
0.21413859724998474 0.2495298981666565 0.02501392737030983
-0.26854196190834045 0.012149790301918983 -0.12556380033493042
0.27890682220458984 0.22442775964736938 -0.13177739083766937
-0.20498600602149963 0.2866654694080353 0.04142606630921364
0.052052516490221024 0.1709795892238617 -0.20615306496620178
0.23209115862846375 0.2722276449203491 0.040653254836797714
0.28220584988594055 0.22705349326133728 0.055006105452775955
-0.20253852009773254 0.4750223457813263 -0.05617571249604225
-0.223317489027977 -0.4647584855556488 0.06941346824169159
0.27023375034332275 -0.3586128056049347 0.1402186155319214
-0.22326157987117767 0.33533984422683716 -0.04953570291399956
0.21596136689186096 0.37367546558380127 0.11670785397291183
0.24283333122730255 0.4865453541278839 -0.06799029558897018
0.267913818359375 0.12209312617778778 0.15739955008029938
0.1596345603466034 0.1757151186466217 0.1497180014848709
0.235385000705719 0.15370969474315643 0.1682414710521698
-0.025060541927814484 0.21276472508907318 -0.22577300667762756
-0.24330756068229675 0.314423143863678 0.007854976691305637
-0.24816273152828217 -0.02728917822241783 -0.23867785930633545
-0.20208857953548431 0.1652671843767166 0.1603444367647171
0.2511833906173706 0.26406070590019226 -0.020042600110173225
-0.22863984107971191 -0.1908600926399231 0.1486676186323166
-0.0012186169624328613 0.22572016716003418 -0.13005343079566956
-0.019677773118019104 0.12573440372943878 -0.20426709949970245
-0.24705995619297028 0.25077447295188904 -0.35909900069236755
-0.25157517194747925 0.24611780047416687 -0.3556137681007385
0.27316349744796753 0.24266879260540009 0.020944183692336082
0.250558465719223 0.06111079454421997 0.15657183527946472
-0.26122501492500305 0.15333043038845062 0.1559145599603653
-0.24460291862487793 -0.0075280917808413506 -0.24287737905979156
-0.03656928986310959 0.17216920852661133 0.15371353924274445
-0.232578843832016 -0.43265432119369507 0.1775912493467331
-0.33827081322669983 -0.3457237780094147 0.15803083777427673
-0.23849405348300934 -0.2521604895591736 -0.03537016361951828
0.29564961791038513 -0.14960981905460358 -0.12639808654785156
0.24557825922966003 0.49517783522605896 -0.05693219229578972
-0.24535121023654938 0.24010419845581055 0.008581153117120266
-0.2706161439418793 0.04542370140552521 -0.13464829325675964
-0.2692790627479553 0.21904926002025604 0.0811418741941452
-0.25080692768096924 -0.02160905860364437 -0.23146012425422668
-0.2330552190542221 0.44790196418762207 -0.07023254036903381
-0.2688811123371124 -0.25249817967414856 -0.01294614002108574
0.19405223429203033 -0.2563197612762451 -0.03785666078329086
-0.034497473388910294 0.1796315610408783 -0.1580033004283905
0.27056416869163513 0.41527825593948364 0.10928504914045334
0.26497066020965576 0.504788339138031 0.11119711399078369
-0.23992294073104858 0.21326161921024323 0.15691877901554108
0.242844358086586 0.2191074937582016 -0.13606737554073334
0.25273025035858154 0.2746330201625824 0.03796625882387161
-0.22175662219524384 0.30355286598205566 -0.023098064586520195
-0.23595713078975677 -0.14534686505794525 0.15244972705841064
-0.028617411851882935 0.17911843955516815 -0.21229121088981628
0.00995902344584465 0.28948095440864563 -0.2764747142791748
0.07317805290222168 0.17552028596401215 0.15216802060604095
0.2477666288614273 0.25883620977401733 -0.023082464933395386
-0.17271417379379272 0.3350154459476471 0.04819713532924652
-0.07182373851537704 -0.19022893905639648 0.15349701046943665
0.2407011240720749 0.5160017609596252 0.021923493593931198
-0.08301585167646408 0.32510456442832947 -0.3199533522129059
-0.17139960825443268 0.3355870842933655 -0.340860515832901
0.2817595601081848 -0.023367146030068398 0.15632781386375427
0.0684368908405304 -0.1801091581583023 0.16504371166229248
-0.19501815736293793 0.321079820394516 -0.3355691730976105
0.2899610102176666 0.22835923731327057 -0.08364542573690414
0.23771104216575623 -0.2685419023036957 -0.056243788450956345
-0.25966981053352356 0.16154728829860687 -0.3120471239089966
-0.16233937442302704 0.173557311296463 0.15500915050506592
-0.040240269154310226 0.17913466691970825 -0.17146937549114227
-0.33391159772872925 -0.3610899746417999 0.08150473982095718
-0.26122215390205383 -0.4696980118751526 -0.04925184324383736
0.24329932034015656 0.5125077366828918 0.10421328246593475
0.18693087995052338 0.22488360106945038 0.15340746939182281
0.2714431881904602 -0.3425593674182892 0.12061455100774765
-0.21644020080566406 0.27442649006843567 -0.023591361939907074
0.2589748501777649 -0.31044846773147583 0.09337146580219269
0.21838192641735077 0.32064229249954224 -0.03999309986829758
-0.2561991512775421 -0.06979863345623016 0.15599896013736725
-0.18705368041992188 -0.24262867867946625 -0.13185465335845947
0.28307491540908813 0.22236555814743042 -0.13399462401866913
0.10786979645490646 0.22936517000198364 0.13688549399375916
-0.11117710173130035 0.17871086299419403 0.15676000714302063
-0.1298569142818451 0.17787350714206696 0.15493585169315338
0.05742500349879265 -0.18448740243911743 0.16411542892456055
-0.27042192220687866 -0.12117455154657364 -0.12473366409540176
-0.24781733751296997 -0.21534501016139984 0.15450285375118256
0.29883381724357605 0.20440086722373962 -0.047444265335798264
0.28681692481040955 0.3334389626979828 -0.025943636894226074
-0.2160942256450653 0.23535235226154327 0.04995942860841751
-0.09638874232769012 0.22705303132534027 -0.12794506549835205
-0.27330848574638367 0.20221811532974243 0.029339531436562538
-0.25729677081108093 -0.2508317828178406 -0.04060626029968262
0.015926947817206383 0.17724306881427765 -0.1367592215538025
0.030351921916007996 0.22881439328193665 -0.11644762754440308
0.19271035492420197 -0.25165870785713196 0.1401803195476532
-0.15459130704402924 0.420294851064682 0.05557388812303543
-0.17461925745010376 0.2278616726398468 0.14407895505428314
-0.27033382654190063 0.1523648202419281 -0.12826921045780182
0.29090529680252075 0.21670986711978912 -0.13595519959926605
-0.23917824029922485 0.27877697348594666 0.014957917854189873
-0.21470901370048523 0.3930326998233795 -0.08349554240703583
-0.2676520347595215 -0.016778096556663513 -0.13476240634918213
0.13299812376499176 0.16937100887298584 0.15025052428245544
0.26523593068122864 -0.3357752859592438 -0.07138745486736298
-0.02607838809490204 -0.24932457506656647 -0.12528909742832184
0.2942967116832733 0.14902982115745544 -0.13622945547103882
-0.22692857682704926 0.22954820096492767 0.06100935488939285
-0.2581922709941864 -0.31262704730033875 0.11377954483032227
0.12309439480304718 0.22366449236869812 -0.13383877277374268
0.2068536877632141 0.3203740417957306 0.0437222383916378
0.29437491297721863 0.07861969619989395 -0.135503888130188
-0.2705940306186676 0.19425123929977417 0.045224811881780624
0.25377997756004333 0.33827483654022217 0.09798366576433182
-0.2677396833896637 0.1783207654953003 0.15471236407756805
-0.23790350556373596 -0.465372234582901 0.07490859180688858
0.06280021369457245 -0.1841573715209961 -0.13548241555690765
0.19366100430488586 0.38789576292037964 0.1148601770401001
0.28828123211860657 0.3468930125236511 -0.051048558205366135
0.29836222529411316 -0.23953008651733398 0.07458414882421494
-0.2427537590265274 -0.25027287006378174 0.0790342465043068
0.25873592495918274 -0.02424553781747818 0.1544690579175949
-0.03856034576892853 0.22630994021892548 0.15216492116451263
-0.2020597755908966 -0.256700724363327 -0.05812206491827965
-0.04520970582962036 0.22825483977794647 -0.1334036886692047
-0.27196210622787476 -0.2223508358001709 -0.13518035411834717
-0.24538952112197876 -0.38837167620658875 0.1987723708152771
-0.2803559899330139 -0.057206328958272934 -0.27911773324012756
0.16019266843795776 0.22829511761665344 -0.12287884205579758
0.2330019325017929 -0.25255319476127625 -0.05879616737365723
0.23479583859443665 -0.4432079792022705 -0.035171378403902054
0.28430700302124023 0.019241519272327423 -0.13603684306144714
-0.25851964950561523 0.0019520174246281385 0.1544751673936844
0.29710468649864197 -0.20422019064426422 -0.025236349552869797
0.035290785133838654 0.1522519886493683 0.16659705340862274
0.26184970140457153 -0.2485291212797165 -0.006906935945153236
-0.17712567746639252 0.47677433490753174 -0.02943357080221176
-0.2985319495201111 -0.3836589455604553 -0.08114831149578094
-0.2676483988761902 0.17723071575164795 -0.133828803896904
0.29441413283348083 0.2183663249015808 0.1551361232995987
-0.21847473084926605 0.0968465656042099 0.1608867645263672
0.1101636067032814 0.23062482476234436 0.14325690269470215
-0.2693904638290405 0.013550378382205963 -0.13429364562034607
-0.12840047478675842 0.22850532829761505 0.013085097074508667
-0.2711988091468811 -0.11896944791078568 0.07989034056663513
-0.025136927142739296 0.1716468781232834 0.15128570795059204
0.2981094419956207 0.21656428277492523 -0.027963045984506607
0.23990969359874725 0.37655818462371826 -0.09298115223646164
0.29636478424072266 -0.16459140181541443 0.15424127876758575
-0.26924410462379456 0.08795473724603653 0.14357230067253113
0.01292281411588192 -0.24958433210849762 0.1480725258588791
-0.26926252245903015 -0.18509647250175476 -0.1275147795677185
0.29077771306037903 0.15724703669548035 0.15602277219295502
0.2024579793214798 0.3429936468601227 -0.0523969866335392
-0.27126574516296387 -0.23134493827819824 -0.129521444439888
0.16912241280078888 -0.269557923078537 0.021397463977336884
-0.261305034160614 0.2066051959991455 -0.13623490929603577
-0.15538239479064941 0.44032877683639526 0.055695921182632446
0.1734948754310608 -0.44291388988494873 0.17880681157112122
-0.032996680587530136 0.0774473026394844 0.16866353154182434
0.19369497895240784 -0.24880194664001465 0.14747291803359985
-0.15212494134902954 0.2272002249956131 -0.08889201283454895
0.14232312142848969 -0.12300370633602142 0.1696685254573822
0.03149232640862465 0.08906307816505432 -0.13604184985160828
0.2850032448768616 -0.009619161486625671 -0.13649269938468933
0.12411844730377197 0.22675079107284546 -0.12994328141212463
0.2888144850730896 0.22678495943546295 -0.0697956383228302
-0.260358065366745 -0.32648909091949463 -0.0743749588727951
-0.2701053023338318 -0.04140300303697586 -0.0879444107413292
-0.24599161744117737 -0.07461860030889511 -0.24719633162021637
-0.26025307178497314 -0.07356640696525574 -0.1373591274023056
0.2776620388031006 -0.44372591376304626 0.1826588213443756
-0.15983404219150543 0.36495739221572876 0.04954816773533821
0.0035976096987724304 0.17252974212169647 0.15058866143226624
0.2918870151042938 -0.20686110854148865 0.15452119708061218
0.27783316373825073 0.4970996081829071 0.07965373247861862
0.2049267441034317 0.3061639666557312 0.026339754462242126
0.11509069055318832 0.2298128455877304 0.1451333463191986
0.11867070943117142 -0.24929392337799072 -0.12268001586198807
0.16035997867584229 0.22481507062911987 -0.13624721765518188
0.28141146898269653 0.22826744616031647 0.004558451473712921
-0.27028658986091614 0.15719634294509888 0.039772503077983856
0.17843826115131378 -0.25377312302589417 -0.02168840914964676
0.10519011318683624 0.22865599393844604 0.10897296667098999
-0.27188700437545776 0.21535000205039978 -0.07125167548656464
0.29877322912216187 -0.026400990784168243 0.14936190843582153
0.2758145332336426 0.3488668203353882 0.10999995470046997
0.2931132912635803 -0.4273693561553955 0.1491832137107849
-0.23536565899848938 0.226872518658638 -0.13528144359588623
-0.21410775184631348 -0.18854384124279022 0.16098496317863464
-0.19176208972930908 -0.23925985395908356 -0.1364380419254303
-0.16263824701309204 -0.2431086003780365 0.15555685758590698
0.19346123933792114 0.33817058801651 -0.03931582719087601
0.23891794681549072 -0.036237649619579315 0.17118985950946808
0.2390880286693573 0.3286623954772949 0.07034905254840851
-0.268934965133667 0.06985236704349518 -0.1339733898639679
0.21064907312393188 -0.421495646238327 -0.08599495142698288
0.12643669545650482 -0.19724512100219727 0.15141460299491882
-0.26790156960487366 0.2260798066854477 0.023740656673908234
-0.22111588716506958 0.1557939201593399 0.1562882512807846
-0.2695038318634033 -0.20500320196151733 -0.13496902585029602
-0.2689521312713623 -0.046188559383153915 0.15468716621398926
-0.0767938643693924 0.1497303545475006 0.17102348804473877
-0.21792349219322205 -0.4595259130001068 0.07767567783594131
0.2942708134651184 0.09857827425003052 -0.13450635969638824
-0.20747734606266022 0.23540835082530975 0.05163070559501648
0.2944624423980713 -0.07819399982690811 0.15470683574676514
0.2812137305736542 -0.25208985805511475 0.021762266755104065
-0.25385308265686035 0.22705335915088654 0.036036502569913864
0.03115989826619625 0.22510431706905365 -0.1331707239151001
-0.23216597735881805 -0.2629493176937103 0.052554450929164886
0.19836775958538055 0.4561980068683624 0.11110344529151917
0.29478999972343445 0.07302918285131454 0.15192100405693054
0.27149802446365356 -0.24895107746124268 -0.12413723021745682
0.15290841460227966 0.22555948793888092 0.15126612782478333
0.16784991323947906 -0.4092848300933838 0.18110904097557068
0.2646659016609192 0.2279963344335556 -0.03953591734170914
-0.2452525645494461 -0.46516627073287964 -0.04736223816871643
0.20944781601428986 0.5124799013137817 0.02012738399207592
-0.26847055554389954 0.04324968159198761 -0.13303661346435547
-0.24727943539619446 0.22755053639411926 -0.03986942023038864
0.18138104677200317 -0.24905407428741455 -0.13048183917999268
-0.2520630359649658 -0.3507115840911865 -0.09229325503110886
0.27042117714881897 -0.2523805499076843 -0.022664327174425125
0.21356157958507538 -0.44296130537986755 -0.035745877772569656
0.28182944655418396 0.3277494013309479 -0.02154184877872467
-0.10252256691455841 0.1591837853193283 0.16521160304546356
0.042743973433971405 0.1263195425271988 -0.20022384822368622
-0.04067286476492882 0.2248782366514206 -0.132796049118042
-0.21718111634254456 -0.032417453825473785 0.1638300120830536
-0.1676376909017563 0.38037800788879395 0.09913796186447144
-0.06778700649738312 -0.24203133583068848 -0.13470390439033508
0.08258713781833649 0.22852227091789246 -0.02632959559559822
0.29388609528541565 -0.2511412501335144 0.03702159970998764
0.115408755838871 -0.14546160399913788 -0.1372300535440445
0.13245612382888794 -0.25123530626296997 -0.12240500748157501
0.23738867044448853 -0.4435092806816101 0.009372258558869362
0.02812345325946808 0.08791929483413696 -0.13698536157608032
-0.01232164166867733 0.06718200445175171 0.16710954904556274
-0.2590809762477875 0.037822332233190536 -0.13509537279605865
-0.2127208560705185 -0.43239256739616394 0.14665445685386658
-0.2715529203414917 0.21805566549301147 0.09872105717658997
-0.33526182174682617 -0.3748391270637512 0.08461298048496246
-0.14458563923835754 0.1687159389257431 0.15450671315193176
0.1993037611246109 0.46935659646987915 0.11025124788284302
-0.2633771002292633 -0.4590112566947937 0.007538698613643646
-0.19981002807617188 0.3177204430103302 -0.027383945882320404
0.2957603931427002 0.051546722650527954 0.14368551969528198
-0.2676621377468109 -0.47102659940719604 -0.05094340443611145
-0.1593441218137741 0.41561251878738403 0.08931674063205719
0.29736196994781494 -0.24214407801628113 0.07502159476280212
0.20061686635017395 -0.25206950306892395 -0.0636618584394455
0.29710882902145386 0.07329090684652328 -0.038300059735774994
-0.28786322474479675 -0.004031286109238863 -0.24222013354301453
-0.269020140171051 0.046189405024051666 -0.13321098685264587
-0.2271706461906433 0.4998933970928192 0.007691556587815285
0.2808201313018799 0.22674055397510529 -0.023981355130672455
-0.1490073949098587 -0.2545912265777588 0.0425911545753479
-0.2671615481376648 -0.20362144708633423 0.1536007523536682
0.1501268446445465 0.22602912783622742 -0.1193605363368988
-0.22767481207847595 -0.47490325570106506 -0.00284225819632411
-0.2417248785495758 -0.26720911264419556 0.04075850173830986
-0.2660469114780426 0.11693274229764938 -0.13414569199085236
0.2879943251609802 0.2210296094417572 -0.1320025771856308
-0.16945233941078186 0.3559547960758209 0.07527700811624527
-0.27273571491241455 0.12272168695926666 0.019969193264842033
0.0674901008605957 0.225727841258049 0.08524822443723679
0.16218434274196625 -0.24574309587478638 -0.13459521532058716
-0.270301878452301 0.22011679410934448 0.023683026432991028
-0.27058300375938416 0.21749015152454376 -0.10081815719604492
0.21927794814109802 -0.14042888581752777 -0.13633230328559875
-0.16547471284866333 0.1722261607646942 0.1505880057811737
0.08992213755846024 0.22609619796276093 -0.1145971342921257
-0.1796875149011612 -0.4060606062412262 0.015185732394456863
-0.26037731766700745 0.11033287644386292 0.15519821643829346
0.27710896730422974 0.3083488941192627 0.020614420995116234
-0.2850355803966522 -0.0018329787999391556 -0.30541038513183594
-0.2501581609249115 -0.3190588057041168 0.1216917484998703
-0.16643300652503967 0.23786000907421112 0.0035496894270181656
0.22840210795402527 -0.2528569996356964 -0.1258358210325241
-0.2696048617362976 0.007558627054095268 0.15401792526245117
0.2615039348602295 -0.3682314455509186 0.1609773486852646
0.29883313179016113 -0.09770634770393372 -0.0795363038778305
0.2770831286907196 0.4573298692703247 -0.059489279985427856
-0.2720504105091095 -0.24081474542617798 0.005449072457849979
-0.20374584197998047 0.3530051112174988 -0.06646424531936646
0.18714874982833862 0.4109061658382416 0.11208605766296387
0.19439658522605896 0.3837527632713318 0.1160513162612915
-0.2695189118385315 -0.24315285682678223 0.1356891691684723
0.0617876797914505 0.15553289651870728 0.16717228293418884
-0.20816007256507874 -0.4370516240596771 0.14148643612861633
0.29750576615333557 -0.06664309650659561 0.14454685151576996
-0.19687223434448242 0.22930923104286194 0.061588309705257416
-0.2586454153060913 0.3642131984233856 0.08174247294664383
0.2831084728240967 -0.4436410665512085 0.1616998016834259
0.25167256593704224 -0.32164859771728516 0.10521630942821503
-0.29704874753952026 -0.45661571621894836 -0.07126715779304504
0.20080246031284332 0.23092062771320343 0.030476393178105354
0.15156875550746918 -0.1982937902212143 0.15246939659118652
0.017519017681479454 0.23035255074501038 0.14143066108226776
-0.2291972041130066 0.09862779080867767 0.15296198427677155
-0.2708633840084076 -0.005015556700527668 0.020013883709907532
0.020379099994897842 -0.17707903683185577 0.16545535624027252
0.014451342634856701 0.18620565533638 -0.1370503455400467
-0.24946308135986328 -0.24365980923175812 -0.13153064250946045
-0.25886964797973633 -0.011144259944558144 -0.1367591768503189
0.2463645488023758 0.22066734731197357 0.1536102145910263
0.009772684425115585 0.10132448375225067 -0.18654215335845947
-0.3359310030937195 -0.35955581068992615 0.08420972526073456
-0.29179343581199646 0.07349613308906555 -0.28223854303359985
-0.32997211813926697 -0.367715448141098 0.13210149109363556
0.16499625146389008 -0.39453890919685364 0.17413443326950073
0.29971760511398315 0.1399105191230774 0.14786767959594727
0.2970656752586365 0.03413892537355423 0.1531854271888733
-0.2662109136581421 0.2189168632030487 -0.1335706114768982
-0.2356424182653427 -0.26144644618034363 -0.0159633569419384
0.1335088163614273 -0.2487560212612152 -0.12751586735248566
0.25179290771484375 -0.24401947855949402 -0.1344141662120819
-0.09206169098615646 -0.24925123155117035 -0.11835044622421265
-0.0010564196854829788 -0.23410680890083313 -0.13549408316612244
0.289720356464386 -0.25157469511032104 0.027874112129211426
0.29693493247032166 -0.12215569615364075 -0.12642048299312592
0.2998209297657013 0.1759064644575119 -0.12935154139995575
0.29649868607521057 0.20941874384880066 -0.04675158113241196
0.29457148909568787 -0.23961225152015686 -0.013988949358463287
0.02409333735704422 0.22508583962917328 -0.133078470826149
-0.26861321926116943 -0.017972785979509354 -0.13506533205509186
-0.21054458618164062 -0.2677169442176819 0.07759331166744232
-0.3054269254207611 -0.3628014624118805 -0.03983064740896225
-0.27896562218666077 -0.3550972044467926 -0.07863415777683258
-0.2625032067298889 -0.09852350503206253 0.1551441252231598
-0.06786586344242096 -0.2404136210680008 -0.13448239862918854
-0.1544020175933838 -0.24867501854896545 -0.12637123465538025
0.29019853472709656 0.2249605506658554 0.12657597661018372
-0.20144188404083252 0.22656379640102386 0.14319242537021637
0.2942306399345398 -0.05976814031600952 0.14420929551124573
-0.1724211573600769 0.231117844581604 0.03354458138346672
-0.15666671097278595 0.23185087740421295 0.017821669578552246
-0.0036753173917531967 0.2964884638786316 -0.2528265118598938
-0.20692706108093262 0.015945352613925934 0.1663290560245514
-0.22949643433094025 -0.27266940474510193 -0.05130627378821373
0.22468046844005585 0.5138973593711853 0.05344720557332039
0.2344023883342743 -0.18779276311397552 0.1620284765958786
0.294696182012558 0.41913947463035583 0.12650030851364136
0.054288435727357864 -0.25182023644447327 0.10211463272571564
0.29559680819511414 0.22280633449554443 -0.1067207008600235
0.25268393754959106 -0.13961535692214966 0.15115788578987122
0.1913752406835556 -0.4036213755607605 0.18866769969463348
-0.22064512968063354 -0.13218727707862854 0.15806986391544342
0.2962193787097931 -0.17148150503635406 0.14447399973869324
-0.21354970335960388 0.10162286460399628 0.16955392062664032
0.25288987159729004 0.4979795515537262 -0.04587424173951149
0.24628666043281555 -0.24945078790187836 0.13351501524448395
0.28928717970848083 -0.42566633224487305 0.1550062894821167
0.2010478675365448 0.22975479066371918 0.03595433011651039
-0.26940396428108215 -0.17545095086097717 -0.1322603076696396
0.1554919332265854 0.2276155799627304 0.1439608335494995
0.2921321988105774 -0.22390662133693695 0.15434186160564423
-0.26598283648490906 -0.24992488324642181 0.030226321890950203
0.2501077651977539 -0.2494594156742096 -0.12767723202705383
0.29912418127059937 -0.2521393299102783 0.018934935331344604
-0.091607004404068 -0.2508782148361206 0.08650591969490051
-0.32455331087112427 -0.33341890573501587 0.1739771068096161
-0.04845427721738815 0.15857335925102234 -0.13637065887451172
-0.2692274749279022 -0.20165514945983887 0.1433616280555725
-0.1673964262008667 0.3782007098197937 0.09690478444099426
0.2079346477985382 -0.16163378953933716 -0.13771633803844452
0.2788066267967224 0.3650197982788086 0.12844809889793396
0.219093918800354 0.4920637011528015 -0.053846556693315506
0.29825764894485474 -0.03360582888126373 -0.12810561060905457
-0.040389809757471085 0.21795020997524261 0.15458397567272186
0.22272567451000214 0.5006199479103088 -0.05022057145833969
0.03379698842763901 0.18699239194393158 -0.13803450763225555
0.2885248363018036 -0.4221745729446411 0.06379290670156479
0.24626895785331726 0.088606096804142 0.16004543006420135
0.010005127638578415 -0.030893605202436447 0.1686495542526245
0.11675587296485901 -0.24732555449008942 -0.13315342366695404
-0.22794027626514435 -0.449808806180954 0.1387905329465866
0.2903463542461395 0.21688584983348846 -0.13366422057151794
0.2531586289405823 -0.2849690616130829 -0.05587181821465492
-0.2797617018222809 -0.3966398537158966 -0.09536300599575043
-0.1567571461200714 -0.24072763323783875 -0.13442516326904297
0.20042577385902405 0.2311241179704666 -0.007663317024707794
0.014272425323724747 -0.190632626414299 0.1553717404603958
0.039095401763916016 0.1586928367614746 -0.2171536535024643
0.25601860880851746 0.4098640978336334 0.10379540920257568
-0.33279815316200256 -0.37541839480400085 0.09222035109996796
-0.2715483009815216 0.19209471344947815 -0.12233845889568329
-0.33634936809539795 -0.35993844270706177 0.11594595015048981
0.1119307205080986 0.2146020233631134 -0.13374805450439453
-0.025296920910477638 0.17261682450771332 0.15067628026008606
-0.18378043174743652 -0.25930309295654297 -0.04853149503469467
0.15396954119205475 -0.3615843951702118 0.1106821820139885
0.2655480206012726 0.34284138679504395 -0.06876755505800247
0.29484349489212036 -0.17461834847927094 0.15488722920417786
0.08014543354511261 -0.007790133357048035 -0.13692887127399445
-0.13281267881393433 0.2290157675743103 -0.1238299086689949
0.27745842933654785 -0.15981987118721008 -0.13577930629253387
0.28360557556152344 -0.2509200870990753 0.002917245030403137
0.19293037056922913 0.22670164704322815 0.15032993257045746
0.0011278348974883556 -0.23808887600898743 0.1543940305709839
-0.258029967546463 -0.11413154006004333 -0.13523496687412262
0.2797956168651581 0.3441392183303833 -0.05774421989917755
-0.25652584433555603 0.22780688107013702 -0.03274036571383476
0.18174618482589722 -0.249899223446846 -0.04247491434216499
0.2864876389503479 -0.44192540645599365 0.1283077746629715
-0.26018214225769043 -0.24876640737056732 0.14290405809879303
0.2717704772949219 -0.2522156834602356 -0.0270390547811985
-0.23627088963985443 0.25621750950813293 -0.014202950522303581
0.2983860373497009 0.02469222992658615 -0.02369742840528488
0.27819472551345825 0.22816495597362518 0.10371297597885132
0.2806898355484009 0.4546217918395996 0.12307733297348022
0.1563316434621811 -0.3901198208332062 0.15826071798801422
0.2445920705795288 0.06927050650119781 0.1609588861465454
0.2949411869049072 0.34268683195114136 -0.0075631579384207726
0.10024255514144897 -0.2431386560201645 0.1545318067073822
-0.26965999603271484 0.12210004031658173 0.14547941088676453
0.2629809081554413 -0.3322597146034241 -0.06949211657047272
-0.17280948162078857 -0.2528330683708191 0.07048358023166656
-0.1314464509487152 0.22810210287570953 -0.13042007386684418
0.2585625946521759 0.4917295277118683 0.12491670250892639
-0.23102103173732758 -0.4372950494289398 0.17195603251457214
-0.2912774384021759 -0.33954688906669617 0.19121602177619934
-0.26940858364105225 -0.24628251791000366 -0.12002849578857422
-0.26207491755485535 -0.0015360598918050528 0.15541322529315948
0.2666812837123871 0.23564885556697845 -0.02637569233775139
-0.2219296544790268 0.16469192504882812 0.15403348207473755
-0.005123872309923172 0.22612395882606506 -0.13431787490844727
-0.1649210900068283 -0.2650739252567291 -0.030542369931936264
0.0421777218580246 0.1514989286661148 0.16952423751354218
0.2977258563041687 0.21563449501991272 0.024605289101600647
-0.20798027515411377 0.23213733732700348 0.0625171810388565
-0.1753133088350296 0.24544155597686768 -0.009245380759239197
-0.2653438448905945 -0.47239235043525696 -0.041384439915418625
-0.1640666127204895 0.22651806473731995 -0.1306249350309372
0.006065323017537594 -0.24639666080474854 0.1532825082540512
-0.29467058181762695 -0.41572466492652893 -0.09284908324480057
0.3001634180545807 0.12864969670772552 -0.12012863159179688
0.07822507619857788 0.15898793935775757 0.16551004350185394
0.2921838164329529 -0.43043068051338196 0.08752235025167465
0.03007124550640583 0.09374373406171799 -0.13927185535430908
-0.22743859887123108 -0.24422110617160797 0.15456096827983856
-0.22585786879062653 0.5019246339797974 0.0005628373473882675
-0.20161738991737366 -0.23673632740974426 0.15515059232711792
-0.11808931827545166 0.2287897914648056 -0.12438351660966873
0.03636079281568527 0.15061122179031372 0.16772842407226562
-0.16211019456386566 -0.2363399714231491 0.1563303917646408
0.26276522874832153 0.45271533727645874 -0.08390259742736816
-0.2706790268421173 -0.008892081677913666 0.15067200362682343
-0.17379507422447205 0.35428744554519653 -0.04500793665647507
0.2827640771865845 -0.44096899032592773 0.16045448184013367
0.2989973723888397 0.15280699729919434 0.15238414704799652
-0.05530673637986183 -0.19464579224586487 0.15211933851242065
-0.2707446813583374 -0.23462536931037903 0.10205181688070297
-0.2694110572338104 0.21784448623657227 -0.1348872035741806
0.2968981862068176 0.2169894576072693 -0.053510718047618866
-0.1661582887172699 0.22325016558170319 -0.13498975336551666
0.25673815608024597 -0.3042946755886078 -0.06435690075159073
-0.07939198613166809 0.152666375041008 0.16903282701969147
-0.17084240913391113 0.23868773877620697 0.019404204562306404
-0.16230091452598572 -0.24742275476455688 -0.13333545625209808
0.21976187825202942 0.2422083467245102 -0.01975570246577263
-0.2589910924434662 -0.2503761649131775 0.10887469351291656
0.29208624362945557 0.1501554548740387 -0.13674406707286835
0.28269630670547485 0.09510479122400284 -0.13728263974189758
0.14715686440467834 0.22811254858970642 -0.12919850647449493
0.19632306694984436 -0.2811858654022217 0.0679759681224823
-0.2532230317592621 -0.13361498713493347 -0.13490860164165497
0.296401709318161 0.006692446768283844 -0.13038930296897888
-0.26032182574272156 0.1450442671775818 -0.13457566499710083
-0.26843318343162537 0.22565144300460815 0.07786161452531815
0.28747373819351196 -0.25047898292541504 -0.04044484719634056
-0.24684098362922668 0.4261564016342163 0.1092616617679596
0.15149164199829102 -0.44377198815345764 0.12693172693252563
-0.27128708362579346 0.10200856626033783 0.07455737888813019
0.295980304479599 -0.02934063971042633 0.14254646003246307
-0.16303807497024536 0.22894103825092316 0.0321132056415081
0.29563596844673157 -0.2462460696697235 0.14316299557685852
-0.2693719267845154 0.2174500972032547 0.09217440336942673
0.033863842487335205 0.22571618854999542 0.15267445147037506
0.20835097134113312 0.21477940678596497 -0.13644081354141235
-0.2358916848897934 -0.4603780508041382 0.08237635344266891
0.2536882758140564 0.1112038865685463 0.14912669360637665
0.29037874937057495 -0.2505868673324585 0.05009305104613304
-0.25975292921066284 0.22613385319709778 0.09448020160198212
0.28539687395095825 0.4069470465183258 0.12888136506080627
-0.26769962906837463 -0.2500358819961548 -0.004509914666414261
-0.15882103145122528 0.46056067943573 0.06647902727127075
0.2005644142627716 -0.23909161984920502 -0.1354866623878479
-0.1877865046262741 0.34136348962783813 -0.05084151029586792
-0.15580207109451294 -0.02175130695104599 -0.1355934590101242
0.20518754422664642 0.16598697006702423 0.15092560648918152
-0.027103211730718613 -0.25057247281074524 0.04187025502324104
0.17385253310203552 0.2143559455871582 0.15591922402381897
0.107869952917099 0.1677602380514145 0.15462177991867065
0.23637144267559052 -0.2835610508918762 0.08418867737054825
-0.07851620018482208 0.22814331948757172 -0.12954050302505493
-0.16071130335330963 -0.309928834438324 -0.02325177937746048
0.2998184859752655 0.21336400508880615 0.1278756558895111
0.26068007946014404 -0.24852634966373444 0.14208611845970154
0.1479894518852234 -0.3638845682144165 0.08400759845972061
-0.14569862186908722 0.2292291522026062 0.10048718005418777
0.23566271364688873 -0.2504931688308716 0.14655722677707672
-0.25604403018951416 -0.11878310889005661 -0.13424351811408997
-0.267529159784317 0.017135702073574066 -0.13399440050125122
-0.02608911506831646 0.10387908667325974 -0.13399043679237366
0.28616800904273987 -0.04563644528388977 -0.13644352555274963
0.10615929961204529 0.1707296371459961 0.15165787935256958
0.23036658763885498 -0.2458164542913437 0.15035659074783325
0.28517353534698486 0.13479840755462646 -0.13893429934978485
-0.2920648753643036 -0.4063681960105896 -0.09393137693405151
0.27827781438827515 -0.3511296212673187 0.10543646663427353
-0.2207646667957306 -0.397784024477005 0.18008127808570862
0.2568833827972412 -0.2537628412246704 0.05393645912408829
-0.2646452486515045 0.3703489303588867 0.017391005530953407
-0.010154766030609608 0.1838681399822235 -0.14452774822711945
0.16048769652843475 -0.37887993454933167 0.14602842926979065
-0.26957374811172485 -0.1490461379289627 0.15168483555316925
-0.26982247829437256 -0.2474687397480011 -0.09916003793478012
-0.2686500549316406 -0.14197178184986115 0.14284387230873108
0.09572219103574753 -0.24651098251342773 -0.12226815521717072
0.24638837575912476 -0.4082227647304535 -0.08847158402204514
-0.2695567309856415 -0.13898779451847076 -0.13314288854599
-0.2009221315383911 -0.28403446078300476 0.07659905403852463
-0.20293278992176056 0.5007783770561218 0.08130618929862976
-0.02815287932753563 0.2169114053249359 -0.13655443489551544
0.24837557971477509 -0.0474521666765213 0.1593250185251236
-0.21823880076408386 -0.1203278973698616 0.1606239229440689
-0.2652943730354309 -0.00905437022447586 0.15466398000717163
0.29163116216659546 0.21574798226356506 -0.13638107478618622
0.29695048928260803 -0.24818585813045502 0.05349704995751381
-0.19635295867919922 -0.24848872423171997 -0.1288720816373825
-0.03825601562857628 -0.18550269305706024 0.16050131618976593
-0.3362639248371124 -0.373984694480896 0.02060885541141033
0.19202351570129395 -0.2883000075817108 0.07094557583332062
0.058975186198949814 -0.18713121116161346 0.1579156517982483
0.25036415457725525 -0.05387867987155914 0.15379752218723297
-0.2544757127761841 0.09406238794326782 -0.13704918324947357
-0.24644801020622253 -0.2467394918203354 -0.12520191073417664
0.25603705644607544 -0.24275997281074524 -0.13428077101707458
0.28641462326049805 -0.40683290362358093 0.17523494362831116
-0.27029818296432495 -0.12414149194955826 0.08515830338001251
-0.21850617229938507 0.07158636301755905 0.16356222331523895
-0.22651861608028412 -0.29156801104545593 0.08504372090101242
0.06005333736538887 -0.18675363063812256 0.16399699449539185
0.13964568078517914 -0.42930442094802856 0.13244619965553284
-0.15992049872875214 -0.19371037185192108 0.1515655219554901
-0.014676282182335854 -0.24990051984786987 -0.10331584513187408
0.13880585134029388 -0.17843686044216156 0.16797970235347748
0.258099228143692 -0.24928897619247437 -0.12688185274600983
0.29586997628211975 0.0017722323536872864 -0.13188476860523224
-0.23707589507102966 -0.4658266305923462 0.06740884482860565
-0.2705749571323395 -0.1758027970790863 -0.1311359405517578
-0.22596020996570587 0.4924919009208679 0.10576804727315903
0.2279725968837738 -0.24842634797096252 0.14967277646064758
0.21930211782455444 0.1593150496482849 0.16733942925930023
-0.14465060830116272 0.22960418462753296 0.14644475281238556
-0.18882431089878082 0.22474992275238037 -0.13458068668842316
0.17241500318050385 -0.2615671753883362 -0.016407018527388573
-0.011232977733016014 -0.021197816357016563 0.1688128560781479
-0.26472508907318115 0.056526802480220795 -0.13441632688045502
-0.1439729928970337 -0.25719502568244934 0.006073694676160812
-0.33598917722702026 -0.3758504390716553 0.02951323240995407
-0.26938870549201965 0.13022680580615997 -0.13028238713741302
-0.23157614469528198 -0.24464556574821472 -0.1305987536907196
-0.26893481612205505 -0.24340109527111053 0.018167313188314438
0.014830462634563446 -0.180151104927063 0.1652323454618454
0.05576210096478462 0.15590274333953857 0.16681547462940216
0.1481562852859497 -0.2327755242586136 -0.13536611199378967
-0.2665402591228485 0.22232858836650848 -0.004035297781229019
0.2890200912952423 0.2220858782529831 -0.1353594809770584
0.07061535120010376 0.2285352349281311 0.14144852757453918
0.2902083396911621 0.06726376712322235 -0.13677386939525604
-0.3327309787273407 -0.4005257785320282 0.004838593304157257
-0.27278056740760803 0.008447414264082909 0.14822393655776978
-0.2403898537158966 -0.4771391749382019 0.016501903533935547
-0.16045570373535156 0.2285696417093277 0.01291993260383606
-0.26865532994270325 -0.0858512818813324 -0.12668265402317047
0.0180370956659317 0.21381887793540955 0.15553607046604156
0.23095640540122986 -0.2644304633140564 0.07338013499975204
0.294411838054657 -0.1050138846039772 0.1544339805841446
-0.17848533391952515 0.36295756697654724 -0.06127011403441429
-0.24508534371852875 0.35563480854034424 0.09463091194629669
0.2876366972923279 0.21819627285003662 -0.1356930434703827
0.22078347206115723 -0.3315090537071228 -0.08167566359043121
-0.239874005317688 0.2705037295818329 0.01105809211730957
-0.2690214216709137 0.09710554778575897 -0.03576495125889778
-0.26880934834480286 -0.24903741478919983 -0.12445811927318573
-0.21592490375041962 -0.30723729729652405 -0.07348882406949997
0.2969098389148712 0.21053797006607056 0.07293634116649628
0.2848336398601532 0.38017508387565613 0.11728064715862274
0.2551090717315674 -0.2753572165966034 -0.049451425671577454
-0.18521012365818024 -0.12261579185724258 -0.13393619656562805
-0.005418902728706598 -0.24643918871879578 0.15254297852516174
-0.2685597538948059 0.1907893568277359 -0.13343048095703125
-0.2694036662578583 -0.16561073064804077 -0.13232208788394928
0.21933649480342865 0.5002850890159607 -0.03931120038032532
-0.2718873620033264 0.036013051867485046 -0.12471715360879898
-0.22756686806678772 -0.1233452558517456 0.15253214538097382
0.29787954688072205 0.0690239667892456 -0.09387446194887161
0.29403847455978394 -0.2478356510400772 -0.05086035653948784
0.2569924592971802 0.22716020047664642 -0.08107587695121765
-0.28749752044677734 -0.4409818947315216 -0.0869443267583847
-0.3202683627605438 -0.35423099994659424 0.20030450820922852
-0.25731945037841797 -0.18627579510211945 -0.13569645583629608
-0.047565653920173645 0.12909039855003357 -0.1387868970632553
0.09506257623434067 -0.24453777074813843 0.15396687388420105
-0.2927895784378052 -0.4177913963794708 0.07053624093532562
0.17452415823936462 -0.25803306698799133 0.030815238133072853
-0.27000588178634644 -0.023771192878484726 0.15297824144363403
0.2692832350730896 -0.44161713123321533 -0.02517262101173401
-0.29002079367637634 -0.3219684064388275 0.16649313271045685
0.18208399415016174 0.35096028447151184 -0.01991935633122921
0.16399721801280975 0.178364098072052 0.15393555164337158
-0.0281266737729311 -0.242192342877388 -0.1359439641237259
-0.20494306087493896 -0.03252922371029854 0.17028836905956268
0.28654608130455017 -0.0428595095872879 -0.1352701038122177
-0.3296719789505005 -0.4017280340194702 -0.047859642654657364
0.20397520065307617 0.22992244362831116 0.0021047634072601795
0.20010724663734436 -0.42411333322525024 -0.08240938931703568
-0.21028172969818115 -0.4327841103076935 0.14240650832653046
-0.3095189332962036 -0.35569262504577637 -0.016863668337464333
0.2779127359390259 -0.44269704818725586 -0.020067384466528893
-0.028679940849542618 0.17046836018562317 -0.13658589124679565
0.24554884433746338 0.40934595465660095 0.10222874581813812
0.28154653310775757 0.3599202334880829 0.12024198472499847
-0.20575523376464844 -0.2464398443698883 0.1530747264623642
-0.2611730992794037 0.34172379970550537 0.019665252417325974
0.07676097005605698 -0.1970650851726532 0.1532132476568222
0.11247481405735016 0.22796697914600372 0.14053910970687866
0.2963278591632843 0.09185570478439331 0.1427718698978424
-0.2701091766357422 0.08038043975830078 0.14987118542194366
0.20335246622562408 0.425118625164032 -0.08177578449249268
0.19742318987846375 -0.1765337735414505 -0.1362040936946869
0.15981042385101318 0.17833548784255981 0.15361081063747406
0.03493144363164902 0.059453241527080536 0.16666117310523987
-0.2365603744983673 0.40973177552223206 0.0980495810508728
-0.2698103189468384 -0.011283415369689465 -0.05744514614343643
-0.26963481307029724 -0.24025492370128632 0.02362610399723053
0.2796063721179962 0.4866451919078827 0.11086186021566391
-0.20261311531066895 -0.17692989110946655 0.16638818383216858
-0.2696465253829956 0.017594169825315475 -0.12975972890853882
-0.24645176529884338 -0.22606171667575836 0.15740279853343964
0.2555713653564453 0.5104328989982605 -0.005641549360007048
0.16246502101421356 0.22710783779621124 0.14556415379047394
-0.29715418815612793 -0.3392990231513977 0.19746682047843933
0.11490054428577423 0.16369181871414185 0.15974818170070648
0.280549019575119 0.22451162338256836 -0.029714804142713547
0.2215392142534256 -0.19854262471199036 0.15137875080108643
0.19129090011119843 0.39439964294433594 0.1127324029803276
0.2976202964782715 0.052479587495326996 0.14430561661720276
0.25456225872039795 0.22049576044082642 -0.13532023131847382
0.27802345156669617 0.22446393966674805 -0.03668447211384773
0.28613993525505066 0.48719367384910583 0.060198184102773666
-0.26832449436187744 0.2192370742559433 -0.06759829819202423
-0.2636646032333374 -0.11391839385032654 -0.1348375678062439
-0.26901930570602417 0.21977268159389496 0.1512671411037445
0.29858022928237915 0.14809727668762207 0.15293341875076294
-0.19907070696353912 0.24326786398887634 -0.031030967831611633
0.2964911162853241 -0.10032281279563904 0.15075454115867615
-0.06727395206689835 -0.24760054051876068 -0.13063368201255798
0.25194889307022095 0.021847296506166458 0.15136824548244476
0.137858584523201 -0.18074484169483185 0.16459384560585022
0.25400876998901367 -0.1727917492389679 0.14992976188659668
0.10095298290252686 -0.11510010063648224 -0.13486361503601074
0.24421271681785583 0.002986334264278412 0.1637004166841507
0.2406003624200821 -0.05179138109087944 0.16723671555519104
-0.16789168119430542 0.37288665771484375 0.09728464484214783
0.03951133042573929 0.10326593369245529 0.168707937002182
0.2187255173921585 -0.41761380434036255 0.19990016520023346
-0.2711811065673828 -0.19337987899780273 0.14471065998077393
0.2981497645378113 0.05914708226919174 0.09395638108253479
-0.26870065927505493 0.22380267083644867 0.1102541834115982
-0.23363301157951355 -0.2604144215583801 0.0469999834895134
0.2694918215274811 -0.4409196674823761 -0.044137608259916306
0.10569901764392853 -0.24667516350746155 0.15038108825683594
-0.2860676646232605 -0.020286377519369125 -0.2353607565164566
0.24631384015083313 0.2340192347764969 -0.032532840967178345
0.18492548167705536 -0.19864222407341003 0.15339615941047668
0.28189417719841003 -0.3661804497241974 0.12063030898571014
0.14771723747253418 -0.24855360388755798 -0.12246759235858917
-0.27243199944496155 -0.11565407365560532 -0.13085491955280304
-0.3348572850227356 -0.40473100543022156 -0.025061078369617462
0.19446414709091187 -0.08103055506944656 -0.13546063005924225
0.21431320905685425 -0.25245875120162964 -0.054226748645305634
0.17370986938476562 0.22413453459739685 -0.13663077354431152
0.22084826231002808 0.2267342209815979 -0.1305559277534485
0.2930285334587097 0.3707912266254425 0.08933903276920319
-0.27117064595222473 0.1522018164396286 0.14267945289611816
0.15570451319217682 0.22001424431800842 -0.13412337005138397
0.09499136358499527 0.22737883031368256 0.14169088006019592
-0.0317431315779686 0.22676312923431396 0.151591494679451
-0.26789724826812744 -0.031784992665052414 -0.13405226171016693
0.2952122986316681 -0.053264208137989044 -0.1328374743461609
0.18639574944972992 0.2257746309041977 -0.13446715474128723
-0.32026955485343933 -0.35684433579444885 0.20048919320106506
0.25361329317092896 -0.1052599847316742 0.1522994190454483
0.05011608451604843 0.16799065470695496 -0.20515958964824677
0.29723891615867615 0.03584587946534157 0.15183933079242706
-0.263095498085022 0.19380886852741241 0.1548997163772583
-0.24717997014522552 0.4672847390174866 0.11462967097759247
0.2936597764492035 0.09539030492305756 0.15589025616645813
-0.024011321365833282 0.14963509142398834 0.1694897711277008
-0.26351314783096313 -0.35233989357948303 0.18559019267559052
-0.269864559173584 -0.17478305101394653 -0.12759166955947876
-0.01495166216045618 -0.24984918534755707 0.14036454260349274
-0.22962893545627594 0.0029542334377765656 0.15193592011928558
0.19962885975837708 0.4791813790798187 0.11281008273363113
0.29903504252433777 0.21156540513038635 0.14361700415611267
-0.2706560790538788 0.11138088256120682 -0.12265284359455109
0.20412223041057587 0.22967664897441864 -0.00908587034791708
0.16100989282131195 -0.25159966945648193 0.023394960910081863
0.30297383666038513 0.18809649348258972 0.1475813239812851
0.19432160258293152 0.4975762665271759 0.009023641236126423
0.2559346556663513 -0.25788968801498413 -0.025819081813097
0.06598949432373047 0.1340581327676773 -0.13730069994926453
-0.23958265781402588 -0.4678097665309906 -0.039428241550922394
0.2940291464328766 0.21587210893630981 -0.02467891201376915
0.18197694420814514 -0.26275962591171265 0.04627103731036186
-0.02996549755334854 0.2295183539390564 0.04453051835298538
-0.2576346695423126 -0.1252451390028 -0.13580885529518127
-0.010819089598953724 -0.24678410589694977 -0.04325493052601814
0.27110302448272705 0.3055284321308136 0.014859114773571491
-0.21766358613967896 0.0786745622754097 0.16458651423454285
-0.27130231261253357 -0.24308174848556519 -0.03580045327544212
-0.1895994246006012 -0.17941220104694366 0.1697312444448471
-0.014363033697009087 -0.25086045265197754 -0.12318515032529831
-0.16701778769493103 -0.07745745033025742 0.1684553027153015
-0.11399433016777039 -0.2374090999364853 0.1564217507839203
-0.09531309455633163 0.21852971613407135 -0.13437746465206146
-0.004907198250293732 0.2253936231136322 -0.13386143743991852
-0.041121967136859894 0.16909480094909668 0.15241850912570953
-0.272161066532135 -0.24093930423259735 -0.006251615937799215
0.049465611577034 0.10581425577402115 -0.13617680966854095
0.1987760365009308 -0.06797953695058823 0.16876032948493958
0.29940083622932434 0.45769795775413513 0.05608433112502098
-0.24673336744308472 0.22610554099082947 -0.13556687533855438
0.17630475759506226 0.2317114770412445 0.12995728850364685
-0.08090192824602127 0.2199418842792511 0.1542222499847412
0.301074743270874 0.20976608991622925 -0.06809747219085693
0.14099912345409393 0.16133949160575867 0.16344711184501648
0.20470073819160461 0.22588299214839935 -0.05113029479980469
0.2888544797897339 -0.4221094250679016 0.15787920355796814
0.2967771589756012 0.14000265300273895 0.15189272165298462
-0.2697282135486603 0.12937860190868378 0.008373661898076534
-0.2700596749782562 -0.24140584468841553 -0.11498131603002548
0.015284210443496704 -0.24463647603988647 -0.13360288739204407
-0.13488195836544037 -0.24645528197288513 0.1538705676794052
-0.21011896431446075 -0.282381147146225 0.08014550060033798
0.2814331352710724 -0.36758241057395935 0.12871810793876648
-0.025836491957306862 0.16990430653095245 0.15139760076999664
-0.21338684856891632 -0.4190933108329773 0.16187900304794312
0.2978701889514923 -0.24185091257095337 -0.07758565247058868
-0.13466928899288177 0.21631531417369843 -0.13675841689109802
0.2581213414669037 -0.3344446122646332 -0.07504133135080338
0.2828867435455322 -0.44115474820137024 0.10597176849842072
0.11643590778112411 -0.24649687111377716 -0.1353958547115326
0.20774686336517334 0.22762331366539001 0.04569188132882118
0.15426376461982727 -0.40156692266464233 0.16335707902908325
-0.2214350551366806 -0.46846917271614075 0.02311951480805874
0.2997502088546753 0.19641801714897156 0.14795465767383575
-0.17945970594882965 0.1558825671672821 0.1679772585630417
0.20756956934928894 -0.18183307349681854 0.1671435385942459
-0.20769855380058289 -0.39409857988357544 0.15936842560768127
0.2484380304813385 -0.1310124546289444 0.15759296715259552
-0.23297438025474548 0.03858349472284317 0.15377935767173767
-0.1669529229402542 0.14386163651943207 -0.13650570809841156
0.23743149638175964 -0.13610829412937164 0.16944511234760284
0.29616573452949524 -0.13637936115264893 0.15263763070106506
