0.21464034914970398 0.40685197710990906 -0.08337188512086868
-0.09765113890171051 0.227352574467659 -0.12497398257255554
-0.27086973190307617 -0.17567530274391174 -0.12958891689777374
-0.25788626074790955 -0.009468849748373032 0.15582028031349182
0.29749637842178345 0.19656836986541748 0.042486757040023804
0.2173427939414978 -0.25569501519203186 -0.05276072770357132
0.2257964015007019 0.32848936319351196 0.0703284814953804
0.0903330072760582 -0.2440231442451477 -0.1343870609998703
-0.10816770792007446 -0.2499943971633911 0.13958267867565155
0.2907516062259674 -0.43576306104660034 0.14072281122207642
-0.26376259326934814 0.2156725823879242 -0.1361730843782425
0.28333190083503723 -0.22538349032402039 -0.1341456025838852
-0.16252011060714722 0.22797486186027527 0.024681957438588142
-0.26047760248184204 -0.05875955522060394 -0.1363217532634735
-0.14457359910011292 -0.2494455873966217 -0.12025441229343414
0.2973536252975464 -0.004857482388615608 -0.04646356403827667
-0.2853224277496338 -0.31501755118370056 0.14164137840270996
0.29604777693748474 -0.09275306761264801 0.15237432718276978
0.2581756114959717 -0.36584314703941345 0.15381714701652527
0.19918008148670197 -0.27404752373695374 -0.0481843538582325
-0.149000346660614 0.15340466797351837 0.16653624176979065
-0.16031432151794434 0.35461512207984924 0.05139041692018509
-0.24933145940303802 0.02025974914431572 -0.2481391578912735
0.2071586549282074 -0.2489396035671234 0.14873966574668884
-0.2672100067138672 -0.15446139872074127 0.15498463809490204
-0.07845946401357651 0.075187087059021 -0.13790322840213776
-0.26847732067108154 0.0585208497941494 0.15417462587356567
0.2892647385597229 -0.4369102418422699 0.012304207310080528
-0.27365806698799133 0.0901925265789032 -0.0653146430850029
-0.15839901566505432 0.16987626254558563 0.151010662317276
0.2411334216594696 0.2549383044242859 -0.022954918444156647
0.19959312677383423 -0.2490665763616562 -0.12166350334882736
-0.2872548997402191 0.032578032463788986 -0.30797600746154785
0.28545069694519043 0.13296711444854736 -0.13649937510490417
0.13194358348846436 -0.23987045884132385 -0.13523909449577332
0.2875625491142273 0.039729274809360504 -0.13639214634895325
-0.2498943954706192 -0.24831852316856384 -0.12216176092624664
0.19606727361679077 -0.2491556704044342 -0.12233196198940277
-0.269804447889328 0.004739806056022644 0.14483779668807983
-0.08769001811742783 -0.23704060912132263 0.15432071685791016
0.2944297790527344 0.12303125858306885 -0.13313697278499603
0.21368546783924103 0.2517832815647125 -0.0025825309567153454
-0.14910636842250824 0.2247164100408554 -0.12840023636817932
0.2988031804561615 0.2161492109298706 0.09074299037456512
-0.025916915386915207 0.22572779655456543 -0.12084634602069855
0.29507020115852356 0.34276366233825684 0.005892765708267689
-0.2647317349910736 -0.05299406498670578 -0.13602203130722046
0.13399459421634674 -0.4288068413734436 0.0976037085056305
-0.08454765379428864 0.22574864327907562 -0.12781648337841034
0.3008279502391815 -0.09199123829603195 -0.12155845016241074
0.10467647016048431 -0.18239714205265045 0.16531449556350708
-0.23795896768569946 0.49969297647476196 0.04879724979400635
0.2610790431499481 -0.31274130940437317 -0.060328610241413116
-0.26244688034057617 0.21969380974769592 -0.136726513504982
0.23203933238983154 0.03614702448248863 0.16938181221485138
0.29342788457870483 -0.4339737594127655 0.06891631335020065
-0.22339901328086853 0.225199356675148 -0.13450275361537933
-0.2674523890018463 0.22450841963291168 0.023685697466135025
0.2818582057952881 0.3671289384365082 -0.06849844753742218
0.17141780257225037 -0.2530604600906372 0.019388873130083084
-0.2216624617576599 -0.46205413341522217 -0.022857313975691795
0.23914410173892975 -0.3908000886440277 -0.08802194893360138
-0.2616904675960541 0.41314461827278137 0.10413601994514465
-0.33706504106521606 -0.3699260652065277 0.04185528680682182
0.18636257946491241 0.4715624749660492 0.0823352262377739
-0.14157834649085999 -0.25310033559799194 -0.019781725481152534
-0.11961131542921066 0.10405983775854111 -0.1381552517414093
0.08953043073415756 -0.03784485533833504 0.1685040295124054
0.2586494982242584 -0.30233895778656006 0.07993459701538086
0.22071217000484467 -0.44469740986824036 -0.06851554661989212
0.2919551134109497 -0.17501814663410187 -0.13656513392925262
-0.07246895134449005 0.15010376274585724 0.16929355263710022
-0.2678990364074707 0.22855021059513092 0.05370685085654259
0.2663373053073883 0.4859755337238312 0.12964782118797302
0.26745492219924927 0.5103345513343811 0.030557848513126373
0.28890344500541687 -0.25206422805786133 -0.014401040971279144
0.19597098231315613 0.3189150393009186 0.013301422819495201
0.1955769658088684 0.49582716822624207 0.06990224123001099
-0.15118905901908875 -0.24784670770168304 -0.1271674484014511
-0.3171154260635376 -0.355686217546463 0.19803228974342346
0.17802724242210388 -0.24853001534938812 0.14629198610782623
0.2950078248977661 -0.018207604065537453 0.1551910638809204
-0.1226939931511879 -0.18566864728927612 0.16007809340953827
0.29225870966911316 -0.25257956981658936 0.048266343772411346
0.2848179340362549 -0.10205037891864777 -0.1367490589618683
-0.018311847001314163 0.18447190523147583 -0.13734059035778046
0.2880055904388428 0.22396531701087952 -0.13324956595897675
-0.22897325456142426 -0.31714993715286255 -0.07831515371799469
0.25571703910827637 0.022205837070941925 0.15648309886455536
-0.10934698581695557 -0.24836522340774536 0.1437937617301941
0.1972266286611557 0.2288098782300949 0.01296454668045044
-0.26939454674720764 -0.027995990589261055 0.1059667095541954
0.16090568900108337 -0.25156572461128235 0.008882582187652588
0.29746556282043457 -0.0468595065176487 0.15492212772369385
0.2727983593940735 -0.4413454830646515 -0.0394943505525589
0.2657557725906372 -0.2995809018611908 0.055605947971343994
-0.22114297747612 0.22184805572032928 -0.1328648030757904
-0.2482873797416687 -0.25445061922073364 0.001048363745212555
0.2870978116989136 0.08731172978878021 -0.13663801550865173
-0.20088431239128113 -0.25779491662979126 -0.054317276924848557
0.1435018628835678 0.15284660458564758 0.16779059171676636
-0.1620716154575348 -0.23726721107959747 -0.13390161097049713
-0.2815054655075073 -0.3133625388145447 0.13227708637714386
-0.22793568670749664 -0.11396101862192154 0.15303589403629303
0.2942071557044983 0.030894458293914795 0.15317104756832123
-0.29083600640296936 -0.3214031159877777 0.026078488677740097
-0.22327984869480133 0.15918855369091034 0.1549772322177887
-0.15010486543178558 -0.2546267807483673 0.040685370564460754
0.2836598753929138 0.22750984132289886 -0.0696067214012146
0.23524649441242218 0.07910245656967163 0.16729703545570374
0.25015249848365784 -0.12579576671123505 0.15200746059417725
0.0775553360581398 0.21710209548473358 0.1548445224761963
0.29738011956214905 0.032776910811662674 0.14806130528450012
-0.2575482130050659 0.009059013798832893 -0.13548360764980316
0.2522438168525696 -0.18712759017944336 0.1523715853691101
0.14049160480499268 -0.43265411257743835 0.08009664714336395
0.2967011034488678 0.21148361265659332 0.14943435788154602
0.27389246225357056 0.22011549770832062 0.15585952997207642
0.24818545579910278 0.5139585733413696 -0.00044980738312005997
-0.22302772104740143 0.49233224987983704 0.11365711688995361
-0.1838235855102539 0.22379383444786072 -0.13490420579910278
0.1726645529270172 0.014544001780450344 0.169131338596344
-0.012971345335245132 0.042382098734378815 0.167952761054039
-0.27001869678497314 0.16609500348567963 -0.12700501084327698
-0.2230158895254135 0.4946120083332062 0.11216532438993454
0.23813682794570923 -0.24385419487953186 -0.1323549449443817
-0.25901657342910767 -0.2505348324775696 -0.08918676525354385
0.07129877805709839 0.22891682386398315 -0.12365085631608963
0.20358386635780334 -0.1998632252216339 0.15421125292778015
0.28577736020088196 -0.43317508697509766 -0.008099528029561043
-0.05312183499336243 -0.17327627539634705 0.16743001341819763
-0.21705585718154907 0.49971532821655273 0.09987753629684448
0.2913394272327423 -0.24869151413440704 0.15134209394454956
0.2934226095676422 -0.19100357592105865 -0.06480897217988968
0.2938939929008484 0.09268640726804733 -0.13265354931354523
-0.29032111167907715 0.02482845075428486 -0.30024856328964233
-0.27150100469589233 -0.23555955290794373 0.05903685465455055
0.1969042420387268 0.46221980452537537 0.11310559511184692
-0.04651317745447159 0.16518691182136536 0.15595805644989014
0.2984636127948761 0.21356427669525146 -0.09319937974214554
-0.1925666779279709 0.22714100778102875 -0.0709337592124939
-0.27126094698905945 -0.22245216369628906 -0.1320340782403946
-0.23865440487861633 0.2247701734304428 -0.13440780341625214
-0.20277699828147888 0.24673831462860107 -0.02903476357460022
-0.26262328028678894 0.02545154094696045 0.15527209639549255
0.24434439837932587 0.11397713422775269 0.16084147989749908
-0.26918068528175354 -0.058340758085250854 -0.13262896239757538
-0.2652624845504761 0.38166436553001404 0.07327013462781906
-0.17030209302902222 -0.3443202078342438 -0.0336759015917778
0.2873554229736328 0.22646044194698334 -0.1326221227645874
-0.34036004543304443 -0.38603368401527405 0.02659817412495613
0.2583082914352417 -0.2533005475997925 0.04836224019527435
0.23585587739944458 0.22534875571727753 -0.11042526364326477
0.15889114141464233 -0.0031544342637062073 -0.13607566058635712
0.21378353238105774 -0.1740952581167221 0.1681283712387085
-0.2677484154701233 -0.2328561544418335 0.14314062893390656
-0.017888188362121582 0.16821366548538208 0.15170466899871826
0.2941927909851074 -0.09665758162736893 0.15245577692985535
0.12287803739309311 0.04713767394423485 0.16847078502178192
0.2677593231201172 -0.3457094132900238 0.1275615394115448
-0.187068372964859 -0.3118595778942108 -0.05455736815929413
-0.10765296965837479 -0.23567214608192444 -0.13499662280082703
-0.07847724109888077 0.14304152131080627 0.1690816581249237
0.11026021093130112 0.2258547842502594 0.1272009164094925
-0.17453064024448395 -0.25442251563072205 0.06603339314460754
0.29503393173217773 0.1347135752439499 0.1553483009338379
-0.012868811376392841 0.17439812421798706 -0.13612335920333862
-0.24842514097690582 -0.1499241590499878 -0.1354118436574936
-0.2640117406845093 -0.026330387219786644 -0.13508963584899902
0.24037247896194458 0.21948884427547455 0.15624238550662994
-0.27011311054229736 0.14237113296985626 0.0690169483423233
0.2520389258861542 -0.12319847196340561 0.15255695581436157
-0.08499555289745331 -0.17485524713993073 0.1692166030406952
-0.18752048909664154 0.3420255184173584 -0.04696360602974892
0.1268220692873001 -0.2510482668876648 0.1191173642873764
-0.261081725358963 0.0255662202835083 -0.135712131857872
-0.21202783286571503 -0.24120867252349854 0.1548365354537964
0.28401413559913635 -0.04186313599348068 -0.13504458963871002
0.29550790786743164 0.22519536316394806 0.10807566344738007
0.08907429873943329 0.17568230628967285 0.1537586748600006
-0.20541106164455414 0.46132925152778625 0.08880694955587387
0.21287581324577332 0.40406718850135803 -0.0825992077589035
-0.2713664770126343 -0.22638145089149475 -0.13197007775306702
-0.2694951891899109 0.22481338679790497 0.01831875368952751
-0.22936545312404633 0.10353254526853561 0.154668390750885
0.19429095089435577 -0.35248488187789917 -0.07330703735351562
-0.20402197539806366 -0.19369521737098694 0.15263648331165314
0.23175176978111267 -0.11659066379070282 0.16938668489456177
0.08607280999422073 -0.018134985119104385 -0.13556230068206787
0.2948938310146332 -0.16790089011192322 0.15124286711215973
-0.2728419899940491 -0.23882538080215454 -0.04849681630730629
-0.24890340864658356 0.36632516980171204 0.10981141030788422
-0.020000914111733437 -0.18275147676467896 0.16524367034435272
-0.2671826481819153 0.22008655965328217 -0.09047192335128784
0.18613094091415405 0.42607730627059937 0.11116450279951096
0.14893847703933716 0.22932782769203186 -0.12220369279384613
0.18848668038845062 -0.2499421089887619 -0.03743849694728851
0.2870786190032959 0.07596663385629654 -0.13658051192760468
0.1558021903038025 -0.32033395767211914 0.04096418246626854
-0.26746854186058044 -0.2440624237060547 -0.12207916378974915
0.2787599265575409 -0.44414326548576355 -0.01802918314933777
0.29704391956329346 0.1351448893547058 0.14198467135429382
-0.2677677869796753 0.22792553901672363 0.040644772350788116
-0.23038309812545776 -0.43346041440963745 0.1792985498905182
-0.2071971297264099 0.014678649604320526 0.16869576275348663
0.24030739068984985 -0.022830963134765625 0.1664191335439682
-0.20163679122924805 -0.19308769702911377 0.15517109632492065
-0.2513096034526825 -0.2156262844800949 0.1551848202943802
0.29576537013053894 0.0704103484749794 -0.1303938627243042
-0.2717217206954956 -0.025021323934197426 -0.12402782589197159
0.29627278447151184 0.1850345879793167 -0.13054516911506653
0.2422962486743927 -0.1884445995092392 -0.136746346950531
-0.15807491540908813 0.22723886370658875 -0.01812106743454933
0.28243038058280945 -0.22555433213710785 -0.13560804724693298
-0.2614443898200989 0.10162059217691422 0.15563221275806427
-0.23896679282188416 0.2250671535730362 -0.13426636159420013
0.29680776596069336 -0.17259268462657928 0.1493682712316513
-0.2311173677444458 -0.4721948206424713 0.04053429514169693
-0.010085557587444782 0.277133584022522 -0.2838488519191742
0.2894245982170105 0.2148098647594452 -0.1335115283727646
0.2936430871486664 -0.24362097680568695 0.07769254595041275
-0.03881009295582771 -0.23782430589199066 0.15547984838485718
-0.2170455902814865 0.0674525573849678 0.16386227309703827
0.03055529296398163 0.2237110137939453 -0.13466569781303406
-0.26841533184051514 -0.2497500330209732 -0.06437870860099792
-0.07013338804244995 0.1300913542509079 -0.13586442172527313
-0.21673771739006042 -0.10795619338750839 0.1651112586259842
-0.2712422311306 -0.16705293953418732 -0.128501296043396
0.2881941497325897 0.21869102120399475 -0.13376331329345703
-0.269145131111145 -0.11775711178779602 0.031898047775030136
0.06007148697972298 0.124549999833107 -0.135958731174469
0.28688952326774597 0.0414983369410038 -0.1362522393465042
0.2018805891275406 0.474028617143631 0.11538747698068619
0.23286008834838867 0.4900611937046051 -0.06151549518108368
-0.26487404108047485 -0.24335503578186035 -0.1300613284111023
-0.270940899848938 -0.0912952795624733 -0.13003037869930267
-0.26926225423812866 0.06676296889781952 0.14451973140239716
0.29793623089790344 0.17866216599941254 0.06688705086708069
-0.19648203253746033 0.4266943335533142 0.08502989262342453
-0.18912182748317719 0.15711581707000732 0.16595104336738586
-0.0166559349745512 0.2267102748155594 -0.1325947344303131
0.1707150787115097 -0.25595608353614807 0.020442578941583633
0.0071487026289105415 0.0989319235086441 -0.17246805131435394
0.017490152269601822 0.2311374545097351 -0.18494419753551483
-0.27208876609802246 -0.2386915534734726 -0.0319807194173336
-0.25224170088768005 -0.380129337310791 0.20011964440345764
-0.2621655762195587 -0.06715194880962372 0.15498748421669006
0.22355255484580994 0.22759704291820526 0.06747584789991379
0.21725133061408997 -0.24176761507987976 -0.13556914031505585
0.2981252670288086 0.2131200134754181 -0.060296520590782166
0.07582269608974457 -0.17612966895103455 0.1673431247472763
0.0355776883661747 -0.18790867924690247 0.15458358824253082
0.27803218364715576 0.36771106719970703 0.12691357731819153
0.007805473171174526 0.15099303424358368 0.1668979525566101
0.2108737677335739 0.29030075669288635 -0.009082906879484653
0.20660246908664703 -0.24903149902820587 0.1435750424861908
0.1559150069952011 -0.4115626811981201 0.17533345520496368
0.014674287289381027 0.15338528156280518 0.16894873976707458
0.29729795455932617 0.09122886508703232 -0.12547606229782104
0.1823878437280655 0.4079208970069885 0.10841484367847443
0.204888254404068 -0.24783843755722046 0.15106791257858276
0.2943579852581024 -0.12104486674070358 0.15535612404346466
-0.21388085186481476 0.050147976726293564 0.16800832748413086
-0.19109058380126953 0.4993973970413208 0.08449990302324295
0.007392507046461105 0.2802314758300781 -0.23100613057613373
-0.17103928327560425 0.46704021096229553 0.09881233423948288
-0.2911975085735321 0.04276880621910095 -0.2571973204612732
-0.2385471910238266 0.22523793578147888 -0.1376984566450119
-0.20710381865501404 0.2369959056377411 0.056672777980566025
-0.047367822378873825 -0.18223229050636292 -0.1375555694103241
0.006030270829796791 0.17226091027259827 0.1503409445285797
-0.2971267104148865 -0.3262369632720947 0.1784040927886963
-0.2693697214126587 0.20993882417678833 0.04927847534418106
-0.268612265586853 -0.37392598390579224 -0.09223835915327072
-0.27300626039505005 0.05887399986386299 0.14691200852394104
0.27927321195602417 -0.44060394167900085 -0.0004065483808517456
0.28759264945983887 0.04614105448126793 0.15663614869117737
0.2473580241203308 -0.01796298287808895 0.15476471185684204
-0.2981118857860565 -0.3191322684288025 0.16790136694908142
-0.2533470690250397 0.4801566004753113 0.09018852561712265
0.022734668105840683 0.2262171357870102 -0.024151191115379333
0.28658047318458557 -0.3616005778312683 0.058468736708164215
-0.2710091471672058 0.030294526368379593 -0.1219649538397789
-0.27143868803977966 -0.13262420892715454 -0.12339293956756592
-0.020449234172701836 0.2274300754070282 -0.12086723744869232
0.24548505246639252 0.14540374279022217 0.15796343982219696
-0.26645615696907043 -0.21331892907619476 0.15483824908733368
-0.2713375985622406 -0.16443601250648499 0.07200206816196442
0.2644783556461334 -0.3700583279132843 0.16196492314338684
-0.2611039876937866 0.043400634080171585 0.1553841084241867
-0.2253703773021698 -0.012079890817403793 0.1541297435760498
0.21816694736480713 -0.19756773114204407 0.15307274460792542
-0.17578570544719696 0.2539651393890381 0.025246618315577507
0.27342742681503296 -0.36201268434524536 0.14775794744491577
-0.26572489738464355 0.173577219247818 0.1546410769224167
-0.12845829129219055 0.20588162541389465 -0.13660624623298645
0.2917620539665222 -0.05882252752780914 0.15529435873031616
0.29130470752716064 -0.15715619921684265 0.15427127480506897
-0.24717490375041962 0.42679277062416077 -0.062461093068122864
0.28408995270729065 0.13683421909809113 0.15647581219673157
-0.27464771270751953 -0.39403805136680603 0.199875146150589
-0.16004043817520142 0.2271626889705658 0.020912345498800278
-0.2265358716249466 0.1560666859149933 0.15539948642253876
-0.26317325234413147 -0.1524088978767395 -0.136334627866745
-0.203352689743042 0.2303667515516281 -0.03815878555178642
-0.09338124841451645 0.22779187560081482 -0.12724894285202026
0.06203734874725342 0.16830909252166748 0.15291792154312134
-0.24417011439800262 -0.34895482659339905 -0.0896574929356575
-0.2698756754398346 -0.1369352638721466 -0.13294370472431183
0.005696738138794899 -0.25302159786224365 0.1458728313446045
0.19427405297756195 0.49198004603385925 0.0634954422712326
-0.27093634009361267 -0.240123450756073 -0.08715970069169998
0.24091030657291412 -0.07310948520898819 0.16308936476707458
-0.2649551033973694 -0.3373206853866577 -0.07716479897499084
0.19452257454395294 0.45466262102127075 0.11211606115102768
-0.2635383903980255 -0.12295008450746536 0.1554555594921112
0.03926992043852806 -0.24681515991687775 0.15510672330856323
0.16874711215496063 -0.2528832256793976 0.021722132340073586
-0.27255943417549133 0.01118776947259903 -0.1251833289861679
-0.16059303283691406 -0.25168731808662415 -0.049896225333213806
-0.2716856598854065 -0.056774161756038666 0.08268561214208603
0.22024889290332794 0.22778728604316711 0.14452877640724182
0.27672281861305237 0.229401096701622 -0.04304885491728783
0.18269029259681702 0.14801861345767975 0.16767103970050812
0.22710271179676056 0.2326613813638687 0.04732419550418854
0.296297550201416 0.22323046624660492 0.04866955801844597
-0.2169378101825714 0.05122077465057373 0.16246755421161652
-0.04014304652810097 -0.25014588236808777 0.07704932242631912
0.08831922709941864 -0.24063926935195923 -0.13350848853588104
0.27497538924217224 -0.245420902967453 -0.1349513679742813
0.28460580110549927 0.22736817598342896 0.013405406847596169
0.2953467071056366 0.2161984145641327 -0.13332469761371613
0.29093998670578003 0.21668192744255066 -0.1336967498064041
-0.12949277460575104 -0.24311192333698273 0.15421868860721588
-0.17748424410820007 0.33268609642982483 -0.021176155656576157
-0.07130110263824463 -0.23893147706985474 -0.13458923995494843
0.21612687408924103 0.5113442540168762 0.06827747076749802
-0.29859980940818787 -0.3176971673965454 0.1098906621336937
-0.12528875470161438 0.2275683432817459 0.14575156569480896
0.23879693448543549 -0.34796297550201416 0.13726475834846497
-0.22862055897712708 -0.054844994097948074 0.15341569483280182
0.1821431815624237 0.22938396036624908 -0.1226041167974472
0.24909114837646484 -0.0769888311624527 0.1524534523487091
0.29636791348457336 -0.023913806304335594 0.08793048560619354
-0.20884495973587036 -0.03302161395549774 0.16885347664356232
0.2878357768058777 0.2254539430141449 -0.11574586480855942
0.2966717481613159 0.3562236726284027 -0.013709057122468948
-0.163364976644516 0.2245844602584839 -0.1352381557226181
0.25667518377304077 -0.052598513662815094 0.15506702661514282
0.28802311420440674 0.1711815744638443 -0.13544371724128723
0.2244776487350464 -0.17690391838550568 0.16494785249233246
0.18486148118972778 0.34478554129600525 0.0567668080329895
-0.17234495282173157 0.25923094153404236 0.007232857868075371
0.013468909077346325 0.22488582134246826 -0.13573312759399414
-0.08515588194131851 -0.0991506278514862 -0.1349731683731079
-0.3385601341724396 -0.3877686858177185 -0.008604783564805984
-0.27117761969566345 -0.38996413350105286 0.20570245385169983
0.24983319640159607 0.1599963903427124 0.15546655654907227
0.2553117573261261 -0.14745700359344482 0.15672527253627777
0.2959323823451996 -0.06525419652462006 -0.1283300220966339
-0.20575812458992004 0.001440431922674179 0.17078852653503418
0.29083719849586487 -0.19969889521598816 -0.13435137271881104
-0.23835435509681702 -0.4770193099975586 0.011548479087650776
-0.2698759436607361 0.22011397778987885 0.10365522652864456
-0.20339207351207733 -0.35485368967056274 -0.06840269267559052
0.004288541153073311 -0.18393242359161377 0.1599959284067154
-0.2640642523765564 0.15917786955833435 -0.13542242348194122
0.29578572511672974 -0.2224717140197754 0.15123425424098969
0.29165083169937134 -0.25105154514312744 0.0023466572165489197
0.17907346785068512 0.10672564059495926 -0.13503803312778473
-0.005945878103375435 -0.23808908462524414 -0.13593581318855286
0.28727027773857117 0.22424185276031494 -0.1353527158498764
-0.2709575891494751 -0.23290206491947174 -0.13266108930110931
-0.016332613304257393 0.22619087994098663 -0.12091143429279327
0.245022714138031 -0.012103240936994553 0.15998144447803497
-0.2169886827468872 -0.3983599543571472 0.17592933773994446
0.20857572555541992 -0.2523719072341919 -0.044097013771533966
0.29110926389694214 -0.024130407720804214 -0.13661275804042816
0.26873263716697693 -0.31730833649635315 0.07249002158641815
0.028319425880908966 -0.2386479675769806 -0.13499416410923004
0.2954925298690796 0.055216021835803986 0.15419402718544006
0.2682499289512634 0.450981080532074 -0.07782507687807083
-0.13942351937294006 -0.2528933882713318 -0.02593950927257538
0.2969357371330261 0.07944538444280624 -0.12814496457576752
0.19302576780319214 0.3872947096824646 0.11306853592395782
0.21555164456367493 -0.25261005759239197 -0.054794520139694214
-0.08863990008831024 0.17766879498958588 0.15424561500549316
-0.02322596311569214 0.13165877759456635 -0.13753432035446167
0.2927098572254181 -0.2482435405254364 0.0888899639248848
-0.2707855701446533 0.22283734381198883 -0.09927909821271896
0.2360551804304123 -0.4214482605457306 -0.09140452742576599
-0.26843568682670593 0.04081115499138832 0.1453913450241089
-0.2655167877674103 -0.2031979262828827 -0.13469165563583374
-0.26119548082351685 0.22555416822433472 0.14858607947826385
0.2871604263782501 0.21698418259620667 -0.1346590518951416
-0.26667720079421997 0.0535142682492733 -0.13621962070465088
-0.2739652693271637 -0.35781368613243103 0.19764919579029083
-0.06511609256267548 0.21152597665786743 -0.13483618199825287
0.03364088386297226 0.1985057294368744 -0.23030917346477509
0.200567364692688 0.3328976333141327 0.05071986839175224
0.12506519258022308 -0.25110840797424316 0.14146549999713898
-0.2116907685995102 -0.2496175467967987 -0.06545372307300568
-0.26467466354370117 -0.016171909868717194 -0.1355431079864502
0.26901376247406006 -0.24057537317276 -0.13566285371780396
-0.08520260453224182 0.22746524214744568 -0.12671732902526855
0.29604893922805786 -0.014939053915441036 0.15033087134361267
0.13879625499248505 -0.4328896105289459 0.12638822197914124
-0.2582193613052368 -0.1067427545785904 -0.13437308371067047
0.1371699869632721 0.2184818536043167 -0.13636037707328796
0.29105332493782043 0.21706423163414001 -0.1343218982219696
0.29100683331489563 0.2178928703069687 -0.13462120294570923
-0.28477203845977783 -0.38177359104156494 0.2052886188030243
0.1385258287191391 -0.4342103600502014 0.05375542864203453
0.17132678627967834 -0.2349720597267151 -0.13647180795669556
0.2816397547721863 -0.03182636946439743 -0.13837148249149323
0.2978303134441376 0.180489182472229 0.15365919470787048
-0.28272145986557007 -0.4470897614955902 -0.08208250999450684
0.13862138986587524 -0.4332801103591919 0.06590083241462708
0.2959718108177185 -0.02763049677014351 -0.026568379253149033
-0.00026972778141498566 0.2660054564476013 -0.21789947152137756
-0.24847975373268127 0.3502776324748993 0.08308350294828415
0.057054080069065094 0.18676108121871948 -0.17457184195518494
0.2954068183898926 -0.2529142498970032 0.13004368543624878
0.23210182785987854 -0.056069955229759216 0.16925908625125885
0.27453961968421936 0.3452259302139282 -0.06358063220977783
-0.24383239448070526 0.4395076334476471 0.10471412539482117
-0.27064627408981323 0.08901678770780563 0.022492939606308937
0.23553679883480072 0.028682667762041092 0.16835100948810577
-0.26807624101638794 0.2264484316110611 0.12809379398822784
-0.2364923059940338 -0.25193074345588684 0.07157222181558609
0.07163166999816895 0.15200774371623993 0.16655488312244415
-0.3380100727081299 -0.3594711422920227 0.12094496935606003
-0.2233293652534485 0.37651997804641724 -0.07696248590946198
0.16333827376365662 -0.25188735127449036 -0.010281598195433617
0.2995227575302124 0.21763421595096588 0.04678930714726448
-0.2083633542060852 0.07316219061613083 0.16878777742385864
-0.3396773338317871 -0.3963545858860016 0.004510924220085144
-0.2687801718711853 0.22776439785957336 0.09149686992168427
-0.26648199558258057 -0.3526619076728821 -0.08846217393875122
-0.15516692399978638 0.15716083347797394 0.16492503881454468
0.2639728784561157 -0.2454713135957718 -0.13566584885120392
-0.26739606261253357 -0.14799216389656067 -0.13320548832416534
0.2595052719116211 -0.3073316812515259 -0.05930015444755554
-0.26197904348373413 -0.2284947633743286 0.15560461580753326
-0.25893956422805786 -0.24773384630680084 0.09830032289028168
0.05241407826542854 0.1868835687637329 -0.13756386935710907
-0.2706480026245117 0.21806485950946808 -0.041670337319374084
-0.26986163854599 -0.0808560699224472 -0.1330711543560028
-0.2718881368637085 -0.15027539432048798 -0.08918912708759308
-0.2419677972793579 0.3914041221141815 -0.07255750894546509
-0.05146773159503937 0.2182910442352295 -0.13787725567817688
-0.31465330719947815 -0.4355507493019104 -0.07014402002096176
0.2927490770816803 0.20669440925121307 0.15814293920993805
0.29618293046951294 -0.08549381792545319 0.03582734987139702
0.028279364109039307 0.19816774129867554 -0.13731703162193298
-0.1642116904258728 0.4525643587112427 -0.02772774174809456
0.2894911468029022 -0.3954353928565979 0.14555135369300842
-0.2653842568397522 -0.17275652289390564 -0.13675744831562042
0.04265136271715164 0.2054290622472763 -0.228614941239357
-0.26372620463371277 -0.37559691071510315 -0.09375770390033722
-0.26932892203330994 -0.1181546002626419 -0.12944653630256653
0.21388019621372223 -0.2449818104505539 -0.1347416639328003
-0.2606092691421509 -0.15800067782402039 -0.13603173196315765
0.11611123383045197 0.21032625436782837 -0.1366272270679474
0.2492465227842331 0.2265191674232483 0.1473979502916336
0.2760637402534485 -0.44606611132621765 -0.032734379172325134
0.23402296006679535 -0.20220419764518738 0.15508109331130981
0.15714368224143982 -0.17953994870185852 0.16732603311538696
-0.15026076138019562 -0.19581183791160583 0.15514785051345825
-0.16656096279621124 0.16896823048591614 0.15164634585380554
-0.26878026127815247 0.22497153282165527 0.026445748284459114
-0.23619407415390015 -0.24941369891166687 -0.07833078503608704
0.286171019077301 0.08174744248390198 -0.13712018728256226
0.29259246587753296 0.22437043488025665 0.09394378960132599
0.22536495327949524 -0.24748435616493225 -0.13458779454231262
-0.2707725167274475 -0.047353409230709076 -0.12809161841869354
0.23928353190422058 -0.15912947058677673 0.16795986890792847
-0.10867877304553986 -0.24541358649730682 0.15305207669734955
0.19252051413059235 -0.44268089532852173 -0.06318642944097519
-0.24585331976413727 0.34735584259033203 -0.049842435866594315
0.08324837684631348 -0.2479187399148941 -0.1285405158996582
0.29112616181373596 0.3849320709705353 0.11456337571144104
-0.029525522142648697 0.16706986725330353 -0.1364736258983612
-0.26622968912124634 -0.15607449412345886 0.154410719871521
-0.23412790894508362 -0.424508661031723 0.18542520701885223
0.04204801097512245 0.19158299267292023 -0.2193780392408371
0.2511468827724457 0.5121470093727112 0.008596222847700119
0.022237516939640045 -0.1877591907978058 0.15471848845481873
-0.05192089080810547 -0.2506955564022064 0.1411573439836502
0.2593551278114319 0.342294842004776 -0.06964044272899628
-0.23594485223293304 -0.25736698508262634 -0.021431168541312218
-0.0247772429138422 -0.24654999375343323 0.1517811268568039
-0.2683617174625397 0.035263076424598694 0.09107117354869843
-0.12831029295921326 -0.2379366159439087 -0.1351652592420578
0.24087482690811157 0.22798487544059753 -0.12505385279655457
0.23381787538528442 0.016988789662718773 0.16868814826011658
-0.267505019903183 0.16896402835845947 0.015815969556570053
0.08067561686038971 0.2228059619665146 0.15336984395980835
-0.01347168255597353 0.22787056863307953 0.1321071982383728
-0.0826433077454567 0.21164029836654663 -0.1368422955274582
0.29135388135910034 -0.24805745482444763 0.003745153546333313
0.20185022056102753 0.1737816333770752 0.15206506848335266
0.2709357440471649 0.23220813274383545 -0.02067103236913681
0.28352388739585876 -0.43466347455978394 -0.01893068291246891
-0.12663383781909943 -0.19533246755599976 0.15386171638965607
-0.26395300030708313 0.21524697542190552 -0.13491499423980713
-0.2581263482570648 0.35873523354530334 0.06808497756719589
-0.23647478222846985 0.2250969111919403 -0.13548807799816132
-0.20827460289001465 -0.2787129878997803 0.07887071371078491
0.28961312770843506 -0.4419780969619751 0.13541968166828156
-0.2140735685825348 -0.014257673174142838 0.16761928796768188
-0.022415615618228912 0.17786604166030884 -0.1357768028974533
-0.2562257647514343 -0.3637996017932892 -0.09260052442550659
0.14013338088989258 -0.1395910531282425 -0.13710860908031464
-0.2503162622451782 0.224811390042305 -0.1337725669145584
0.20963934063911438 -0.24547505378723145 -0.135427787899971
0.2953614592552185 0.1136292889714241 0.15522001683712006
0.2891862392425537 0.22144629061222076 -0.13480998575687408
0.2620086669921875 0.5124770998954773 0.050270553678274155
0.1806674748659134 -0.2513186037540436 -0.04102063179016113
-0.26254329085350037 0.21633224189281464 -0.13516412675380707
-0.21588122844696045 0.11388583481311798 0.16769376397132874
-0.26984745264053345 0.0094320522621274 0.15053239464759827
-0.27187713980674744 -0.1897018700838089 0.0009652227163314819
0.2023104727268219 -0.20021206140518188 0.1539798080921173
0.1862030178308487 0.3277152478694916 0.017871718853712082
-0.17689506709575653 -0.2534168064594269 -0.06595712900161743
0.15771715342998505 -0.24533650279045105 -0.13448064029216766
0.2787030339241028 -0.44446131587028503 0.16683314740657806
-0.09148573130369186 -0.24704959988594055 -0.12039085477590561
-0.27113667130470276 -0.0965711921453476 0.1427127867937088
-0.25144895911216736 0.3493516445159912 -0.042526617646217346
0.266313374042511 0.3824480473995209 0.1252051591873169
0.19870711863040924 0.2276427149772644 0.09788547456264496
0.2571066617965698 -0.2516174912452698 -0.027660302817821503
0.2890934944152832 -0.17899373173713684 0.15612101554870605
-0.2697972059249878 0.22207067906856537 -0.09203723073005676
-0.28003841638565063 -0.05793076008558273 -0.2814455032348633
0.24230773746967316 0.08098898082971573 0.1601746678352356
-0.1776617020368576 0.23015181720256805 -0.028741763904690742
-0.32683926820755005 -0.4189663231372833 -0.04874228686094284
0.11247067898511887 -0.19620221853256226 0.15203331410884857
-0.14806538820266724 -0.1809493899345398 0.16122987866401672
-0.2621561586856842 0.20957443118095398 -0.1357148438692093
0.18545480072498322 0.3323802649974823 -0.0052681271918118
0.23725774884223938 -0.42571181058883667 -0.09024634957313538
0.2879924178123474 -0.005356013774871826 -0.13500455021858215
-0.3371421992778778 -0.39161574840545654 -0.007725896779447794
0.29476243257522583 0.06386543065309525 -0.13348917663097382
0.2924857437610626 0.1385982781648636 0.15600015223026276
-0.32951658964157104 -0.4081031382083893 -0.01612977683544159
-0.33350810408592224 -0.38847196102142334 0.04520893841981888
-0.18608416616916656 0.49651286005973816 0.0748913437128067
0.2060011774301529 0.16070064902305603 -0.1368810534477234
-0.012468376196920872 0.1884639859199524 -0.22877651453018188
-0.14082664251327515 -0.25280699133872986 -0.02055175229907036
0.28650909662246704 0.22904662787914276 0.07546605169773102
-0.2903657555580139 -0.4586239457130432 -0.06836271286010742
-0.24480566382408142 -0.07532835006713867 -0.2495911419391632
0.29875701665878296 0.21776781976222992 0.1028098315000534
-0.17571330070495605 -0.24219179153442383 -0.13509336113929749
-0.2595740258693695 -0.09688780456781387 -0.13753469288349152
0.18528982996940613 0.41908517479896545 0.11511493474245071
-0.027296289801597595 0.2283734828233719 -0.12529706954956055
-0.2706388235092163 -0.17298801243305206 -0.12895195186138153
0.25181716680526733 0.14448042213916779 0.15329232811927795
-0.10935095697641373 0.21862971782684326 -0.13534881174564362
-0.2137668877840042 -0.007810403127223253 0.16947591304779053
-0.2845172584056854 -0.04819108545780182 -0.23498454689979553
0.2971695363521576 0.18495500087738037 0.14536181092262268
-0.06340865790843964 0.13199713826179504 0.16873575747013092
0.036011431366205215 0.10920529067516327 -0.1364637017250061
0.29424533247947693 0.21982191503047943 -0.12816648185253143
0.29636359214782715 -0.06253235787153244 0.0012863241136074066
-0.3354126513004303 -0.3467346727848053 0.13700520992279053
-0.10630911588668823 0.22403909265995026 0.1536937803030014
0.2904028594493866 0.21773508191108704 -0.13396631181240082
-0.26131173968315125 -0.023276347666978836 -0.1358793079853058
0.25037822127342224 -0.28038614988327026 0.06559345871210098
-0.26074665784835815 -0.2365213930606842 -0.13586214184761047
0.20803076028823853 0.17023348808288574 0.15228363871574402
0.2973346412181854 0.08011875301599503 -0.12975159287452698
-0.25761878490448 0.17111089825630188 0.15580587089061737
-0.24434179067611694 0.2290709763765335 0.05952153727412224
0.27508339285850525 0.2295275330543518 0.04042113944888115
0.293433278799057 -0.2528804540634155 0.1042250469326973
0.2878865599632263 -0.41242092847824097 0.17932400107383728
0.04150187596678734 0.1092003583908081 -0.13439908623695374
0.13114458322525024 0.15745992958545685 0.16593848168849945
-0.08106142282485962 0.2264462560415268 -0.1295696198940277
-0.2631118893623352 -0.10699514299631119 -0.13510271906852722
0.2913307249546051 -0.24244576692581177 0.1489916741847992
-0.2453591525554657 -0.2532217502593994 0.06284517049789429
-0.21903331577777863 -0.4557808041572571 0.10998782515525818
-0.2656695246696472 0.22284728288650513 -0.048088379204273224
-0.02681310661137104 0.2259826809167862 -0.13045448064804077
-0.24742871522903442 0.22659015655517578 -0.13230851292610168
-0.2571909725666046 0.41084951162338257 0.11220871657133102
-0.16688671708106995 0.420213520526886 0.09914067387580872
0.19352681934833527 0.44018658995628357 0.11271777004003525
-0.17287294566631317 0.17791838943958282 0.15283355116844177
0.2448662668466568 0.3639983832836151 -0.08643826842308044
-0.24618837237358093 -0.2760317623615265 -0.005674746818840504
-0.01574687473475933 0.21786189079284668 -0.1367008090019226
0.28127434849739075 -0.4307331442832947 -0.03326263278722763
-0.2666250169277191 0.04203035682439804 -0.13383294641971588
-0.26546573638916016 -0.30586493015289307 0.10937966406345367
-0.26928749680519104 0.17598263919353485 -0.12962114810943604
0.28176259994506836 -0.44468721747398376 0.005854947492480278
-0.004936679266393185 0.09270364791154861 -0.13969643414020538
-0.29001981019973755 -0.38562464714050293 -0.08698710799217224
-0.2728950083255768 -0.23449692130088806 0.028453398495912552
0.06405454128980637 0.1497829705476761 0.1689392775297165
-0.2553243339061737 0.13599491119384766 0.155677929520607
-0.20916198194026947 0.15814419090747833 0.16571123898029327
0.28697454929351807 -0.09701339900493622 -0.13623046875
0.17404446005821228 -0.24903549253940582 0.13862109184265137
0.2872537076473236 0.2292364239692688 0.07643556594848633
0.2952658236026764 -0.1184033676981926 0.15427500009536743
0.2797873020172119 0.3832048773765564 -0.07431735843420029
0.20644450187683105 -0.19126448035240173 0.15345478057861328
-0.2691865563392639 -0.24636882543563843 -0.0030605271458625793
-0.020170042291283607 0.22460506856441498 -0.13475993275642395
0.17478947341442108 0.3795970678329468 0.01334392186254263
0.26177188754081726 -0.3634398579597473 0.1542174518108368
-0.2661006450653076 -0.17391850054264069 -0.13647489249706268
-0.2368963211774826 -0.2631305158138275 -0.027253344655036926
0.28966236114501953 0.21915417909622192 -0.13357341289520264
-0.2623002827167511 0.013798362575471401 0.1551494002342224
-0.23790037631988525 -0.2490251362323761 0.0850137397646904
0.29508838057518005 -0.12356355786323547 0.06549639999866486
-0.27030298113822937 0.21705029904842377 -0.12160597741603851
-0.06633452326059341 0.059858836233615875 -0.13737840950489044
-0.11040262877941132 -0.25201359391212463 -0.006034869700670242
-0.2574203312397003 0.0027776076458394527 -0.13460420072078705
0.29662197828292847 -0.05607835575938225 0.14468443393707275
0.25708943605422974 0.03270683437585831 -0.1367519348859787
0.2620605528354645 -0.44641169905662537 0.18086329102516174
0.25933748483657837 0.23150840401649475 -0.03265152871608734
-0.2706369161605835 -0.2391667664051056 0.051768265664577484
0.21313226222991943 0.42862001061439514 -0.08216603100299835
0.2924094796180725 -0.12949708104133606 0.15517586469650269
0.2909061908721924 0.21730740368366241 -0.1321261078119278
0.22582143545150757 0.46378377079963684 -0.0753859430551529
0.28531500697135925 0.0676175057888031 0.1563756763935089
-0.2711659073829651 -0.3753735423088074 0.20561553537845612
0.23236359655857086 0.11906009912490845 0.16805174946784973
-0.2653225064277649 0.22498862445354462 -0.05817485973238945
-0.2724830210208893 -0.17983293533325195 -0.11578890681266785
-0.006283212918788195 0.11114447563886642 -0.13734109699726105
0.29598531126976013 0.0058869048953056335 -0.12844516336917877
0.29200515151023865 -0.44237634539604187 0.12036223709583282
0.2962909936904907 0.14926427602767944 -0.13005410134792328
-0.2281179130077362 0.04003732651472092 -0.13652871549129486
0.20690326392650604 0.2443975955247879 -0.013780852779746056
-0.262721985578537 -0.12346696853637695 -0.13606207072734833
0.2977672219276428 0.14684264361858368 -0.12850557267665863
-0.2683110535144806 0.4214465618133545 0.010390626266598701
-0.0212068073451519 0.17408663034439087 -0.1335020214319229
3.544613718986511e-05 -0.17767812311649323 0.16730660200119019
-0.04101300239562988 0.14444947242736816 -0.1374468356370926
0.011646710336208344 -0.25236886739730835 0.03550753369927406
-0.269368976354599 -0.2410975992679596 -0.12003912031650543
0.29632240533828735 -0.23581916093826294 -0.07266531884670258
-0.24763065576553345 -0.27918460965156555 0.06363523006439209
-0.2622467279434204 -0.10166335105895996 -0.13451334834098816
0.2379426509141922 -0.1424277275800705 0.1678871363401413
0.2166404128074646 -0.24392451345920563 -0.13557812571525574
-0.1278713047504425 0.22785097360610962 -0.12389865517616272
-0.23289409279823303 0.22779609262943268 0.0611281618475914
-0.2838732600212097 -0.06753247231245041 -0.24484996497631073
0.29616883397102356 -0.061400845646858215 0.1501842737197876
-0.26542845368385315 0.20920336246490479 -0.13521607220172882
-0.2195533663034439 -0.2517714500427246 -0.1083647608757019
0.24947525560855865 -0.26115691661834717 0.0567762553691864
-0.21823635697364807 0.17913733422756195 0.15581925213336945
0.2656934857368469 -0.2443026602268219 -0.13700874149799347
-0.2681508958339691 0.11017211526632309 -0.13184647262096405
-0.2555729150772095 0.176601380109787 -0.1382991075515747
-0.2705501317977905 -0.19389957189559937 0.1534706950187683
0.21154776215553284 0.4869108200073242 0.1168735921382904
0.19522109627723694 0.11791001260280609 -0.13611054420471191
0.297305166721344 -0.1459408700466156 0.14524728059768677
0.19023150205612183 0.4051764905452728 0.11616949737071991
-0.2140420526266098 -0.15902012586593628 0.16761323809623718
0.2861226797103882 -0.09100723266601562 -0.13690930604934692
-0.2576339542865753 -0.2509036958217621 0.06250894069671631
0.28113576769828796 0.36800050735473633 -0.06613362580537796
-0.26355406641960144 -0.02523653954267502 -0.1356711983680725
-0.13893945515155792 -0.25508782267570496 -0.013921691104769707
-0.20722460746765137 -0.2494027018547058 0.14237333834171295
0.1538906693458557 -0.2523411810398102 -0.12035930156707764
0.2957453429698944 0.012799831107258797 0.14649434387683868
0.2746824324131012 0.4292474687099457 -0.07941588759422302
-0.21706122159957886 0.5008772015571594 -0.006303969770669937
-0.33012256026268005 -0.3366623520851135 0.1612105667591095
-0.02740383893251419 0.22810378670692444 0.13435834646224976
0.1275704950094223 0.223462775349617 0.153558149933815
0.24882376194000244 0.21689428389072418 -0.13599511981010437
0.29876869916915894 0.2206028401851654 0.04040861129760742
-0.28367680311203003 -0.4143165946006775 -0.09029645472764969
-0.25463593006134033 -0.4759162664413452 -0.03816340118646622
-0.19816726446151733 -0.24247705936431885 -0.13473649322986603
0.28263863921165466 0.22850383818149567 0.04860960319638252
-0.26605144143104553 0.030179454013705254 -0.1346931755542755
0.1666264683008194 0.22426076233386993 0.15188895165920258
-0.15217755734920502 -0.1930805742740631 0.15413276851177216
0.29171156883239746 -0.08300251513719559 -0.13572455942630768
-0.09116698056459427 -0.23935025930404663 -0.1351230889558792
-0.3081437647342682 -0.3598272204399109 -0.03117222711443901
0.1847117692232132 0.33313852548599243 0.010813730768859386
0.20105202496051788 0.4601963460445404 0.11093587428331375
0.28528541326522827 -0.2505040764808655 -0.06092701852321625
0.16069146990776062 -0.18813222646713257 0.15772095322608948
-0.22118808329105377 0.1546417474746704 0.15604932606220245
-0.2679126560688019 -0.02035493776202202 0.15427635610103607
-0.20705747604370117 0.09637780487537384 0.16805288195610046
0.0030841417610645294 -0.24984410405158997 0.11716439574956894
-0.20558100938796997 0.2268388271331787 0.14317548274993896
0.2861066162586212 0.3499634861946106 -0.05309614911675453
-0.27109459042549133 -0.10124827176332474 -0.12771140038967133
0.02583761140704155 0.14833152294158936 0.17125271260738373
-0.26995494961738586 -0.22369888424873352 -0.13264814019203186
-0.22368532419204712 0.22305108606815338 -0.135862335562706
-0.16361021995544434 0.1784634292125702 0.1532021015882492
0.21834732592105865 0.2219979465007782 0.1555352658033371
-0.18919911980628967 0.417744904756546 0.08717095851898193
0.29652485251426697 -0.1982128918170929 -0.12416315078735352
-0.26847127079963684 0.14521342515945435 0.15240314602851868
-0.15618270635604858 -0.27013838291168213 -0.015305489301681519
-0.27226582169532776 -0.10087484866380692 0.14248616993427277
-0.1711329072713852 0.23930779099464417 0.024415403604507446
0.23233991861343384 -0.29511162638664246 -0.06841766089200974
-0.2697032392024994 0.05365925654768944 -0.1337801218032837
0.17669878900051117 0.09053409844636917 0.16782209277153015
0.170305535197258 -0.26644930243492126 0.0010791326640173793
0.28617140650749207 -0.18722163140773773 0.1556512713432312
0.03787178546190262 0.18214982748031616 -0.1346471905708313
-0.2659701406955719 -0.18612633645534515 -0.13600033521652222
0.2686392664909363 -0.19487139582633972 -0.1350279599428177
0.2861844003200531 -0.21300861239433289 0.15615811944007874
0.29705217480659485 0.21884949505329132 -0.12202148139476776
0.29181432723999023 0.44425392150878906 0.1285868138074875
0.263526976108551 0.22845220565795898 -0.03222545608878136
0.2962786853313446 -0.05312151461839676 0.08170446008443832
0.10045447200536728 -0.2509891092777252 0.10688512027263641
-0.015452533960342407 0.21135753393173218 -0.13471244275569916
0.28921425342559814 0.13688060641288757 0.15742944180965424
-0.09695430099964142 -0.2363857477903366 -0.13523027300834656
0.28202635049819946 -0.22884425520896912 -0.13523954153060913
0.19694733619689941 0.22622160613536835 -0.13044217228889465
0.2727927267551422 0.21806055307388306 -0.1351923793554306
-0.22547611594200134 -0.2021486908197403 0.15495841205120087
-0.25103187561035156 0.3944866955280304 0.11542423069477081
-0.16467559337615967 0.46953094005584717 0.05981007590889931
-0.07290676236152649 0.22701212763786316 -0.019278621301054955
-0.0086207315325737 0.10507436841726303 -0.13885749876499176
0.02684406191110611 0.09806562960147858 -0.1352628767490387
-0.27002325654029846 -0.22574298083782196 0.13631153106689453
0.292135626077652 -0.23954570293426514 -0.016437776386737823
0.2952558100223541 -0.06480250507593155 0.148433119058609
0.013431304134428501 0.228333979845047 0.012814139947295189
0.21290943026542664 0.22856107354164124 0.12219662219285965
0.2925713062286377 0.21671584248542786 -0.13531439006328583
0.021947301924228668 0.1866040825843811 -0.1376822143793106
0.292400985956192 0.17192412912845612 0.1566859930753708
-0.19494862854480743 -0.24722127616405487 0.15462908148765564
0.07719147950410843 0.2177637666463852 -0.134247288107872
0.2385464906692505 -0.30415305495262146 0.09901433438062668
0.2863559126853943 -0.44398921728134155 0.14340949058532715
0.08156735450029373 -0.059154611080884933 -0.13534286618232727
-0.27353689074516296 -0.3910180926322937 0.2045595496892929
0.29531463980674744 -0.04352452605962753 -0.13413938879966736
-0.27102383971214294 0.014349142089486122 -0.0031213387846946716
-0.21482917666435242 -0.11838783323764801 0.1670306771993637
0.20679143071174622 0.22837795317173004 0.03362744301557541
0.2969571053981781 -0.23848655819892883 0.14272981882095337
-0.09767265617847443 0.227274090051651 0.15027156472206116
0.2125099152326584 0.4489155113697052 -0.07719199359416962
-0.2701449692249298 0.058030348271131516 -0.1294279545545578
-0.26443007588386536 -0.17901362478733063 -0.13676348328590393
-0.22182609140872955 -0.4478883445262909 0.14240491390228271
0.2267797589302063 -0.3268623650074005 -0.07966610789299011
-0.2527081370353699 0.4841689169406891 0.008343515917658806
-0.1907562017440796 0.3553481698036194 0.09682771563529968
-0.23386825621128082 -0.43946436047554016 0.15496566891670227
-0.2894531786441803 0.04266534000635147 -0.25237956643104553
0.2953818738460541 -0.13803830742835999 0.1535470336675644
-0.21266812086105347 -0.2870781123638153 0.08132826536893845
0.26478031277656555 -0.23989610373973846 -0.13539744913578033
-0.18133823573589325 0.23134072124958038 -0.026284856721758842
