0.23500272631645203 -0.14571726322174072 0.1644359976053238
0.2972870171070099 0.21966475248336792 0.119712695479393
-0.26931822299957275 -0.25123488903045654 0.07904943823814392
-0.016562044620513916 0.10058867186307907 -0.13367381691932678
0.20442283153533936 0.3178972005844116 -0.01064528338611126
0.19558432698249817 0.34060800075531006 0.06978067010641098
0.23832833766937256 -0.30306118726730347 0.09946409612894058
0.22775791585445404 0.12838275730609894 -0.13582217693328857
-0.26971718668937683 0.16248399019241333 -0.12405979633331299
-0.3367529511451721 -0.37663498520851135 0.017531313002109528
-0.010429291054606438 -0.2471705675125122 -0.1356504112482071
0.1973329484462738 0.34153735637664795 -0.04080310836434364
0.16865208745002747 -0.2549518048763275 0.032332755625247955
0.17986659705638885 0.439733624458313 0.06288988143205643
0.23477153480052948 0.3907460868358612 -0.09093166142702103
-0.01582908257842064 -0.18001985549926758 0.1669733226299286
-0.16791373491287231 0.23278462886810303 0.0017745736986398697
0.10961504280567169 0.1513243168592453 0.16920047998428345
0.23941391706466675 0.39701327681541443 -0.09546677023172379
0.2157306671142578 -0.2537067234516144 -0.04924556240439415
0.1563957929611206 0.22836293280124664 -0.06351042538881302
0.2877930700778961 0.2230578064918518 -0.13540640473365784
-0.07429268956184387 -0.17792822420597076 0.16687065362930298
0.29913511872291565 0.07845379412174225 0.05524870753288269
-0.26319289207458496 -0.2545472979545593 0.03255743905901909
0.017497681081295013 0.15437155961990356 0.16788582503795624
0.29762667417526245 0.18720316886901855 0.12811927497386932
-0.2699566185474396 0.0196286141872406 0.1479794681072235
-0.2681070864200592 0.2187904417514801 -0.010528571903705597
-0.30910125374794006 -0.39893069863319397 -0.07815553992986679
-0.27207326889038086 0.21164573729038239 -0.1323322057723999
0.16442161798477173 0.2267276793718338 0.13905401527881622
-0.07286709547042847 -0.248817577958107 -0.12343499064445496
0.23434098064899445 -0.06218327209353447 0.16813644766807556
0.29385945200920105 0.13897930085659027 0.15414133667945862
-0.08584809303283691 0.15302251279354095 0.16600000858306885
0.2972693145275116 0.11935945600271225 -0.00944538414478302
0.15865284204483032 -0.4461466073989868 0.0017120707780122757
-0.26767027378082275 -0.04437727481126785 -0.13018393516540527
0.23389418423175812 -0.1250723898410797 0.16810452938079834
0.029408928006887436 0.13652226328849792 -0.21099352836608887
0.28777575492858887 -0.39226049184799194 0.15980264544487
0.1732131987810135 -0.3056548237800598 -0.0451885461807251
-0.03710964322090149 0.12442882359027863 -0.13482436537742615
-0.28528064489364624 -0.45890361070632935 -0.06188594549894333
-0.15953734517097473 -0.24857428669929504 0.15077418088912964
0.29712826013565063 -0.15736344456672668 0.14358049631118774
-0.26875200867652893 0.2200665920972824 0.10443960875272751
-0.26907268166542053 -0.006674464792013168 -0.13380098342895508
0.2416297346353531 -0.15502147376537323 0.1637434959411621
-0.20965272188186646 0.09606841951608658 0.16886739432811737
0.03695036470890045 0.21613265573978424 0.15503254532814026
-0.1971561759710312 -0.05005313828587532 0.1694110631942749
0.1458701193332672 -0.2474086880683899 -0.12820491194725037
-0.03234674036502838 0.17410993576049805 0.15028531849384308
-0.12579083442687988 -0.1751960664987564 0.16634660959243774
-0.02925063855946064 0.2178497463464737 -0.13531839847564697
0.060264311730861664 0.22347497940063477 0.15221267938613892
0.29581117630004883 0.1346869319677353 -0.12137032300233841
0.2612854242324829 -0.3068661689758301 -0.06191570684313774
0.222333163022995 0.23293359577655792 0.05242477357387543
0.2974662780761719 -0.2419586181640625 0.1267589032649994
0.19561107456684113 0.3795371949672699 0.11336056888103485
0.2952429950237274 -0.16222071647644043 0.15023794770240784
0.12588833272457123 0.1726933866739273 0.15213574469089508
-0.24412347376346588 -0.243240088224411 -0.13644027709960938
-0.2658340334892273 -0.24883271753787994 -0.1131599023938179
0.191493958234787 0.3380351960659027 0.061680298298597336
-0.19996678829193115 0.5024717450141907 0.06756913661956787
0.1438928097486496 0.22599105536937714 0.14373114705085754
0.2542226314544678 -0.30939820408821106 0.09898754209280014
-0.2651878297328949 -0.24952173233032227 -0.11846698075532913
-0.2673453688621521 -0.47209081053733826 -0.057895489037036896
0.2892845571041107 -0.1576715111732483 0.15479114651679993
-0.26919376850128174 -0.003283478319644928 -0.12496679276227951
-0.3337787389755249 -0.3630428612232208 0.06463727355003357
0.29081717133522034 -0.42627009749412537 0.10824186354875565
-0.04031483456492424 0.15876251459121704 -0.13777108490467072
-0.24177294969558716 -0.1362568438053131 -0.13519065082073212
-0.22108611464500427 0.23745742440223694 -0.030835334211587906
-0.26940998435020447 -0.1187586784362793 -0.1281915158033371
-0.3329668343067169 -0.36925774812698364 0.11776674538850784
-0.19433905184268951 0.2590760588645935 -0.021836651489138603
-0.05087848752737045 -0.24841251969337463 0.15025722980499268
-0.2672743797302246 -0.25024405121803284 -0.06574489176273346
-0.3349279761314392 -0.37456202507019043 0.02800554409623146
0.298543781042099 -0.15080323815345764 0.12835903465747833
-0.18767447769641876 -0.24805119633674622 0.1468644142150879
0.24881528317928314 0.0038343947380781174 0.15770983695983887
-0.17618584632873535 0.22995273768901825 0.041463203728199005
0.24835261702537537 -0.014844555407762527 0.15433132648468018
-0.21802034974098206 -0.2798928916454315 0.07676076143980026
-0.10614709556102753 0.22775894403457642 0.14243876934051514
0.0007892567664384842 0.10118553787469864 -0.13710616528987885
0.18362972140312195 0.4066452085971832 -0.044993266463279724
0.2628445625305176 0.4474162757396698 -0.08699826151132584
-0.25155195593833923 0.34923094511032104 -0.043191734701395035
0.001998082734644413 0.2227223664522171 -0.13652360439300537
-0.3361431062221527 -0.35619881749153137 0.11655992269515991
0.1812072992324829 0.37451550364494324 0.07135946303606033
0.2974010109901428 0.21908587217330933 0.09637615084648132
-0.29443055391311646 0.015709256753325462 -0.27841082215309143
0.2853741943836212 0.22740936279296875 -0.13050541281700134
0.24753454327583313 0.3530952036380768 -0.08220845460891724
0.29325488209724426 0.20361453294754028 -0.13472071290016174
0.29473140835762024 0.08761434257030487 -0.13353782892227173
-0.3337903320789337 -0.358391672372818 0.07663460820913315
0.2887565791606903 -0.44206908345222473 0.12244012206792831
0.28724178671836853 -0.23736272752285004 -0.1353640854358673
0.2909783720970154 0.18103812634944916 -0.13425269722938538
-0.20255042612552643 0.2538975775241852 -0.025165624916553497
-0.22860586643218994 -0.09289000928401947 0.152977854013443
-0.26311808824539185 -0.04799625277519226 -0.13017916679382324
-0.2592018246650696 0.14722687005996704 -0.13576383888721466
0.2874058485031128 -0.25165221095085144 -0.05269678682088852
0.2529054880142212 0.5090187788009644 -0.024461844936013222
-0.2688974142074585 -0.16857457160949707 -0.12499772012233734
0.12269994616508484 0.17275375127792358 0.15240439772605896
-0.1765047013759613 0.3597671389579773 0.09651164710521698
0.28728726506233215 -0.11188963055610657 0.15389341115951538
-0.30501821637153625 -0.3197920322418213 0.13256585597991943
-0.2695111334323883 -0.2413882166147232 -0.1277393102645874
-0.01488460786640644 0.17676858603954315 0.15375815331935883
0.2984512746334076 0.15544132888317108 -0.12470623850822449
0.25819170475006104 -0.4451378285884857 0.18894745409488678
0.20786750316619873 0.43009451031684875 -0.08161759376525879
-0.23638826608657837 0.2286803126335144 0.055547598749399185
0.23708444833755493 0.14750155806541443 0.166559100151062
0.2767108976840973 -0.2483936995267868 -0.1358111947774887
-0.26474910974502563 -0.016475223004817963 -0.13230618834495544
-0.07645074278116226 -0.06739632785320282 -0.1348983645439148
-0.22028778493404388 0.2294575273990631 0.1045229583978653
-0.2711368203163147 0.05179543420672417 -0.12890243530273438
0.24537453055381775 0.1821492612361908 0.15428686141967773
-0.150343120098114 -0.28888416290283203 0.01263345591723919
-0.14661788940429688 0.1779089719057083 0.15461787581443787
-0.1189129427075386 0.22823499143123627 -0.12500934302806854
0.28617215156555176 -0.09260055422782898 -0.13732965290546417
0.20127229392528534 0.23058022558689117 -0.004565331153571606
0.025471732020378113 0.11085423827171326 -0.1365368813276291
-0.2889336943626404 -0.015971165150403976 -0.29652824997901917
0.29720985889434814 -0.20255576074123383 -0.045421723276376724
0.296726256608963 -0.048955582082271576 -0.11670473217964172
0.03248140960931778 0.1729831099510193 0.15168458223342896
0.29578208923339844 0.16742989420890808 -0.13156253099441528
0.2757464349269867 -0.42410504817962646 -0.04925207421183586
0.27049583196640015 0.21577639877796173 -0.13744808733463287
0.02039588987827301 -0.0489610992372036 -0.13598936796188354
-0.20641303062438965 -0.4343049228191376 0.12617164850234985
-0.246982604265213 0.22921232879161835 -0.015151824802160263
-0.14048649370670319 -0.24793651700019836 -0.13051165640354156
-0.22962675988674164 0.38411659002304077 0.11300770938396454
0.2499532848596573 0.35050371289253235 -0.0798787847161293
-0.25917670130729675 -0.10938692092895508 -0.13712425529956818
-0.23915013670921326 0.22777943313121796 -0.12338298559188843
-0.2727125585079193 0.216606006026268 -0.08422774821519852
-0.3346365690231323 -0.35040515661239624 0.13434907793998718
-0.1906924694776535 -0.25544846057891846 -0.07372449338436127
-0.2432740479707718 -0.34967172145843506 -0.09278419613838196
0.2769846022129059 0.2380945235490799 0.01997349038720131
-0.270131915807724 -0.18731695413589478 -0.12808088958263397
0.2991538345813751 -0.16331997513771057 0.15057191252708435
0.2127450555562973 0.4879318177700043 -0.05497745797038078
-0.2529762387275696 -0.24562835693359375 0.15131054818630219
0.289082795381546 -0.41587626934051514 0.09012037515640259
0.12762358784675598 0.2265060395002365 0.14401006698608398
-0.2686803340911865 -0.09098086506128311 -0.12771090865135193
0.2525801360607147 -0.2501412332057953 -0.13774725794792175
0.2945425510406494 0.06694744527339935 -0.13544802367687225
0.2800031304359436 -0.24728307127952576 -0.1384730339050293
0.2959308624267578 0.22855034470558167 -0.07967732846736908
-0.009930006228387356 0.09746861457824707 -0.13631246984004974
0.2129797786474228 0.45933130383491516 0.10120382159948349
-0.26183438301086426 0.2255045473575592 -0.06395714730024338
-0.21985124051570892 -0.24998565018177032 -0.12856926023960114
0.2973681092262268 0.3584701120853424 0.0659632682800293
0.296826034784317 0.0834209993481636 -0.13273943960666656
-0.19129811227321625 0.47688063979148865 -0.051844727247953415
0.26623284816741943 -0.25062045454978943 0.00819183699786663
0.050364091992378235 0.16320617496967316 -0.20931030809879303
0.21990087628364563 0.22629469633102417 -0.1326582133769989
-0.2675586938858032 0.08728878200054169 -0.13235656917095184
-0.17034843564033508 0.2309429943561554 -0.009645363315939903
-0.09435726702213287 -0.23593604564666748 -0.1370774507522583
0.05652550607919693 0.19878530502319336 -0.1828075647354126
0.12284546345472336 -0.24280919134616852 0.1542002111673355
-0.2375001162290573 -0.47057339549064636 0.0426999069750309
0.298399955034256 -0.04818657040596008 0.09843158721923828
0.04188696667551994 0.22680848836898804 -0.04409434646368027
0.26142898201942444 0.1714349389076233 0.15532894432544708
0.2456851601600647 0.35578709840774536 -0.0840601772069931
-0.26201435923576355 -0.47463294863700867 -0.042178474366664886
-0.09637467563152313 0.21779276430606842 0.15467560291290283
-0.19210603833198547 -0.19131171703338623 0.15158826112747192
0.011046395637094975 0.102508544921875 -0.18864580988883972
-0.18650895357131958 0.15320144593715668 0.16998706758022308
0.29456159472465515 -0.06735633313655853 0.14418095350265503
0.09035828709602356 -0.19345234334468842 0.15242832899093628
-0.0765627771615982 0.16466988623142242 0.16298872232437134
-0.12328407913446426 -0.19887742400169373 0.1538698524236679
0.24290451407432556 0.14244475960731506 0.16516950726509094
0.2509709298610687 0.23078230023384094 0.08244479447603226
-0.19509486854076385 0.4145287573337555 0.08669080585241318
-0.2650704085826874 -0.2227228879928589 0.15442131459712982
0.11093824356794357 0.22987298667430878 0.14280858635902405
-0.26015976071357727 0.1964176893234253 0.1558728665113449
0.25729820132255554 0.227725088596344 -0.12786830961704254
-0.3015373945236206 -0.3332664966583252 0.1878117471933365
-0.2174178808927536 -0.1240391805768013 0.16268375515937805
-0.26028671860694885 -0.005058981478214264 -0.1358199268579483
0.2936724126338959 -0.24962252378463745 0.02552279829978943
-0.12031986564397812 0.07441987097263336 -0.14020958542823792
-0.25450599193573 -0.2498454749584198 0.07356378436088562
0.25752684473991394 -0.44724041223526 0.14047135412693024
-0.26710543036460876 0.11096660047769547 -0.13122442364692688
0.29077738523483276 0.22403642535209656 -0.13553106784820557
-0.262895405292511 0.037599243223667145 -0.13305963575839996
-0.16536495089530945 0.15768800675868988 0.16820377111434937
0.21097253262996674 -0.25362730026245117 -0.04529117792844772
0.26743921637535095 0.3701305687427521 -0.08326011896133423
0.2972049117088318 -0.055148895829916 0.14223141968250275
-0.24421992897987366 -0.25400835275650024 -0.007177971303462982
0.03232740983366966 0.18244138360023499 -0.1375938504934311
-0.10598593950271606 0.16475945711135864 0.16213634610176086
-0.26628509163856506 -0.3337760865688324 -0.07553766667842865
0.08718522638082504 0.21683691442012787 0.15473733842372894
0.23426854610443115 -0.28342121839523315 -0.06559345126152039
-0.2459307312965393 -0.02604757621884346 -0.2902194857597351
-0.28867965936660767 -0.33521831035614014 0.18723136186599731
-0.267803430557251 0.22256755828857422 0.02418343722820282
0.2902391850948334 -0.2514508068561554 -0.021266788244247437
-0.20355381071567535 -0.27307847142219543 -0.05837060511112213
-0.26951104402542114 0.21463121473789215 0.10825208574533463
0.2305375188589096 -0.31385156512260437 -0.07895027101039886
-0.26614636182785034 -0.2064177393913269 -0.12838740646839142
-0.1376369595527649 0.0568586066365242 0.16690859198570251
0.28679221868515015 -0.39968881011009216 0.17042478919029236
-0.25445061922073364 -0.1120389774441719 -0.13378919661045074
0.11378635466098785 -0.2513013780117035 0.13916800916194916
-0.08127336204051971 -0.2493785321712494 0.0755210593342781
-0.1790236234664917 -0.2369517982006073 -0.1366323083639145
-0.08142878115177155 0.09933353960514069 -0.13749197125434875
0.2958936095237732 0.22187095880508423 0.09522818773984909
0.29609212279319763 -0.14627227187156677 -0.13696922361850739
-0.20735713839530945 0.2680295705795288 -0.0214427188038826
0.28587806224823 0.34665346145629883 0.0651029571890831
0.1280108392238617 0.174033060669899 0.15230277180671692
0.21756169199943542 -0.40405866503715515 0.19918958842754364
-0.19117653369903564 0.22609777748584747 -0.12424226850271225
-0.2665279805660248 0.018705785274505615 -0.13349036872386932
0.2357846349477768 -0.306056946516037 0.10184333473443985
0.2911301255226135 0.20136931538581848 0.1552363634109497
0.2589949369430542 -0.004161426797509193 0.15383298695087433
-0.2171051800251007 -0.10329479724168777 0.16349303722381592
-0.1932688057422638 -0.2839963734149933 0.07086582481861115
-0.2702138125896454 -0.23719486594200134 0.11799027025699615
0.1727939248085022 -0.4438685178756714 0.1831783801317215
0.29698577523231506 0.09753604978322983 0.1502843052148819
0.29627183079719543 0.22385787963867188 0.09753929078578949
0.01041446439921856 0.1788099855184555 -0.13275915384292603
0.2900940775871277 0.22095830738544464 -0.13227733969688416
0.11722040176391602 0.22542518377304077 -0.12253782153129578
-0.18723362684249878 0.23020564019680023 -0.12462775409221649
0.29691845178604126 0.04692206531763077 0.1423441469669342
-0.3332656919956207 -0.36123085021972656 0.15268303453922272
-0.2808273732662201 -0.3392567038536072 0.18910153210163116
0.29050517082214355 -0.43392348289489746 0.13801565766334534
0.08132579177618027 0.22940485179424286 0.142271488904953
0.16513484716415405 -0.24688687920570374 -0.13677331805229187
0.2981763482093811 0.13356417417526245 0.1441379189491272
-0.26249632239341736 -0.11096301674842834 0.15523871779441833
0.2876381278038025 0.0843270793557167 -0.13481764495372772
-0.25699588656425476 0.06754963845014572 -0.13543467223644257
0.2905442714691162 0.20600400865077972 -0.13268962502479553
-0.3310895562171936 -0.3828720450401306 0.08162378519773483
0.2545473873615265 -0.2624911367893219 -0.02278490923345089
-0.16719669103622437 0.15376168489456177 -0.13439269363880157
0.24242118000984192 0.5180713534355164 0.06105758994817734
-0.0318390391767025 0.2269970178604126 -0.12116572260856628
-0.22317442297935486 0.16649796068668365 0.15380050241947174
0.04255124554038048 -0.23724010586738586 -0.13650882244110107
-0.217568501830101 0.08036930114030838 0.1596260815858841
0.2780279517173767 -0.44332432746887207 -0.03671950101852417
-0.033638693392276764 0.2270946055650711 -0.10348469763994217
-0.16791443526744843 0.4284435212612152 0.09907972812652588
-0.26945507526397705 0.03867223858833313 -0.13312172889709473
-0.2087988257408142 0.026290979236364365 0.1698906421661377
-0.04672498628497124 -0.25047335028648376 -0.1278189718723297
-0.1604265570640564 -0.25601157546043396 0.052627742290496826
0.29202744364738464 0.19807878136634827 -0.1347137689590454
-0.26285645365715027 0.06702035665512085 -0.13398072123527527
0.24341630935668945 -0.42009836435317993 -0.09458515048027039
0.18805751204490662 -0.2447892427444458 -0.1365976780653
-0.25329655408859253 -0.2494027465581894 0.0742356926202774
0.08026958256959915 0.22735735774040222 0.1423588991165161
0.22830834984779358 -0.25222182273864746 -0.05380074307322502
0.29321223497390747 0.020833328366279602 -0.13589943945407867
-0.19194547832012177 -0.3873104453086853 0.0910303145647049
-0.26928701996803284 -0.23924580216407776 -0.08048161119222641
0.29935696721076965 0.12390542030334473 0.14628072082996368
0.296815425157547 0.22076129913330078 -0.09193629771471024
-0.22379399836063385 -0.2805042862892151 0.07668789476156235
0.2968623638153076 -0.03933712840080261 0.15103621780872345
-0.2050684094429016 -0.04461868107318878 0.17015135288238525
-0.24949876964092255 0.48378193378448486 0.09332269430160522
0.20615562796592712 0.4106254577636719 -0.08109663426876068
-0.18421396613121033 0.4963134825229645 0.022357499226927757
-0.26946333050727844 -0.2237357348203659 -0.12927769124507904
0.2235037088394165 -0.08880096673965454 -0.13845987617969513
0.06497113406658173 -0.2496652901172638 -0.13524775207042694
0.2959049940109253 -0.16775891184806824 -0.11651897430419922
-0.19844914972782135 0.22815528512001038 -0.12264928221702576
0.11714154481887817 -0.1133737564086914 -0.13643479347229004
0.05126386508345604 -0.1943773627281189 -0.13872426748275757
-0.18133899569511414 0.17621132731437683 0.1529889702796936
0.29337674379348755 0.22734513878822327 0.0722089633345604
-0.27182260155677795 0.1999327689409256 0.13833226263523102
0.13486573100090027 -0.24926353991031647 -0.09969893097877502
0.22877489030361176 -0.24958845973014832 0.1386381983757019
-0.3331841230392456 -0.3491416871547699 0.12958574295043945
-0.2682906985282898 -0.35890263319015503 0.19820688664913177
-0.23316648602485657 -0.47056642174720764 -0.03104275092482567
-0.21849817037582397 -0.031018398702144623 0.1602293998003006
-0.026414312422275543 -0.24832826852798462 0.14893046021461487
-0.26626116037368774 -0.4401421844959259 0.07206045091152191
0.2000192105770111 0.22711330652236938 0.0384395569562912
0.26056721806526184 0.21687744557857513 -0.13649845123291016
-0.2526051998138428 -0.4654274582862854 -0.05942387878894806
-0.2711065113544464 -0.003683539107441902 0.1458968222141266
0.2903391122817993 0.011712834239006042 -0.13672609627246857
0.19912058115005493 0.22648192942142487 0.013873692601919174
0.23250268399715424 0.042667411267757416 0.16895326972007751
0.21077893674373627 0.3046743869781494 0.03346541151404381
0.2921818792819977 -0.4334401786327362 0.06452584266662598
0.08409035950899124 -0.2478223741054535 0.1403866708278656
0.03042149357497692 0.1496485322713852 0.16981235146522522
-0.014326706528663635 0.026656148955225945 0.16842634975910187
0.062448907643556595 0.1225815862417221 -0.13643434643745422
-0.1426204890012741 -0.17809030413627625 0.16463741660118103
-0.28433817625045776 -0.3592807352542877 0.2055063545703888
-0.2314804345369339 0.46250617504119873 -0.06514684855937958
-0.16095420718193054 0.3450683057308197 -0.012203198857605457
0.24040135741233826 -0.24913650751113892 -0.13790611922740936
0.2502883970737457 0.17730161547660828 -0.13661594688892365
0.29912906885147095 0.04474557563662529 0.14421972632408142
-0.2537601590156555 0.06256794929504395 -0.2925156056880951
-0.23485076427459717 -0.47071924805641174 0.043102510273456573
0.1694231778383255 0.22456590831279755 -0.13386012613773346
0.25056275725364685 -0.2499808967113495 0.07384707778692245
-0.2619054317474365 -0.18973051011562347 -0.1353897899389267
0.16508811712265015 -0.44522157311439514 0.17451518774032593
-0.21908865869045258 0.16841647028923035 0.1534808874130249
0.29699110984802246 -0.23562748730182648 0.04266170412302017
0.2978016138076782 0.1587887406349182 0.0580911859869957
-0.2511194944381714 0.49129700660705566 0.05480587109923363
0.12228651344776154 0.2248286008834839 0.15159949660301208
0.29291778802871704 0.16300652921199799 -0.13454371690750122
0.2659607231616974 -0.4282928705215454 -0.0784115344285965
-0.27069470286369324 0.13798503577709198 0.14725470542907715
-0.2248363494873047 -0.175293430685997 -0.13580766320228577
-0.18689082562923431 -0.2990824580192566 0.06504213809967041
-0.08809034526348114 0.17401817440986633 0.15318310260772705
0.20776517689228058 0.2344403713941574 -0.006373263895511627
-0.19875061511993408 0.44645363092422485 0.08831112086772919
0.2938445210456848 -0.1111784428358078 -0.13758037984371185
0.17029204964637756 -0.11938493698835373 -0.1355864703655243
-0.2657371163368225 0.21537898480892181 0.15407222509384155
0.20279066264629364 0.0535721592605114 0.1674048900604248
0.1716790348291397 -0.24644917249679565 -0.13404957950115204
0.285963237285614 -0.4356223940849304 -0.008764710277318954
-0.2602251470088959 -0.22696653008460999 0.15538330376148224
0.235299751162529 0.4705321788787842 -0.07601577043533325
-0.30165421962738037 -0.36901846528053284 0.20222853124141693
-0.2455684244632721 -0.25266098976135254 -0.06369909644126892
0.29635748267173767 -0.23936021327972412 0.09010672569274902
0.011631186120212078 0.16299912333488464 0.16428540647029877
0.291389524936676 0.00706278532743454 -0.1332693248987198
-0.09522426128387451 0.16260512173175812 0.16515707969665527
0.26254576444625854 0.3654976189136505 -0.08585774898529053
-0.06106679141521454 -0.23526732623577118 -0.13786721229553223
-0.15159358084201813 0.17746496200561523 0.1525537073612213
-0.2712220549583435 -0.225155770778656 0.1328590363264084
0.12284447252750397 0.16486552357673645 -0.13689155876636505
0.15225151181221008 -0.43080249428749084 -0.03027326613664627
0.29634976387023926 -0.21025130152702332 0.06194717437028885
0.13175833225250244 -0.2384800761938095 0.1563173532485962
0.2946872115135193 -0.23859935998916626 0.07141637802124023
0.25310590863227844 -0.2995690405368805 -0.06176380440592766
-0.09828142076730728 0.2283889204263687 -0.12469490617513657
-0.001932710874825716 0.205495685338974 -0.16170451045036316
0.029000286012887955 -0.19250120222568512 0.15167972445487976
0.15206286311149597 -0.16908182203769684 0.1678309142589569
-0.08924035727977753 0.1493837684392929 0.17052584886550903
-0.07522331923246384 0.21843594312667847 0.15398383140563965
-0.28375762701034546 -0.3784073293209076 -0.08916359394788742
-0.32196465134620667 -0.35265350341796875 0.18612416088581085
0.032324694097042084 0.20149289071559906 -0.16086536645889282
0.2807113826274872 0.2272854894399643 0.052302323281764984
-0.16653156280517578 0.47923344373703003 0.036892034113407135
-0.13501431047916412 0.22341285645961761 0.15363408625125885
-0.17298147082328796 0.4163815975189209 0.10127270221710205
-0.027135830372571945 -0.009836829267442226 -0.13613080978393555
0.18791411817073822 0.41066983342170715 0.111151784658432
-0.19800697267055511 0.22514212131500244 -0.13251835107803345
0.08909111469984055 0.1809767186641693 0.1532776653766632
0.2513900101184845 0.16655631363391876 0.15409696102142334
-0.3319961726665497 -0.3644854724407196 0.11804080009460449
0.24447430670261383 -0.1763109266757965 0.15973646938800812
-0.22565211355686188 0.2311180680990219 0.13032092154026031
-0.21722206473350525 0.16456571221351624 0.15691299736499786
0.2955184876918793 -0.08247239887714386 0.14576901495456696
0.2596935033798218 0.4930276572704315 0.12269839644432068
0.2963567078113556 0.03934508189558983 -0.13460324704647064
0.11712604761123657 -0.17616714537143707 0.1644030213356018
0.12624143064022064 -0.12148818373680115 -0.13652049005031586
0.20513297617435455 -0.19416610896587372 0.153062641620636
0.295789510011673 -0.03681464120745659 0.15318356454372406
-0.1522047072649002 -0.26643437147140503 0.024678755551576614
-0.1982833445072174 0.3573666214942932 -0.06875193119049072
0.2964213788509369 -0.24182172119617462 -0.0008432939648628235
-0.24569980800151825 -0.039900265634059906 -0.24992533028125763
0.2004948854446411 -0.426586389541626 -0.0824178159236908
-0.011672311462461948 0.22792957723140717 0.1266956925392151
0.29831767082214355 -0.2395179718732834 0.13616015017032623
-0.15025687217712402 -0.26735228300094604 0.021202363073825836
0.30020272731781006 -0.09590809792280197 -0.08948428928852081
0.2620450258255005 -0.24959708750247955 -0.009915966540575027
-0.2760292589664459 -0.464681476354599 -0.06375923752784729
-0.22973617911338806 0.22913886606693268 0.051430754363536835
-0.22366338968276978 -0.45176464319229126 0.12694492936134338
0.19284453988075256 -0.24938847124576569 0.13897687196731567
0.2150227576494217 -0.16805696487426758 -0.1386413276195526
0.06552694737911224 0.2281964123249054 -0.021203499287366867
-0.2351495325565338 -0.2597491145133972 0.012120080180466175
-0.1897708773612976 -0.24535340070724487 -0.1368497610092163
0.29803118109703064 0.06808020919561386 -0.13246601819992065
0.2971157431602478 -0.08004413545131683 -0.029498910531401634
-0.1541425734758377 -0.17062866687774658 0.17050793766975403
0.06178285554051399 0.07450921833515167 -0.13696271181106567
-0.2572224736213684 -0.25204455852508545 0.06681719422340393
0.14164167642593384 -0.4368409216403961 0.09118642657995224
-0.26933562755584717 -0.30260568857192993 0.08792102336883545
0.27858251333236694 -0.44809648394584656 0.049013651907444
0.2934386730194092 0.16387423872947693 -0.1348150372505188
0.2837256193161011 0.22643566131591797 -0.13006259500980377
-0.27223020792007446 -0.23846785724163055 0.1238979697227478
-0.009489081799983978 -0.16640067100524902 -0.1378980278968811
0.2827308177947998 -0.24453146755695343 -0.1375950276851654
0.10968855023384094 0.03613469749689102 0.16787302494049072
-0.21216945350170135 0.06857478618621826 0.1680237203836441
0.2678379714488983 0.48448440432548523 -0.05031184107065201
-0.17211735248565674 0.22895881533622742 -0.017262272536754608
-0.161822110414505 -0.25902435183525085 0.054250411689281464
-0.2689615786075592 -0.021457962691783905 -0.1294879913330078
-0.057952262461185455 0.16381093859672546 0.1646718531847
0.1981053501367569 0.22720853984355927 0.021830150857567787
0.19487258791923523 -0.29518166184425354 0.07915125787258148
0.2955443859100342 0.22317707538604736 0.10697896778583527
-0.20072054862976074 0.3520980179309845 -0.06438018381595612
0.27822670340538025 0.45645463466644287 0.11928831040859222
0.21501778066158295 -0.4432319104671478 -0.07849488407373428
0.2973185181617737 0.21675461530685425 0.11514213681221008
-0.18993818759918213 -0.252143919467926 -0.09473426640033722
-0.26768985390663147 -0.2324175238609314 0.14883074164390564
0.21166495978832245 -0.4084632098674774 0.19767452776432037
0.2910444438457489 0.2211463898420334 -0.1334497332572937
0.29378440976142883 0.03765704482793808 -0.13562899827957153
0.22039775550365448 -0.25377190113067627 -0.056436873972415924
-0.2143152356147766 0.030480612069368362 0.16576114296913147
0.227211594581604 0.2303631454706192 0.05737663805484772
-0.2488970011472702 -0.276262104511261 -0.007686159573495388
-0.253194123506546 0.07404766976833344 -0.29968538880348206
0.2899582087993622 0.22272859513759613 -0.13401296734809875
0.15549688041210175 -0.19796127080917358 0.1518307477235794
-0.2704552412033081 0.21511757373809814 -0.10641005635261536
0.20738232135772705 0.2290346622467041 0.02915920317173004
-0.2313191443681717 -0.474307656288147 -0.02139495499432087
0.2892954349517822 0.22127917408943176 -0.13560611009597778
-0.26658761501312256 -0.24066884815692902 0.001985859125852585
0.2972145974636078 0.22088178992271423 0.12198282778263092
0.2641919255256653 -0.39315542578697205 0.1911536157131195
-0.2063315212726593 0.21576115489006042 0.15475700795650482
0.16128656268119812 -0.38377058506011963 0.1525413990020752
-0.27006787061691284 -0.15676549077033997 -0.12357626855373383
0.2354293316602707 -0.24279369413852692 -0.13656499981880188
0.28845730423927307 -0.1601264476776123 -0.1368640661239624
0.29231828451156616 -0.04215637966990471 -0.13655513525009155
0.16440033912658691 -0.17033067345619202 0.16682906448841095
0.29441794753074646 0.4310995936393738 0.11246924102306366
0.23827409744262695 0.004650453571230173 0.1673697829246521
0.20922835171222687 -0.4477085471153259 0.18530893325805664
0.2897748351097107 0.005159340798854828 -0.13604550063610077
-0.2701472043991089 0.2170497179031372 -0.08543102443218231
0.04830848425626755 -0.19489194452762604 0.15266194939613342
-0.279756635427475 -0.31660836935043335 0.14309145510196686
0.23195479810237885 0.03843468427658081 0.1683143973350525
-0.064057357609272 -0.23454374074935913 0.154916912317276
0.19193100929260254 0.45027533173561096 0.11048613488674164
0.23691289126873016 -0.18702775239944458 0.15637466311454773
0.16701090335845947 -0.2489560842514038 -0.1257486641407013
-0.041940800845623016 0.22508515417575836 -0.13462015986442566
-0.25260892510414124 0.4432223439216614 0.11159327626228333
-0.2330102175474167 0.08115008473396301 0.1547033190727234
-0.16615939140319824 0.2297467589378357 0.015436779707670212
0.2501717507839203 -0.03168220818042755 0.15563644468784332
0.1899537444114685 0.40518009662628174 0.1125769317150116
0.2912658452987671 0.14198440313339233 -0.13489148020744324
-0.26576024293899536 -0.23741450905799866 0.14863522350788116
-0.07553055882453918 -0.17096705734729767 0.16753508150577545
0.016584476456046104 -0.23641431331634521 0.1565312296152115
0.09844768047332764 -0.19909696280956268 0.15358811616897583
0.27821481227874756 0.36318111419677734 -0.07172645628452301
0.2968843877315521 -0.08265127241611481 0.15242420136928558
-0.26271966099739075 -0.037719883024692535 -0.13290202617645264
0.09546375274658203 0.16912317276000977 0.15679548680782318
-0.29075491428375244 0.013969353400170803 -0.30003082752227783
0.2908551096916199 -0.03221981227397919 0.1545948088169098
0.2579312026500702 -0.2483685165643692 0.14403173327445984
-0.2738248109817505 0.21600303053855896 -0.04873796924948692
-0.26853036880493164 -0.015323847532272339 -0.13124564290046692
0.15971502661705017 -0.1837053894996643 0.16091564297676086
0.2720225155353546 0.42416855692863464 0.11182308197021484
0.14053122699260712 -0.4350418150424957 0.028765080496668816
0.06725440919399261 0.2139076292514801 -0.13397972285747528
0.048471599817276 0.12684687972068787 -0.2014787346124649
0.2877887785434723 0.2236243486404419 -0.13615746796131134
-0.07639659196138382 -0.25264254212379456 0.0393097810447216
-0.3341224789619446 -0.367416650056839 0.13184814155101776
0.18249699473381042 -0.2653455138206482 0.04661749303340912
-0.10473775118589401 0.22852593660354614 -0.1238415390253067
-0.22101406753063202 -0.468150794506073 0.022302323952317238
0.16214153170585632 -0.4323158264160156 -0.04806557670235634
0.2927197813987732 0.020306307822465897 -0.1350276619195938
-0.229913592338562 -0.4681227207183838 -0.02868153154850006
-0.08138082176446915 0.16348972916603088 0.16312815248966217
-0.20321209728717804 -0.2533491253852844 -0.06654532253742218
0.013012670911848545 0.2534642517566681 -0.2060808539390564
0.295133501291275 0.14146921038627625 -0.13716214895248413
0.027072738856077194 0.22682179510593414 0.13831691443920135
-0.21722790598869324 -0.40902411937713623 0.1776832640171051
0.14253108203411102 -0.4291912615299225 0.11738608777523041
0.10723617672920227 -0.17206305265426636 0.16726818680763245
-0.011242062784731388 0.27733612060546875 -0.2810325622558594
0.2984689772129059 0.20134948194026947 0.1497756987810135
-0.25254198908805847 0.36571401357650757 -0.05629783123731613
-0.17343512177467346 -0.2382093071937561 -0.13545942306518555
-0.27045494318008423 -0.21470493078231812 -0.12150050699710846
0.24946770071983337 0.5113478899002075 0.011711175553500652
-0.2919326424598694 -0.33147963881492615 0.18563280999660492
0.010683361440896988 0.1789972484111786 0.1535753309726715
0.02703125961124897 0.17930471897125244 -0.1391122192144394
0.28036755323410034 -0.44392669200897217 0.16268372535705566
-0.2570871114730835 -0.2028687745332718 -0.13403211534023285
0.21103355288505554 -0.3125794529914856 -0.07036526501178741
0.17117944359779358 0.1764330267906189 0.1475844532251358
-0.26884543895721436 -0.04278145730495453 -0.13151293992996216
-0.22377066314220428 0.22216743230819702 0.15357784926891327
0.2914997339248657 -0.01852899044752121 -0.13785751163959503
-0.1544203907251358 0.22816124558448792 -0.1297534853219986
0.2976289391517639 0.17320255935192108 -0.1057426854968071
0.18330049514770508 0.17245903611183167 0.15168216824531555
0.2983245253562927 0.2179848700761795 0.11319325864315033
-0.24080464243888855 -0.2496078461408615 -0.12849287688732147
0.28830304741859436 -0.21623602509498596 -0.13750991225242615
-0.2702524960041046 -0.0030097393319010735 0.14506056904792786
-0.22093215584754944 0.4073188602924347 -0.0817989856004715
-0.20651167631149292 -0.007894561626017094 0.16956551373004913
0.29199057817459106 0.19222064316272736 0.1561906337738037
-0.2582431733608246 -0.25152644515037537 0.09777715057134628
-0.07523905485868454 -0.23888304829597473 0.15485456585884094
-0.1490733027458191 0.22830186784267426 -0.12599606812000275
-0.2696733772754669 -0.1545591503381729 0.1541205197572708
-0.161979541182518 0.22774013876914978 -0.13082250952720642
-0.2511369287967682 -0.02059747651219368 -0.2930755913257599
-0.2692444622516632 -0.21602222323417664 -0.1288669854402542
0.16573365032672882 -0.389555960893631 0.1649593710899353
-0.22112040221691132 0.15232929587364197 0.1606098711490631
-0.21255671977996826 -0.17372506856918335 0.16515903174877167
-0.22378329932689667 -0.4478936195373535 0.13835689425468445
-0.28920385241508484 0.0016389423981308937 -0.2457779049873352
-0.1787274181842804 0.22066649794578552 -0.13409022986888885
-0.17917713522911072 -0.18802671134471893 0.1609756052494049
-0.2694306969642639 0.08299698680639267 -0.13033035397529602
-0.22016432881355286 0.057352952659130096 0.1598026007413864
0.20038063824176788 -0.24773773550987244 -0.13665440678596497
0.13887938857078552 -0.24189257621765137 0.15588566660881042
-0.2682599425315857 0.11089065670967102 -0.1320771723985672
-0.27019110321998596 -0.2409687042236328 0.10807012021541595
-0.28917065262794495 0.03103046678006649 -0.30773428082466125
-0.22445249557495117 0.3325682282447815 -0.040851786732673645
0.11644838750362396 0.16346848011016846 -0.13614988327026367
-0.2185070514678955 0.05960509926080704 0.16096679866313934
0.08898159861564636 -0.2431366741657257 -0.13723649084568024
0.06909969449043274 0.17375537753105164 0.15094323456287384
0.21429389715194702 0.3705791234970093 -0.07931043207645416
0.05885994806885719 0.10819780826568604 0.16943639516830444
0.2910138964653015 0.4851425290107727 0.0811469778418541
0.011359432712197304 0.10010555386543274 -0.13918320834636688
0.0647941380739212 -0.18304596841335297 0.1641223430633545
0.173121377825737 -0.2455090880393982 -0.13321520388126373
-0.04956774786114693 0.2266065925359726 -0.022219045087695122
-0.2691986560821533 -0.2480030059814453 -0.019495002925395966
-0.2574981451034546 0.22909407317638397 0.06372253596782684
0.1438419669866562 0.15307992696762085 0.16837435960769653
-0.23479828238487244 0.4564140737056732 -0.0660908967256546
0.2669295370578766 -0.4477330148220062 0.18664491176605225
0.29393330216407776 0.0992581844329834 -0.13601939380168915
0.004077279940247536 0.17238235473632812 0.15229210257530212
-0.2679251730442047 -0.24026530981063843 0.10255101323127747
0.2988148629665375 0.03355827182531357 0.1515662968158722
0.1636292040348053 -0.24949489533901215 -0.01208256185054779
-0.047870535403490067 0.22305315732955933 -0.13340972363948822
-0.2542269825935364 0.23026596009731293 0.0027789175510406494
-0.19476358592510223 -0.40709367394447327 0.10678625106811523
0.20815378427505493 0.29193636775016785 0.016395065933465958
-0.01679779216647148 -0.24566760659217834 -0.13446669280529022
-0.3256741464138031 -0.3595660328865051 0.18586565554141998
-0.18316924571990967 0.49150046706199646 -0.008103298023343086
-0.1538897007703781 0.22898803651332855 0.050849251449108124
0.28506171703338623 0.1640356034040451 -0.1345653533935547
0.2908521294593811 0.22295093536376953 -0.1364516019821167
-0.26875463128089905 -0.17142203450202942 0.15113617479801178
0.2130012810230255 -0.2509053349494934 -0.06430266797542572
0.23651732504367828 0.1061130240559578 0.1683972030878067
-0.267973393201828 -0.03891522437334061 -0.13222897052764893
0.1737947314977646 -0.2538870573043823 -0.02190808206796646
0.2994477450847626 -0.23746514320373535 0.13765288889408112
0.08422551304101944 -0.11711161583662033 0.17011556029319763
-0.27203306555747986 -0.11864743381738663 -0.12527336180210114
-0.05610779672861099 0.22855964303016663 -0.00433017872273922
-0.07202485203742981 0.14998212456703186 0.16966412961483002
0.19740425050258636 0.38087892532348633 0.11327007412910461
-0.2876113951206207 -0.37748757004737854 -0.08656641840934753
-0.2944493889808655 -0.4350690245628357 -0.08754468709230423
-0.04990287125110626 0.22440971434116364 -0.13440155982971191
0.29108965396881104 0.0311310812830925 -0.13556329905986786
-0.2340223640203476 0.4921848475933075 0.10112182796001434
0.2532190978527069 0.11333556473255157 0.15155573189258575
0.29236796498298645 0.2220757007598877 -0.13538876175880432
0.26281777024269104 0.2287071943283081 0.14365576207637787
0.23035261034965515 -0.4462597370147705 0.19248244166374207
-0.25665393471717834 0.4072282016277313 0.11136399209499359
-0.202677920460701 0.15794798731803894 0.16337436437606812
-0.23852217197418213 -0.33054599165916443 -0.08375486731529236
0.2978706657886505 0.1905273199081421 -0.1229972392320633
0.2828836143016815 0.3498670160770416 -0.06333883106708527
0.1567070335149765 -0.3981616795063019 0.16655634343624115
0.17114675045013428 -0.25263041257858276 0.05430971831083298
0.28120720386505127 0.13068611919879913 -0.13762599229812622
-0.20622947812080383 0.23620723187923431 0.057949889451265335
-0.27049100399017334 -0.2515096664428711 -0.034370630979537964
-0.268452525138855 0.22099198400974274 0.1013745665550232
0.1557294875383377 -0.39102301001548767 -0.03678944706916809
0.19676730036735535 0.4548773169517517 0.10798484086990356
0.18138039112091064 -0.25409573316574097 0.07042291015386581
0.23077744245529175 -0.16550731658935547 0.1681198626756668
0.2923186123371124 0.219879150390625 -0.13520145416259766
-0.024487722665071487 0.05874866619706154 -0.1346641629934311
-0.19708982110023499 -0.2412816286087036 0.1562967300415039
0.2073911428451538 0.2342475801706314 -0.0019819694571197033
-0.26771146059036255 -0.24986855685710907 0.08547528088092804
0.28274500370025635 0.09137426316738129 -0.13731569051742554
-0.269785612821579 -0.23507192730903625 0.11096072196960449
0.28769683837890625 0.452808678150177 0.12503264844417572
0.09795889258384705 0.213296040892601 -0.13548268377780914
0.23268601298332214 0.22922565042972565 -0.12961947917938232
0.2890031039714813 -0.22053585946559906 -0.1334398090839386
0.2823992967605591 -0.24969297647476196 -0.13590215146541595
0.05965416133403778 -0.23599569499492645 0.1554299145936966
-0.26736047863960266 0.16293199360370636 -0.1326972097158432
0.297978937625885 0.1765148788690567 -0.13254183530807495
0.29872962832450867 0.22018790245056152 0.0363570936024189
0.20302700996398926 0.2299298346042633 0.04738364368677139
0.23343178629875183 0.22529076039791107 -0.1312730759382248
0.21274495124816895 -0.19749945402145386 0.15296663343906403
0.15401598811149597 -0.4443832039833069 0.13744623959064484
-0.02467966638505459 0.1687091439962387 -0.13773953914642334
-0.10723687708377838 0.14651085436344147 0.16874702274799347
-0.26110008358955383 -0.06101347506046295 -0.13497333228588104
0.13337193429470062 -0.18420514464378357 0.16124744713306427
-0.2297065407037735 -0.26863738894462585 -0.04305039718747139
-0.2113160789012909 -0.31451475620269775 -0.0768606886267662
0.230939120054245 0.4995705783367157 0.11549326777458191
-0.17048455774784088 -0.17802032828330994 -0.13507835566997528
0.27944624423980713 -0.33039742708206177 0.0173678919672966
-0.25847864151000977 -0.2514083981513977 0.08888336271047592
0.03700648248195648 0.12200520187616348 -0.20516973733901978
0.29595085978507996 0.17956718802452087 0.14683914184570312
-0.1947413980960846 0.2555280029773712 0.038911521434783936
0.24503740668296814 -0.00036570499651134014 0.1640719324350357
0.15729372203350067 0.22004246711730957 -0.13412484526634216
0.16379520297050476 -0.25085699558258057 -0.05607307329773903
-0.21246179938316345 0.16776049137115479 0.15668173134326935
0.30012407898902893 0.19844761490821838 0.14775702357292175
-0.27031755447387695 -0.03673482686281204 -0.0815160870552063
0.29793334007263184 0.04497598856687546 -0.13005727529525757
-0.2594321668148041 0.22840256989002228 0.07876509428024292
0.29634934663772583 -0.23614223301410675 -0.13269533216953278
0.2999529242515564 0.4457549750804901 0.004705419298261404
-0.26853418350219727 -0.23178857564926147 -0.12985485792160034
-0.040000349283218384 0.22594645619392395 -0.12182264029979706
0.2959443926811218 -0.05716419219970703 -0.13524571061134338
-0.17697975039482117 0.2430763691663742 0.02427450381219387
0.29372909665107727 0.22727301716804504 -0.09658149629831314
-0.2708546817302704 0.2109086811542511 -0.050797246396541595
0.2724868059158325 0.24143549799919128 0.017762301489710808
0.1748102605342865 0.44273489713668823 0.04922652244567871
0.2576838731765747 0.23355963826179504 0.05684724450111389
-0.26252275705337524 -0.2440687119960785 -0.13420851528644562
-0.04422604665160179 -0.24071788787841797 0.15530094504356384
0.25762784481048584 0.5143701434135437 0.025211825966835022
0.1409773826599121 0.22769594192504883 -0.12310115993022919
-0.2357965111732483 0.237432599067688 -0.023254811763763428
0.07072187960147858 0.14176373183727264 0.1699499636888504
0.17246979475021362 0.21845534443855286 -0.13556542992591858
0.2940191626548767 -0.43413329124450684 0.036253564059734344
0.19086994230747223 -0.40262866020202637 0.18763774633407593
-0.23089109361171722 0.4308907091617584 -0.07899698615074158
0.2906173765659332 0.16132105886936188 -0.13604941964149475
-0.27186816930770874 0.2191154658794403 0.030675027519464493
0.2909882664680481 0.0017175134271383286 0.15409570932388306
0.2783425450325012 -0.4428839385509491 -0.010556967929005623
0.2991581857204437 0.052567124366760254 0.10713592171669006
-0.05074313282966614 0.22724416851997375 -0.13224229216575623
-0.17381438612937927 0.22556616365909576 -0.13335540890693665
0.2882179915904999 -0.14113959670066833 0.15502335131168365
0.2911258339881897 -0.1060568243265152 -0.1372109353542328
-0.17650526762008667 0.3446559011936188 -0.03737679496407509
0.29146695137023926 0.2289171665906906 -0.04434947669506073
0.2467600405216217 -0.21297264099121094 0.1541471630334854
-0.17768850922584534 0.4883553683757782 0.033300913870334625
-0.010021636262536049 0.14906232059001923 0.16871438920497894
-0.26808321475982666 -0.1432376503944397 -0.12299920618534088
0.005069604609161615 -0.2421359419822693 0.1535058617591858
0.29483264684677124 -0.23670023679733276 -0.13473765552043915
0.2186041623353958 -0.24672214686870575 -0.13398024439811707
-0.2518482804298401 0.22591331601142883 -0.06139722466468811
-0.27086761593818665 0.16849559545516968 0.14845041930675507
-0.2576192319393158 0.060751914978027344 -0.13517500460147858
-0.24746695160865784 -0.4784086346626282 -0.019530944526195526
-0.2685410678386688 0.15064185857772827 -0.13429157435894012
0.22150260210037231 -0.4434330463409424 -0.07804837822914124
0.293442040681839 0.18911248445510864 -0.006131201982498169
0.16525912284851074 -0.2331034243106842 -0.1366291493177414
-0.2702731490135193 0.13765767216682434 0.09746275097131729
0.29557472467422485 -0.05537561699748039 -0.1374955177307129
-0.21810129284858704 -0.2915313243865967 0.08224597573280334
0.2074018120765686 0.29994335770606995 -0.0025078721810132265
-0.20385640859603882 -0.10838000476360321 0.1694045066833496
0.29786306619644165 -0.004239031113684177 0.15225549042224884
0.10068129003047943 0.08787631243467331 -0.13735008239746094
0.2977185547351837 -0.23346364498138428 0.14245755970478058
0.23869304358959198 0.4821876287460327 -0.06665005534887314
-0.2711564302444458 0.09644408524036407 -0.13202738761901855
-0.17822636663913727 0.24263793230056763 0.032768163830041885
0.2932341694831848 0.10144403576850891 -0.13604062795639038
0.02475837804377079 -0.250910222530365 -0.12366507202386856
-0.048828184604644775 0.21554452180862427 0.15523219108581543
-0.027448425069451332 0.16638413071632385 -0.1369868814945221
-0.26667144894599915 -0.030698208138346672 0.1538448929786682
0.2971785366535187 0.11111535131931305 0.14367781579494476
0.296998530626297 -0.1614297479391098 0.14875945448875427
0.04396091401576996 -0.00916018895804882 0.16758693754673004
0.002309659495949745 0.21429304778575897 0.15453794598579407
0.2783450186252594 0.33065181970596313 0.054795630276203156
0.2505893409252167 -0.06279396265745163 0.1532784253358841
-0.2697162926197052 -0.10712036490440369 -0.12493652105331421
0.059311091899871826 -0.18932873010635376 0.15403059124946594
-0.1540738344192505 0.16831830143928528 0.15960846841335297
0.29502925276756287 0.2265324890613556 -0.018268335610628128
-0.19758450984954834 -0.2752045691013336 0.07294808328151703
0.20668086409568787 0.4467463195323944 -0.0731799378991127
0.295295774936676 -0.04138995334506035 0.1535106897354126
0.1427925080060959 -0.24395442008972168 0.15260344743728638
-0.19141808152198792 -0.42123299837112427 0.07165522873401642
-0.2046796977519989 -0.027950795367360115 0.1707618534564972
0.2657705247402191 -0.2499474287033081 -0.13790254294872284
0.2539077401161194 0.22003501653671265 0.15428376197814941
-0.26754051446914673 0.4344867467880249 0.035357531160116196
-0.16542190313339233 -0.084229975938797 -0.13537777960300446
-0.16239316761493683 0.4711935520172119 0.05532597750425339
0.23464949429035187 -0.30962422490119934 0.10377483069896698
0.25215527415275574 -0.06477539241313934 0.15162897109985352
0.29688796401023865 0.1454469859600067 -0.1350710391998291
0.2769872546195984 0.4725182056427002 0.12258268892765045
-0.16448155045509338 0.22934293746948242 -0.0007068086415529251
0.2908130884170532 -0.017982661724090576 0.15433943271636963
0.2053290754556656 -0.24309614300727844 -0.13930702209472656
-0.2561490833759308 -0.24638709425926208 -0.12571027874946594
-0.259731262922287 -0.25346073508262634 -0.03184641897678375
-0.23720070719718933 -0.3794395327568054 -0.08985643088817596
