0.019894937053322792 0.2067212015390396 -0.15169714391231537
0.2927844822406769 -0.23808172345161438 -0.13376092910766602
-0.24773618578910828 -0.2927010655403137 0.08715085685253143
0.1625400334596634 -0.4464118182659149 0.18433035910129547
-0.2599892318248749 0.016070863232016563 -0.13346590101718903
-0.27050989866256714 -0.24028892815113068 -0.09237787872552872
-0.2210807502269745 -0.02161397412419319 0.16911861300468445
0.2636745870113373 -0.24979381263256073 0.1535157710313797
-0.33163678646087646 -0.34852784872055054 0.17977219820022583
-0.215128555893898 0.33011573553085327 -0.3396106958389282
0.13533903658390045 -0.23706142604351044 0.1584809273481369
-0.23640833795070648 0.40456363558769226 0.10105767846107483
-0.20976729691028595 0.5064550042152405 0.05294884741306305
-0.268394410610199 0.002368002198636532 -0.13933560252189636
-0.0012265967670828104 0.09903739392757416 -0.1363188624382019
-0.2115517109632492 0.170148566365242 0.1588483303785324
0.17578347027301788 -0.25322064757347107 -0.12587741017341614
-0.05673567205667496 0.3019685447216034 -0.2781270444393158
0.28069135546684265 0.338204562664032 0.062495458871126175
-0.21316160261631012 0.4581688940525055 -0.07275029271841049
-0.018274981528520584 0.17802870273590088 -0.13582377135753632
0.2506624460220337 0.3679666817188263 -0.08633538335561752
-0.00804733857512474 0.24198363721370697 -0.19246509671211243
0.29686984419822693 0.05077139288187027 -0.12883295118808746
-0.037432268261909485 -0.20413662493228912 0.15633706748485565
0.061536580324172974 0.16735343635082245 -0.13477754592895508
0.2566188871860504 0.27244308590888977 -0.007063295692205429
0.23114915192127228 -0.2630806565284729 -0.05581377446651459
-0.2210332304239273 0.25703534483909607 0.044931560754776
0.07934204488992691 0.2163027971982956 0.15800411999225616
0.020801201462745667 -0.23573702573776245 0.15725810825824738
-0.33131030201911926 -0.4048616588115692 -0.05517003312706947
-0.2756943702697754 -0.05840723216533661 -0.2862373888492584
-0.23383544385433197 -0.15781058371067047 0.15636217594146729
0.04569878429174423 0.22829897701740265 -0.23220840096473694
-0.2115996927022934 -0.2635371685028076 0.07767289131879807
0.1447196900844574 0.16749748587608337 0.17030899226665497
0.037938207387924194 0.24863162636756897 -0.2469884604215622
-0.22528451681137085 0.4346335828304291 -0.07527820020914078
-0.22622452676296234 0.47795143723487854 -0.053663626313209534
-0.2564488351345062 -0.01948656141757965 -0.3048684597015381
0.22602495551109314 0.3608185052871704 0.12593109905719757
-0.2386743128299713 0.29298943281173706 0.005839982070028782
-0.033986106514930725 0.2844794690608978 -0.2467094510793686
-0.08438415080308914 0.16712838411331177 0.16556566953659058
0.2702675461769104 -0.3351488411426544 0.11653188616037369
0.16064779460430145 -0.44151851534843445 0.1864994764328003
0.24947719275951385 -0.12745164334774017 0.16789889335632324
-0.267160564661026 0.08637482672929764 -0.3141891658306122
0.1693870574235916 -0.44514358043670654 0.18190737068653107
0.24217264354228973 0.08194328099489212 0.16517199575901031
0.2605282664299011 -0.053202152252197266 0.16189780831336975
-0.055001359432935715 -0.19977262616157532 0.14805114269256592
-0.27207303047180176 -0.22247323393821716 0.15066178143024445
-0.27033910155296326 -0.0021292315796017647 0.15870016813278198
0.13643409311771393 -0.19968625903129578 0.1546289473772049
0.22221726179122925 0.49665766954421997 0.12145018577575684
-0.26768025755882263 -0.24394217133522034 0.00144952442497015
-0.16874441504478455 0.22476835548877716 0.006714668590575457
0.12789563834667206 -0.2521589994430542 -0.1318492442369461
-0.23786893486976624 -0.26129353046417236 0.002499568974599242
-0.27077770233154297 -0.17944978177547455 -0.125352680683136
-0.15155676007270813 -0.2589930593967438 0.017403122037649155
-0.2395326942205429 -0.271568238735199 -0.025927787646651268
0.22924672067165375 0.44687920808792114 -0.08477947115898132
-0.10857485979795456 0.3175889253616333 -0.3345409631729126
-0.2682977318763733 -0.06228896230459213 -0.21827365458011627
0.17292389273643494 0.2259560525417328 0.15629763901233673
-0.22103692591190338 0.3294794261455536 -0.04085215926170349
-0.2780936360359192 0.12449658662080765 -0.3314341604709625
0.04969347268342972 0.11399850249290466 -0.14558357000350952
-0.17080651223659515 0.4834025800228119 0.011691352352499962
-0.23814049363136292 0.38172614574432373 0.11639652401208878
0.29290467500686646 -0.0005064241122454405 0.15667222440242767
0.1884717345237732 0.40486571192741394 0.11654927581548691
-0.2154756784439087 -0.30830830335617065 -0.07496310025453568
-0.07436048984527588 -0.23380324244499207 0.15522369742393494
0.27776485681533813 0.43215054273605347 -0.07959628850221634
0.18634819984436035 -0.4390922486782074 0.2008625566959381
0.0011140613351017237 0.2282230705022812 0.14620456099510193
0.25972509384155273 -0.15768341720104218 0.15997883677482605
0.2543022632598877 0.07412945479154587 0.16029007732868195
-0.3375950753688812 -0.3634019196033478 0.06781069934368134
-0.22018076479434967 0.3265328109264374 -0.34238266944885254
-0.22093695402145386 -0.3275272250175476 -0.07990317046642303
-0.07306072115898132 0.3072144687175751 -0.3016258180141449
-0.05827479064464569 -0.1976493000984192 0.1607542783021927
0.1821255087852478 0.44744181632995605 0.10549346357584
-0.2619999349117279 -0.14304159581661224 0.1587955504655838
0.13603615760803223 0.17869369685649872 0.15356425940990448
0.2422485202550888 0.3976684510707855 -0.0933612734079361
-0.2429475337266922 -0.2493518441915512 0.047997456043958664
0.17254018783569336 0.17865793406963348 0.1541179120540619
0.0830918699502945 -0.20738892257213593 0.15756061673164368
0.2702603042125702 -0.24866798520088196 0.14182795584201813
-0.03325185552239418 0.2616937756538391 -0.23462997376918793
-0.19906485080718994 0.23741702735424042 -0.02756078727543354
0.22001348435878754 -0.25129714608192444 0.07616284489631653
0.26233720779418945 -0.33982670307159424 -0.06902693957090378
-0.03245814889669418 -0.23506894707679749 0.1590137779712677
0.276919960975647 -0.3941877484321594 0.18450143933296204
-0.16647297143936157 0.21377940475940704 0.15775001049041748
-0.03074059449136257 0.29821497201919556 -0.24644427001476288
0.23027923703193665 0.5189864635467529 0.05075114592909813
-0.19454483687877655 0.4071248173713684 0.0891118273139
-0.2664077579975128 -0.15250851213932037 0.15890474617481232
-0.22949162125587463 0.32034242153167725 -0.33831173181533813
-0.23947730660438538 0.27802810072898865 -0.3672496974468231
-0.3385485112667084 -0.3797232508659363 0.02364674024283886
-0.18938320875167847 0.339367538690567 -0.047943178564310074
0.25685855746269226 0.02211659960448742 0.1541648805141449
-0.3159317672252655 -0.43719246983528137 -0.07416921854019165
0.25238585472106934 -0.1910056173801422 0.15711675584316254
-0.26087239384651184 0.07551677525043488 -0.30735090374946594
0.09527956694364548 -0.24784517288208008 0.15172632038593292
-0.16881459951400757 0.3125668168067932 -0.33859363198280334
-0.13001558184623718 0.17197979986667633 0.1571391224861145
0.04922622814774513 0.23772813379764557 -0.22427767515182495
-0.2605212926864624 0.2895221412181854 -0.34796395897865295
-0.17850884795188904 0.16825872659683228 0.16281448304653168
0.13920310139656067 -0.44053131341934204 0.02339165285229683
0.25050848722457886 0.020627878606319427 0.17037798464298248
0.28477969765663147 -0.031179988756775856 -0.13601376116275787
-0.23111005127429962 0.3327241837978363 0.06453759968280792
0.25364986062049866 0.015146849676966667 0.16848747432231903
0.04172009974718094 0.22010794281959534 -0.233481764793396
0.2964313328266144 -0.11678382754325867 0.15168806910514832
0.2532652020454407 0.2603066563606262 -0.017125627025961876
-0.12635692954063416 0.16398243606090546 0.16627174615859985
-0.2655087411403656 0.20802880823612213 0.15856905281543732
0.1355791985988617 -0.42676225304603577 0.02147144265472889
-0.29251182079315186 0.03263464942574501 -0.3013131618499756
-0.2624209523200989 -0.065610870718956 -0.2197905331850052
0.2842714488506317 -0.2501179575920105 -0.011157384142279625
0.0970553532242775 0.22710168361663818 -0.12796814739704132
-0.2799317240715027 0.1692875325679779 -0.30324169993400574
0.2505575120449066 0.487304151058197 -0.06342825293540955
-0.020958412438631058 -0.1895202100276947 0.158224418759346
-0.26411953568458557 0.08668268471956253 -0.27393150329589844
-0.1163441613316536 0.22871097922325134 -0.12902098894119263
-0.2594744861125946 -0.32447007298469543 -0.0710054263472557
0.28317105770111084 -0.4373003840446472 -0.012190364301204681
0.26510849595069885 -0.44475021958351135 0.18716806173324585
-0.2406526356935501 0.2266109585762024 -0.12406346201896667
0.28808796405792236 -0.42974135279655457 0.1859159916639328
-0.20744505524635315 0.5040972232818604 -0.004046427085995674
-0.3328652083873749 -0.412847638130188 -0.05742495134472847
-0.23234735429286957 0.46862614154815674 0.11014817655086517
0.2658510208129883 -0.4422113001346588 -0.07196434587240219
0.20995363593101501 0.22653618454933167 0.025437360629439354
0.18802277743816376 0.17676405608654022 0.1534949243068695
-0.2122945636510849 -0.42491307854652405 0.16406884789466858
-0.017599433660507202 0.22706885635852814 0.15654920041561127
-0.28202664852142334 0.15990114212036133 -0.33248284459114075
0.040324848145246506 0.22695420682430267 0.15209518373012543
0.191305473446846 0.38442710041999817 0.11758510768413544
-0.2398313581943512 0.22633995115756989 0.15306822955608368
-0.25043371319770813 0.33132490515708923 0.0027995030395686626
0.25511831045150757 -0.2513335645198822 0.02311530150473118
0.2503088414669037 0.2733502686023712 -0.01693573035299778
0.09757346659898758 -0.24710403382778168 -0.13592204451560974
0.248903289437294 0.007883367128670216 0.16948692500591278
-0.26942721009254456 0.22577247023582458 0.034948159009218216
0.2163575142621994 0.40840697288513184 -0.08512739837169647
-0.29153063893318176 0.07411636412143707 -0.31336987018585205
-0.22428181767463684 0.14503984153270721 0.1639338880777359
-0.2695227861404419 -0.09982802718877792 -0.11904407292604446
0.06540409475564957 0.16670843958854675 -0.13576506078243256
-0.2691638171672821 0.03714314475655556 -0.3193908631801605
0.20389589667320251 -0.42674678564071655 0.2047596275806427
0.2596016526222229 -0.13838820159435272 0.15510597825050354
-0.021023787558078766 0.20296692848205566 -0.16282711923122406
-0.26482918858528137 -0.33417385816574097 -0.08140277862548828
-0.11129194498062134 0.18331359326839447 0.1564485728740692
-0.27531400322914124 -0.30685120820999146 0.11693067103624344
-0.18096129596233368 0.3624376356601715 0.10010279715061188
-0.2763703465461731 -0.3777659237384796 -0.09393554925918579
-0.2787509560585022 0.00701505970209837 -0.30979233980178833
0.16858454048633575 0.2286870926618576 -0.13415741920471191
-0.17606380581855774 0.37115007638931274 0.10384419560432434
0.24501830339431763 -0.33768951892852783 -0.08479027450084686
0.2612455487251282 -0.24866905808448792 0.15210621058940887
-0.006288833916187286 0.10694120079278946 -0.18581847846508026
-0.19975125789642334 0.49730512499809265 -0.02694259025156498
-0.27980923652648926 0.20236101746559143 -0.342203825712204
-0.21855130791664124 0.38361939787864685 -0.07753927260637283
0.24166537821292877 0.24457445740699768 0.05214656889438629
-0.2906627357006073 -0.3165105879306793 0.1580519825220108
-0.1606544554233551 -0.17867815494537354 0.17055106163024902
0.264331579208374 -0.04469861835241318 0.156351238489151
0.29386454820632935 0.1228133887052536 0.1481419950723648
0.05127550661563873 0.11723626405000687 -0.1381145715713501
-0.2338150590658188 -0.16393983364105225 0.15607471764087677
-0.20955294370651245 0.17815834283828735 0.1496976912021637
-0.23144911229610443 0.28054165840148926 -0.34227097034454346
0.281718373298645 0.12184739112854004 -0.1355522722005844
-0.13769598305225372 0.3404049575328827 -0.3224172294139862
0.2978191375732422 -0.03787180036306381 -0.13388721644878387
0.2641361951828003 0.5112887620925903 0.08433791995048523
0.22986146807670593 0.5180692672729492 -0.007184938993304968
-0.008784583769738674 0.10670170187950134 -0.1825467348098755
-0.23402346670627594 0.3824264109134674 0.11469203978776932
0.2954946756362915 -0.24889633059501648 0.06413240730762482
-0.2719460427761078 -0.24041642248630524 -0.12984830141067505
-0.27641594409942627 0.15690277516841888 0.15465699136257172
0.23464049398899078 0.17434337735176086 0.15579068660736084
-0.26369133591651917 0.12429708242416382 -0.30080315470695496
0.23165751993656158 0.22847455739974976 0.15926586091518402
-0.2710359990596771 0.12830081582069397 0.14219626784324646
0.24040071666240692 0.26114797592163086 -0.021551452577114105
0.20138275623321533 0.16655828058719635 0.1719721555709839
-0.20294532179832458 0.3911169171333313 0.09436018019914627
-0.26776114106178284 0.22588875889778137 -0.13378417491912842
0.2887515425682068 -0.43072405457496643 0.16866108775138855
-0.22068412601947784 -0.07666483521461487 0.16839022934436798
-0.33197537064552307 -0.3400561809539795 0.18715804815292358
-0.2708238959312439 0.22711926698684692 0.05873648449778557
-0.22801795601844788 -0.25913190841674805 -0.04166257753968239
-0.27178603410720825 -0.24033741652965546 0.05404703691601753
0.14878441393375397 -0.44358065724372864 0.033471863716840744
0.2891361117362976 -0.10153395682573318 -0.1378811001777649
-0.24085716903209686 0.30331072211265564 -0.3306945860385895
0.20967040956020355 -0.44761407375335693 -0.07517987489700317
-0.2917032241821289 -0.40905097126960754 -0.09379902482032776
-0.2508651316165924 -0.06940626353025436 -0.2454020082950592
-0.26625576615333557 0.22040148079395294 0.15730230510234833
0.2915143370628357 -0.42946356534957886 0.04781964048743248
0.04207279905676842 0.1885143667459488 -0.14430534839630127
-0.18719275295734406 0.3712489604949951 -0.06674950569868088
0.2152405083179474 -0.2502787709236145 -0.055207956582307816
0.12237703800201416 -0.24471135437488556 -0.13645069301128387
0.17297306656837463 -0.24779221415519714 0.05082077533006668
-0.2323487550020218 0.07372765243053436 0.15566466748714447
0.2491512894630432 -0.43352675437927246 0.20643508434295654
0.2648331820964813 0.425983190536499 -0.08010968565940857
-0.2895852029323578 0.098704032599926 -0.3058307468891144
0.2957238554954529 -0.25039437413215637 -0.07541467994451523
0.2559262216091156 0.010923308320343494 0.15434931218624115
-0.23241369426250458 -0.26202890276908875 0.05395469069480896
-0.04247238114476204 0.1700301319360733 -0.14779981970787048
-0.22671747207641602 -0.30258601903915405 0.09237971156835556
0.2592776119709015 -0.31942659616470337 0.10609623789787292
-0.05350759997963905 0.12651613354682922 -0.13409188389778137
-0.2611304223537445 0.22785569727420807 0.08448342233896255
-0.10972264409065247 0.33335739374160767 -0.32451173663139343
-0.18082359433174133 0.306180477142334 0.006699486635625362
-0.25719118118286133 0.23970742523670197 -0.35510608553886414
0.005476629827171564 0.10585237294435501 -0.18814454972743988
-0.2820814251899719 0.09598865360021591 -0.2779633402824402
0.25482410192489624 0.015667637810111046 0.16454750299453735
0.25628212094306946 -0.24863587319850922 0.15250727534294128
-0.15696701407432556 -0.2515955865383148 0.06343613564968109
0.2973387539386749 -0.09855987876653671 -0.12998691201210022
-0.230617955327034 -0.10201811045408249 0.1532917469739914
0.05485327169299126 0.22437001764774323 -0.1383187174797058
0.038265325129032135 -0.24100074172019958 0.15896156430244446
-0.22987768054008484 -0.056204188615083694 0.15187151730060577
0.25686225295066833 0.09561941772699356 0.14811334013938904
0.18414641916751862 0.39652177691459656 0.11120018362998962
-0.04058418422937393 0.22316208481788635 -0.1357809603214264
-0.03164322301745415 0.21443603932857513 -0.21159455180168152
0.2363368272781372 0.5148637294769287 -0.00892017874866724
0.2431262880563736 -0.25050365924835205 -0.053220245987176895
0.14599870145320892 -0.20424151420593262 0.15400689840316772
0.28261128067970276 0.23055590689182281 0.1375255435705185
0.20707303285598755 0.32748672366142273 -0.03151734173297882
0.28798043727874756 -0.4369111657142639 -0.005771788302809
0.25356513261795044 0.5033860206604004 0.12627564370632172
0.2574256956577301 -0.24940425157546997 0.04153040051460266
0.2437303513288498 -0.44483497738838196 0.20274390280246735
0.2904965877532959 -0.44395411014556885 0.09115833044052124
-0.21529142558574677 -0.15073756873607635 0.16976003348827362
-0.2575981914997101 0.049295198172330856 -0.25079119205474854
-0.11243066936731339 0.16598713397979736 0.16127505898475647
0.2372390776872635 -0.20264902710914612 0.15473057329654694
0.16539330780506134 -0.3642033636569977 -0.049072764813899994
0.26699498295783997 0.3468136787414551 0.1102885752916336
0.29845285415649414 0.2260361611843109 0.062219295650720596
-0.16349747776985168 0.4559556245803833 0.09667464345693588
0.2851436138153076 -0.25028884410858154 0.08270339667797089
-0.23390653729438782 0.12495973706245422 0.1517794281244278
-0.22852416336536407 -0.006474627181887627 0.1657094806432724
-0.1320146918296814 0.18158362805843353 0.15833333134651184
-0.20165686309337616 0.31752920150756836 0.04765016585588455
0.18927279114723206 0.4494171738624573 0.11868402361869812
0.19474276900291443 0.49179166555404663 0.10684113204479218
0.2110106647014618 0.31011444330215454 -0.016011666506528854
0.25523892045021057 -0.006045162677764893 0.16062182188034058
-0.16756698489189148 0.40860214829444885 0.10670233517885208
-0.25519025325775146 0.0847288966178894 -0.3021720051765442
0.2790549397468567 0.23029449582099915 0.04179605096578598
-0.3405718207359314 -0.3751598000526428 0.04604899883270264
0.07878553867340088 0.17320775985717773 0.1536201536655426
0.008893124759197235 0.188994899392128 -0.13575580716133118
-0.21715235710144043 -0.4277060925960541 0.16640609502792358
0.21502505242824554 0.31341925263404846 -0.02162822149693966
-0.016662411391735077 0.18742148578166962 -0.21805226802825928
-0.2259766161441803 -0.24304400384426117 -0.13701555132865906
-0.1786440908908844 0.3489997088909149 -0.04691696539521217
-0.2713501751422882 0.12222129851579666 -0.1298842579126358
0.21657387912273407 0.2631596624851227 0.03397945314645767
-0.17435452342033386 0.49044597148895264 0.04094817116856575
0.2699545621871948 0.31184151768684387 -0.011193488724529743
-0.2450522780418396 -0.23250944912433624 -0.13439705967903137
0.28896036744117737 -0.25484171509742737 0.07693532109260559
0.2216198742389679 0.3520003855228424 -0.07409104704856873
0.2608656883239746 0.25602012872695923 0.033711280673742294
-0.18213433027267456 0.39628902077674866 0.09843505918979645
-0.2709174156188965 0.2241182029247284 -0.10737385600805283
-0.24468007683753967 0.3547821342945099 0.08815567195415497
0.1191096156835556 -0.24566422402858734 0.1537388265132904
-0.23039469122886658 -0.127019003033638 0.15213829278945923
-0.22121137380599976 -0.4435804784297943 0.13805191218852997
-0.24330365657806396 -0.4110472500324249 0.20111249387264252
0.29052743315696716 0.22796517610549927 0.0405140221118927
0.25574564933776855 -0.26251670718193054 0.02776174247264862
-0.3135501742362976 -0.32423505187034607 0.17596010863780975
-0.20689953863620758 0.28492987155914307 0.04557367414236069
0.21757879853248596 0.4946567416191101 -0.05340726673603058
-0.22298622131347656 0.4063328206539154 -0.08259791135787964
0.17478018999099731 -0.24730485677719116 0.15618358552455902
0.043804511427879333 0.23255272209644318 -0.23826056718826294
-0.20080290734767914 0.4993407726287842 -0.01102667860686779
-0.22431732714176178 -0.4715996980667114 0.04032556340098381
-0.23171167075634003 0.2809765040874481 -0.341364324092865
0.1484338343143463 -0.4461899399757385 -0.003348272992298007
-0.25504806637763977 0.4002050757408142 0.11945644021034241
-0.28072649240493774 0.14954400062561035 -0.29974329471588135
-0.1783125400543213 0.3340708911418915 -0.3221535384654999
-0.2753726541996002 -0.40491417050361633 -0.09556344151496887
-0.26883548498153687 -0.11219549924135208 -0.12674148380756378
0.16693218052387238 0.17077164351940155 0.1620802879333496
0.19251692295074463 0.3485334813594818 0.09143300354480743
-0.21927674114704132 0.30426937341690063 -0.3350309133529663
0.2746155858039856 0.37316641211509705 0.1260686069726944
-0.18431422114372253 0.4691369831562042 0.10076233744621277
0.29564711451530457 -0.24755917489528656 0.11287780851125717
0.22146077454090118 -0.24688634276390076 -0.1353306770324707
0.23024894297122955 0.275203138589859 0.04116027057170868
0.2874186336994171 0.20580671727657318 -0.1350041627883911
0.2773996591567993 0.33014115691185 -0.028208918869495392
-0.2744612395763397 -0.0027799811214208603 -0.12925776839256287
-0.2781294286251068 -0.08029697835445404 -0.23934276401996613
0.1625645011663437 -0.4448029696941376 0.1784171164035797
-0.28139057755470276 0.052806638181209564 -0.3197616934776306
-0.17711283266544342 -0.19384507834911346 0.15276716649532318
0.25859811902046204 -0.06480593234300613 0.15086905658245087
0.25890374183654785 0.09724924713373184 0.1530541032552719
0.20161673426628113 0.31288617849349976 0.02119467966258526
0.2860020697116852 0.23125270009040833 -0.1305149793624878
-0.022183556109666824 0.3107113242149353 -0.2673007547855377
-0.03646153584122658 0.1857859343290329 -0.16441412270069122
-0.2512224316596985 0.2276960164308548 -0.34368380904197693
-0.10673560202121735 -0.17942117154598236 0.17065446078777313
-0.038458485156297684 0.19770944118499756 -0.1859508901834488
-0.2589567005634308 0.4541732966899872 0.11053629219532013
0.28192275762557983 -0.2515011429786682 -0.04803244024515152
0.29118824005126953 -0.09906689822673798 -0.1358301341533661
0.2635520398616791 0.15114620327949524 0.16061164438724518
0.28887656331062317 -0.44178497791290283 0.14155034720897675
-0.27122706174850464 -0.17290246486663818 0.15490396320819855
0.29809778928756714 0.16160626709461212 -0.1367458701133728
-0.23007190227508545 -0.003762737847864628 0.15240825712680817
0.1689736247062683 -0.43103930354118347 0.19863496720790863
0.2625669240951538 -0.04738277569413185 0.15415509045124054
-0.07627897709608078 0.2182939648628235 0.15578500926494598
-0.22194676101207733 -0.4592178463935852 0.11151046305894852
0.2919809818267822 -0.4289126992225647 0.16754262149333954
-0.05434185266494751 0.32051804661750793 -0.3057679533958435
-0.12267673015594482 0.22749292850494385 0.1529386341571808
0.2964380383491516 -0.23268091678619385 0.009126867167651653
-0.22142216563224792 -0.25365185737609863 -0.0670236349105835
0.22934851050376892 -0.24852947890758514 -0.12762372195720673
-0.21792523562908173 0.29490646719932556 -0.3584902584552765
0.26711758971214294 0.4467388391494751 -0.07754161953926086
0.1906639188528061 0.4124160706996918 0.11877278983592987
0.23753121495246887 0.3256237208843231 -0.041827186942100525
-0.1422978788614273 0.341810405254364 -0.3233208954334259
-0.2578994333744049 0.10532207787036896 -0.29284000396728516
0.07436615973711014 -0.24662184715270996 -0.1371878832578659
-0.2639571726322174 0.3975001573562622 0.09544869512319565
-0.027568407356739044 0.24850957095623016 -0.23782871663570404
0.059917956590652466 -0.2344825118780136 -0.13576646149158478
-0.2843286097049713 -0.3151073157787323 0.14536438882350922
-0.27091076970100403 -0.015873782336711884 0.15775246918201447
0.28031525015830994 -0.2502143085002899 0.06392751634120941
-0.34007781744003296 -0.3948512077331543 0.0005463205743581057
-0.27109163999557495 0.1597594916820526 0.1539774388074875
-0.18087464570999146 0.17338155210018158 0.1597215086221695
-0.18697509169578552 -0.26765748858451843 -0.0517568364739418
0.19012975692749023 0.3557704985141754 0.09457827359437943
-0.2542516589164734 -0.02610870450735092 -0.2317233681678772
-0.27558791637420654 -0.09829744696617126 0.15106581151485443
0.2873133420944214 -0.40833282470703125 0.18534207344055176
0.21489223837852478 0.28692764043807983 0.024949800223112106
-0.33789634704589844 -0.38215845823287964 0.002574749058112502
0.29690736532211304 0.09769894182682037 -0.13037510216236115
-0.13527143001556396 0.33937299251556396 -0.3288407623767853
0.2842061519622803 -0.05513821542263031 0.15562936663627625
-0.21791166067123413 -0.42449843883514404 0.17569667100906372
-0.2138424664735794 -0.11806216835975647 0.17112818360328674
0.06578773260116577 0.16527514159679413 0.16814765334129333
-0.26915696263313293 0.22255252301692963 0.0015554842539131641
-0.3065038323402405 -0.39742258191108704 -0.08612363785505295
-0.18041516840457916 0.3180595636367798 0.018978526815772057
-0.3387434482574463 -0.35937032103538513 0.1301892250776291
0.255229115486145 0.12449189275503159 0.16182199120521545
-0.22909878194332123 0.10177570581436157 0.16785301268100739
-0.22367282211780548 0.3300916850566864 -0.035000987350940704
-0.2703881859779358 -0.24048224091529846 0.026380298659205437
-0.198339581489563 0.3395501673221588 -0.050530895590782166
-0.2256324738264084 0.02827301248908043 0.16831684112548828
-0.2286735624074936 -0.4676572382450104 0.07358956336975098
-0.21383674442768097 -0.1782764494419098 0.17277199029922485
-0.17980706691741943 0.2252715528011322 -0.1362863928079605
-0.27290624380111694 -0.24036811292171478 0.03569053113460541
-0.21375583112239838 0.24913698434829712 0.049721162766218185
0.27153947949409485 0.34484151005744934 0.09547042101621628
-0.23500484228134155 -0.3142564296722412 -0.0755855068564415
0.27546513080596924 0.4356212019920349 -0.07487322390079498
0.2761129140853882 0.4568289816379547 0.12578094005584717
0.28226903080940247 -0.022497305646538734 -0.1374632567167282
-0.11942089349031448 -0.1971663236618042 0.15594662725925446
0.2238670289516449 0.2729695737361908 -0.012414626777172089
-0.16966833174228668 0.22917231917381287 0.0017581493593752384
-0.25564074516296387 0.21695347130298615 -0.33012425899505615
0.08468088507652283 0.22845454514026642 0.1466212123632431
0.29753759503364563 0.04386799409985542 0.15786412358283997
-0.032208818942308426 0.3164032995700836 -0.2753269076347351
-0.16901570558547974 0.34817272424697876 0.06275530904531479
-0.037976786494255066 0.17550723254680634 0.1468515843153
0.2564496397972107 0.15923762321472168 0.1504741758108139
0.28221800923347473 -0.24493803083896637 -0.1267869621515274
0.23002773523330688 0.3716862201690674 0.1191168874502182
0.11011438816785812 0.2189122438430786 -0.1351630538702011
0.1678529977798462 -0.4443434178829193 0.1908753216266632
0.19138766825199127 0.3892594575881958 0.11295415461063385
0.21490107476711273 -0.2505631148815155 0.07812339812517166
-0.20650845766067505 0.2203349471092224 0.16009479761123657
0.021963320672512054 0.10312414169311523 -0.13837219774723053
0.22925609350204468 -0.25023627281188965 0.1431633085012436
-0.18845964968204498 0.27473148703575134 -0.005945141427218914
-0.24695095419883728 -0.016314463689923286 -0.2934935688972473
-0.25667423009872437 -0.11470673978328705 0.1593722552061081
0.10349731892347336 -0.23060953617095947 0.1605730801820755
-0.01029211189597845 0.10475017130374908 -0.13599902391433716
-0.2693538963794708 0.22435958683490753 -0.10270549356937408
-0.22197741270065308 0.32950714230537415 0.05862416699528694
-0.15743263065814972 -0.2511472702026367 0.07354016602039337
0.022718051448464394 0.23227457702159882 -0.24635036289691925
0.2706606984138489 0.31816524267196655 -0.017861172556877136
0.22545143961906433 0.3030511140823364 0.04667562618851662
-0.2629758417606354 0.08729815483093262 -0.26918336749076843
-0.2552201747894287 0.3579481244087219 0.07381146401166916
0.2763007581233978 0.23018191754817963 0.11996916681528091
0.1446722149848938 -0.19004081189632416 0.16118955612182617
-0.27102598547935486 -0.11536315828561783 0.15291349589824677
-0.04374862089753151 0.1779167503118515 -0.16522414982318878
-0.22671720385551453 0.4033776819705963 0.09486643970012665
0.2918662130832672 0.3976190388202667 0.12663288414478302
-0.27149754762649536 0.09832542389631271 -0.12597964704036713
0.006471904460340738 0.16959203779697418 0.15896114706993103
-0.3313550651073456 -0.3857963979244232 0.0724211260676384
-0.1854238361120224 0.36530205607414246 -0.059788309037685394
0.23316441476345062 -0.30817633867263794 -0.07593870162963867
0.05742814019322395 0.14870940148830414 -0.1386885941028595
-0.24580751359462738 -0.379035621881485 0.2009001076221466
0.18642905354499817 0.17112822830677032 0.16445207595825195
-0.25143003463745117 0.05329852178692818 -0.28800860047340393
0.2658235430717468 -0.32538941502571106 0.10942026972770691
-0.25982800126075745 0.22717243432998657 0.074345663189888
-0.2881897985935211 -0.34519776701927185 0.1974927932024002
-0.1912292093038559 0.3284261226654053 -0.02600066177546978
0.2752023935317993 0.2430635243654251 0.012334279716014862
0.19661720097064972 -0.42297130823135376 -0.07458837330341339
0.2096840739250183 0.3345716893672943 -0.04908187314867973
-0.14179383218288422 0.3386636972427368 -0.3291971981525421
-0.1015772819519043 0.22837892174720764 0.14726755023002625
0.2994839549064636 0.013945279642939568 0.15170109272003174
-0.15014243125915527 -0.2517823576927185 -0.03189389407634735
-0.17511820793151855 -0.2716071307659149 -0.03936503082513809
-0.1734113097190857 0.23099344968795776 0.14196325838565826
0.26643770933151245 0.016734033823013306 0.155941441655159
0.054493531584739685 0.22921982407569885 -0.2033652812242508
-0.19202589988708496 0.34806498885154724 0.09662320464849472
-0.2838832139968872 0.014080923050642014 -0.311004638671875
0.18892258405685425 0.34767839312553406 0.0683695524930954
-0.24911914765834808 -0.24876144528388977 0.15327595174312592
-0.2509155869483948 -0.3970939517021179 0.20354606211185455
-0.30702316761016846 -0.32478389143943787 0.18223270773887634
0.2928144335746765 0.4028685688972473 0.1202683374285698
0.0493030808866024 0.22475098073482513 0.1586487591266632
-0.26309481263160706 0.22910703718662262 -0.11590831726789474
-0.1874198615550995 0.17145338654518127 0.15785466134548187
0.2112254500389099 0.3006533086299896 -0.0035262221936136484
-0.20922669768333435 0.27093255519866943 -0.022748693823814392
0.21056176722049713 0.49866029620170593 0.12573453783988953
-0.12986770272254944 0.17954899370670319 0.1490773856639862
0.28450047969818115 0.3931298553943634 0.13038760423660278
0.03712371736764908 -0.17912927269935608 0.16811786592006683
-0.2701050341129303 -0.2439320832490921 -0.051489219069480896
-0.21951143443584442 0.346728652715683 -0.06339437514543533
-0.15999944508075714 -0.2624853551387787 -0.019993774592876434
-0.22220060229301453 -0.13112770020961761 0.1695542335510254
0.2962951362133026 0.12248457223176956 0.15385372936725616
-0.2283063381910324 0.5021534562110901 0.07510452717542648
0.2791953384876251 -0.3810984492301941 0.1590781956911087
0.29635846614837646 -0.24280521273612976 -0.105770044028759
-0.29114142060279846 -0.40823420882225037 -0.09408313781023026
-0.24139675498008728 -0.2959868311882019 0.09234121441841125
0.22698050737380981 -0.4231961965560913 0.20705293118953705
0.06032399460673332 0.17982961237430573 -0.1388394832611084
-0.2335958182811737 -0.11833604425191879 0.15671785175800323
0.2760007083415985 -0.400198370218277 0.19363543391227722
-0.1889447420835495 0.311016321182251 0.034258853644132614
-0.22949425876140594 0.12608389556407928 0.16043664515018463
-0.16131874918937683 -0.2378060221672058 -0.13539078831672668
-0.22281168401241302 0.31901201605796814 -0.3504403829574585
-0.21782885491847992 -0.2673027217388153 0.08052636682987213
0.29893073439598083 0.06468523293733597 0.14772357046604156
-0.1824970841407776 -0.25558799505233765 0.07442415505647659
-0.2647041380405426 0.22430852055549622 0.1154933050274849
-0.273770272731781 -0.3048994243144989 0.11059008538722992
-0.20591415464878082 -0.24834507703781128 -0.12724530696868896
-0.27207669615745544 0.0488077774643898 -0.24496795237064362
0.28225815296173096 0.0907740369439125 0.15563078224658966
-0.3360903263092041 -0.39324280619621277 0.0077651687897741795
-0.16313336789608002 0.3461339771747589 0.023437226191163063
0.2983163893222809 0.14150729775428772 0.15007509291172028
-0.019522428512573242 -0.2008412480354309 0.15589094161987305
-0.03903183341026306 0.22781211137771606 -0.13466103374958038
0.15875762701034546 -0.44605961441993713 -0.014482979662716389
-0.20600225031375885 0.2427215427160263 0.04880213737487793
-0.21801744401454926 -0.4341753423213959 0.15419651567935944
-0.27446651458740234 0.16352741420269012 -0.12144698947668076
0.2459256649017334 -0.28930312395095825 0.08904796093702316
0.2692757248878479 0.31978708505630493 0.05244610086083412
0.2138441503047943 0.31981319189071655 -0.02771514095366001
0.151413694024086 -0.24944840371608734 -0.13390713930130005
-0.19582068920135498 0.16246137022972107 0.16866865754127502
-0.27122434973716736 0.01897800713777542 -0.13540588319301605
0.28157418966293335 0.48206767439842224 0.12251438945531845
0.2956772446632385 -0.07748522609472275 0.15573883056640625
-0.27917054295539856 -0.052933719009160995 -0.289948970079422
-0.11721751093864441 0.17579083144664764 0.1518128514289856
-0.2692008912563324 -0.04387782886624336 0.15265265107154846
0.11114095896482468 0.2173624336719513 0.15856310725212097
-0.2711149752140045 -0.35731518268585205 -0.09298466145992279
-0.23067356646060944 0.34839755296707153 0.10354825854301453
-0.24274927377700806 0.32980877161026 0.048390794545412064
-0.3327312171459198 -0.3937601149082184 0.02899409458041191
0.2913926839828491 -0.38469645380973816 0.14403674006462097
-0.22432225942611694 0.006276379339396954 0.16475911438465118
-0.01701871119439602 0.30741146206855774 -0.2867208421230316
-0.2477591186761856 -0.2539283335208893 0.041891034692525864
-0.2927777171134949 0.04958600923418999 -0.2657805383205414
-0.2679930329322815 -0.17654885351657867 0.14148098230361938
-0.22264187037944794 -0.14815637469291687 0.15863972902297974
0.29652655124664307 -0.2102004587650299 -0.12356910109519958
0.004442201927304268 -0.253044068813324 -0.11965300142765045
-0.24697335064411163 0.2548061013221741 -0.33862724900245667
0.20674386620521545 -0.27175280451774597 -0.04645242914557457
0.05476740002632141 0.20302914083003998 -0.2218557745218277
-0.2688431739807129 -0.23319116234779358 0.1389622688293457
0.04242917150259018 0.16086120903491974 -0.2077513486146927
-0.23224057257175446 0.2715831398963928 -0.35472437739372253
0.2771162688732147 -0.38296952843666077 0.17617736756801605
0.2247922122478485 0.3456752300262451 -0.072649747133255
0.28869423270225525 -0.17274527251720428 -0.13504332304000854
0.09422634541988373 0.2293611764907837 -0.1286119818687439
-0.28525465726852417 -0.45221951603889465 -0.08132024109363556
0.30029335618019104 -0.12570779025554657 -0.13309518992900848
-0.18917062878608704 0.2745763063430786 0.028281787410378456
0.23359814286231995 0.32160675525665283 -0.042867857962846756
0.24950194358825684 -0.3997313678264618 -0.08809235692024231
0.264243483543396 0.1754055768251419 0.15756039321422577
-0.20735576748847961 -0.24416190385818481 -0.13579219579696655
0.2858744263648987 -0.24653436243534088 -0.12193026393651962
-0.1625591367483139 0.34545260667800903 0.015106499195098877
0.2490316778421402 -0.2528893053531647 -0.0525176115334034
-0.22820056974887848 -0.1367318481206894 0.15493108332157135
-0.2671857476234436 -0.2501738965511322 0.12428084015846252
-0.29134342074394226 0.07322333008050919 -0.30952340364456177
0.28867799043655396 -0.4329685866832733 0.024889035150408745
0.28521597385406494 0.005463647656142712 -0.13597224652767181
-0.19784411787986755 0.5018668174743652 0.006060565821826458
0.02029261738061905 -0.2458871752023697 0.15142753720283508
0.2865504026412964 0.3666856586933136 0.11208457499742508
0.02146773971617222 0.27808907628059387 -0.2605572044849396
-0.2175818681716919 0.44971898198127747 -0.07518435269594193
0.1952134370803833 0.4925450384616852 0.09368814527988434
0.2604371905326843 -0.18228426575660706 0.15227307379245758
-0.15310777723789215 0.32049721479415894 -0.35127854347229004
-0.2619864046573639 0.22860756516456604 -0.1059853658080101
-0.20515108108520508 -0.4167934060096741 0.15393103659152985
0.2952151894569397 0.12042194604873657 -0.13958576321601868
-0.2631022036075592 -0.3036872148513794 0.10321935266256332
-0.2364867478609085 0.2309875190258026 0.14800524711608887
-0.2726719081401825 0.25511130690574646 -0.3294254243373871
0.16831257939338684 -0.24797233939170837 -0.13579797744750977
-0.169968843460083 0.16694772243499756 0.1706462949514389
-0.2629318833351135 -0.25088876485824585 0.08086975663900375
-0.23004977405071259 0.3322972357273102 0.05518424138426781
-0.1792948693037033 0.459663450717926 0.10241859406232834
-0.2707636058330536 -0.17802196741104126 -0.12863555550575256
-0.009081549011170864 0.18242530524730682 0.15399512648582458
0.2525255084037781 0.2305796593427658 0.06075894832611084
-0.28508493304252625 0.051124170422554016 -0.24593234062194824
-0.056445904076099396 0.321492075920105 -0.30406254529953003
-0.2346111238002777 0.3512382507324219 0.10473310947418213
-0.22319145500659943 -0.1805049031972885 0.16722698509693146
-0.23689457774162292 0.08945190906524658 0.15006835758686066
0.2603801488876343 0.3550310730934143 -0.08235638588666916
0.1231917142868042 -0.18630731105804443 0.16778120398521423
-0.1676861047744751 0.16436904668807983 0.16008926928043365
0.020850639790296555 0.18547560274600983 -0.13753248751163483
0.2967175543308258 0.0753290057182312 -0.12451789528131485
-0.27314624190330505 -0.46869754791259766 -0.042882002890110016
-0.2465275526046753 0.47768595814704895 -0.02973712421953678
-0.2671610116958618 0.22370785474777222 -0.09264746308326721
0.03989533707499504 0.1915072500705719 -0.14616622030735016
0.04128653183579445 -0.18054024875164032 0.1699024885892868
-0.2590598464012146 0.1114979237318039 -0.3050177991390228
-0.2316143661737442 -0.15999124944210052 0.15405689179897308
0.28203368186950684 0.3536824584007263 0.10106207430362701
0.16120882332324982 0.22783975303173065 0.14272557199001312
0.2086210548877716 0.31578248739242554 -0.0160137340426445
-0.25443562865257263 0.003556049196049571 -0.29933488368988037
-0.2721640169620514 0.22123359143733978 0.15280482172966003
-0.25560155510902405 -0.02256382256746292 -0.29538851976394653
-0.2956892251968384 -0.4325144290924072 -0.08996649831533432
-0.23857396841049194 0.3090771436691284 -0.36110854148864746
-0.022411100566387177 0.23157836496829987 -0.18768100440502167
-0.24386774003505707 0.24202652275562286 -0.014494245871901512
0.26603034138679504 0.3465093970298767 0.11667144298553467
-0.057547345757484436 0.30136236548423767 -0.2886340916156769
-0.21125994622707367 0.23574955761432648 -0.030768323689699173
0.05708412453532219 0.12437628209590912 -0.15228113532066345
0.23446421325206757 0.1539149284362793 0.16970589756965637
0.22870424389839172 -0.2461741715669632 -0.1348872035741806
-0.2751632332801819 0.22561447322368622 -0.34433701634407043
0.19807632267475128 -0.2503822445869446 0.07434576004743576
0.18131017684936523 0.44807231426239014 0.10557752102613449
-0.29262399673461914 0.019258886575698853 -0.29918110370635986
0.2902906835079193 0.21081945300102234 0.15709106624126434
0.0745432898402214 0.17313174903392792 0.15042434632778168
-0.2741297483444214 0.23731514811515808 -0.3219045102596283
-0.28037771582603455 -0.06388615816831589 -0.23275482654571533
-0.2739331126213074 0.15735849738121033 -0.13320845365524292
-0.17862297594547272 0.3239051103591919 0.0005778258782811463
0.1814204901456833 -0.18582533299922943 0.16595233976840973
0.29535242915153503 0.1595778465270996 0.14628815650939941
-0.26740843057632446 -0.38174065947532654 0.20929473638534546
0.23628629744052887 0.22365185618400574 -0.13396841287612915
-0.2114315629005432 0.2152274250984192 0.1593947559595108
0.24851952493190765 -0.23752500116825104 0.15421384572982788
0.2503257691860199 -0.25296977162361145 0.056406550109386444
0.033013977110385895 0.11627842485904694 -0.13586974143981934
-0.22635219991207123 -0.2874296009540558 -0.06700674444437027
-0.306359201669693 -0.4454706311225891 -0.08067701011896133
0.2763092517852783 -0.429868221282959 -0.055400896817445755
-0.2343384325504303 0.2852697968482971 -0.33397749066352844
0.2072087526321411 0.17926932871341705 0.15378022193908691
0.040575362741947174 0.2587086856365204 -0.22710545361042023
-0.21661609411239624 0.3733952045440674 0.10786297172307968
-0.04343000054359436 0.2849493622779846 -0.28537362813949585
0.18326297402381897 -0.19881708920001984 0.15282955765724182
-0.2717285752296448 -0.20523594319820404 -0.12089622765779495
0.26240095496177673 0.5084434151649475 0.10340385884046555
-0.2242751270532608 -0.09807904064655304 0.15679988265037537
-0.2512848377227783 -0.03861803188920021 -0.23627325892448425
-0.09193726629018784 -0.20299160480499268 0.1579439640045166
-0.27469685673713684 -0.043245065957307816 -0.13799512386322021
0.2840425670146942 -0.22074270248413086 -0.13724148273468018
0.2566744387149811 0.4049324095249176 -0.09010115265846252
-0.2692997455596924 0.22173359990119934 0.03837525099515915
-0.23887933790683746 0.27107787132263184 0.009517401456832886
0.1991124153137207 -0.3908065855503082 0.19060200452804565
-0.33737093210220337 -0.3621174097061157 0.12925466895103455
0.25312310457229614 0.3371437191963196 -0.06529552489519119
-0.22158433496952057 -0.08785514533519745 0.1638692021369934
0.2972654402256012 -0.020400892943143845 0.15284855663776398
-0.02712104842066765 0.22504742443561554 0.15251922607421875
-0.2425105720758438 0.34044572710990906 0.06908087432384491
-0.2738942503929138 0.008548632264137268 0.14966998994350433
-0.23226450383663177 -0.46107935905456543 0.10062696039676666
0.06867503374814987 0.175553560256958 -0.13561899960041046
0.054448697715997696 0.18478557467460632 -0.15205790102481842
0.2522456645965576 0.06060977280139923 0.15370750427246094
-0.06394676864147186 0.3151913583278656 -0.2748991549015045
0.08347027748823166 0.2195524126291275 0.1549174189567566
0.2617102563381195 0.38347554206848145 0.12332714349031448
-0.09515736997127533 -0.2407488375902176 0.1579117625951767
0.2818302810192108 -0.022071612998843193 0.15683835744857788
-0.23648007214069366 -0.1631675809621811 0.15351690351963043
-0.26349252462387085 -0.3111208379268646 0.10957195609807968
0.11870630830526352 0.16918720304965973 0.1677592247724533
-0.20686769485473633 0.26982396841049194 -0.018532535061240196
-0.27003344893455505 -0.25308284163475037 0.07103138417005539
-0.2726907432079315 -0.0024710246361792088 -0.13063013553619385
-0.2620353102684021 -0.01239449717104435 -0.22526255249977112
-0.2460182011127472 0.2423185259103775 0.03332788497209549
-0.2389807403087616 0.23140650987625122 0.05410216376185417
0.2536908984184265 -0.3237675130367279 0.11027447879314423
0.29257166385650635 0.22022375464439392 0.15610693395137787
-0.029247740283608437 0.27227717638015747 -0.2546875774860382
-0.17178425192832947 0.4820316433906555 0.10024946928024292
0.2524731457233429 0.005164721980690956 0.17132224142551422
-0.22891554236412048 -0.1767025589942932 0.16111646592617035
0.2782006561756134 0.4080618619918823 0.1289479285478592
-0.24085214734077454 0.351961225271225 0.09809437394142151
-0.2135266214609146 0.4312703311443329 -0.08056899160146713
-0.21860156953334808 0.2425176501274109 0.04982902109622955
-0.20518557727336884 0.5065493583679199 0.05416219308972359
-0.17916300892829895 0.4386889934539795 0.09319192916154861
-0.22754691541194916 0.38556572794914246 -0.07722915709018707
0.03493276983499527 -0.24824725091457367 0.15732939541339874
0.007364950608462095 0.22938203811645508 -0.12972594797611237
-0.26974254846572876 -0.07334094494581223 0.15785706043243408
-0.21732747554779053 -0.2784671187400818 -0.06421273946762085
0.28257253766059875 0.3704271912574768 -0.0645144134759903
-0.2618699371814728 0.23147191107273102 -0.0780935138463974
0.2962978482246399 -0.0020008995197713375 -0.13024567067623138
0.1963547319173813 0.33193373680114746 0.05515148118138313
0.2607220411300659 0.5025343894958496 -0.0314997062087059
0.03622978553175926 0.24647276103496552 -0.24855606257915497
-0.08728659152984619 0.32227134704589844 -0.291083961725235
-0.25677159428596497 -0.226982980966568 0.15800681710243225
0.28429409861564636 0.46635162830352783 0.13371945917606354
-0.26016294956207275 0.4433485269546509 0.11724048852920532
-0.2435857057571411 0.34861525893211365 0.1016358882188797
-0.2278803586959839 0.15664376318454742 0.16267098486423492
0.023017942905426025 0.18588347733020782 -0.1381048709154129
-0.1860141009092331 0.34127962589263916 -0.32526323199272156
0.29596078395843506 0.21251490712165833 -0.057125139981508255
-0.285591185092926 0.1370687633752823 -0.30770665407180786
-0.017987031489610672 0.2775120735168457 -0.2775058150291443
-0.008674230426549911 0.195243701338768 -0.14425456523895264
-0.04000350832939148 0.18735645711421967 -0.1346648782491684
-0.2895193099975586 0.08532486110925674 -0.30509868264198303
-0.005343879573047161 0.21271292865276337 -0.23959602415561676
0.03629748895764351 0.2356317639350891 -0.19047226011753082
-0.23467443883419037 0.22270657122135162 0.15767106413841248
-0.20463916659355164 0.32111120223999023 -0.026321740821003914
-0.2750066816806793 -0.12298309803009033 -0.12367656081914902
-0.1838708370923996 0.47909027338027954 -0.035604238510131836
-0.2432505190372467 0.2446790486574173 -0.006682135164737701
0.2569301128387451 0.15364795923233032 0.15195196866989136
-0.23941652476787567 0.39480093121528625 -0.0741507038474083
0.25897958874702454 -0.18221136927604675 0.15932784974575043
0.05123038962483406 0.18570655584335327 -0.210796058177948
-0.33635780215263367 -0.36309000849723816 0.10666176676750183
-0.25782379508018494 -0.03918100520968437 -0.29381194710731506
-0.23589682579040527 0.269975870847702 0.03305651620030403
-0.041040584444999695 0.1792450249195099 -0.1750137358903885
-0.27092668414115906 -0.20100507140159607 -0.12684251368045807
-0.2812909185886383 -0.36567097902297974 -0.09122682362794876
-0.16461658477783203 0.31800687313079834 -0.3495556712150574
-0.22429406642913818 -0.4702889025211334 0.06385615468025208
-0.22351394593715668 -0.4747083783149719 0.0244260486215353
-0.28211912512779236 -0.3105700612068176 0.12568625807762146
-0.1738048493862152 -0.19909928739070892 0.15402333438396454
-0.023160714656114578 0.3097541332244873 -0.26331406831741333
-0.23992381989955902 0.4104973375797272 0.1023566797375679
-0.03227900341153145 0.21509096026420593 0.15741945803165436
0.2165529429912567 0.1609428972005844 0.16938678920269012
-0.1077064648270607 0.3141208291053772 -0.33014488220214844
0.2957410216331482 0.21848762035369873 0.0397382490336895
0.2161509394645691 0.2197999805212021 -0.13394053280353546
-0.20779664814472198 0.3647512197494507 -0.0773400291800499
-0.27202239632606506 0.15927524864673615 0.15322528779506683
-0.1049392968416214 0.22798699140548706 0.15651051700115204
-0.23109063506126404 -0.43368062376976013 0.18177954852581024
-0.19795913994312286 0.33167052268981934 -0.326491117477417
-0.2379843145608902 0.29866546392440796 0.027606893330812454
-0.24552543461322784 0.33737459778785706 0.05989657714962959
0.07592962682247162 -0.208349347114563 0.15568974614143372
-0.00971626490354538 0.23774489760398865 -0.2515937089920044
-0.28574469685554504 0.004089588299393654 -0.3039008378982544
0.21761533617973328 -0.44533801078796387 -0.08528481423854828
0.2964988052845001 0.228155255317688 0.08888494968414307
-0.039608173072338104 0.18973256647586823 -0.17567668855190277
-0.26041916012763977 0.22914740443229675 -0.06547287106513977
0.2611050009727478 0.07797366380691528 0.1522369384765625
-0.0643245205283165 0.1730155646800995 0.1553390473127365
-0.2367866337299347 0.23065881431102753 0.14586283266544342
0.2966413199901581 -0.0980064794421196 -0.12302830815315247
0.2569703459739685 0.49336379766464233 0.12446371465921402
0.2563653886318207 -0.2574840486049652 0.0028210184536874294
0.26643872261047363 0.28180357813835144 0.011125423014163971
-0.2402033805847168 -0.2535993456840515 0.07085064798593521
0.2927587628364563 -0.25034475326538086 0.01731407642364502
