0.28551188111305237 -0.35905593633651733 0.008394082076847553
0.05958746373653412 -0.007447225507348776 -0.13234315812587738
0.008394155651330948 -0.2500864863395691 -0.05807052180171013
-0.00947030819952488 0.05903466418385506 -0.13427619636058807
-0.1945527344942093 -0.2720673978328705 -0.05602681636810303
0.050330258905887604 0.22860518097877502 0.004040132276713848
-0.12912745773792267 -0.25180864334106445 0.07067836076021194
-0.10549069195985794 0.17407876253128052 -0.13549520075321198
-0.1809946745634079 -0.37286800146102905 -0.040155693888664246
-0.2706201374530792 0.12676586210727692 -0.011596610769629478
-0.21511077880859375 -0.1431228518486023 -0.13589152693748474
-0.19756178557872772 0.5032389163970947 0.057398561388254166
0.18623210489749908 -0.37973353266716003 -0.07153922319412231
0.2865504324436188 -0.3638550639152527 0.07715842127799988
0.20536433160305023 0.2284105271100998 -0.04126163572072983
-0.1579413115978241 0.3801996111869812 0.034719351679086685
-0.2119179219007492 0.22716893255710602 0.13030599057674408
-0.03683147951960564 -0.2509462535381317 -0.007509115617722273
0.29658791422843933 0.06804227083921432 0.06112516671419144
-0.27122893929481506 0.1975274533033371 -0.0768059566617012
-0.2708132863044739 0.05000893771648407 0.098403699696064
-0.2537892460823059 -0.41894254088401794 -0.0872742310166359
0.16592827439308167 0.2319885641336441 0.13532666862010956
0.27283918857574463 0.10545074194669724 -0.13176575303077698
0.1869169920682907 0.22763876616954803 0.010392313823103905
0.14483913779258728 -0.35114288330078125 0.024468382820487022
0.1995212882757187 0.22825857996940613 -0.005278021562844515
0.2701016664505005 0.3318747282028198 0.06598799675703049
-0.27187520265579224 -0.13520418107509613 0.1282944530248642
-0.2602750062942505 0.3896755576133728 -0.03768214210867882
0.2916053831577301 -0.4240174889564514 0.07181721180677414
0.20724022388458252 -0.4470226764678955 0.019592899829149246
-0.2060168832540512 0.4353385865688324 0.08530058711767197
-0.2721357047557831 -0.2032659500837326 -0.10931224375963211
-0.21663831174373627 -0.24972835183143616 -0.11443734169006348
0.044856831431388855 0.13924065232276917 -0.2066543698310852
-0.2714305520057678 0.0728837102651596 0.10153117030858994
-0.028851943090558052 0.12462962418794632 0.17125213146209717
0.17344830930233002 -0.21273988485336304 -0.13413837552070618
0.1520651876926422 0.22776125371456146 0.07569476962089539
-0.1885906159877777 0.03567385673522949 0.1695878505706787
-0.0883767381310463 0.015576818957924843 0.1694917231798172
-0.16920019686222076 -0.2838885486125946 -0.03723912313580513
0.0541188009083271 -0.08327814936637878 -0.13596853613853455
-0.03635618835687637 -0.03822297975420952 -0.13840587437152863
-0.18762150406837463 -0.3120158016681671 -0.05386969819664955
-0.3266613483428955 -0.33825644850730896 0.14836494624614716
-0.2704108655452728 -0.18985389173030853 -0.06799189746379852
-0.04084125533699989 0.08166495710611343 -0.13837021589279175
-0.2665961682796478 0.07507921755313873 0.09935036301612854
-0.20396198332309723 0.22751794755458832 0.11762406677007675
-0.27093958854675293 -0.11431074887514114 -0.004183181095868349
0.1433771699666977 -0.42541712522506714 -0.0028938574250787497
-0.27077141404151917 0.07356709986925125 0.0686621367931366
0.1218542531132698 0.03651073947548866 -0.1323922872543335
0.1635742336511612 -0.44613856077194214 0.0630912333726883
-0.17214275896549225 0.22864612936973572 -0.091718390583992
0.1457531452178955 -0.41432130336761475 0.0030307499691843987
0.09187068045139313 -0.07749373465776443 -0.13541170954704285
-0.17217285931110382 0.2254679650068283 -0.09649486839771271
-0.21329082548618317 0.18895016610622406 -0.13347861170768738
-0.22335420548915863 -0.22802411019802094 -0.1357157677412033
-0.1740771234035492 0.23180392384529114 0.1338365077972412
0.017553452402353287 -0.24913299083709717 -0.09048748761415482
0.17790785431861877 0.45198577642440796 0.03340298682451248
-0.27270302176475525 0.050031162798404694 -0.035230595618486404
0.14239805936813354 -0.027198346331715584 0.17100514471530914
-0.24550610780715942 0.003464959328994155 -0.25145915150642395
-0.27056461572647095 0.1651073396205902 0.05690516158938408
0.16055557131767273 -0.2945972681045532 0.02984686754643917
-0.27081921696662903 0.05570371821522713 0.10649667680263519
-0.03953982889652252 0.12809300422668457 0.17054195702075958
0.13519161939620972 -0.3965297341346741 0.050264760851860046
-0.014751466922461987 -0.22607077658176422 -0.13466836512088776
0.18404723703861237 -0.3459087312221527 -0.06479731947183609
-0.05616751313209534 -0.24972274899482727 0.1329534351825714
0.09396751970052719 -0.10029108822345734 0.1686081737279892
0.30164867639541626 0.40962761640548706 0.08606541901826859
-0.3214249610900879 -0.36764058470726013 0.16096435487270355
-0.20479996502399445 -0.44107410311698914 0.0944489911198616
-0.12432035058736801 0.2067490816116333 -0.13549216091632843
-0.18563449382781982 -0.3670467138290405 -0.05084318295121193
0.028901567682623863 -0.14613638818264008 -0.13545338809490204
-0.31983840465545654 -0.37054598331451416 -0.013696371577680111
0.2388424277305603 -0.25101059675216675 -0.0985066369175911
0.044866301119327545 0.2313646376132965 0.049685314297676086
0.14234855771064758 -0.368026465177536 0.053877294063568115
-0.23258045315742493 0.5003701448440552 0.06387148052453995
0.2366477996110916 -0.4477682411670685 0.17290641367435455
-0.2691754400730133 -0.06521236151456833 0.10587551444768906
0.18998359143733978 -0.36294153332710266 -0.07154470682144165
0.28640761971473694 0.4655624330043793 -0.02978888899087906
0.29720816016197205 0.17845205962657928 0.03076081909239292
-0.22468990087509155 0.22774764895439148 0.07821843028068542
-0.19507065415382385 -0.42170313000679016 0.0994732454419136
-0.16418009996414185 0.4017684757709503 -0.04199640452861786
0.0531342513859272 -0.25047388672828674 -0.007862813770771027
0.17507313191890717 -0.19595704972743988 -0.13556008040905
-0.1615438163280487 0.34293457865715027 0.0040846881456673145
0.09605366736650467 -0.25124138593673706 0.038053084164857864
-0.30965450406074524 -0.36832085251808167 -0.046006202697753906
0.01252970565110445 0.2286096215248108 0.024567246437072754
-0.15323930978775024 0.38791388273239136 0.03310004994273186
0.1459246724843979 -0.18616315722465515 -0.13420026004314423
-0.19788479804992676 0.22569379210472107 -0.09777580201625824
0.016657106578350067 0.18370278179645538 0.15616776049137115
0.29797127842903137 0.1395997554063797 -0.02568800002336502
0.15285654366016388 0.23028986155986786 -0.006566994357854128
0.2946116328239441 -0.10196168720722198 -0.03835884854197502
-0.038564734160900116 0.22854486107826233 0.0015347021399065852
0.1374632567167282 -0.2501136362552643 -0.1193804144859314
0.17049506306648254 -0.28222164511680603 0.0329134464263916
0.197270005941391 -0.33958184719085693 0.11427395790815353
0.2894059419631958 -0.39004436135292053 0.12857398390769958
-0.24812552332878113 -0.053728606551885605 0.15689952671527863
0.25990116596221924 -0.29383793473243713 -0.04735913872718811
-0.2509832978248596 -0.14560042321681976 0.15653181076049805
0.29677167534828186 0.007711379323154688 0.084304079413414
0.1255519986152649 -0.2510313093662262 -0.042844079434871674
0.27833330631256104 -0.2462828904390335 0.1260668933391571
0.2986902892589569 0.18688282370567322 0.023206917569041252
-0.27106887102127075 0.005344195291399956 -0.08247192203998566
0.22318705916404724 -0.30742183327674866 0.09981013089418411
0.15531079471111298 0.22868990898132324 0.11963638663291931
0.17700837552547455 0.44668102264404297 0.01940135285258293
-0.16444094479084015 -0.0727824866771698 -0.1349284052848816
0.12020505219697952 0.04082345589995384 0.17146997153759003
-0.17935821413993835 0.3891131579875946 -0.06463892012834549
-0.18753254413604736 -0.3539135456085205 -0.056901127099990845
0.07346794754266739 0.07336531579494476 -0.13541050255298615
0.18881087005138397 0.06241288408637047 -0.1395028680562973
0.27300509810447693 -0.4485209286212921 0.14008137583732605
-0.06825196743011475 0.06854883581399918 -0.13553111255168915
-0.053746990859508514 -0.25182807445526123 -0.09603746235370636
0.01784953847527504 0.23685415089130402 -0.186310812830925
-0.27057546377182007 0.15067541599273682 0.04566461965441704
0.29646557569503784 -0.09462013095617294 0.005111003294587135
-0.26855942606925964 0.17770373821258545 -0.06549832969903946
0.2908284664154053 -0.3894631862640381 0.13946586847305298
0.26521432399749756 0.10021649301052094 -0.13822641968727112
0.0810212716460228 0.23264595866203308 0.04933156445622444
0.03218333050608635 0.22861294448375702 -0.007379245012998581
0.12269750982522964 -0.14642757177352905 0.1715007871389389
0.17603208124637604 0.4560518264770508 0.060899123549461365
-0.2703899145126343 0.2092738300561905 -0.08054696023464203
0.2591949999332428 0.4367777109146118 0.10720662027597427
0.058882638812065125 0.10901182889938354 0.16945619881153107
0.04461671784520149 -0.16425572335720062 0.16832374036312103
0.17445531487464905 0.3728436529636383 0.05901983752846718
0.28995481133461 0.4637365937232971 0.10751661658287048
-0.18693317472934723 0.23033010959625244 0.09514691680669785
0.04852451756596565 -0.13733668625354767 -0.1338854283094406
0.11781933158636093 -0.09394562989473343 -0.13518378138542175
0.2971218228340149 -0.18500405550003052 0.13473983108997345
-0.2463780641555786 0.3836052715778351 -0.06537336856126785
0.13623559474945068 -0.00765410577878356 0.16960012912750244
-0.16451838612556458 0.47177159786224365 0.007315777707844973
0.23588453233242035 -0.2506129741668701 0.1157732829451561
0.30022701621055603 0.07785947620868683 0.022266922518610954
0.023182522505521774 0.2287987321615219 0.10406292974948883
-0.08439841121435165 0.152624249458313 -0.13664118945598602
-0.2708568871021271 -0.02279096655547619 0.018631473183631897
0.07525914162397385 -0.13177701830863953 -0.13465045392513275
0.28150978684425354 -0.006586170289665461 -0.13561980426311493
0.29725149273872375 0.0790553092956543 -0.030459817498922348
-0.1805150806903839 -0.05207391083240509 -0.1376941055059433
0.005011211149394512 0.16253051161766052 -0.2218913584947586
-0.10936375707387924 0.15823538601398468 -0.1354800909757614
0.10738756507635117 -0.13349993526935577 0.16948792338371277
-0.275351881980896 -0.3032676875591278 0.024737980216741562
-0.2291855663061142 0.22874347865581512 0.1051759421825409
-0.3053092658519745 -0.3399408757686615 0.017490705475211143
-0.16350382566452026 -0.31601011753082275 -0.02566393092274666
0.15905602276325226 0.12223582714796066 0.17001572251319885
0.2842826843261719 -0.3559719920158386 0.10919607430696487
-0.11576942354440689 -0.252881795167923 0.08986882865428925
-0.19795529544353485 -0.3488796353340149 -0.06152615323662758
0.16006140410900116 -0.44490593671798706 0.03967723995447159
0.3023246228694916 0.4300853908061981 0.048519887030124664
0.11273764818906784 0.16140392422676086 -0.13441415131092072
-0.2143838256597519 -0.023927314206957817 -0.13713529706001282
0.29765528440475464 0.1059131845831871 -0.03491050750017166
-0.14497010409832 0.231256902217865 0.07644703984260559
0.2688690423965454 0.1485007405281067 0.15579916536808014
0.17786267399787903 0.40355366468429565 0.07090374827384949
0.18483899533748627 -0.2492910623550415 -0.10292872786521912
0.04757462441921234 -0.20662511885166168 -0.13550272583961487
0.2918694317340851 0.4530992805957794 -0.031187156215310097
-0.17947031557559967 -0.06865242123603821 -0.1328279972076416
-0.020006122067570686 0.2287813127040863 0.10387840867042542
-0.2710232734680176 0.20439134538173676 -0.04575243219733238
-0.26738783717155457 -0.060282979160547256 0.08231476694345474
0.029042337089776993 -0.25082698464393616 -0.0082078343257308
0.2981710433959961 0.0687255784869194 0.12177833914756775
-0.27056196331977844 0.1455310434103012 0.012858555652201176
0.22098737955093384 -0.22823990881443024 0.15665055811405182
-0.08798307925462723 0.050689928233623505 -0.13567067682743073
0.30468985438346863 0.3951132595539093 0.04232827574014664
-0.19120852649211884 0.22871430218219757 0.11932874470949173
0.10476844757795334 -0.25072675943374634 0.10856768488883972
-0.2708892524242401 -0.065836101770401 -0.042477212846279144
-0.2612106204032898 0.4639891982078552 0.06674765795469284
0.2959381937980652 -0.0465153269469738 0.06194686517119408
0.17771895229816437 -0.12876300513744354 0.1706320196390152
0.06549450010061264 0.08243568986654282 0.1696506291627884
-0.16854065656661987 -0.15598835051059723 -0.13818976283073425
-0.15358658134937286 -0.24904753267765045 0.09756294637918472
0.06059807911515236 0.019208326935768127 0.17063766717910767
-0.07501384615898132 -0.12765543162822723 -0.1355636864900589
-0.03475650027394295 -0.03254232183098793 -0.1354278028011322
0.19099685549736023 -0.09952409565448761 -0.1313905268907547
0.29809683561325073 -0.1475515216588974 -0.01329739112406969
0.13147112727165222 -0.255634069442749 -0.037221718579530716
-0.2674233317375183 0.419670045375824 0.09953397512435913
-0.25175729393959045 0.058167874813079834 0.1566115766763687
-0.17467668652534485 0.2308187037706375 0.05793900787830353
-0.15728968381881714 -0.021688247099518776 0.1711481660604477
-0.10583940893411636 -0.03572810813784599 0.17193424701690674
0.07892253249883652 -0.2509046792984009 -0.04962462559342384
-0.11439261585474014 0.046139054000377655 0.16953420639038086
-0.2717679440975189 0.1802549809217453 -0.11873815953731537
0.29927778244018555 0.3906186521053314 0.0673384964466095
0.2956525981426239 0.17254291474819183 0.07404162734746933
0.208147332072258 -0.25002214312553406 0.09189263731241226
-0.07675288617610931 0.22731725871562958 0.08758095651865005
0.12846171855926514 0.12546765804290771 -0.13482782244682312
0.22879770398139954 -0.40297529101371765 -0.08912883698940277
-0.2717835009098053 0.1914975643157959 -0.01554348785430193
-0.12075603008270264 0.20207400619983673 -0.1371842473745346
0.22205987572669983 -0.3372150659561157 0.12639382481575012
0.29566624760627747 0.11773306876420975 0.01642531529068947
-0.27071431279182434 0.045334137976169586 -0.045576222240924835
0.03101721778512001 0.22560849785804749 -0.18336397409439087
0.03191683813929558 -0.24881836771965027 0.019665494561195374
0.08912740647792816 0.12058266252279282 0.16976839303970337
0.19903965294361115 -0.36325767636299133 -0.07783345878124237
0.058108631521463394 -0.250218003988266 -0.013093473389744759
-0.30150502920150757 -0.4411352276802063 -0.031617552042007446
-0.2442607581615448 0.004066708497703075 -0.25046318769454956
-0.025212552398443222 -0.1647217571735382 -0.13554872572422028
0.2128668874502182 -0.25153329968452454 -0.07441570609807968
-0.1686333864927292 -0.32102686166763306 0.05043946951627731
0.2978920638561249 0.19521304965019226 -0.11196520179510117
-0.06372452527284622 -0.25065022706985474 0.07107945531606674
0.19281508028507233 -0.21562351286411285 -0.13636131584644318
-0.26974809169769287 -0.08338196575641632 0.04696261137723923
-0.1556709110736847 0.403344064950943 -0.010106422007083893
-0.13402922451496124 -0.18746615946292877 -0.13456584513187408
-0.27056586742401123 0.15820956230163574 0.08529604971408844
-0.2709556221961975 -0.061278779059648514 0.08016080409288406
0.2651034891605377 0.33481964468955994 0.07787079364061356
0.27340126037597656 -0.0819353386759758 -0.13581080734729767
0.29991668462753296 0.1435723602771759 0.12150736153125763
0.1764603853225708 -0.4441133737564087 -0.01714394986629486
0.2823047339916229 0.4866145849227905 0.09587172418832779
0.17559464275836945 0.4380453824996948 0.026788296177983284
0.13211731612682343 0.032186925411224365 0.1706603616476059
-0.04232548177242279 0.07312727719545364 -0.13355666399002075
-0.14461731910705566 -0.21383562684059143 -0.1356983482837677
-0.25294381380081177 -0.4360223114490509 0.13661661744117737
0.224618598818779 -0.24986982345581055 -0.1221766546368599
0.29776573181152344 0.20348283648490906 -0.054709818214178085
-0.00010490404383745044 -0.1772860288619995 -0.13552924990653992
0.2714483439922333 -0.07779595255851746 0.1563980132341385
0.1752074658870697 -0.3915639817714691 -0.0630417987704277
0.23335108160972595 -0.4435866177082062 0.024800660088658333
0.10211973637342453 0.23165903985500336 -0.03000304289162159
0.13671240210533142 0.034904833883047104 0.16793566942214966
0.2963002026081085 -0.14618976414203644 -0.11223606020212173
0.20291456580162048 -0.15220192074775696 -0.13641217350959778
0.17808781564235687 0.39864763617515564 0.08250308036804199
-0.14237076044082642 0.22859708964824677 0.10753069072961807
-0.0659678652882576 0.22777634859085083 0.11649782210588455
-0.16298770904541016 0.08472530543804169 0.16937091946601868
0.2976686358451843 -0.038615889847278595 -0.07225542515516281
0.022702179849147797 -0.25083255767822266 0.06356523185968399
-0.20755696296691895 -0.4375672936439514 -0.037558428943157196
-0.20627014338970184 -0.04347964748740196 -0.13464315235614777
-0.24085552990436554 -0.03598447144031525 0.15526917576789856
0.15765173733234406 -0.30221426486968994 -0.002508502686396241
-0.038528185337781906 -0.2517569065093994 0.0736456960439682
-0.031752798706293106 0.19494105875492096 0.15702906250953674
-0.18846525251865387 -0.375480055809021 -0.05026337504386902
0.00011848031135741621 0.27631351351737976 -0.22270357608795166
0.2970896363258362 0.424689382314682 -0.023983528837561607
0.10563270002603531 0.0008009779267013073 -0.1360407918691635
0.0614519827067852 -0.2511872947216034 0.019215358421206474
-0.08125702291727066 -0.2145317941904068 -0.13439372181892395
-0.2703923285007477 0.17292878031730652 -0.111585333943367
0.2634400725364685 -0.44241857528686523 0.04616415873169899
0.29662156105041504 -0.22410067915916443 -0.0748165026307106
-0.24541416764259338 -0.19973891973495483 0.15887504816055298
0.30126887559890747 -0.05446935445070267 0.11906120181083679
0.23766252398490906 -0.452975869178772 0.15032663941383362
0.0363747775554657 0.14425119757652283 -0.2148427665233612
-0.21434003114700317 0.2072802484035492 -0.1354643851518631
-0.025485645979642868 -0.09351444989442825 0.16904225945472717
0.18256361782550812 0.38406074047088623 -0.03276928886771202
-0.03759470582008362 0.22539807856082916 0.0766674280166626
-0.2042955458164215 -0.14144648611545563 0.1710113286972046
0.2281637191772461 0.0987585261464119 -0.13549432158470154
0.2974666357040405 0.17295639216899872 0.057579558342695236
-0.2981053590774536 -0.34733352065086365 -0.043940283358097076
-0.03319172561168671 -0.011736815795302391 0.16948629915714264
-0.27164435386657715 -0.047646019607782364 -0.10528826713562012
-0.17971211671829224 0.3815702199935913 -0.06362365186214447
-0.15995842218399048 0.4539494514465332 0.0206010565161705
-0.222829207777977 -0.14389696717262268 -0.13126257061958313
-0.2734023630619049 -0.199281245470047 -0.10307108610868454
0.14106789231300354 -0.37544503808021545 0.006090912967920303
0.286630243062973 -0.3882126212120056 0.11904523521661758
0.2743465304374695 0.22886207699775696 0.07317162305116653
-0.15825676918029785 -0.08818025141954422 -0.13234221935272217
-0.055598996579647064 0.22887130081653595 -0.008618074469268322
0.18428194522857666 0.41647017002105713 -0.037844810634851456
-0.2716878652572632 -0.13990022242069244 0.10821247845888138
0.26381751894950867 -0.4462257921695709 0.040966667234897614
0.29809945821762085 -0.19237686693668365 -0.07545877993106842
0.22843819856643677 -0.09626897424459457 0.16964612901210785
-0.26958534121513367 -0.1772937774658203 -0.10603749006986618
-0.13818971812725067 0.22731469571590424 0.05601980537176132
0.2978736460208893 0.18377475440502167 -0.06093640252947807
0.27890852093696594 -0.33597442507743835 -0.01904321275651455
0.26128000020980835 -0.4491065442562103 0.0840379074215889
-0.10576701909303665 -0.03147651627659798 0.16943702101707458
-0.2700670063495636 0.08210224658250809 0.05572093278169632
-0.27110064029693604 -0.18845520913600922 0.10856650024652481
-0.21427196264266968 -0.1979857236146927 -0.1357177346944809
-0.31112271547317505 -0.381161630153656 -0.059656817466020584
-0.21380765736103058 -0.31572696566581726 0.09268025308847427
0.21382682025432587 -0.35935404896736145 -0.0856017991900444
0.1590012162923813 -0.05332408845424652 0.1727728694677353
-0.009081097319722176 0.04074648767709732 -0.13656625151634216
-0.13310790061950684 -0.06775837391614914 0.16940921545028687
-0.047095801681280136 -0.2503088712692261 -0.11841222643852234
0.20619960129261017 0.23011961579322815 -0.0027731447480618954
0.012660844251513481 0.12813274562358856 0.1697181910276413
0.2978987991809845 0.20750248432159424 -0.1089998409152031
-0.05389004945755005 -0.11826808005571365 -0.1388847529888153
-0.0646660104393959 -0.07577996701002121 0.16939891874790192
-0.1624952107667923 0.22863394021987915 -0.027653930708765984
-0.2415645867586136 -0.2503778040409088 -0.09353328496217728
-0.22333426773548126 -0.3422112464904785 0.12241113930940628
-0.32707667350769043 -0.3435553312301636 0.11992821097373962
0.20514574646949768 0.2270088642835617 0.08889888226985931
-0.2705766558647156 0.14677344262599945 0.05070700868964195
-0.10075725615024567 -0.08048856258392334 -0.1365593671798706
0.2998502552509308 0.11308450996875763 -0.017269009724259377
0.29880931973457336 0.15639165043830872 -0.05543367192149162
0.19256111979484558 -0.31652021408081055 0.09313797205686569
0.13862186670303345 -0.39160650968551636 0.1000768169760704
0.11950667947530746 -0.1304977536201477 0.1697571575641632
-0.28846678137779236 0.01850171945989132 -0.25647059082984924
0.19820572435855865 -0.09730507433414459 -0.13241226971149445
0.1207343190908432 -0.25167274475097656 -0.036009807139635086
0.2961515784263611 0.09262863546609879 0.0244173314422369
0.0339072160422802 0.02394416369497776 0.17138002812862396
-0.15393999218940735 0.22862723469734192 -0.06597966700792313
-0.2708033323287964 -0.22922323644161224 0.008005659095942974
0.29520779848098755 0.07721700519323349 0.017851172015070915
0.29811811447143555 -0.10921231657266617 0.03423565998673439
-0.270915150642395 -0.11314892023801804 -0.07873301208019257
0.25542089343070984 -0.4457312822341919 -0.052212126553058624
-0.14700041711330414 -0.149586483836174 -0.13193319737911224
0.29791611433029175 0.18363948166370392 -0.11043456196784973
-0.17493700981140137 -0.3928828537464142 0.03168982267379761
-0.2494664341211319 0.22327277064323425 -0.08737718313932419
-0.26368358731269836 0.35244113206863403 0.01612119749188423
0.07414090633392334 -0.250784695148468 0.09197656065225601
0.2396152913570404 -0.015632426366209984 -0.1355687528848648
0.2937709391117096 0.472339928150177 0.07531964033842087
-0.16331985592842102 -0.3440576195716858 -0.011524995788931847
-0.06104891747236252 0.22860053181648254 -0.08423597365617752
0.06365402787923813 -0.13319681584835052 -0.13845640420913696
0.2795623540878296 -0.3960750699043274 -0.04834727570414543
-0.3046419322490692 -0.3472542464733124 -0.011790478602051735
0.18134267628192902 0.22865714132785797 0.022784819826483727
-0.2688971161842346 0.029864022508263588 -0.03654676675796509
-0.07701951265335083 0.11160880327224731 -0.13566114008426666
-0.24028174579143524 0.15995679795742035 -0.13546834886074066
0.1380024403333664 -0.01852935366332531 -0.135658860206604
0.14650265872478485 0.06611719727516174 0.1696959286928177
-0.27102211117744446 -0.17760491371154785 -0.08528992533683777
0.19755497574806213 0.49771055579185486 0.028509918600320816
-0.11466726660728455 0.15499702095985413 -0.13548600673675537
0.2668096721172333 -0.0071838791482150555 -0.1358611285686493
0.3007529675960541 -0.025142332538962364 -0.1006043404340744
0.2066190540790558 0.10538306832313538 -0.1354832947254181
-0.15215380489826202 -0.24585409462451935 0.134560689330101
-0.07539878785610199 -0.06648381054401398 0.1674250066280365
-0.011762621812522411 -0.2509036064147949 0.04605114459991455
0.1389896720647812 -0.09533718228340149 0.16955646872520447
0.17521868646144867 -0.288696825504303 0.04499860107898712
-0.2407272458076477 -0.07235044986009598 -0.13235342502593994
0.2981068789958954 -0.06968387216329575 -0.11504745483398438
0.026821818202733994 0.13008548319339752 0.17314758896827698
-0.27101829648017883 -0.14629217982292175 -0.031460508704185486
-0.19856294989585876 -0.09059303253889084 -0.13560359179973602
-0.2728482484817505 -0.030691096559166908 -0.048557985574007034
0.30010294914245605 0.4254879057407379 0.09148824214935303
-0.2921127378940582 -0.008313585072755814 -0.2847175896167755
0.1828269511461258 0.22960636019706726 -0.09527675807476044
-0.008402804844081402 -0.2509419918060303 -0.06777546554803848
0.02482089400291443 0.10027560591697693 -0.16626812517642975
-0.05805405229330063 0.17326202988624573 -0.13548025488853455
0.011836890131235123 0.1919064074754715 -0.23104768991470337
0.012067352421581745 0.2296111136674881 -0.08460406213998795
0.20402702689170837 0.5005675554275513 0.09648282825946808
0.16087478399276733 -0.251277357339859 -0.05352408438920975
-0.2236633151769638 0.23056912422180176 0.09012451022863388
-0.2881098985671997 -0.44553011655807495 0.0018008312908932567
-0.22660844027996063 -0.38928934931755066 0.1830294132232666
0.04636896029114723 -0.2505103647708893 -0.11309985816478729
-0.20361901819705963 0.06842800974845886 0.16815587878227234
0.2973589301109314 0.08992055803537369 0.11137505620718002
0.1377517729997635 -0.42236873507499695 0.04184877127408981
-0.20498500764369965 0.13767413794994354 -0.13549043238162994
-0.21063032746315002 0.42318612337112427 0.08552981168031693
-0.24163274466991425 -0.15243156254291534 -0.13525815308094025
-0.12156273424625397 -0.2504798471927643 -0.021763082593679428
0.07932434976100922 0.22835883498191833 -0.021431919187307358
0.2980491518974304 0.004560618661344051 -0.09586973488330841
-0.2491217404603958 -0.3516128361225128 0.17057675123214722
0.2543966770172119 0.22737999260425568 -0.0835353285074234
0.2981224060058594 0.38909202814102173 0.09946297854185104
0.07630030065774918 -0.09583043307065964 -0.13998138904571533
0.10954458266496658 0.10664752870798111 0.1697545200586319
-0.15173546969890594 0.05566190183162689 0.1725788712501526
0.018213169649243355 -0.173530712723732 -0.1358879804611206
0.17711825668811798 0.45783060789108276 0.013879923149943352
0.2678661346435547 -0.1433868110179901 -0.1356397271156311
0.2945280373096466 -0.0256648026406765 0.050398148596286774
-0.16335487365722656 0.22194144129753113 0.130644753575325
-0.13756553828716278 0.14582358300685883 -0.13584743440151215
0.13355876505374908 -0.01656920090317726 -0.13542263209819794
0.12967364490032196 -0.023393407464027405 -0.13258178532123566
-0.05151943862438202 0.23092937469482422 -0.06378795206546783
0.2091507911682129 0.22869917750358582 -0.08391992747783661
-0.1847199648618698 -0.16510525345802307 -0.13388855755329132
-0.2567438781261444 -0.2863331437110901 -0.031565528362989426
-0.2711220383644104 -0.1933077722787857 0.04254356026649475
0.29804256558418274 0.06620921939611435 0.023065853863954544
0.19173164665699005 0.4944072961807251 0.06134951487183571
0.26707276701927185 0.4513566195964813 -0.07709116488695145
-0.3131105601787567 -0.3742617964744568 -0.03535982593894005
-0.13004015386104584 0.22859585285186768 0.1189294308423996
0.2999591827392578 0.3737875819206238 0.053704749792814255
-0.12114798277616501 -0.20752018690109253 -0.13963690400123596
-0.17557770013809204 -0.3873943090438843 0.04280143976211548
-0.2752072811126709 -0.0019311115611344576 0.12997309863567352
0.2976702153682709 -0.14371900260448456 -0.07135069370269775
0.22493389248847961 0.1361093819141388 -0.13219594955444336
-0.06853878498077393 0.014825795777142048 0.16817139089107513
-0.0826525166630745 0.13455908000469208 -0.13545911014080048
-0.15424630045890808 0.4326111376285553 0.03777986019849777
-0.12296072393655777 -0.01095675490796566 0.1694699078798294
0.2506195306777954 -0.44860395789146423 0.05577190965414047
0.13547463715076447 -0.40902021527290344 0.1312790811061859
0.18677739799022675 0.2293814867734909 -0.08355757594108582
0.1807023137807846 0.36991187930107117 -0.023193109780550003
0.0782642588019371 -0.022894099354743958 0.1695471853017807
0.2972008287906647 0.3408738076686859 0.026456546038389206
0.19990700483322144 -0.03842609375715256 0.16963019967079163
-0.1196279525756836 -0.07248947024345398 -0.13553793728351593
-0.26891303062438965 0.15032443404197693 0.07512877881526947
-0.17348097264766693 -0.365208238363266 0.04876070097088814
0.2980543076992035 0.04216450825333595 0.09415733814239502
0.1782369613647461 0.43394213914871216 -0.015763137489557266
0.2978757619857788 0.1755213588476181 0.11310303956270218
0.14869141578674316 -0.24864262342453003 -0.10592600703239441
-0.2687121629714966 -0.11331314593553543 0.0003650799044407904
0.15995146334171295 0.22908326983451843 -0.07830394804477692
-0.19589094817638397 -0.06936611235141754 -0.1363305002450943
-0.26688119769096375 -0.20591334998607635 0.025936486199498177
-0.26974278688430786 -0.03590909764170647 -0.10048826783895493
-0.12789176404476166 0.020062029361724854 -0.13383673131465912
-0.008529284968972206 -0.08905307203531265 0.17252260446548462
-0.1800464242696762 0.13941678404808044 0.16764959692955017
-0.22459320724010468 0.4183194041252136 0.09081095457077026
0.0042878370732069016 -0.25368377566337585 -0.06024982035160065
-0.15015454590320587 -0.2788669764995575 0.004770371131598949
-0.0784422755241394 -0.2512408196926117 0.0017729816026985645
-0.30791231989860535 -0.3722698986530304 0.1853766292333603
-0.28510379791259766 -0.32815542817115784 -0.026693575084209442
-0.03609227016568184 -0.09675586968660355 -0.13474449515342712
-0.07102160900831223 0.22860106825828552 0.07426613569259644
-0.14056675136089325 0.22861358523368835 -0.013743368908762932
0.014366497285664082 -0.11630099266767502 0.17077216506004333
0.011600925587117672 0.22858591377735138 -0.041140180081129074
0.29581204056739807 -0.2148294597864151 0.11049958318471909
-0.2711540460586548 -0.21304138004779816 0.05512882396578789
0.07864776998758316 -0.2510353922843933 0.13726478815078735
0.18071892857551575 -0.391387015581131 0.17726735770702362
0.2981169521808624 -0.12113720178604126 -0.11549858748912811
0.09887541085481644 -0.08171064406633377 -0.13362479209899902
0.12830866873264313 -0.047865528613328934 0.16913700103759766
0.2550247013568878 0.16788029670715332 -0.13574089109897614
0.25993314385414124 0.004701652564108372 -0.13370414078235626
-0.27095529437065125 -0.04364967718720436 0.10720877349376678
-0.004099630750715733 -0.25080248713493347 -0.05520404502749443
-0.22840113937854767 0.22877907752990723 -0.11662640422582626
-0.26802411675453186 0.20056825876235962 0.11459024995565414
0.2962872087955475 0.09604384750127792 0.07345596700906754
0.09621050208806992 -0.25093454122543335 -0.03931199386715889
-0.18314039707183838 0.20214341580867767 -0.13454613089561462
0.16894395649433136 -0.4057174026966095 -0.05490105599164963
0.13164320588111877 0.23171600699424744 -0.05559299886226654
0.2978162467479706 0.21121083199977875 0.10999008268117905
-0.2684367299079895 -0.026810748502612114 -0.1053958386182785
0.10897386074066162 0.03263034299015999 -0.1372527778148651
0.1754525601863861 -0.3300987184047699 -0.04885569214820862
-0.12591685354709625 -0.2520061731338501 0.052342142909765244
-0.27080613374710083 -0.009194189682602882 -0.04180118441581726
0.18230892717838287 0.029527142643928528 0.17120328545570374
0.022276926785707474 0.22997546195983887 -0.03489908576011658
0.27928346395492554 -0.0701720118522644 0.15263360738754272
0.2988198697566986 -0.1948712319135666 -0.051556818187236786
-0.05948447436094284 -0.25023865699768066 0.025942405685782433
0.29808297753334045 -0.02704683504998684 0.022342059761285782
-0.2713504433631897 0.022572994232177734 0.0021634527947753668
0.28298091888427734 0.4943358302116394 0.023085102438926697
-0.08762902766466141 0.23287101089954376 0.04329657554626465
0.2873213589191437 -0.3682039976119995 0.07521668821573257
-0.2676735818386078 0.07914254069328308 -0.032838791608810425
-0.2333914339542389 0.49396175146102905 0.08155474811792374
0.0626286119222641 -0.14085359871387482 -0.13542766869068146
-0.0061716800555586815 0.1080593466758728 0.17380400002002716
-0.25353682041168213 0.3722567558288574 -0.048845261335372925
0.30276545882225037 0.10595177114009857 0.14066560566425323
-0.05945863574743271 -0.250935822725296 -0.033630695194005966
0.17960011959075928 -0.31435102224349976 -0.050675924867391586
0.29780834913253784 0.0427408367395401 0.04308788478374481
0.0013556659687310457 0.22762882709503174 -0.013955853879451752
-0.23848457634449005 0.22926056385040283 0.07449140399694443
-0.2711547613143921 -0.21862390637397766 0.11235866695642471
-0.2427603006362915 -0.03519353270530701 -0.2635752856731415
-0.1990833580493927 -0.3064524829387665 0.08176257461309433
0.15269425511360168 -0.21867437660694122 -0.13557615876197815
0.30072954297065735 0.06709171831607819 -0.08220577985048294
0.13723880052566528 0.1874489188194275 -0.1367032825946808
0.034026823937892914 0.00674687372520566 -0.13629010319709778
0.2408733367919922 0.2263873815536499 0.1273583173751831
-0.26607710123062134 0.36165347695350647 0.004611235111951828
0.012018386274576187 0.2094549685716629 -0.23866569995880127
0.1721719205379486 -0.4476757347583771 0.0238583255559206
0.2592557966709137 -0.4475727379322052 0.11380618065595627
-0.028315691277384758 0.01859334483742714 -0.13539473712444305
0.29683026671409607 0.16055597364902496 0.06091012805700302
-0.12302859872579575 -0.25112709403038025 -0.09377311170101166
-0.27526700496673584 -0.3051542043685913 0.06971392780542374
-0.27100080251693726 -0.04384521022439003 0.11605837941169739
-0.18960310518741608 -0.4282830059528351 0.02956918254494667
-0.1194886863231659 -0.04091864824295044 0.16944022476673126
-0.2715427577495575 0.12369457632303238 -0.005335554946213961
-0.2706686556339264 0.08293476700782776 -0.039687491953372955
0.2956896722316742 0.15947289764881134 0.06396427750587463
0.009876299649477005 0.0630565658211708 -0.13894060254096985
0.19678322970867157 -0.30807241797447205 -0.06361522525548935
0.23530341684818268 0.22882993519306183 0.09267531335353851
0.2079397290945053 0.012251177802681923 -0.1370207816362381
0.29928430914878845 -0.07944720983505249 0.06223916634917259
-0.24096043407917023 0.06158950924873352 -0.13547374308109283
0.29615235328674316 -0.16673646867275238 0.09379158914089203
-0.2734598219394684 -0.22599852085113525 0.017330246046185493
-0.2710281312465668 -0.08456385135650635 0.13862447440624237
0.2669859826564789 -0.25016695261001587 -0.06393878161907196
-0.11227218806743622 -0.2530575096607208 0.12545675039291382
0.22480857372283936 -0.08989939838647842 0.16781418025493622
-0.054615385830402374 0.2273159772157669 0.06062332168221474
-0.15763376653194427 -0.32738354802131653 0.011104646138846874
0.2980779707431793 -0.07702919095754623 -0.07905849814414978
0.14093688130378723 -0.25036630034446716 0.026489537209272385
-0.08396308124065399 0.22815117239952087 -0.04931829497218132
0.006755954585969448 -0.12828615307807922 -0.13634800910949707
0.17813508212566376 0.0628855898976326 0.16970199346542358
-0.19265209138393402 -0.2867850661277771 0.07535313069820404
0.2423064410686493 0.22852060198783875 -0.1057843416929245
0.12374204397201538 -0.1456853747367859 0.1695007085800171
-0.18046948313713074 0.016557758674025536 -0.13635952770709991
0.2999250292778015 0.18280188739299774 -0.01672324538230896
-0.26910755038261414 -0.14626571536064148 -0.025961248204112053
-0.2482028752565384 -0.06488458067178726 -0.13552361726760864
0.287908673286438 0.3332648277282715 0.006302298046648502
0.07865921407938004 -0.2509269118309021 -0.07282260060310364
-0.27305901050567627 -0.09507071226835251 -0.019624808803200722
0.021751364693045616 0.2097139209508896 -0.1612745076417923
-0.2705835700035095 0.13731546700000763 -0.03341670706868172
0.1096285730600357 -0.25139281153678894 -0.06025562062859535
-0.17051759362220764 -0.2853744924068451 -0.04524991288781166
0.17557471990585327 -0.33284780383110046 0.09305752068758011
0.1731809824705124 0.4197097718715668 0.022511420771479607
0.0486874058842659 -0.2208053320646286 0.15724769234657288
-0.32705000042915344 -0.3946937620639801 -0.04867728054523468
0.112472765147686 0.2269136905670166 -0.06120957061648369
0.18854279816150665 -0.30347639322280884 0.08167923241853714
0.14874619245529175 -0.2510468661785126 -0.09114696085453033
0.2727715075016022 -0.31717899441719055 0.0682298094034195
0.2945800721645355 0.19520145654678345 0.12107884883880615
-0.20213209092617035 -0.4245855510234833 -0.036557771265506744
0.04549919813871384 -0.2508312463760376 0.09673245996236801
0.1876612901687622 0.057373154908418655 -0.133131742477417
-0.21235685050487518 0.22977079451084137 -0.07498829811811447
-0.04776760935783386 0.0636121854186058 0.16956473886966705
0.08199203759431839 -0.14531584084033966 0.17139948904514313
0.21631455421447754 0.511106014251709 0.06100190430879593
0.17768169939517975 0.4407963752746582 -0.009029168635606766
0.2067115157842636 0.2279793918132782 0.09581981599330902
-0.2695670425891876 -0.05653746426105499 -0.07641284167766571
0.20069973170757294 -0.11955948919057846 -0.1321578323841095
0.04955974966287613 -0.08688493072986603 0.16700991988182068
0.2977094054222107 0.01754993200302124 0.07507818937301636
-0.1880165934562683 -0.3031672239303589 -0.06245357543230057
-0.23934975266456604 0.17351552844047546 0.15669719874858856
0.200407013297081 0.3218255639076233 -0.013688433915376663
-0.17525169253349304 -0.2835516929626465 0.058132659643888474
0.1847633570432663 -0.11070378869771957 0.16959480941295624
0.20384353399276733 0.22870388627052307 0.09584474563598633
-0.22714373469352722 0.4965035915374756 -0.00832454301416874
0.30050888657569885 0.10095075517892838 0.05666063725948334
-0.09756383299827576 -0.23351477086544037 0.15556541085243225
0.1941654235124588 -0.2699345052242279 -0.043132323771715164
-0.3280996084213257 -0.3703266382217407 0.0045037465170025826
0.29806265234947205 -0.19756218791007996 -0.029958484694361687
-0.17339731752872467 0.3939450681209564 -0.05312740057706833
-0.24075879156589508 -0.356510728597641 0.16411851346492767
-0.2272575944662094 -0.42618611454963684 -0.06864692270755768
-0.2737150192260742 0.06477562338113785 0.09332238137722015
-0.08993154764175415 -0.07853823900222778 -0.13692353665828705
0.07869632542133331 -0.09761422872543335 -0.13831208646297455
-0.06557368487119675 -0.15796709060668945 -0.13558778166770935
0.15558384358882904 -0.35198450088500977 -0.028737230226397514
-0.0674886703491211 -0.2555159330368042 -0.08547821640968323
-0.19887195527553558 -0.4275784492492676 0.07541965693235397
-0.24526605010032654 0.3245485723018646 0.032240260392427444
0.2980886697769165 -0.1426243931055069 -0.053063247352838516
0.29791608452796936 -0.07262758910655975 0.04870772361755371
-0.2714672088623047 -0.304208368062973 0.005698665045201778
-0.2223406881093979 -0.051587123423814774 -0.1355622559785843
0.2979889512062073 0.08942317217588425 -0.05246283486485481
0.29792696237564087 0.1525365114212036 -0.015267954207956791
0.17509780824184418 -0.040487516671419144 0.17094506323337555
0.21165168285369873 -0.44597509503364563 0.08917222172021866
-0.28881335258483887 -0.01997763104736805 -0.2850915789604187
0.29809603095054626 -0.058553546667099 0.12110785394906998
0.14737072587013245 -0.3854369521141052 0.12625299394130707
-0.18075044453144073 0.12699951231479645 0.17036056518554688
-0.24008989334106445 0.17258314788341522 -0.13760961592197418
-0.1285160481929779 0.2301163375377655 0.10464207082986832
0.21009711921215057 -0.29413723945617676 -0.06845071166753769
-0.25444677472114563 0.2293054461479187 -0.05785125866532326
0.19595980644226074 -0.4466187357902527 0.16322267055511475
0.2957044541835785 0.19509415328502655 -0.03356122598052025
-0.2301981896162033 0.052901290357112885 -0.13550646603107452
0.2020784169435501 -0.3982836604118347 0.19451330602169037
0.18258091807365417 0.0629170835018158 -0.13623100519180298
0.021003155037760735 0.03454585745930672 0.16963443160057068
-0.2709163725376129 -0.11935795098543167 -0.096123605966568
-0.27038031816482544 0.07133360207080841 -0.11964578926563263
0.21156665682792664 -0.44618844985961914 0.08695478737354279
-0.3233233392238617 -0.3455201983451843 0.07085441052913666
-0.2902931571006775 -0.41195154190063477 0.1200157180428505
-0.07619748264551163 0.23052401840686798 -0.034342437982559204
-0.283336341381073 -0.4246242642402649 0.08063433319330215
-0.3119029998779297 -0.4413629472255707 -0.05338697507977486
-0.0669405609369278 -0.251112699508667 -0.01780712604522705
0.045479800552129745 -0.08532368391752243 -0.13293412327766418
-0.27284422516822815 0.10743428766727448 0.03582436218857765
0.29586082696914673 0.059265244752168655 0.05125686526298523
-0.04408315196633339 -0.24800166487693787 0.09338309615850449
-0.13065098226070404 0.23237939178943634 0.017220178619027138
-0.27495813369750977 -0.4039556682109833 0.17117300629615784
0.02392556704580784 -0.2520703077316284 0.02918940968811512
0.29809555411338806 -0.12159392982721329 -0.031021030619740486
-0.19833940267562866 -0.12335604429244995 -0.1346873939037323
0.11498658359050751 0.22801178693771362 -0.018629882484674454
0.1740771383047104 0.39849740266799927 0.06341642886400223
-0.2695322632789612 0.04018609970808029 0.02089872770011425
0.027640491724014282 -0.1041049063205719 0.16796369850635529
0.2558324337005615 -0.44586238265037537 0.04961395263671875
0.21303611993789673 0.1715957075357437 -0.13492216169834137
-0.16332077980041504 0.02636045403778553 -0.13246369361877441
0.12137497216463089 -0.24969956278800964 0.07932871580123901
0.1211644634604454 -0.06682895123958588 -0.13542670011520386
0.20214636623859406 0.4995523691177368 0.0016579474322497845
-0.06840994954109192 -0.25051072239875793 -0.06529790908098221
-0.056545596569776535 -0.2561294734477997 -0.054453589022159576
0.3001762926578522 -0.07252492755651474 0.0014576420653611422
0.2981029152870178 -0.09149329364299774 0.02415062114596367
0.2969350218772888 -0.11305840313434601 0.04807265102863312
-0.19283054769039154 -0.25050854682922363 0.12000291794538498
0.2813533842563629 0.47265276312828064 -0.039406668394804
0.20020441710948944 -0.4462706446647644 0.1859198659658432
-0.17193560302257538 0.3327145576477051 0.0065866620279848576
0.06906147301197052 0.12756597995758057 0.16975708305835724
0.16231022775173187 -0.4458533227443695 0.15398842096328735
-0.06932300329208374 0.040581122040748596 0.17262078821659088
0.07055860757827759 0.1462499499320984 0.17311754822731018
-0.011684424243867397 0.03549904748797417 -0.13450311124324799
0.22493621706962585 -0.30646824836730957 -0.07350602746009827
0.20859956741333008 -0.12122521549463272 0.17039573192596436
0.3006727397441864 0.09309195727109909 0.08300513029098511
0.1427045613527298 0.196630597114563 -0.13724654912948608
-0.09998424351215363 -0.13570784032344818 -0.13561582565307617
0.02266349270939827 0.10017325729131699 -0.1539541780948639
0.2977566123008728 0.09608181565999985 -0.05429694801568985
-0.29065197706222534 -0.4098333418369293 0.10564382374286652
0.14162452518939972 -0.40236639976501465 0.13897736370563507
-0.21007578074932098 -0.41154325008392334 -0.05845523998141289
0.17541800439357758 0.4000009596347809 0.0010462153004482388
0.05726635828614235 0.2033076137304306 -0.1325799822807312
0.27175644040107727 0.5053032636642456 0.04468969255685806
0.027799755334854126 0.16394048929214478 -0.13545458018779755
0.08554325252771378 -0.10584494471549988 0.1694755107164383
-0.270621120929718 0.1381392478942871 0.07858727127313614
0.273234099149704 -0.21870124340057373 0.15661536157131195
-0.17664457857608795 -0.35875222086906433 -0.03779899701476097
0.27360931038856506 -0.24725918471813202 -0.1081453263759613
0.10284243524074554 0.045988164842128754 -0.1343846470117569
0.03572014719247818 -0.2503657639026642 0.07739508152008057
-0.06699010729789734 -0.19923390448093414 -0.13672928512096405
0.08009390532970428 -0.2509278953075409 -0.06736915558576584
0.29808810353279114 -0.17905841767787933 0.01723705418407917
-0.27329298853874207 -0.20161473751068115 0.02636795863509178
0.04427456855773926 -0.04998772218823433 0.16949562728405
-0.2646741271018982 -0.29829856753349304 0.009961890056729317
-0.2708505690097809 -0.023443618789315224 0.0009531101677566767
-0.03086697682738304 0.2286231517791748 0.07297858595848083
0.25973567366600037 0.03899255022406578 -0.13558433949947357
-0.08544357866048813 -0.03724772483110428 0.16942144930362701
-0.2710338532924652 -0.15564604103565216 0.010106136091053486
0.21310658752918243 -0.4474417567253113 -0.006001551169902086
0.1992487758398056 -0.11175968497991562 -0.1355513036251068
0.3009602427482605 0.05160103365778923 0.11257651448249817
0.1810959279537201 0.3609406352043152 0.08344060927629471
0.1758972704410553 -0.4464057385921478 0.14148962497711182
-0.26955193281173706 0.1706056296825409 0.062032297253608704
0.2979936897754669 0.11190646141767502 0.08585214614868164
-0.026464227586984634 -0.25197577476501465 0.09899581223726273
-0.2982293963432312 -0.32092922925949097 0.06876543164253235
-0.24929335713386536 0.23028221726417542 -0.044654250144958496
0.12814907729625702 0.22982701659202576 -0.07831430435180664
-0.24292747676372528 -0.46358969807624817 0.06410079449415207
0.29990389943122864 0.36813846230506897 0.056168653070926666
-0.22376380860805511 0.4431716501712799 0.09127900004386902
0.2307332158088684 0.08121318370103836 -0.1376059204339981
-0.22098316252231598 -0.38136106729507446 -0.08189082145690918
0.023784242570400238 -0.16759462654590607 0.16939318180084229
-0.14346039295196533 0.12517501413822174 0.17188750207424164
-0.1733517348766327 0.23419292271137238 -0.06311137229204178
0.22043757140636444 0.3334949314594269 0.08708178997039795
0.10130162537097931 0.22706188261508942 0.09240837395191193
0.20430421829223633 -0.1571156084537506 -0.13502077758312225
0.27481380105018616 -0.44257235527038574 0.06618187576532364
0.03436095267534256 -0.07225610315799713 -0.1355385184288025
0.2805444598197937 0.47766539454460144 -0.039117492735385895
0.23247654736042023 0.0037809088826179504 -0.13438574969768524
-0.14726988971233368 -0.12220228463411331 -0.13210327923297882
-0.1326719969511032 -0.2549380362033844 0.016828838735818863
-0.012893972918391228 0.12778116762638092 -0.1354345828294754
0.024963969364762306 0.23064008355140686 -0.18233302235603333
-0.16798830032348633 -0.3688598573207855 -0.003830887610092759
-0.19026702642440796 -0.03485561162233353 0.17138773202896118
0.2978483736515045 0.20873118937015533 0.045614197850227356
0.1437872350215912 -0.13766010105609894 0.16951021552085876
-0.27063223719596863 0.08157167583703995 -0.1192789077758789
-0.15896853804588318 0.0994156002998352 0.16979971528053284
0.015086721628904343 -0.08057840913534164 -0.13550010323524475
0.22969935834407806 -0.06090139225125313 -0.13556724786758423
0.1765611171722412 0.4143527150154114 -0.02314118668437004
0.2958044111728668 0.411461740732193 -0.03863239288330078
-0.20400631427764893 -0.4373081624507904 0.09760583192110062
0.27239346504211426 -0.03798382729291916 0.1564970463514328
-0.2632305920124054 0.379964679479599 0.0607072189450264
0.2980589270591736 -0.008217974565923214 -0.0861126258969307
-0.09192053228616714 0.22951216995716095 0.03730136901140213
-0.006521895527839661 0.0338919572532177 -0.13538986444473267
0.21081307530403137 0.22556371986865997 -0.08411816507577896
-0.06276606768369675 -0.07057932764291763 0.16990651190280914
0.19593992829322815 -0.05527307838201523 -0.13549788296222687
-0.16346749663352966 0.4604969620704651 -0.021909991279244423
-0.17780844867229462 0.22756722569465637 0.08270788192749023
0.2994820177555084 -0.12351445108652115 -0.03498639538884163
-0.270845890045166 -0.023027785122394562 0.035957518965005875
0.04303989186882973 -0.16359156370162964 -0.13433140516281128
-0.271028071641922 0.13869968056678772 0.10572566092014313
-0.14060147106647491 -0.07991202920675278 -0.13528674840927124
0.16915585100650787 -0.44457802176475525 0.13912096619606018
