-0.2745111882686615 0.11105766892433167 -0.12570364773273468
0.194463849067688 -0.395001083612442 0.18689391016960144
-0.3251470923423767 -0.3539430797100067 0.18733324110507965
-0.27158159017562866 -0.04223806783556938 0.1445384919643402
-0.26885610818862915 -0.2318699061870575 -0.13249167799949646
0.21519741415977478 0.4871681332588196 -0.04982190206646919
0.22359313070774078 0.4999485909938812 0.11424762010574341
0.2959107756614685 -0.11598552018404007 -0.1328592598438263
0.2593708336353302 -0.2911449372768402 -0.037034060806035995
0.009743220172822475 0.09533269703388214 -0.13692566752433777
0.21425825357437134 0.22863805294036865 -0.024323290213942528
0.28225430846214294 0.4355798065662384 0.12379102408885956
-0.014646508730947971 0.28697988390922546 -0.23735305666923523
-0.30723297595977783 -0.3294362425804138 0.18348917365074158
-0.2656058073043823 -0.0797717422246933 -0.13398975133895874
-0.23427794873714447 0.22585245966911316 -0.135145366191864
0.2939620912075043 -0.2509230971336365 0.08085987716913223
0.273281991481781 -0.3475559651851654 0.11978710442781448
0.2840011417865753 -0.44253256916999817 0.1243080124258995
-0.26411858201026917 0.06881155073642731 -0.13583526015281677
0.23978418111801147 0.4951675832271576 0.11960913240909576
0.23862236738204956 -0.07085460424423218 0.1671503633260727
-0.21471397578716278 0.2319706678390503 0.06013059616088867
0.25101953744888306 0.36772608757019043 -0.08806189149618149
0.2579023838043213 0.11537903547286987 0.15067434310913086
0.196028932929039 0.4683810770511627 0.10843341052532196
0.02458023838698864 0.07409705966711044 -0.13704709708690643
-0.3304891288280487 -0.40416398644447327 -0.04779662936925888
0.1347990483045578 -0.25351253151893616 0.14185497164726257
-0.18487635254859924 -0.24859309196472168 -0.12647728621959686
0.29747799038887024 0.10939790308475494 0.143367737531662
0.28785407543182373 0.2214127480983734 -0.13536791503429413
0.26246294379234314 0.312703937292099 -0.025260478258132935
0.2443927675485611 0.31444814801216125 0.05269505828619003
0.2979191839694977 0.1622682809829712 0.10600022971630096
0.25725507736206055 -0.008255096152424812 0.15434572100639343
-0.3356848359107971 -0.38666442036628723 -0.005647591315209866
-0.33295392990112305 -0.4074751138687134 -0.0445554181933403
0.23599061369895935 -0.04835822805762291 0.16900300979614258
-0.21941721439361572 0.01960260421037674 0.16708552837371826
0.18929240107536316 -0.25857165455818176 0.05523320287466049
-0.24488288164138794 -0.44332873821258545 0.10305318981409073
-0.2714383900165558 -0.11677175760269165 -0.12434716522693634
0.248612180352211 0.2300930768251419 0.06549212336540222
-0.08062180131673813 0.21809831261634827 0.15402449667453766
0.2901226878166199 0.22279831767082214 -0.13544365763664246
0.29712414741516113 0.21796444058418274 0.08902375400066376
0.2414117455482483 -0.24334371089935303 -0.13498316705226898
-0.27209824323654175 -0.08955549448728561 -0.12568390369415283
-0.335471510887146 -0.36042332649230957 0.14301063120365143
-0.1518659144639969 -0.2564939558506012 0.04561937600374222
-0.2727275788784027 -0.012552013620734215 -0.13039663434028625
0.14362892508506775 -0.23432381451129913 -0.13456079363822937
-0.19629260897636414 0.17427587509155273 0.1512344926595688
-0.28972986340522766 0.06515440344810486 -0.3073408603668213
-0.2126660794019699 0.2274853140115738 -0.1270865797996521
-0.12124837934970856 -0.24836528301239014 0.15107470750808716
0.29433953762054443 -0.24759182333946228 0.10757910460233688
0.29644879698753357 -0.21253149211406708 0.145990788936615
-0.17218132317066193 0.23554785549640656 -0.003489408642053604
-0.2725662291049957 -0.07386068254709244 -0.12527525424957275
-0.10015860199928284 -0.2497427761554718 -0.04308031499385834
-0.21760475635528564 -0.3916510045528412 0.16721506416797638
0.10413825511932373 0.22569069266319275 0.11344297230243683
-0.1121697649359703 -0.25035572052001953 0.15262746810913086
-0.27148884534835815 -0.1476409137248993 0.14333811402320862
0.17530548572540283 0.034289535135030746 -0.13638466596603394
0.19573578238487244 0.38311052322387695 0.11269133538007736
-0.12109847366809845 0.22755393385887146 -0.01862032152712345
0.2942303717136383 0.2122463434934616 0.15358120203018188
-0.14512795209884644 -0.24620769917964935 -0.12839095294475555
0.28596365451812744 -0.1494574099779129 -0.13605235517024994
-0.21839135885238647 0.1127062663435936 0.16481605172157288
-0.16638009250164032 0.40201082825660706 0.10014599561691284
0.27259111404418945 -0.4508311152458191 0.17976248264312744
-0.21128983795642853 0.5064695477485657 0.047405872493982315
-0.2660437822341919 -0.13999001681804657 -0.13420701026916504
-0.22250832617282867 0.07361757755279541 0.16628111898899078
-0.004210218787193298 0.22598391771316528 -0.13528475165367126
0.13745027780532837 -0.43579962849617004 0.07236634939908981
-0.07509519904851913 -0.24591998755931854 -0.13402321934700012
0.19349797070026398 -0.2513130009174347 -0.04106667637825012
0.0014289580285549164 0.23175965249538422 -0.07493514567613602
0.2882310748100281 0.0862705260515213 -0.1353210210800171
0.2966860234737396 0.01749897003173828 0.05143558233976364
-0.22247101366519928 -0.03582824766635895 0.1621030867099762
0.2687572240829468 0.3000742197036743 0.021522749215364456
0.23168152570724487 0.18289990723133087 0.15337537229061127
-0.2653282582759857 -0.08775024116039276 -0.13522791862487793
-0.19518065452575684 0.08074118196964264 -0.13531696796417236
0.1578851044178009 0.032225027680397034 -0.1380023956298828
-0.03755626082420349 0.14300832152366638 -0.17491638660430908
0.29497843980789185 -0.17565074563026428 -0.1324041187763214
-0.1370508372783661 -0.20195280015468597 -0.14051328599452972
0.001039209309965372 0.21658235788345337 0.1538892239332199
-0.18677249550819397 -0.40598151087760925 0.07254043221473694
-0.23627634346485138 0.43415769934654236 -0.07498325407505035
0.19225594401359558 -0.283271849155426 0.07046274840831757
-0.23634251952171326 0.4577450156211853 -0.06333187222480774
-0.2741888463497162 -0.060058705508708954 -0.027248037979006767
-0.33125829696655273 -0.3765372037887573 0.10779251158237457
0.25394144654273987 -0.256131112575531 0.029757006093859673
0.10055835545063019 -0.24894395470619202 -0.08981598913669586
-0.030101196840405464 -0.24325954914093018 -0.12458595633506775
-0.16965354979038239 -0.3509169816970825 -0.032664693892002106
-0.23571941256523132 0.031653352081775665 0.15427972376346588
0.1790071427822113 0.43750613927841187 -0.020215556025505066
-0.273698627948761 0.20168393850326538 -0.13536126911640167
0.2936822175979614 0.2191619873046875 0.15097659826278687
0.2755559980869293 -0.24062354862689972 -0.1359599232673645
-0.1982426643371582 -0.17720554769039154 0.16884471476078033
-0.23792310059070587 -0.23764783143997192 0.155411958694458
0.18136991560459137 0.15842218697071075 0.16830746829509735
0.2709237337112427 -0.24428921937942505 -0.13403135538101196
0.009619493037462234 0.2620740830898285 -0.2676452100276947
0.28505179286003113 -0.2515503168106079 -0.04055566340684891
0.20299403369426727 -0.2641248106956482 0.06734801083803177
-0.2664896547794342 0.0212596133351326 -0.13535228371620178
-0.04700544476509094 0.13880541920661926 0.16742311418056488
-0.17420431971549988 0.17351636290550232 0.1520645171403885
-0.2223382443189621 -0.4720272421836853 0.032234977930784225
0.25731056928634644 0.11338318884372711 0.1504705846309662
0.003558441996574402 0.08590435981750488 -0.13701258599758148
0.008836692199110985 -0.24601036310195923 -0.13325831294059753
0.287546306848526 -0.42847466468811035 0.020451921969652176
-0.16918979585170746 0.4793020188808441 0.07295450568199158
0.2948344349861145 0.09792497754096985 0.1441442221403122
-0.02751396968960762 -0.1834191381931305 0.1666499823331833
0.2478693723678589 0.16035272181034088 0.15988250076770782
0.2519718408584595 0.02550862729549408 0.151791512966156
0.14913596212863922 0.23039063811302185 -0.12752142548561096
0.18131104111671448 -0.2469082921743393 -0.1329587697982788
-0.26402005553245544 -0.12433630228042603 -0.13437916338443756
0.29785147309303284 0.14982886612415314 0.07932306826114655
0.23128017783164978 -0.24697130918502808 -0.13285957276821136
0.23671382665634155 0.4045427441596985 -0.09197407960891724
0.29022589325904846 -0.247412770986557 -0.11550997942686081
0.12030379474163055 -0.18833696842193604 0.1610184907913208
-0.3386669158935547 -0.3601020872592926 0.10882379859685898
-0.274611234664917 -0.1730191856622696 -0.1207548975944519
-0.13880786299705505 -0.2518022060394287 0.02241099625825882
0.29489657282829285 -0.22662222385406494 0.15372389554977417
-0.2889362871646881 0.06957494467496872 -0.3051641583442688
0.28254473209381104 -0.44305419921875 0.11833726614713669
-0.2000621259212494 -0.2455490529537201 0.1552480012178421
0.27110469341278076 -0.15130852162837982 -0.13541334867477417
0.06509166955947876 0.21062873303890228 -0.13667885959148407
-0.0033661052584648132 0.15841710567474365 0.1673802137374878
-0.27084439992904663 0.17333075404167175 -0.1274561882019043
0.1360074281692505 -0.4378126859664917 0.03927461802959442
0.2952116131782532 -0.0301678404211998 -0.13382086157798767
0.014830052852630615 0.1882985234260559 -0.13756802678108215
0.2928589880466461 0.20074813067913055 0.15539894998073578
-0.26705747842788696 0.15476472675800323 -0.13405652344226837
0.03268936648964882 -0.2498157024383545 0.0570368729531765
0.009519346058368683 0.26327279210090637 -0.26684144139289856
-0.26720330119132996 -0.11563567817211151 -0.1330087035894394
-0.09358696639537811 -0.1901913583278656 0.16395936906337738
-0.2148638218641281 0.05889107286930084 0.16755646467208862
-0.1828308403491974 0.25101256370544434 -0.0026375483721494675
0.22386860847473145 -0.21319854259490967 -0.13497060537338257
-0.1280210316181183 -0.18348905444145203 -0.13551154732704163
-0.18534889817237854 -0.35757043957710266 -0.05167496204376221
0.2523791491985321 -0.35422226786613464 0.1462126076221466
0.15374869108200073 -0.2504984140396118 0.14145126938819885
0.2951614558696747 -0.2403760552406311 -0.08990395814180374
0.3019401431083679 0.3644064962863922 0.003915115725249052
0.2968257665634155 -0.24689804017543793 -0.049726493656635284
0.29583990573883057 0.1907159388065338 0.15521040558815002
0.293473482131958 0.06903047859668732 -0.1365075558423996
-0.2705821990966797 -0.24037791788578033 0.04124264046549797
-0.25506657361984253 -0.24575640261173248 -0.12193595618009567
-0.2602340877056122 0.039114050567150116 -0.13502763211727142
0.29745084047317505 0.07660258561372757 0.010092470794916153
0.06690064817667007 0.18237408995628357 -0.13976222276687622
0.15458853542804718 -0.340454638004303 0.08493205904960632
-0.2873999774456024 0.037522029131650925 -0.25352418422698975
-0.2741747796535492 -0.06429146230220795 0.14492878317832947
-0.11180739104747772 0.1798231303691864 0.1531769037246704
0.2966350018978119 -0.2439655214548111 0.10418407618999481
0.2858826220035553 -0.37934044003486633 0.050608210265636444
0.20589140057563782 0.2277926206588745 -0.018252843990921974
0.2311384379863739 -0.27236273884773254 -0.06135778874158859
-0.24666163325309753 -0.25284865498542786 -0.02067752555012703
0.07578978687524796 -0.19878272712230682 0.15230971574783325
-0.22321423888206482 -0.11446850746870041 0.16330131888389587
0.12448065727949142 0.22388088703155518 0.1507411003112793
0.28978145122528076 0.007969029247760773 -0.1347108632326126
0.29789605736732483 0.22132465243339539 -0.10341212153434753
0.13620391488075256 -0.43243783712387085 0.043340928852558136
-0.21048112213611603 -0.4132579565048218 0.1677415668964386
0.23050527274608612 -0.26669302582740784 -0.05909506231546402
-0.23822343349456787 0.2307460457086563 -0.026895195245742798
0.2587943375110626 0.5083631277084351 -0.011414255015552044
-0.31761735677719116 -0.4093901515007019 -0.070368692278862
-0.2434193640947342 0.22642090916633606 -0.1351931393146515
-0.22406265139579773 -0.4441927373409271 0.16010649502277374
-0.2702566087245941 -0.2400108426809311 -0.12116722762584686
0.16147173941135406 -0.42763444781303406 0.18533387780189514
0.2499741017818451 -0.15393543243408203 0.16353851556777954
-0.09274417161941528 0.22829179465770721 -0.13133765757083893
0.2972591519355774 -0.042977239936590195 -0.12407465279102325
0.19296838343143463 0.48926475644111633 0.0894216001033783
0.2616803050041199 0.13477376103401184 0.15363667905330658
-0.21824441850185394 -0.4515802264213562 0.12444087117910385
-0.3369836211204529 -0.37783440947532654 0.034310851246118546
-0.1322232335805893 -0.11451032757759094 0.16854414343833923
0.04183585196733475 0.11443518847227097 -0.13527832925319672
-0.20667481422424316 -0.24892090260982513 -0.12705542147159576
-0.2705536484718323 -0.22974620759487152 -0.1311168223619461
0.2944793701171875 -0.06117120385169983 0.15546941757202148
-0.335662305355072 -0.3975440263748169 -0.02890097163617611
0.29697099328041077 0.07471630722284317 0.04936947673559189
0.29572343826293945 0.0779445469379425 0.14312660694122314
0.28658658266067505 0.22939585149288177 -0.08105071634054184
-0.252002477645874 0.3384396731853485 0.0412423349916935
-0.05287178233265877 -0.2488686591386795 0.15106365084648132
0.29615524411201477 -0.24729523062705994 0.009188368916511536
-0.2647746801376343 -0.21178707480430603 -0.13319222629070282
-0.24692308902740479 0.22715675830841064 -0.13188424706459045
-0.27119165658950806 -0.1519879400730133 -0.03846099227666855
0.29841384291648865 0.04662616550922394 0.14670541882514954
0.28882330656051636 0.2165299355983734 -0.13633863627910614
0.2974749803543091 0.046087056398391724 0.14290346205234528
0.0722651481628418 0.17178362607955933 0.152178093791008
0.28737780451774597 -0.062066636979579926 -0.13724352419376373
0.24308207631111145 -0.4069620668888092 -0.09397435188293457
-0.14680029451847076 -0.17827296257019043 0.16886742413043976
0.1849934458732605 0.2129211276769638 -0.13627126812934875
-0.3213912844657898 -0.37681111693382263 -0.032028451561927795
-0.272390216588974 -0.01894889771938324 -0.12351654469966888
-0.2161940634250641 0.1423352062702179 0.16570574045181274
0.19443026185035706 0.35149845480918884 0.09373946487903595
0.24721693992614746 0.10213849693536758 0.1582435667514801
0.2931186556816101 0.41951608657836914 0.1222085952758789
-0.27353614568710327 0.13239413499832153 -0.12676970660686493
0.00808936171233654 0.22715017199516296 0.14804570376873016
0.05907687544822693 0.12956617772579193 -0.13640569150447845
-0.0384969562292099 0.2200476974248886 -0.13502554595470428
0.29794636368751526 0.13729028403759003 0.15177881717681885
-0.2671445310115814 0.2265646755695343 0.016405655071139336
0.29238659143447876 0.37873855233192444 0.11420576274394989
0.22974039614200592 -0.33221861720085144 -0.08591996878385544
-0.035687919706106186 0.23196636140346527 0.02329055592417717
0.24895928800106049 -0.23572590947151184 -0.13400283455848694
0.04779553785920143 0.21727126836776733 0.15452298521995544
0.23857662081718445 -0.24412521719932556 -0.13493612408638
-0.2622275650501251 0.15900163352489471 -0.1345464289188385
0.2417239248752594 0.095893494784832 0.16537189483642578
0.04632798209786415 0.10296783596277237 -0.1385841965675354
-0.26792845129966736 0.18175533413887024 0.15456339716911316
-0.20384517312049866 -0.24776539206504822 -0.13240066170692444
0.23348459601402283 0.01857599802315235 0.169260174036026
-0.05108986049890518 0.22615139186382294 0.0886906310915947
-0.29114046692848206 -0.42535600066185 -0.09041751176118851
-0.269199013710022 0.14724615216255188 -0.1369549185037613
0.2574346959590912 0.1004016250371933 0.15347276628017426
-0.2619769275188446 -0.007896320894360542 0.1570749431848526
-0.2587125301361084 -0.24801380932331085 0.11080793291330338
0.18370209634304047 -0.44922539591789246 0.0057039931416511536
-0.16409948468208313 0.34674373269081116 0.04734567180275917
-0.005887949839234352 -0.23398050665855408 -0.13426637649536133
0.1416306495666504 -0.24819903075695038 -0.12213219702243805
0.24473589658737183 -0.417198121547699 -0.09192204475402832
0.04060635715723038 0.09470878541469574 -0.13718177378177643
-0.3344801664352417 -0.3591790497303009 0.14474372565746307
0.08411264419555664 -0.1808321177959442 0.16883382201194763
0.25963321328163147 -0.37173178791999817 -0.07552151381969452
0.15305334329605103 0.15315410494804382 0.16831032931804657
-0.0812365710735321 -0.24644742906093597 -0.1330358386039734
-0.27227145433425903 0.15506486594676971 0.14295367896556854
0.29101184010505676 0.22168633341789246 -0.13269399106502533
0.11060069501399994 -0.17923292517662048 0.16930535435676575
-0.22030070424079895 0.13382872939109802 0.16754823923110962
0.24344661831855774 0.2271283119916916 -0.12578478455543518
-0.2835550010204315 -0.35815003514289856 0.2023579478263855
0.17693974077701569 -0.2502623200416565 -0.03247067332267761
0.29792991280555725 0.0946042612195015 -0.10135314613580704
0.23269328474998474 -0.24389782547950745 0.15338927507400513
0.24619698524475098 -0.26595833897590637 0.06072232127189636
-0.0537058562040329 0.17185409367084503 0.15213662385940552
0.28849947452545166 -0.40599188208580017 0.13554279506206512
0.24161115288734436 -0.4092278480529785 -0.09291370958089828
0.2943789064884186 0.2244100421667099 -0.12864112854003906
0.07381922751665115 0.16748175024986267 -0.13909614086151123
0.24295282363891602 0.23501552641391754 0.05645415186882019
-0.009642258286476135 -0.24525845050811768 -0.1349312663078308
-0.2731911540031433 0.18591272830963135 -0.13546766340732574
0.2522602379322052 -0.25856122374534607 -0.015226957388222218
-0.020993970334529877 0.23056507110595703 -0.11117573082447052
0.13967116177082062 0.15944194793701172 0.16501690447330475
-0.004913516342639923 0.17393487691879272 0.15135346353054047
-0.20155122876167297 -0.18209874629974365 0.16557465493679047
0.29670393466949463 -0.023208729922771454 -0.12639811635017395
-0.17338454723358154 -0.2352295219898224 -0.13459953665733337
-0.10301156342029572 0.2312822788953781 -0.12493850290775299
-0.25897905230522156 -0.2503023147583008 -0.05815073847770691
0.29709601402282715 0.17412066459655762 -0.11269119381904602
-0.27071520686149597 0.10461249947547913 0.10412482172250748
-0.25173598527908325 0.2255750596523285 -0.1315387785434723
0.29646432399749756 0.11152852326631546 -0.1298501342535019
0.28858116269111633 0.22812624275684357 0.10554276406764984
0.2962293326854706 0.02878149226307869 -0.1263820230960846
-0.270351767539978 -0.110019750893116 -0.123555488884449
-0.20509162545204163 0.17163030803203583 0.15020693838596344
-0.07265414297580719 0.17218270897865295 0.15118440985679626
-0.25015974044799805 0.35058286786079407 0.09093242138624191
-0.07201924920082092 0.2091146856546402 0.1549849808216095
0.27138230204582214 0.21686951816082 -0.13595795631408691
0.28642842173576355 -0.42773231863975525 0.10870818048715591
-0.21796558797359467 0.39744943380355835 -0.08354601263999939
-0.16214783489704132 -0.3365618884563446 -0.008996568620204926
0.09400345385074615 -0.07850168645381927 0.16902564465999603
-0.3383021354675293 -0.39414408802986145 -0.0055619822815060616
-0.27152225375175476 0.08732935041189194 0.15524165332317352
0.28338417410850525 0.2189614176750183 -0.13479183614253998
0.273660808801651 0.22637265920639038 -0.12908394634723663
-0.2478693127632141 -0.24274992942810059 -0.13528308272361755
0.137655109167099 -0.4373280107975006 0.08810850977897644
-0.0037331008352339268 0.16108709573745728 -0.21662771701812744
0.20146575570106506 0.46457040309906006 0.10812437534332275
0.06284511089324951 0.15247352421283722 0.16688503324985504
-0.2550569176673889 -0.33099016547203064 -0.08017940074205399
0.2963280975818634 0.18440265953540802 -0.13074854016304016
-0.1856180876493454 0.2607620656490326 0.0014001009985804558
0.18314267694950104 0.33596888184547424 7.330626249313354e-05
0.288840651512146 -0.16560600697994232 0.15651077032089233
-0.23932579159736633 0.3255114257335663 0.041854377835989
-0.2319830358028412 0.49976199865341187 0.07850596308708191
0.1939854472875595 0.336869478225708 0.06327863037586212
0.29251325130462646 -0.0652342140674591 0.15554697811603546
0.28798022866249084 -0.4321972727775574 0.034997131675481796
-0.26224571466445923 -0.37234917283058167 -0.09265805780887604
0.28582462668418884 0.22892339527606964 -0.06322985887527466
0.2969822883605957 0.018684789538383484 0.11005203425884247
-0.03832681104540825 0.2254277914762497 0.15044255554676056
-0.008894523605704308 0.09327378869056702 -0.135498508810997
-0.2713848352432251 -0.24190783500671387 -0.06308522075414658
-0.27174583077430725 0.03962156921625137 0.14872747659683228
-0.28792428970336914 -0.4227970242500305 -0.09216099977493286
-0.20483744144439697 -0.24582183361053467 -0.1333087980747223
-0.16400562226772308 0.3959581255912781 0.09808537364006042
-0.21367092430591583 -0.09838029742240906 0.16805912554264069
-0.2453484833240509 -0.2387130856513977 -0.13472233712673187
0.1854199320077896 0.43926119804382324 -0.03152132034301758
-0.2685818076133728 -0.15751513838768005 0.1522299200296402
0.06525088846683502 0.1865386664867401 -0.18185113370418549
0.23747962713241577 -0.4509805738925934 0.04045560210943222
-0.2718137800693512 0.18567658960819244 0.15253625810146332
0.00020793825387954712 0.28995585441589355 -0.24333518743515015
0.17102724313735962 0.22881409525871277 -0.03983110934495926
0.2472592443227768 0.2315283566713333 0.06195760518312454
-0.28425148129463196 -0.03205380588769913 -0.23344993591308594
0.2997603416442871 -0.08817901462316513 0.14528916776180267
0.23838625848293304 0.2387561798095703 -0.0279074739664793
0.2938532531261444 0.22696596384048462 -0.13173836469650269
-0.16025546193122864 -0.1774832308292389 0.16797024011611938
-0.335246741771698 -0.38273775577545166 0.0074411481618881226
0.25828486680984497 0.09615708887577057 0.15381503105163574
-0.25576525926589966 -0.12542298436164856 -0.13517709076404572
-0.22075292468070984 -0.07803797721862793 0.16615739464759827
-0.2528058588504791 0.48756206035614014 0.04691162332892418
-0.2704092860221863 0.21818438172340393 -0.03247859701514244
0.2787778377532959 0.23175835609436035 0.058768242597579956
0.2896258533000946 0.21554985642433167 -0.13636091351509094
0.25513654947280884 -0.061905138194561005 0.15372297167778015
0.2414596527814865 0.4548845589160919 -0.08502277731895447
-0.2744961082935333 0.17041364312171936 0.05896693840622902
0.2082744538784027 0.25051531195640564 -0.007632453925907612
-0.2672104835510254 0.22437945008277893 0.14744170010089874
-0.27180546522140503 0.008412742987275124 -0.12358225882053375
0.2859707474708557 -0.43047836422920227 -0.005279206205159426
0.06590075045824051 0.1322137713432312 -0.13750605285167694
-0.13870388269424438 -0.2518285810947418 0.010810216888785362
0.21582546830177307 0.506818413734436 -0.0058315955102443695
-0.2709827125072479 -0.20261257886886597 0.145738884806633
0.23224636912345886 -0.19560639560222626 0.15521733462810516
0.29663529992103577 -0.24289318919181824 0.12156882882118225
-0.262879341840744 0.05417415127158165 0.1561339795589447
0.2965235412120819 -0.016177445650100708 -0.1308237463235855
0.04010555520653725 0.23178225755691528 -0.18793714046478271
-0.22397223114967346 0.16321071982383728 0.16324815154075623
0.1997407078742981 -0.2477066069841385 0.15077219903469086
-0.2729896008968353 0.1492970585823059 0.1512654423713684
-0.21255657076835632 -0.4014371931552887 0.16461136937141418
-0.2681581676006317 -0.05841594561934471 0.15532533824443817
0.2973615229129791 -0.14394375681877136 0.1457442045211792
-0.25823974609375 -0.24608899652957916 0.13332238793373108
0.28133246302604675 0.22826914489269257 -0.015384487807750702
-0.2695960998535156 -0.041977088898420334 -0.1359710544347763
0.16133493185043335 -0.3872372806072235 0.15933988988399506
-0.23103243112564087 -0.05736721679568291 0.15391211211681366
0.28959929943084717 0.21605174243450165 -0.13483157753944397
-0.2723599374294281 -0.15617913007736206 -0.12242883443832397
-0.1502884328365326 -0.24992014467716217 -0.02394408918917179
0.28690558671951294 0.04916020482778549 0.15763871371746063
0.08093603700399399 -0.24308480322360992 0.15462301671504974
0.2882719039916992 -0.24825912714004517 -0.113334059715271
-0.21476231515407562 0.22258324921131134 -0.13491207361221313
0.27780959010124207 0.22800196707248688 -0.04422741010785103
0.2468734234571457 -0.24131086468696594 -0.133749321103096
-0.2288244217634201 -0.09889531880617142 0.15151183307170868
-0.2717294991016388 0.19136901199817657 -0.13135309517383575
0.21188466250896454 0.45629799365997314 -0.07250376045703888
0.2779596447944641 -0.44405683875083923 0.03251104801893234
0.2830731272697449 -0.20975078642368317 -0.1351809948682785
-0.26990437507629395 -0.3733558654785156 -0.09055579453706741
-0.20128467679023743 -0.2510931193828583 0.12443456053733826
0.2908572852611542 0.04322942718863487 -0.137096107006073
-0.13725052773952484 0.22426246106624603 0.15285734832286835
0.2647034823894501 -0.37207722663879395 0.16423045098781586
-0.2994391918182373 -0.4459059238433838 -0.06523619592189789
0.2845386564731598 -0.1815464049577713 0.1562434285879135
0.29688358306884766 0.016498662531375885 -0.027597660198807716
-0.21391017735004425 0.10571996867656708 0.16581933200359344
-0.30360716581344604 -0.3159511983394623 0.13944122195243835
-0.2700110375881195 0.03905695676803589 -0.13541260361671448
0.2597621977329254 0.482684463262558 -0.06265613436698914
-0.27089428901672363 -0.204798623919487 -0.12839050590991974
0.29150453209877014 -0.17554807662963867 0.15694259107112885
-0.21934774518013 -0.036988236010074615 0.16774336993694305
-0.2353835552930832 -0.3237023651599884 -0.0824476107954979
-0.10097669064998627 0.22778044641017914 -0.12775062024593353
-0.23284617066383362 0.22377869486808777 -0.13437442481517792
-0.04381665214896202 0.09732447564601898 0.16802407801151276
0.29759055376052856 -0.0911228209733963 -0.12315171957015991
-0.31715869903564453 -0.4138954281806946 -0.0011535435914993286
0.21449507772922516 -0.27163389325141907 -0.05813651904463768
0.14008232951164246 0.1665828824043274 0.15995119512081146
0.06884819269180298 0.21497739851474762 0.15425360202789307
0.2852206528186798 -0.25120100378990173 -0.07163786888122559
-0.21175725758075714 -0.19910679757595062 0.1533478945493698
0.2907900810241699 0.2151491343975067 -0.13578683137893677
-0.1650281846523285 0.35768234729766846 0.07743214815855026
-0.2884378433227539 -0.018721196800470352 -0.24106018245220184
-0.3221900165081024 -0.33072400093078613 0.1500847041606903
-0.116678886115551 0.22842416167259216 -0.1280032843351364
-0.23064565658569336 -0.2488659918308258 0.1404474973678589
-0.32048505544662476 -0.42253297567367554 -0.05871427804231644
0.29222220182418823 -0.10969682782888412 -0.13492852449417114
0.29710373282432556 0.1363949328660965 0.14912129938602448
0.07883904129266739 0.14650557935237885 -0.13809193670749664
0.21149325370788574 -0.43301406502723694 -0.08654914796352386
-0.1610754430294037 0.15839213132858276 0.16684621572494507
-0.30441752076148987 -0.4423843324184418 -0.07905103266239166
-0.1910777986049652 0.4217815697193146 0.08482811599969864
-0.021783288568258286 -0.1760295033454895 0.16768549382686615
0.2916637659072876 0.22755566239356995 -0.126947283744812
0.2973511219024658 -0.038683053106069565 0.04114370420575142
-0.219157874584198 -0.24919205904006958 0.13334402441978455
-0.09920023381710052 0.2295556366443634 0.03073105402290821
0.28035032749176025 0.34418192505836487 0.08619840443134308
-0.07738225162029266 -0.24180129170417786 -0.13694745302200317
0.2187703400850296 -0.24922844767570496 0.14650174975395203
-0.23310983180999756 -0.2596030533313751 0.05211591720581055
-0.335119366645813 -0.3828815817832947 -0.002041782718151808
-0.2399306446313858 0.22918684780597687 0.15085415542125702
0.07567023485898972 0.22837558388710022 0.1433401256799698
0.23446479439735413 -0.44478142261505127 0.1143355667591095
0.2854337692260742 0.4763966202735901 0.10191473364830017
0.08767876774072647 0.2249595671892166 -0.1341107338666916
-0.2912349998950958 0.059689465910196304 -0.30408975481987
-0.26941171288490295 -0.06032213568687439 -0.13578848540782928
0.29698553681373596 -0.19496428966522217 0.1451200544834137
0.27525192499160767 0.23550572991371155 0.018732067197561264
-0.2700059711933136 -0.24214130640029907 -0.07325050979852676
0.2909005880355835 -0.179110586643219 -0.13234345614910126
0.039689574390649796 0.24380971491336823 -0.2515777349472046
0.22113512456417084 -0.24648025631904602 -0.1255042850971222
0.1674787551164627 -0.1921641230583191 0.15670128166675568
0.24221473932266235 -0.19432860612869263 0.15786808729171753
-0.1903001368045807 0.22702640295028687 -0.12818540632724762
0.01748129352927208 0.19828400015830994 -0.1384766399860382
0.25236865878105164 -0.44545692205429077 0.14547263085842133
0.2878270149230957 -0.0787079930305481 -0.1345687210559845
0.2608567476272583 -0.4422931671142578 -0.06345857679843903
0.22549140453338623 -0.16984228789806366 0.167979896068573
0.07403439283370972 0.09009717404842377 -0.13676652312278748
-0.2706824541091919 0.2153051346540451 -0.02056538686156273
0.2613251507282257 -0.1421137899160385 0.15486334264278412
-0.2552686631679535 0.20157241821289062 -0.13643606007099152
0.207308828830719 0.4782619774341583 -0.05784258246421814
0.2321726530790329 -0.4428115785121918 -0.08200526237487793
0.2610408365726471 -0.44267749786376953 -0.052185192704200745
0.25734227895736694 -0.08698159456253052 0.1541214883327484
0.2846031188964844 -0.2494545876979828 -0.07482379674911499
0.29204729199409485 0.08633513748645782 -0.1354767084121704
-0.18682889640331268 0.49828383326530457 0.022665252909064293
-0.19475415349006653 0.1746237576007843 0.15003104507923126
0.16042299568653107 -0.3788326382637024 0.14015479385852814
-0.24551145732402802 -0.4708809554576874 -0.04335605353116989
0.252567321062088 -0.027743015438318253 0.1529189944267273
-0.27329331636428833 0.0028763553127646446 -0.005612064152956009
0.05350028723478317 -0.1748770922422409 0.16993509232997894
0.24080029129981995 -0.41449904441833496 -0.09386894851922989
0.2788158655166626 -0.416961669921875 -0.03631621226668358
0.02550339512526989 -0.2510901689529419 0.14667990803718567
-0.22459974884986877 -0.40208470821380615 0.18504378199577332
0.2581944763660431 0.5106677412986755 0.013748595491051674
-0.27200448513031006 0.1541619598865509 0.1442355364561081
0.2859320640563965 -0.43209609389305115 -0.00026455987244844437
-0.1387420892715454 0.23063984513282776 -0.10925790667533875
-0.21511586010456085 -0.24616391956806183 -0.12636874616146088
-0.17421451210975647 0.4859766960144043 0.036823730915784836
0.1001330018043518 -0.17671656608581543 0.16852958500385284
0.026666512712836266 -0.2455338090658188 -0.1312600076198578
0.09471360594034195 0.16945311427116394 0.15570251643657684
-0.012473641894757748 0.179131880402565 -0.14141064882278442
0.2268318384885788 -0.2710517346858978 -0.06067477911710739
0.25832176208496094 -0.14432820677757263 0.1545386165380478
-0.23885639011859894 -0.26332157850265503 0.013024753890931606
-0.28084254264831543 -0.387554407119751 0.20108160376548767
-0.338146835565567 -0.3942142128944397 -0.0030245790258049965
0.28778016567230225 0.2264658510684967 0.09472460299730301
0.2870572805404663 -0.21958032250404358 0.1569008231163025
-0.23126088082790375 -0.37861284613609314 -0.08922064304351807
0.2900138795375824 0.21868351101875305 -0.13560442626476288
0.2325718104839325 -0.20365768671035767 0.1540718823671341
0.2358110249042511 -0.11052771657705307 0.16799694299697876
-0.22611269354820251 -0.4758606255054474 0.01748209446668625
-0.25538796186447144 -0.15868772566318512 -0.13257858157157898
0.2901149094104767 -0.04129458963871002 0.15547946095466614
0.2948854863643646 0.055146872997283936 0.15104514360427856
-0.27254384756088257 0.12191662937402725 -0.13552726805210114
0.1805497705936432 0.4565429389476776 0.09941329807043076
-0.18830955028533936 -0.41532984375953674 0.07932229340076447
-0.21890096366405487 -0.2886162996292114 0.08179346472024918
0.24649548530578613 0.5162531137466431 0.0579092800617218
0.16484889388084412 -0.44840362668037415 0.13902825117111206
0.2485980987548828 0.1694738268852234 0.15075862407684326
0.13073992729187012 -0.24008798599243164 -0.13303521275520325
0.2874666154384613 -0.05850928649306297 -0.1342550814151764
-0.28960585594177246 -0.01147176418453455 -0.2472682148218155
0.19436372816562653 -0.2582302987575531 0.05840935558080673
0.2721053659915924 0.3064056634902954 0.02799423411488533
0.22518208622932434 -0.2971375584602356 0.09325376152992249
0.19007399678230286 -0.20117278397083282 0.15210659801959991
-0.12363702803850174 0.20164591073989868 -0.13463793694972992
-0.2218075394630432 -0.4625190496444702 0.09541993588209152
0.29837438464164734 -0.2437780648469925 -0.0899970531463623
-0.18325605988502502 0.23944352567195892 -0.0125113595277071
0.10020732879638672 -0.2174723595380783 -0.13361689448356628
-0.2566629946231842 -0.25166085362434387 -0.031272247433662415
-0.27045854926109314 -0.23589898645877838 0.14064225554466248
-0.17137189209461212 -0.25327134132385254 -0.047656357288360596
-0.18327395617961884 0.18070314824581146 0.1538831740617752
0.07328823953866959 0.15948233008384705 0.16664960980415344
0.23147575557231903 -0.30478635430336 -0.07707293331623077
0.28871288895606995 0.3484806716442108 0.07926293462514877
-0.23368819057941437 0.14170989394187927 0.1544426679611206
0.2769595980644226 0.4771888554096222 0.12415163218975067
0.16040034592151642 -0.35946595668792725 -0.05046222358942032
-0.27178025245666504 -0.19515687227249146 -0.12611547112464905
0.2947084903717041 -0.24658870697021484 0.01640298217535019
0.2660928964614868 0.4717901051044464 -0.06602771580219269
0.29741498827934265 -0.05964836850762367 0.14841590821743011
-0.1911258101463318 -0.1172233447432518 0.16851262748241425
0.025991491973400116 -0.24897105991840363 0.14908364415168762
0.051516126841306686 0.2257668375968933 0.1467038094997406
0.23140275478363037 0.22909916937351227 -0.04003424569964409
0.022505298256874084 -0.13262465596199036 -0.1341830939054489
0.2786358892917633 -0.3544871509075165 0.12205562740564346
0.1402941644191742 0.00045717135071754456 0.1685420572757721
0.2985290288925171 -0.22606617212295532 -0.04013177379965782
-0.26712024211883545 -0.09458944946527481 0.1494794487953186
-0.26132941246032715 -0.24925872683525085 -0.09315693378448486
-0.2711470127105713 0.15754958987236023 -0.13618208467960358
0.28907614946365356 0.21743404865264893 -0.13659337162971497
-0.2698041498661041 -0.17771799862384796 0.1446416825056076
0.2478814274072647 -0.2679429352283478 0.05953303724527359
0.28319236636161804 -0.37578046321868896 0.1431921273469925
-0.09198584407567978 0.22819291055202484 -0.12535396218299866
0.14696097373962402 0.22602781653404236 0.00322918314486742
-0.2729206383228302 0.22249412536621094 -0.01984400302171707
0.12499162554740906 -0.1854318380355835 0.16417764127254486
0.15606603026390076 -0.18670502305030823 0.16116118431091309
0.28899046778678894 -0.23804837465286255 0.15571297705173492
0.22307831048965454 0.4969232380390167 -0.05027715489268303
0.297244668006897 -0.041446175426244736 -0.12244810909032822
0.23444612324237823 -0.13935621082782745 0.16823002696037292
0.28547871112823486 -0.42716750502586365 0.010661840438842773
0.2746918201446533 0.22899994254112244 0.04475066438317299
0.28495171666145325 0.3457564413547516 -0.04695022106170654
-0.003922929987311363 -0.2551219165325165 -0.11925116181373596
0.005475989542901516 -0.0515928715467453 -0.13545027375221252
-0.24755224585533142 0.4853493571281433 0.10006417334079742
-0.02515416592359543 0.28137460350990295 -0.2837989628314972
0.006275599356740713 -0.24606488645076752 -0.13450855016708374
-0.07026107609272003 -0.20020876824855804 0.15292710065841675
-0.22136060893535614 0.18040920794010162 0.15457196533679962
-0.2437300682067871 -0.29902684688568115 0.08955570310354233
0.25342053174972534 -0.2588632106781006 -0.008062770590186119
0.23157942295074463 0.22877182066440582 -0.03579277917742729
-0.26987937092781067 -0.24271616339683533 -0.0915897935628891
-0.13006865978240967 0.1704603135585785 0.1550859808921814
-0.2698107063770294 0.22010226547718048 -0.03568647801876068
0.1531580686569214 -0.2484397143125534 0.0688183605670929
0.2408219575881958 -0.244380384683609 -0.13385611772537231
-0.2450975477695465 0.4701981544494629 -0.03825059533119202
-0.21965111792087555 -0.1303328424692154 0.16634047031402588
-0.2640109062194824 0.12355248630046844 -0.136361762881279
0.2709810733795166 -0.24757423996925354 0.14731115102767944
0.18304279446601868 -0.25195205211639404 0.05807999521493912
-0.26654574275016785 -0.21948488056659698 0.15530093014240265
-0.023678742349147797 0.02284334972500801 0.1681855469942093
0.008041001856327057 0.0875658467411995 0.16699831187725067
0.22651652991771698 -0.442501425743103 -0.0743909701704979
-0.25480225682258606 0.1852932870388031 -0.1360791176557541
0.28269389271736145 0.015030886977910995 -0.13429482281208038
-0.23155289888381958 -0.03592035919427872 0.15318547189235687
-0.21017366647720337 0.2335086464881897 0.06378093361854553
0.2893295884132385 0.22613999247550964 -0.13640286028385162
0.21117275953292847 -0.26896193623542786 0.07464837282896042
-0.08836866915225983 -0.05947151035070419 0.1684848815202713
0.2513825297355652 0.22884410619735718 -0.10449422895908356
0.03624667972326279 0.19034305214881897 -0.13758274912834167
-0.2568666636943817 -0.378976970911026 0.20050010085105896
0.27019837498664856 0.3142976760864258 0.04126472398638725
0.2888750433921814 0.2238318920135498 -0.13470961153507233
0.29568737745285034 -0.0795169398188591 -0.12723283469676971
-0.229279562830925 -0.3299180865287781 -0.08486265689134598
0.29742318391799927 0.08813008666038513 0.14366158843040466
0.2034893035888672 0.49719321727752686 -0.00990248192101717
0.2917712926864624 -0.025895126163959503 -0.13580888509750366
-0.24681738018989563 -0.3010362982749939 -0.06392800807952881
0.2625504732131958 0.4579727053642273 -0.07824401557445526
-0.2955005168914795 -0.42243584990501404 -0.09111310541629791
-0.2731553018093109 -0.22311830520629883 -0.07487738877534866
-0.3209243416786194 -0.3773050010204315 -0.0323222279548645
-0.2504478693008423 0.22824768722057343 0.05223590508103371
0.0059154098853468895 -0.10621771216392517 -0.13373176753520966
-0.03648363798856735 0.12438977509737015 -0.16603951156139374
0.29626449942588806 0.011623792350292206 -0.13146620988845825
-0.27066731452941895 0.18494370579719543 -0.13455024361610413
-0.2706144452095032 -0.20508545637130737 0.08141882717609406
-0.27390965819358826 0.19960524141788483 -0.13529080152511597
0.23824439942836761 -0.04809672757983208 0.17131146788597107
0.09424068033695221 -0.24184870719909668 0.15512022376060486
-0.2924475371837616 -0.42950519919395447 -0.08992816507816315
-0.2551369071006775 0.4696955978870392 0.09630803763866425
-0.2363792359828949 -0.24482601881027222 -0.12619918584823608
-0.27292826771736145 -0.07250663638114929 -0.031436510384082794
-0.12093958258628845 -0.23907841742038727 0.1542668342590332
0.06643620133399963 -0.25053948163986206 -0.12333455681800842
-0.09250003099441528 0.05007945001125336 -0.13662034273147583
-0.07731157541275024 -0.24778471887111664 -0.041750818490982056
0.21338406205177307 0.41358140110969543 -0.08044277131557465
-0.2364879548549652 0.37519463896751404 -0.0751938670873642
0.04828381538391113 -0.245452418923378 -0.13613981008529663
-0.2728051543235779 -0.17297106981277466 0.1458476334810257
0.2697400152683258 0.44549301266670227 -0.08172362297773361
0.16309766471385956 -0.19961917400360107 0.15165632963180542
-0.27261799573898315 -0.2481674700975418 0.14590390026569366
-0.2615203559398651 -0.06255422532558441 -0.1354130059480667
0.29581940174102783 -0.21782267093658447 -0.1260901540517807
0.28918492794036865 -0.09795079380273819 -0.13500197231769562
0.26767802238464355 0.3511764705181122 -0.07315465062856674
0.29819241166114807 -0.09435345977544785 0.14342376589775085
-0.2703986167907715 -0.2423325777053833 0.024752449244260788
0.29541754722595215 -0.2503088116645813 0.009491950273513794
0.29735860228538513 0.16814862191677094 0.1461220681667328
0.22628282010555267 -0.24965900182724 0.14575915038585663
-0.26673227548599243 -0.1428975909948349 -0.1345723569393158
0.24633754789829254 -0.24948690831661224 0.15093819797039032
0.147867351770401 0.2297505885362625 0.14412036538124084
-0.2735777199268341 0.13199327886104584 0.14999768137931824
0.2970598042011261 -0.10271988809108734 0.07231316715478897
-0.2723251283168793 0.07513203471899033 0.14259642362594604
-0.2725403308868408 0.053040023893117905 -0.13123738765716553
0.29678216576576233 -0.2403848022222519 0.1404191553592682
-0.2591996192932129 -0.006449191831052303 -0.13397324085235596
-0.24066299200057983 0.22200089693069458 -0.13459163904190063
-0.22344711422920227 0.16961762309074402 0.15730266273021698
0.06926970183849335 0.12237478047609329 -0.13803113996982574
-0.18695446848869324 0.24436727166175842 -0.011136772111058235
-0.2948722839355469 -0.44422972202301025 -0.08498601615428925
0.2729814350605011 0.4485618770122528 -0.07338368147611618
0.28504636883735657 -0.2502102851867676 -0.12096526473760605
-0.15736833214759827 -0.24528928101062775 -0.1348884403705597
0.1358969658613205 -0.2475282996892929 -0.12163703888654709
-0.14748457074165344 0.0030818767845630646 -0.13625523447990417
0.0842832550406456 -0.2515268325805664 -0.035466667264699936
0.22605609893798828 0.3258760869503021 0.06004009395837784
-0.21311752498149872 0.371243953704834 -0.0801573246717453
0.2902984917163849 0.006470508873462677 -0.13553102314472198
-0.33474311232566833 -0.3889698088169098 -0.011656761169433594
0.22037571668624878 0.2433578372001648 -0.022231291979551315
-0.11792507767677307 0.2298835664987564 -0.12862439453601837
-0.22233164310455322 0.10693249106407166 0.1667858064174652
-0.24947363138198853 0.4521045386791229 0.11151717603206635
-0.2202780395746231 -0.31199777126312256 -0.0764833316206932
-0.0033225598745048046 0.10090374946594238 -0.1379922330379486
-0.28600209951400757 -0.38676023483276367 0.20122016966342926
-0.26263585686683655 -0.18204455077648163 -0.1344890594482422
-0.2706502377986908 0.04438308998942375 0.143218532204628
-0.2628285586833954 -0.11407621949911118 -0.13460169732570648
0.29557889699935913 0.12710021436214447 0.14897188544273376
0.2900145649909973 0.2121170461177826 -0.13421115279197693
-0.015368280932307243 0.22790765762329102 -0.13414323329925537
0.057122603058815 0.1164487823843956 -0.1376461386680603
-0.27165696024894714 -0.035694725811481476 0.14496459066867828
0.29554325342178345 0.14963072538375854 0.15304024517536163
0.12642262876033783 -0.19740767776966095 0.15159808099269867
-0.21668340265750885 -0.026891032233834267 0.1686808317899704
0.11434218287467957 0.22444358468055725 -0.13313761353492737
0.20140710473060608 -0.3974902629852295 0.19175618886947632
-0.27073952555656433 -0.04208146035671234 0.151417076587677
0.03064669668674469 0.1928187608718872 -0.14108844101428986
-0.27400073409080505 0.17321404814720154 0.05057990550994873
-0.14190185070037842 0.08211246132850647 0.16873250901699066
-0.27159056067466736 -0.05536064878106117 -0.1259477138519287
0.22905786335468292 0.3109210431575775 -0.02799699455499649
-0.24736134707927704 0.23810027539730072 -0.00621400773525238
0.2885396182537079 0.2312808334827423 -0.12364920228719711
-0.23986808955669403 0.30836743116378784 -0.004085038788616657
0.23561766743659973 -0.3437889516353607 -0.0896872952580452
-0.2190890908241272 0.14290982484817505 0.1675943285226822
0.2610849440097809 0.5132315158843994 0.057929277420043945
-0.24672827124595642 -0.24742238223552704 -0.11324014514684677
-0.24179893732070923 -0.2491166889667511 -0.0662398487329483
-0.1612539291381836 0.45481300354003906 0.025948606431484222
-0.2736281454563141 0.1220494955778122 -0.1325036883354187
-0.0764351338148117 -0.23639465868473053 -0.13479474186897278
-0.28934597969055176 -0.007148783653974533 -0.2882571518421173
-0.31835827231407166 -0.42822742462158203 -0.06253360956907272
-0.21176767349243164 -0.46476465463638306 0.0556783489882946
-0.2172122746706009 -0.43446940183639526 0.16220581531524658
0.23734202980995178 -0.44605255126953125 0.09717872738838196
-0.27346864342689514 -0.0456574410200119 -0.11769481003284454
0.25509440898895264 0.20540174841880798 -0.13579562306404114
0.29746657609939575 -0.006625384092330933 0.1430264711380005
0.12168560922145844 -0.22639352083206177 -0.13245712220668793
0.19105112552642822 -0.26287928223609924 -0.04059092700481415
-0.22646886110305786 0.1161876767873764 -0.1363932192325592
-0.13393914699554443 -0.1744069755077362 0.16900520026683807
0.2863308787345886 -0.24908852577209473 0.026334445923566818
-0.026838332414627075 0.05472581088542938 -0.13600990176200867
0.020507685840129852 0.13488756120204926 -0.2120872139930725
-0.2379562258720398 -0.3398091793060303 -0.08786579221487045
-0.26974284648895264 0.1646679788827896 0.15480297803878784
0.2967990040779114 -0.1705119013786316 0.14982661604881287
-0.010193787515163422 0.22724834084510803 -0.13030655682086945
0.2034619003534317 0.22931323945522308 0.042113181203603745
-0.05272863060235977 0.22742119431495667 -0.09744073450565338
-0.2656623125076294 0.08308716863393784 -0.13588988780975342
-0.11031007766723633 -0.14771059155464172 0.17107054591178894
-0.04557371139526367 0.1662849485874176 0.1620880365371704
-0.2586635947227478 0.22350400686264038 -0.13439695537090302
0.11104888468980789 -0.03719606250524521 0.16896755993366241
0.29061776399612427 -0.052529990673065186 -0.1352004110813141
-0.2852057218551636 0.0085084717720747 -0.3049863278865814
-0.25682398676872253 0.08695808053016663 -0.13611231744289398
0.29047271609306335 -0.25001469254493713 0.10161635279655457
-0.2710537910461426 -0.16039805114269257 0.03763782978057861
0.11895082890987396 0.21366894245147705 -0.13540297746658325
-0.28227993845939636 -0.4620019197463989 -0.06720476597547531
-0.15591327846050262 0.11375848948955536 -0.13671880960464478
0.0997510701417923 -0.2510392367839813 0.147848442196846
0.28974539041519165 0.11735478788614273 -0.1382499486207962
-0.014751315116882324 0.22933298349380493 0.0448831170797348
0.16303370893001556 -0.36315327882766724 -0.05375345051288605
-0.2749602794647217 -0.14735764265060425 0.014003874734044075
-0.04049806296825409 0.22874785959720612 0.10680824518203735
-0.22651554644107819 -0.47545871138572693 0.03320306912064552
-0.22183436155319214 -0.11036084592342377 0.16280536353588104
-0.2735848128795624 0.03232773393392563 -0.1312718391418457
-0.1097617894411087 -0.14719325304031372 0.1695743203163147
-0.1592346429824829 0.3490414619445801 0.013199727982282639
0.04695083573460579 0.10262283682823181 -0.13632206618785858
-0.2711917757987976 0.22058352828025818 -0.13589270412921906
0.21005195379257202 -0.10478433221578598 0.16969896852970123
0.2205844521522522 -0.031183870509266853 -0.1377251297235489
0.1756879836320877 0.41659578680992126 0.08782730251550674
0.13847194612026215 -0.14757977426052094 -0.1337035894393921
0.29254621267318726 -0.1310802400112152 0.15506547689437866
0.14528010785579681 -0.4122491776943207 0.16182973980903625
-0.2852192521095276 -0.006829016841948032 -0.23534497618675232
0.149709552526474 -0.4431173503398895 0.026177572086453438
0.29935523867607117 -0.04780423268675804 0.15394529700279236
0.23497924208641052 -0.24369396269321442 -0.133468359708786
0.004140172153711319 -0.24898788332939148 0.06262253224849701
-0.2978189289569855 -0.3921678364276886 -0.08092743158340454
-0.027301589027047157 0.23109844326972961 -0.08364768326282501
0.2988069951534271 -0.11176099628210068 -0.1242121160030365
0.29735204577445984 0.025594886392354965 0.14372262358665466
-0.2626431882381439 0.006763514131307602 -0.13537602126598358
0.217477947473526 0.30573713779449463 -0.018575208261609077
0.1436169296503067 -0.43026217818260193 0.15422461926937103
-0.2703234851360321 0.22064276039600372 0.12254944443702698
0.19934779405593872 0.34108757972717285 -0.04966650903224945
