0.09202255308628082 -0.25401222705841064 -0.03875342011451721
0.1947563886642456 0.48563963174819946 -0.0028331235516816378
-0.17432603240013123 -0.37677299976348877 -0.015955591574311256
-0.26694032549858093 -0.23256653547286987 -0.11955921351909637
0.06755536049604416 -0.25006940960884094 0.03557279333472252
-0.24304433166980743 -0.05207591876387596 -0.239213764667511
0.29715704917907715 -0.038651399314403534 0.1215936541557312
0.29530811309814453 0.0058272965252399445 0.12993426620960236
0.29539787769317627 0.18329551815986633 0.14301875233650208
-0.3236861526966095 -0.40329062938690186 0.042014818638563156
0.25331437587738037 -0.1419888138771057 -0.1327103078365326
0.14173519611358643 -0.3492322266101837 0.065861277282238
-0.25949805974960327 -0.15558674931526184 -0.13247297704219818
0.23683121800422668 -0.4145355224609375 0.20737485587596893
0.2968384027481079 0.2041960209608078 0.13574831187725067
-0.2103901207447052 -0.17785027623176575 -0.13486845791339874
0.09601354598999023 0.10882077366113663 -0.13391439616680145
-0.26997143030166626 0.007126577198505402 -0.12232238799333572
0.11277465522289276 -0.2496315985918045 0.05265861377120018
-0.17595121264457703 -0.3361785113811493 0.06183220073580742
-0.1470349282026291 0.2275465577840805 0.023999903351068497
-0.26829037070274353 0.18823254108428955 0.012545369565486908
0.2949621379375458 -0.09702636301517487 0.07702033966779709
-0.12920668721199036 0.2172812521457672 -0.13601918518543243
0.04733177274465561 0.01252560131251812 0.17290884256362915
0.040226660668849945 0.20862382650375366 -0.16388791799545288
-0.16189999878406525 0.3772208094596863 0.08131841570138931
0.2957596182823181 0.1742396205663681 0.1544249951839447
-0.265442430973053 0.057791002094745636 -0.11056216061115265
-0.20014522969722748 -0.4403228759765625 -0.0009223474189639091
-0.0401395820081234 0.14696551859378815 -0.17794694006443024
-0.06308123469352722 0.2253597378730774 -0.11686025559902191
0.2911408245563507 0.3444913327693939 0.038744449615478516
0.15266841650009155 -0.36713066697120667 0.10591112077236176
-0.17444103956222534 -0.37263330817222595 -0.023375384509563446
0.2928583323955536 -0.07222136855125427 0.06434740871191025
0.2921410799026489 -0.17395523190498352 0.15545538067817688
0.203556090593338 0.23056207597255707 0.09820353984832764
0.04122399911284447 0.2255527526140213 -0.11550556123256683
0.2927556037902832 -0.042265597730875015 -0.1342916637659073
0.22067692875862122 -0.17696364223957062 0.16633281111717224
0.26370659470558167 -0.17141811549663544 -0.1384364664554596
-0.015245792455971241 0.2260340452194214 -0.11257122457027435
0.2998185455799103 0.4267829358577728 0.07396583259105682
-0.27570998668670654 -0.3493642508983612 0.19171035289764404
0.29354920983314514 0.36283013224601746 0.059062741696834564
-0.30557772517204285 -0.42393404245376587 0.011365765705704689
0.17081236839294434 -0.44658562541007996 0.14740128815174103
-0.09426005184650421 -0.22226594388484955 0.15870226919651031
-0.2415745109319687 -0.25040748715400696 -0.10789285600185394
0.1647709608078003 -0.17912432551383972 0.16367776691913605
0.2955082058906555 0.21699941158294678 -0.10616101324558258
-0.17825396358966827 -0.25006046891212463 -0.09968368709087372
0.17945019900798798 -0.45073509216308594 0.1473202258348465
0.2970876097679138 0.005395936779677868 -0.10427911579608917
0.2158297598361969 -0.44856390357017517 0.14655111730098724
-0.16665847599506378 -0.04981100559234619 -0.13584376871585846
-0.04622257128357887 -0.2421998381614685 -0.1336798369884491
0.2348681092262268 0.13320480287075043 0.1686934232711792
0.20288363099098206 -0.44980862736701965 0.05015445128083229
-0.2664209306240082 0.39851081371307373 0.06383311003446579
-0.26792827248573303 0.21253570914268494 -0.10204485058784485
0.17481867969036102 -0.24820038676261902 -0.13281495869159698
-0.14194053411483765 -0.14355254173278809 0.1684350073337555
0.29778000712394714 -0.1572834998369217 -0.04417915642261505
0.0077947829850018024 -0.25188684463500977 0.024860180914402008
0.15067780017852783 -0.3848896026611328 -0.02844923362135887
0.12572595477104187 0.15015821158885956 0.1682845652103424
0.10739468038082123 0.1540076732635498 0.16346551477909088
-0.2645670175552368 0.007543422281742096 -0.12980148196220398
0.0317644327878952 0.22900886833667755 0.01651150733232498
0.1853933185338974 0.34161096811294556 0.02678045816719532
0.21291451156139374 -0.25347352027893066 0.10645121335983276
-0.2411632239818573 0.016701415181159973 -0.1361755132675171
-0.32656919956207275 -0.36134642362594604 0.1685459464788437
-0.16171473264694214 -0.32026198506355286 -0.016620641574263573
-0.25716111063957214 0.33895111083984375 0.005395085550844669
0.1683529168367386 0.14611464738845825 0.1697026491165161
0.22911162674427032 -0.44481492042541504 -0.07459422945976257
-0.20346492528915405 0.1444130837917328 0.1617307960987091
0.2893247604370117 -0.05659005418419838 -0.1325739622116089
0.03014037199318409 0.22895899415016174 0.0529976561665535
-0.02857857197523117 -0.2517551779747009 0.13261471688747406
-0.04728725552558899 0.14337344467639923 0.1714603453874588
0.1761855036020279 0.37435176968574524 0.007516487501561642
0.2968970537185669 0.23143243789672852 0.0422939769923687
0.03334910422563553 0.14967334270477295 0.1711975336074829
-0.24604980647563934 -0.45276907086372375 -0.06141556799411774
0.28703194856643677 0.044040944427251816 -0.13117118179798126
0.2725381851196289 -0.1538921743631363 -0.1327367126941681
-0.259616881608963 0.06166427209973335 -0.13474306464195251
0.045450884848833084 0.12534679472446442 -0.1345079243183136
0.29940366744995117 0.36070889234542847 0.0640818178653717
-0.05688090622425079 0.22721347212791443 0.09915344417095184
0.29568883776664734 -0.14928416907787323 0.15426869690418243
-0.08758502453565598 0.22697047889232635 0.1174982488155365
0.1376897245645523 -0.2510899603366852 -0.07804077863693237
0.005303137004375458 0.01960104890167713 0.16971588134765625
0.1958894282579422 0.230394184589386 0.11542874574661255
-0.0012201722711324692 -0.05431143939495087 -0.13362857699394226
0.21642425656318665 0.22442540526390076 0.09229385852813721
-0.26750096678733826 0.1672886162996292 -0.11987476050853729
0.2743853032588959 -0.3279077708721161 -0.01659775897860527
-0.24372686445713043 -0.1404929757118225 0.15633977949619293
0.20111292600631714 -0.04640438035130501 -0.134883850812912
-0.2919340431690216 0.054054535925388336 -0.2998867332935333
0.28620967268943787 -0.05714927241206169 -0.1346137374639511
0.23162305355072021 -0.4455718696117401 -0.0558633990585804
0.18546457588672638 0.349273681640625 0.06431702524423599
0.13839563727378845 -0.3822178244590759 0.09228891879320145
0.17890484631061554 0.4400928318500519 0.08670986443758011
-0.2869749963283539 -0.43451517820358276 0.030613316223025322
0.29625916481018066 -0.13532055914402008 0.1048697680234909
0.10268481075763702 0.1724085658788681 -0.1368861347436905
-0.20741885900497437 0.024543598294258118 0.16540783643722534
0.2978469729423523 0.14983727037906647 0.07080328464508057
-0.10234254598617554 -0.042004551738500595 -0.1344352811574936
0.16630767285823822 -0.45188242197036743 0.11189877986907959
0.2115502804517746 0.22880832850933075 -0.043103162199258804
0.006894444115459919 0.21857282519340515 -0.24115034937858582
-0.10166658461093903 0.19729918241500854 -0.1374441236257553
-0.2685733735561371 -0.06092187762260437 -0.1164160817861557
0.29753246903419495 -0.22311565279960632 -0.05563313141465187
-0.05821867659687996 0.14331233501434326 0.16913264989852905
-0.26874563097953796 -0.11652390658855438 -0.11211912333965302
0.2269255816936493 -0.18958045542240143 0.15407855808734894
0.20472462475299835 -0.4478466212749481 0.04455329105257988
-0.20306731760501862 -0.0050901807844638824 0.16592612862586975
0.1610603630542755 -0.4016987085342407 -0.045154884457588196
0.1685723066329956 0.14009788632392883 0.17041407525539398
-0.2656535804271698 0.09467169642448425 -0.12133638560771942
0.29999011754989624 -0.07294800877571106 -0.04792773351073265
0.26387226581573486 -0.2919870615005493 0.054716914892196655
0.2971026301383972 -0.09163455665111542 0.10741721093654633
0.29374581575393677 -0.01076591107994318 -0.12419116497039795
0.2534002661705017 0.22811587154865265 -0.12026186287403107
0.27549129724502563 0.31732937693595886 0.024919135496020317
0.29645922780036926 -0.011751119047403336 -0.112233467400074
0.1712518185377121 0.20295186340808868 -0.13739114999771118
0.18910637497901917 0.17395032942295074 -0.13135454058647156
0.02844902127981186 -0.25017958879470825 -0.011887968517839909
-0.20858778059482574 -0.31095820665359497 0.08504647016525269
0.29655221104621887 0.170392706990242 0.1421743631362915
-0.2576056122779846 0.2160336971282959 -0.13196706771850586
-0.20680639147758484 0.09922587871551514 0.16778244078159332
-0.22921566665172577 0.22486282885074615 -0.1126713976264
0.22385212779045105 -0.2797679901123047 -0.06094089522957802
-0.20490264892578125 -0.15895888209342957 0.16919554769992828
-0.2656736969947815 0.18956130743026733 -0.10602769255638123
0.08546463400125504 0.06782445311546326 -0.1341625601053238
-0.24984689056873322 -0.4410039186477661 0.1297595053911209
0.1526116281747818 0.22593900561332703 -0.11479558795690536
-0.158604234457016 0.386989951133728 0.033278968185186386
-0.25639182329177856 0.0600716657936573 -0.14001326262950897
0.1764097660779953 -0.25219282507896423 -0.10509218275547028
-0.06337431073188782 0.23191998898983002 0.004653783515095711
0.2989576458930969 -0.09437723457813263 -0.08131914585828781
0.20839455723762512 0.3515324890613556 -0.06265410780906677
-0.06472538411617279 0.12835457921028137 0.1668166220188141
0.291881263256073 0.4373474419116974 -0.04413912072777748
0.2747446596622467 0.4998321533203125 0.08962901681661606
0.24314498901367188 -0.22901852428913116 -0.13265828788280487
0.13168169558048248 0.22535455226898193 -0.049148157238960266
-0.08696507662534714 -0.25149667263031006 -0.027581017464399338
-0.33238813281059265 -0.3704504072666168 0.022439291700720787
0.058961376547813416 0.22683419287204742 0.073431596159935
-0.27171650528907776 -0.1380089819431305 -0.11532636731863022
0.07754306495189667 -0.2481980323791504 -0.1333809345960617
0.20880934596061707 0.34164443612098694 0.10072734951972961
-0.11180667579174042 -0.2516247034072876 0.09492148458957672
-0.22449709475040436 0.43009692430496216 0.09248042851686478
-0.26858729124069214 -0.09853297472000122 -0.11502910405397415
-0.20436041057109833 0.09648936986923218 0.16381247341632843
0.062443044036626816 0.2286704033613205 -0.11686285585165024
-0.04013766348361969 0.15756748616695404 -0.1598169356584549
0.2168291062116623 -0.17471526563167572 0.16191256046295166
0.10506406426429749 -0.23667500913143158 -0.1354377567768097
-0.20915009081363678 -0.3168269991874695 0.09109808504581451
-0.0796494260430336 0.1519131362438202 -0.13382776081562042
0.29837924242019653 -0.08132015913724899 0.07227495312690735
0.23715044558048248 -0.3874399960041046 0.18853189051151276
-0.26722997426986694 -0.23071210086345673 0.12709389626979828
0.06259036809206009 -0.2514227330684662 0.10381219536066055
-0.2307559996843338 -0.2530965507030487 0.09811730682849884
0.28886717557907104 -0.3923977017402649 0.07427474856376648
0.29736363887786865 0.22519487142562866 -0.04554144665598869
0.2985779345035553 -0.04366281256079674 0.05724043399095535
-0.27195248007774353 0.1517142951488495 -0.12058352679014206
-0.18453986942768097 0.17330330610275269 0.1582885980606079
-0.2808685302734375 -0.44546183943748474 0.015712037682533264
0.29341503977775574 0.2248358130455017 -0.0016895905137062073
-0.26811957359313965 0.01338072307407856 -0.1113322451710701
0.2959980070590973 -0.09454956650733948 0.15408602356910706
0.20648568868637085 0.33194541931152344 0.0788477212190628
0.0010527553968131542 0.15769194066524506 -0.13287311792373657
-0.26713764667510986 -0.15656597912311554 -0.11546596884727478
0.2484646439552307 -0.44629618525505066 0.07338704913854599
0.07550622522830963 -0.25096383690834045 -0.07275819778442383
0.20024223625659943 -0.30680257081985474 0.094482421875
-0.26559606194496155 0.4004378616809845 0.07230529934167862
0.04216320812702179 0.1361028403043747 -0.13237100839614868
0.10442713648080826 -0.25081875920295715 -0.0546763613820076
-0.12522968649864197 -0.2534020245075226 0.09005199372768402
0.021164951846003532 0.1692969799041748 -0.21543511748313904
0.21695592999458313 -0.4023146629333496 -0.08946841210126877
-0.2606007754802704 0.04606610909104347 -0.13733230531215668
0.19345320761203766 0.47116395831108093 -0.03810233995318413
0.23162376880645752 -0.08880302309989929 0.1663566380739212
-0.26800161600112915 0.2156294882297516 -0.11784593760967255
0.10846817493438721 -0.04913308471441269 -0.13323263823986053
-0.0888758972287178 -0.25343841314315796 0.1326853185892105
-0.18919533491134644 -0.33694690465927124 0.079136922955513
0.04922924190759659 -0.21282680332660675 0.15953174233436584
-0.07011285424232483 -0.24321794509887695 -0.13408517837524414
-0.2509998083114624 0.15710128843784332 -0.13656510412693024
-0.2673600912094116 0.43097439408302307 0.04731152579188347
-0.27227237820625305 -0.2348000556230545 0.13928531110286713
-0.09645738452672958 0.2096671760082245 0.15869605541229248
-0.2587658762931824 0.13726437091827393 -0.13367986679077148
-0.27068594098091125 -0.4457317590713501 0.026412198320031166
0.2383742779493332 -0.24760311841964722 -0.09134110808372498
0.19718849658966064 -0.18792974948883057 -0.135652095079422
0.07928340882062912 0.22702744603157043 -0.11316123604774475
0.18640905618667603 -0.4469101130962372 0.18052266538143158
-0.21158872544765472 -0.43918076157569885 -0.03809264302253723
0.2057550996541977 -0.17313340306282043 0.16553235054016113
-0.24997712671756744 0.006331197917461395 -0.25318223237991333
-0.1886211633682251 0.43793970346450806 -0.06959688663482666
0.27561455965042114 -0.24565565586090088 -0.13279131054878235
0.15824197232723236 -0.3897189795970917 -0.044097911566495895
-0.06306041777133942 -0.24498490989208221 -0.1332448273897171
-0.07852408289909363 -0.25543004274368286 -0.015244003385305405
0.21976134181022644 0.22769345343112946 0.13943874835968018
-0.23424488306045532 0.5000139474868774 0.0448845811188221
-0.04636150971055031 -0.2520151436328888 -0.10967636853456497
0.013742001727223396 0.19191059470176697 -0.13481731712818146
-0.2709041237831116 0.21649400889873505 -0.10492537915706635
0.24147042632102966 -0.07035094499588013 0.1655586212873459
0.20677593350410461 0.2279868721961975 -0.07665088772773743
-0.26873472332954407 0.21272708475589752 0.13138602674007416
0.04172302410006523 -0.25038716197013855 -0.09239135682582855
-0.2671329081058502 0.07173702120780945 -0.1220179870724678
-0.16288603842258453 0.36714640259742737 -0.024076096713542938
-0.0559920072555542 0.14498241245746613 0.16750971972942352
0.28573745489120483 -0.02476116269826889 -0.13195906579494476
0.1605934351682663 -0.24978040158748627 0.017596730962395668
0.15724870562553406 0.22232192754745483 -0.11848136782646179
0.16673588752746582 -0.3235906958580017 -0.041518792510032654
0.1831701695919037 0.22726772725582123 0.12424018234014511
-0.0067731174640357494 0.2290152907371521 -0.11667841672897339
-0.18267525732517242 -0.38582760095596313 -0.03275430575013161
0.17643754184246063 0.422986775636673 0.010032160207629204
0.11673277616500854 -0.25151169300079346 0.12429776787757874
0.29823535680770874 0.2291484773159027 0.11760412156581879
-0.15913166105747223 0.22142672538757324 -0.1335746794939041
-0.21659421920776367 -0.24994195997714996 0.14421634376049042
0.2693423926830292 -0.3062919080257416 0.05203705281019211
0.17691434919834137 0.44243189692497253 0.07389810681343079
-0.2440318763256073 0.18442252278327942 -0.13559359312057495
0.09615962207317352 -0.24121743440628052 -0.13330458104610443
0.2980615496635437 -0.17284107208251953 0.004446445032954216
0.17490039765834808 0.4113874137401581 0.04700145125389099
-0.2160595804452896 0.22512519359588623 0.10717260092496872
-0.2025717794895172 -0.41047951579093933 0.13869424164295197
0.16035054624080658 0.22772569954395294 0.0043635256588459015
0.18867674469947815 -0.2507479190826416 -0.13301031291484833
0.2603485584259033 -0.21670123934745789 -0.13382215797901154
0.1430138349533081 -0.054957445710897446 0.17014962434768677
0.17920833826065063 -0.4471540153026581 -0.024960417300462723
0.2923676371574402 0.34885314106941223 0.06347501277923584
0.13642649352550507 -0.4201076626777649 0.13595470786094666
-0.06833690404891968 0.22654208540916443 0.10756241530179977
-0.001066847238689661 0.058657318353652954 -0.13361799716949463
0.14403514564037323 -0.411044180393219 -0.013045145198702812
-0.26889047026634216 -0.45799508690834045 0.00633746013045311
0.29719361662864685 0.22878330945968628 0.0948214903473854
-0.16455096006393433 0.1982865184545517 -0.13978885114192963
0.29672136902809143 -0.16346406936645508 -0.12262792885303497
-0.2694721221923828 -0.08627064526081085 -0.11403664946556091
0.19610324501991272 0.4269517660140991 -0.06550873070955276
-0.11411204189062119 -0.18978294730186462 0.157396599650383
-0.2411288470029831 -0.27550187706947327 0.01713760569691658
0.24114492535591125 0.13126853108406067 0.16716612875461578
0.1846981942653656 -0.36603114008903503 -0.06996601819992065
-0.18488869071006775 -0.3584558963775635 0.07720635831356049
0.17924727499485016 -0.07505813986063004 -0.13260437548160553
0.2245551347732544 -0.3749547004699707 0.17422932386398315
0.2966400384902954 -0.04378645122051239 -0.11612582951784134
-0.13060307502746582 0.22828637063503265 -0.012419091537594795
0.29724976420402527 0.3587561547756195 0.0035439233761280775
0.08533325791358948 -0.19105514883995056 0.15415504574775696
-0.005660926923155785 -0.16892188787460327 0.16693633794784546
-0.2143855094909668 0.08377235382795334 0.16326481103897095
0.24218659102916718 -0.33883658051490784 0.13741669058799744
0.030228178948163986 0.16043797135353088 -0.13504812121391296
-0.09449775516986847 0.18535393476486206 -0.1348411738872528
0.2865317165851593 -0.025924276560544968 -0.13206283748149872
0.2901749014854431 0.4762483835220337 0.031739965081214905
-0.11638817936182022 -0.17356838285923004 0.17124450206756592
0.019651461392641068 0.2245834916830063 -0.11588440835475922
0.04146892949938774 0.16407278180122375 -0.13438187539577484
-0.1918891966342926 -0.43023553490638733 0.03771548345685005
-0.21674969792366028 -0.37119269371032715 0.139969140291214
0.2133418470621109 0.23072801530361176 -0.0532471165060997
0.2833235561847687 0.3253106474876404 0.020642459392547607
-0.13819482922554016 -0.1342189908027649 0.16925258934497833
0.2873741686344147 -0.1917528212070465 -0.13041043281555176
-0.0430295467376709 -0.17265905439853668 0.1616165041923523
-0.2659919261932373 0.045048367232084274 -0.11751484870910645
0.04321533069014549 0.22712112963199615 -0.03564486652612686
-0.24220170080661774 0.028697969391942024 0.15497194230556488
-0.266122967004776 0.07793837040662766 -0.12035203725099564
-0.12810786068439484 -0.2508277893066406 -0.0744442343711853
0.02157520316541195 0.1441943645477295 0.17043113708496094
-0.10642491281032562 0.17580503225326538 0.15812525153160095
0.025827301666140556 0.22847381234169006 0.07992139458656311
-0.09583933651447296 0.14712996780872345 -0.13472768664360046
0.293537974357605 -0.19379767775535583 -0.13348889350891113
0.16422803699970245 -0.3802701532840729 -0.05493585020303726
0.14230972528457642 -0.2491159737110138 -0.1316295713186264
0.28555116057395935 -0.38752302527427673 0.1319333165884018
0.012936333194375038 -0.24297505617141724 -0.13433976471424103
-0.1968371719121933 -0.4411728084087372 0.045609503984451294
-0.26223278045654297 0.06910600513219833 -0.13570736348628998
-0.2017313539981842 0.2273622304201126 -0.08513709902763367
0.030295856297016144 0.18634042143821716 -0.13664889335632324
0.021788109093904495 0.1473805010318756 0.16436029970645905
-0.24592503905296326 0.013810427859425545 -0.26941680908203125
0.1924653798341751 0.48965567350387573 0.025113150477409363
0.02715458907186985 0.2486194372177124 -0.19439145922660828
-0.11288324743509293 0.15247607231140137 0.16496312618255615
0.2935771644115448 0.038516417145729065 0.15903858840465546
-0.26670974493026733 0.20782670378684998 -0.10361301898956299
0.2704399824142456 -0.2501086890697479 -0.13287894427776337
0.25000864267349243 -0.2460637092590332 -0.13308575749397278
0.29968586564064026 0.37833672761917114 -0.013226574286818504
0.20843078196048737 0.20037345588207245 -0.13682051002979279
0.29701516032218933 -0.17982284724712372 0.0840282142162323
-0.02931246906518936 0.14626151323318481 0.16729162633419037
-0.1582920253276825 0.4407815933227539 0.0061128949746489525
0.294961541891098 0.1072876900434494 0.14675000309944153
0.2621520757675171 -0.24928061664104462 -0.06538385897874832
0.14654214680194855 -0.4211074113845825 -0.008674880489706993
0.29438352584838867 -0.21831926703453064 0.12124000489711761
0.06694021075963974 -0.19654864072799683 0.1490427553653717
0.19733324646949768 0.22734801471233368 0.041691552847623825
-0.004952337592840195 -0.25125181674957275 0.14382833242416382
-0.07959666848182678 0.14560572803020477 0.1674272119998932
-0.2689937949180603 -0.0071435291320085526 0.05155614763498306
0.19920754432678223 -0.3221248388290405 0.10610337555408478
0.15142181515693665 0.14411452412605286 0.16985006630420685
0.1253042221069336 -0.2501789927482605 0.044147197157144547
0.2981964945793152 -0.19735121726989746 0.019873538985848427
-0.036528583616018295 -0.24968230724334717 -0.014163481071591377
0.1020049974322319 -0.2479678988456726 -0.1329016238451004
-0.2439441829919815 -0.3907989263534546 -0.08829785138368607
0.2968570590019226 0.21126866340637207 0.14757727086544037
0.28438088297843933 -0.35859188437461853 0.07799199223518372
0.29766806960105896 0.21351629495620728 0.05919273942708969
0.2878727614879608 -0.4453114867210388 0.14821624755859375
0.09558936208486557 -0.17069865763187408 0.169491708278656
-0.10887377709150314 -0.18613764643669128 0.16189968585968018
-0.11089150607585907 -0.19086340069770813 0.1554122269153595
-0.2716255486011505 0.06511437892913818 -0.11692444235086441
0.2957701086997986 0.38742268085479736 -0.04004407674074173
0.1268097460269928 -0.13453754782676697 -0.13514475524425507
-0.20759886503219604 -0.4522266983985901 0.07353443652391434
-0.09571555256843567 -0.1167367547750473 -0.1322653889656067
0.26844197511672974 -0.4457100033760071 0.0033873768988996744
0.007130250334739685 -0.19112607836723328 0.15408891439437866
-0.053152117878198624 0.2232205867767334 -0.07704422622919083
0.22971339523792267 -0.16018573939800262 -0.13126671314239502
-0.0962633341550827 0.22643545269966125 -0.11591768264770508
0.20306384563446045 0.2274598926305771 -0.12015554308891296
0.25515449047088623 -0.014605209231376648 -0.1312171369791031
0.17714691162109375 0.4137791395187378 0.06285079568624496
0.2775329649448395 -0.34199386835098267 0.09237641841173172
-0.2521427273750305 0.18320727348327637 -0.13401925563812256
0.1754894256591797 0.41158580780029297 0.042368676513433456
-0.26520836353302 -0.18112725019454956 -0.1178450807929039
0.17662174999713898 -0.45078757405281067 0.1708848476409912
-0.24688592553138733 -0.2854743003845215 0.007419140078127384
-0.3000570237636566 -0.3564031720161438 -0.050463348627090454
0.2969556152820587 0.4637609124183655 0.03681083023548126
-0.2655928134918213 0.1523052603006363 -0.11725786328315735
0.28842005133628845 0.42532533407211304 -0.04439191892743111
0.008337044157087803 -0.1683851033449173 0.1698208600282669
0.2961418628692627 -0.09010298550128937 -0.10573235154151917
0.0030569303780794144 0.1427825391292572 0.1679738610982895
0.1745682954788208 -0.0379563607275486 -0.13206247985363007
-0.1544681340456009 0.373286634683609 0.038788795471191406
-0.2496337592601776 -0.21001875400543213 0.15605708956718445
0.21780219674110413 0.22492879629135132 -0.12467056512832642
0.29909223318099976 -0.11608967930078506 -0.017575670033693314
0.08781693130731583 0.04824201762676239 -0.13108518719673157
0.29944005608558655 -0.09647759795188904 0.004238104447722435
0.19896040856838226 -0.4475824534893036 0.058032095432281494
0.252858430147171 -0.24579043686389923 -0.1339118927717209
-0.2687413692474365 -0.3293958306312561 0.1642514169216156
-0.2700636088848114 0.21085070073604584 0.0847131609916687
-0.22106902301311493 -0.18853262066841125 -0.1338941901922226
0.2660522162914276 -0.3807907998561859 0.18263058364391327
0.16694898903369904 -0.2770442068576813 0.0001276345574297011
-0.130303755402565 0.19936266541481018 -0.1347452700138092
0.1486232429742813 -0.3727673888206482 0.1170664057135582
0.04708966240286827 0.22345241904258728 -0.117955781519413
-0.2120412290096283 -0.45160672068595886 -0.006102102342993021
0.29782140254974365 0.3982692062854767 -0.014982061460614204
0.2853323221206665 -0.05494017153978348 -0.13232311606407166
-0.26480284333229065 -0.43632301688194275 -0.07867377251386642
-0.003773525357246399 -0.2098245918750763 0.15820547938346863
0.3000281751155853 -0.18564997613430023 0.1024780422449112
-0.23469941318035126 0.1948290914297104 -0.1323740929365158
-0.2591993510723114 -0.11404425650835037 -0.13403798639774323
-0.2570486068725586 0.19592830538749695 -0.13133801519870758
0.11104132235050201 -0.2509106695652008 0.14101718366146088
0.2758551239967346 0.31482499837875366 -0.0008368704002350569
0.30240896344184875 0.3930859863758087 0.007601368241012096
-0.2667676508426666 -0.31691765785217285 0.13471832871437073
0.07612115889787674 -0.25192928314208984 -0.132973313331604
0.17554472386837006 0.37629252672195435 0.017159489914774895
-0.2674541175365448 0.027214903384447098 -0.12223958224058151
-0.23510882258415222 -0.39434653520584106 -0.08187294006347656
-0.23662951588630676 -0.368551105260849 -0.08687083423137665
0.3045117259025574 -0.1308070868253708 0.1556629240512848
0.2876754701137543 -0.389311283826828 0.10402174293994904
-0.21019971370697021 -0.3525400757789612 -0.0714605450630188
0.1435268074274063 -0.38477078080177307 0.005118868313729763
-0.1563577950000763 0.42133766412734985 0.07521507143974304
-0.2665584981441498 0.20315589010715485 -0.1117136999964714
0.2522846460342407 0.05874400585889816 -0.13219617307186127
-0.11913025379180908 -0.2515687346458435 0.12448655813932419
0.04832027480006218 -0.25089871883392334 -0.08001818507909775
-0.1738583743572235 0.1574769765138626 0.16318896412849426
0.16967380046844482 0.10902092605829239 -0.13183219730854034
0.30624905228614807 -0.19511722028255463 -0.13212503492832184
-0.1602344661951065 -0.2921150326728821 0.037517428398132324
-0.26267215609550476 -0.45996642112731934 0.020435253158211708
-0.2129974365234375 -0.24984626471996307 -0.12036671489477158
0.19436579942703247 -0.09148401021957397 -0.13586872816085815
-0.24868611991405487 0.19690196216106415 0.1550818681716919
0.15616846084594727 -0.04843554645776749 0.1694953590631485
0.22205090522766113 -0.33241721987724304 0.12167441844940186
0.14462220668792725 0.14196251332759857 0.17133449018001556
0.21708466112613678 -0.4442877769470215 -0.004959001671522856
-0.26639148592948914 0.20849674940109253 0.12324010580778122
-0.2781732976436615 -0.4357909858226776 -0.0867532417178154
-0.1788574457168579 -0.3660449683666229 -0.03248916193842888
0.2377525269985199 -0.25113967061042786 0.11606790870428085
0.05680950731039047 -0.2437267303466797 -0.13472503423690796
0.2355673462152481 0.20209424197673798 0.15757422149181366
0.24089887738227844 0.14869455993175507 0.16853046417236328
0.30543652176856995 -0.15324486792087555 -0.1308484524488449
0.029554521664977074 0.1431107223033905 0.1695861965417862
0.17866091430187225 -0.25263670086860657 -0.09363652020692825
0.10772496461868286 -0.24960443377494812 -0.04875848814845085
0.18399569392204285 0.15800505876541138 0.16719619929790497
-0.160483717918396 -0.1719234585762024 0.15983794629573822
0.2119918316602707 -0.36291107535362244 -0.08426870405673981
-0.24764011800289154 0.330797404050827 0.018498066812753677
0.19103418290615082 0.22661133110523224 -0.11561261117458344
0.30688124895095825 0.4271540343761444 0.08036056905984879
0.22645190358161926 -0.19660842418670654 0.15496614575386047
-0.17443236708641052 0.22488830983638763 -0.11523943394422531
0.2150201052427292 0.5131847858428955 0.025236688554286957
0.13662637770175934 0.22954495251178741 -0.08065715432167053
0.29635417461395264 -0.16245730221271515 0.10018446296453476
-0.06994685530662537 0.22605271637439728 0.06560970097780228
0.29679206013679504 0.2256755381822586 -0.03839621692895889
0.10662932693958282 -0.1974184513092041 0.1509355902671814
0.2734629809856415 -0.4443459212779999 0.021638164296746254
-0.2119852900505066 0.20100224018096924 0.15647763013839722
-0.2385120391845703 0.3104764223098755 0.022561347112059593
-0.27117660641670227 0.10438226908445358 0.07402253150939941
-0.24397622048854828 0.21846520900726318 -0.13399089872837067
0.12271241843700409 -0.24652226269245148 -0.13342414796352386
0.02218075469136238 0.22725112736225128 0.12317270785570145
-0.13485613465309143 -0.06839679181575775 -0.13269539177417755
0.2703958749771118 0.09254105389118195 0.16050690412521362
-0.11303333938121796 -0.2530244290828705 0.02934139035642147
-0.26884013414382935 0.06736517697572708 -0.07566294819116592
-0.26705265045166016 0.21072030067443848 -0.1047884076833725
-0.0022620069794356823 0.06499992311000824 -0.13575825095176697
-0.08420534431934357 -0.22663456201553345 0.16240935027599335
0.2109677642583847 -0.25144335627555847 0.0802307203412056
-0.1987132728099823 -0.3629878759384155 0.10329244285821915
0.29076772928237915 0.11183083057403564 -0.1322971135377884
-0.20221099257469177 -0.43263494968414307 0.10618311911821365
0.29655447602272034 -0.023794125765562057 -0.11794852465391159
0.2558702528476715 -0.24723376333713531 -0.11607357859611511
-0.24807454645633698 0.38798093795776367 -0.06619386374950409
0.174005925655365 0.22767077386379242 0.09069950133562088
0.008676579222083092 -0.2518349587917328 0.019017407670617104
0.29666075110435486 0.14236167073249817 0.1521233320236206
0.28360262513160706 -0.4460861086845398 0.15640564262866974
-0.2709021270275116 0.13046163320541382 -0.1190885528922081
0.006040483247488737 0.2229512631893158 -0.11567422747612
0.1008140817284584 0.15393084287643433 -0.13438721001148224
-0.16140885651111603 0.417494535446167 -0.021179664880037308
-0.26889780163764954 -0.43096858263015747 0.09625700861215591
-0.20598682761192322 -0.44868624210357666 -0.010680105537176132
0.28102001547813416 0.19042684137821198 -0.13315275311470032
0.21282556653022766 0.22817599773406982 -0.03828011453151703
-0.21980592608451843 0.19866546988487244 0.15675434470176697
0.28892219066619873 -0.3961840569972992 0.11592982709407806
0.21823708713054657 -0.09807135909795761 -0.1330135464668274
-0.2637614905834198 0.04466765746474266 -0.11399401724338531
0.2937184274196625 0.07059784233570099 0.15057611465454102
-0.2668335437774658 -0.24131548404693604 -0.10491307079792023
0.2529006600379944 -0.17675736546516418 0.16516901552677155
0.08877560496330261 -0.248530313372612 -0.016951553523540497
-0.2075110226869583 0.11039391905069351 0.1642054170370102
0.15539880096912384 -0.3685719072818756 0.12678414583206177
-0.0024242368526756763 -0.25164592266082764 0.11863233149051666
-0.22861281037330627 0.44209733605384827 0.09373155981302261
-0.2666516602039337 -0.4646722078323364 -0.015917668119072914
0.07275501638650894 -0.2513020932674408 -0.033737096935510635
0.28472012281417847 0.1993418037891388 -0.13191410899162292
-0.2601579427719116 0.4707578420639038 0.06836282461881638
0.2869889438152313 -0.07891429960727692 -0.13464652001857758
-0.053152259439229965 0.22598795592784882 0.1079987958073616
0.09062033891677856 -0.20025065541267395 0.15532708168029785
0.1370232105255127 0.23229652643203735 0.06863900274038315
-0.17010155320167542 0.4723004400730133 -0.00917096808552742
-0.10494621843099594 -0.24840417504310608 -0.12129029631614685
0.002127998508512974 -0.24897319078445435 -0.01800592616200447
-0.1745530515909195 -0.33373838663101196 -0.03988060727715492
0.29727882146835327 0.216213658452034 0.07672950625419617
0.26994413137435913 -0.2520434558391571 0.0553392693400383
0.29890215396881104 0.19951331615447998 0.12293653935194016
0.06703086197376251 0.2271515429019928 0.05974620208144188
0.17691677808761597 -0.24479883909225464 -0.13342629373073578
-0.268856942653656 0.20525959134101868 0.13821148872375488
0.2859087288379669 0.3293410539627075 0.03964986279606819
0.04956181347370148 -0.19514042139053345 0.15553446114063263
0.021924644708633423 0.16711989045143127 0.16570769250392914
0.2817220687866211 0.15398603677749634 -0.13340672850608826
-0.2684834897518158 -0.23094984889030457 -0.03870696946978569
-0.24744296073913574 0.22774934768676758 0.12781281769275665
-0.32766833901405334 -0.4173777401447296 -0.02736590802669525
0.28418731689453125 0.024472832679748535 -0.12925906479358673
0.09673935920000076 -0.1857377141714096 0.1588033139705658
-0.2649552822113037 0.43044519424438477 0.0364256389439106
-0.19707345962524414 0.1725701540708542 -0.13451290130615234
-0.26600149273872375 -0.1716204583644867 -0.11114995181560516
0.21595124900341034 0.22848208248615265 -0.11921034753322601
0.2996177673339844 0.3951105773448944 0.02118571847677231
0.2904864251613617 -0.18874961137771606 -0.1286594271659851
-0.15828298032283783 0.44641008973121643 0.06565244495868683
0.23678618669509888 -0.12202363461256027 0.16983187198638916
0.12017611414194107 -0.24873585999011993 -0.02181405946612358
-0.26418155431747437 0.03913462907075882 -0.12030518054962158
0.021415088325738907 0.22496354579925537 -0.03063449263572693
0.2673393785953522 -0.2480577677488327 -0.1324036568403244
-0.23895525932312012 -0.3918638229370117 0.19848300516605377
0.260123610496521 -0.25399479269981384 0.13960832357406616
0.28087589144706726 -0.2127707600593567 -0.13386975228786469
0.27718836069107056 0.20912013947963715 -0.12959961593151093
0.06611281633377075 0.14389349520206451 0.1653166264295578
-0.24986502528190613 0.21804985404014587 -0.13256636261940002
0.2718183398246765 -0.3113024830818176 0.03281527757644653
-0.25732794404029846 -0.15004566311836243 -0.13298702239990234
0.2891746163368225 -0.03123096004128456 -0.12980179488658905
0.023802489042282104 0.22017060220241547 -0.16781409084796906
0.10601590573787689 0.1895473301410675 -0.13573406636714935
-0.2683078348636627 0.02818259783089161 -0.11679697036743164
-0.07148487120866776 0.2254195362329483 -0.11680996417999268
-0.2557286322116852 -0.2872033715248108 0.03631968796253204
0.00036008842289447784 0.14538270235061646 0.1692514717578888
0.21798940002918243 -0.24651798605918884 -0.13245652616024017
0.22777627408504486 -0.15914683043956757 -0.13574042916297913
0.25145336985588074 0.009688347578048706 -0.1317790299654007
-0.21168571710586548 -0.3867570459842682 0.14860285818576813
-0.1610739827156067 0.2282872051000595 -0.11446073651313782
-0.13610252737998962 0.13957232236862183 -0.1347196400165558
-0.03053724393248558 -0.24885597825050354 -0.13951601088047028
-0.32287952303886414 -0.346826434135437 0.1033809632062912
0.18566349148750305 0.23003272712230682 -0.02760453335940838
-0.2696276903152466 0.09992128610610962 0.012190274894237518
0.02714165300130844 0.2469935566186905 -0.19699124991893768
-0.2671215534210205 -0.07109459489583969 -0.1165505051612854
0.1987559199333191 0.22800786793231964 0.0650261864066124
0.2935999035835266 -0.018746793270111084 -0.09676831215620041
0.07189670205116272 0.1321573257446289 0.16912370920181274
0.28561753034591675 -0.07840597629547119 -0.1340104639530182
0.29789280891418457 0.005101656541228294 -0.01020740158855915
-0.2668111026287079 -0.1754465103149414 -0.11748543381690979
-0.17344175279140472 -0.24668222665786743 -0.10503752529621124
0.23579645156860352 -0.18560056388378143 0.15813913941383362
-0.21927988529205322 0.5014088749885559 0.08730652183294296
0.29676827788352966 0.2088722586631775 0.127760112285614
0.29751741886138916 0.010522663593292236 0.15538930892944336
-0.20462165772914886 0.2269744873046875 -0.11428523063659668
-0.2128722369670868 -0.3589564561843872 -0.07271260768175125
0.17926302552223206 -0.18676474690437317 0.1593572050333023
0.2875387966632843 -0.1149948462843895 -0.1330796629190445
0.11615833640098572 0.12586605548858643 -0.13323308527469635
0.15385806560516357 -0.2499288022518158 -0.12154749035835266
-0.21654260158538818 -0.37189462780952454 -0.07401996105909348
0.10872070491313934 -0.19062259793281555 0.15403901040554047
0.1368575394153595 -0.3981668949127197 0.02344469353556633
0.1789121925830841 0.43726444244384766 0.02985900640487671
0.23851503431797028 -0.24054159224033356 -0.12945803999900818
0.06385622173547745 0.159891277551651 -0.1653621643781662
-0.269281804561615 0.2093760371208191 -0.11113330721855164
0.17936477065086365 0.46021318435668945 0.06592339277267456
0.029414791613817215 0.23879081010818481 -0.18738137185573578
0.2275402992963791 -0.24705006182193756 -0.08866802603006363
-0.21931380033493042 -0.2521139979362488 -0.10431578755378723
-0.030574403703212738 -0.24748238921165466 -0.020725976675748825
0.2840399146080017 -0.44599369168281555 0.0675775408744812
-0.0009457066771574318 0.19343343377113342 -0.22653837502002716
-0.15925051271915436 0.41779980063438416 -0.02234259806573391
-0.04076053574681282 -0.2528237998485565 -0.005193786695599556
0.1455020010471344 -0.34483709931373596 0.00822409987449646
0.2843412756919861 -0.44494155049324036 0.045342423021793365
-0.2671647071838379 -0.008053019642829895 -0.08007651567459106
-0.21218132972717285 -0.41182443499565125 -0.05879296734929085
0.03464397042989731 -0.24851270020008087 -0.12071597576141357
0.2972293794155121 -0.1583661288022995 0.06492125242948532
0.18469591438770294 -0.3471348285675049 0.12499160319566727
-0.26864850521087646 0.20854590833187103 0.02957376092672348
-0.252281129360199 -0.28673431277275085 0.054373033344745636
0.29670479893684387 -0.02607005089521408 0.07627637684345245
-0.24386300146579742 0.22767974436283112 -0.07340919226408005
0.2102818340063095 -0.24982084333896637 -0.11757297068834305
0.002071129158139229 0.1845942586660385 0.15771108865737915
-0.17480656504631042 0.20725107192993164 -0.13423176109790802
-0.18603795766830444 -0.2258189618587494 0.15868254005908966
-0.1372838318347931 0.22771161794662476 0.014793534763157368
-0.15616515278816223 -0.19349899888038635 0.16012096405029297
0.2679125666618347 0.17415545880794525 0.15934033691883087
-0.26921695470809937 -0.06104098632931709 0.040125586092472076
-0.2650216221809387 0.01890142634510994 -0.1345583200454712
-0.15663589537143707 0.44876518845558167 0.03624793887138367
-0.2628084719181061 0.45168983936309814 0.04162152111530304
-0.23542742431163788 -0.34675511717796326 0.13784436881542206
0.11477597057819366 -0.2508624494075775 -0.041035547852516174
0.29713013768196106 0.2251531481742859 0.10317017883062363
0.1429496556520462 -0.3611915707588196 0.07129669189453125
0.2955564260482788 -0.23697932064533234 -0.034467317163944244
0.22845697402954102 0.0071856118738651276 -0.13065606355667114
-0.20328497886657715 0.1448732614517212 0.16137170791625977
-0.17834000289440155 -0.380929172039032 -0.012878884561359882
0.09618481993675232 -0.21693702042102814 -0.1334845870733261
-0.07021600008010864 0.22473721206188202 -0.11434069275856018
-0.10630296170711517 0.11008201539516449 -0.13912872970104218
-0.20213362574577332 -0.4076785743236542 -0.04835483431816101
-0.2372332513332367 0.20481686294078827 -0.13073869049549103
0.29772356152534485 -0.22300633788108826 -0.08304762840270996
0.23553326725959778 -0.15603724122047424 0.16454438865184784
0.2888428866863251 -0.22689394652843475 -0.13240547478199005
-0.18511587381362915 0.22710682451725006 -0.09147827327251434
0.2948906123638153 -0.06411352008581161 -0.019688142463564873
0.26417091488838196 -0.24756167829036713 -0.10834983736276627
0.1927475780248642 0.49309849739074707 0.07807274907827377
-0.1663765162229538 -0.3449218273162842 -0.013198073953390121
0.29619088768959045 0.19540061056613922 0.12257641553878784
0.08594752848148346 0.027742542326450348 0.1698625534772873
0.23525038361549377 0.41952645778656006 0.10268665850162506
-0.12730522453784943 -0.25510480999946594 -0.033942971378564835
0.1860671043395996 0.47471264004707336 0.04101554676890373
0.2962786555290222 0.22204823791980743 0.02931414544582367
0.29966971278190613 0.45167747139930725 0.06276027858257294
0.2812352776527405 0.47500845789909363 -0.03372374549508095
0.14587754011154175 -0.19145643711090088 0.15510119497776031
0.0006862320005893707 -0.248212993144989 -0.13521739840507507
0.29776647686958313 0.1862412691116333 0.12964960932731628
-0.1777808666229248 0.22405360639095306 -0.09156055748462677
0.2959871292114258 0.22948528826236725 0.09902305901050568
-0.26786813139915466 -0.040616877377033234 -0.11515119671821594
0.07544093579053879 -0.024055009707808495 -0.13379240036010742
0.06477292627096176 -0.22868262231349945 0.1631457358598709
-0.2700064778327942 0.009703511372208595 -0.11482042819261551
0.13926132023334503 0.15110348165035248 0.16745223104953766
0.19736933708190918 0.22732090950012207 0.1373012214899063
-0.27052879333496094 0.14581382274627686 -0.07470071315765381
-0.0274319089949131 -0.08829215168952942 0.17029070854187012
0.19553229212760925 0.22464659810066223 -0.11975705623626709
0.20396240055561066 0.22685714066028595 0.12424898147583008
-0.26457497477531433 0.36577701568603516 0.04781397432088852
0.29890257120132446 0.22011758387088776 0.1373262256383896
-0.2506180703639984 0.3370119631290436 -0.023198021575808525
0.26402878761291504 -0.31928199529647827 -0.05621613562107086
-0.2502549886703491 0.33359572291374207 -0.015699753537774086
0.2873324155807495 -0.08101700246334076 -0.1327795833349228
0.08168936520814896 -0.2269303947687149 0.16090086102485657
-0.2006712406873703 -0.06152094155550003 0.16791607439517975
0.27467817068099976 0.054510414600372314 0.16086353361606598
0.26311755180358887 -0.24214477837085724 -0.13492482900619507
0.21985119581222534 0.2268451303243637 0.13320036232471466
0.19645361602306366 0.2285488396883011 0.003716468345373869
0.1942303329706192 -0.250285804271698 -0.12009209394454956
0.28986504673957825 -0.0672508105635643 -0.133047416806221
-0.14804084599018097 0.2094290554523468 -0.13524508476257324
0.24386881291866302 -0.25024253129959106 0.1289968639612198
0.19157302379608154 -0.10999766737222672 -0.13271479308605194
0.2977960705757141 -0.10011355578899384 0.055743083357810974
0.2605997622013092 -0.4472115635871887 0.12364434450864792
-0.03868255391716957 0.13468465209007263 -0.1726168543100357
-0.18232887983322144 0.45406174659729004 -0.056921206414699554
-0.2258564978837967 -0.472810834646225 -0.007248679641634226
0.13622839748859406 -0.40470296144485474 0.058900218456983566
-0.26769882440567017 -0.1436907798051834 -0.11450284719467163
-0.13229434192180634 0.2250736951828003 0.03538987785577774
-0.2093106210231781 0.3333922326564789 -0.044237252324819565
-0.0673152357339859 -0.017859509214758873 -0.13368067145347595
0.17427493631839752 0.3879297077655792 0.010441388003528118
0.2120402455329895 0.32885226607322693 -0.042297303676605225
-0.26451537013053894 0.11430196464061737 -0.10666215419769287
0.08810706436634064 0.22911085188388824 -0.023720961064100266
0.19525226950645447 -0.44824478030204773 0.009453970938920975
-0.23677168786525726 -0.3785794973373413 0.18821613490581512
-0.2658078968524933 -0.0934005156159401 -0.11747691035270691
-0.27064958214759827 -0.017362162470817566 -0.11521296948194504
0.2272925078868866 -0.3279517889022827 0.11606989055871964
0.18456439673900604 -0.3075004816055298 0.08430841565132141
0.15148210525512695 -0.24974432587623596 -0.09595233201980591
0.05778715759515762 0.14319151639938354 0.16912773251533508
0.21395491063594818 -0.17139393091201782 0.17072919011116028
0.29772093892097473 -0.15870049595832825 0.15000267326831818
-0.25615185499191284 0.16208314895629883 0.15629912912845612
-0.24129293859004974 -0.45464929938316345 0.11006762087345123
0.2967773675918579 -0.015570377930998802 -0.04922680929303169
0.2774375081062317 0.17770366370677948 0.15812146663665771
0.18018090724945068 0.2339293509721756 0.01464159693568945
-0.10877420008182526 -0.24392031133174896 -0.13317835330963135
0.3003176152706146 -0.1456323266029358 -0.08319348096847534
-0.027386343106627464 0.22754143178462982 0.09481765329837799
0.17431727051734924 0.3606320023536682 0.03268904611468315
0.12970095872879028 0.2250940352678299 -0.11603415012359619
0.20430773496627808 -0.44745951890945435 0.12908661365509033
0.17852997779846191 -0.44811975955963135 0.18409165740013123
-0.256727933883667 -0.05532418191432953 -0.13383744657039642
-0.270126610994339 -0.09000418335199356 -0.09874109923839569
0.2964131832122803 -0.18231604993343353 0.1495535522699356
-0.2657208740711212 0.43124932050704956 0.016181059181690216
-0.19271641969680786 0.44295117259025574 -0.06833191961050034
-0.17598450183868408 -0.359378844499588 -0.03272316977381706
0.1232982724905014 -0.2505651116371155 0.14936505258083344
-0.2880609929561615 -0.02114347368478775 -0.2601534426212311
0.2991468012332916 -0.15789775550365448 -0.1330287903547287
0.03163575753569603 -0.07506583631038666 -0.1336766481399536
-0.21664346754550934 -0.25355473160743713 0.09308140724897385
-0.26942378282546997 -0.17870353162288666 -0.11807702481746674
0.2996271848678589 0.01781749352812767 0.12643736600875854
0.2974414527416229 0.21932831406593323 -0.0840851366519928
-0.2544987201690674 -0.4564129412174225 0.06045716255903244
-0.17354288697242737 0.45844390988349915 -0.04005162790417671
-0.16770917177200317 -0.3427404463291168 -0.02045859582722187
0.1571005880832672 0.15826037526130676 0.16649147868156433
-0.08352834731340408 -0.24264729022979736 -0.13444441556930542
0.1214098334312439 0.023994263261556625 -0.133182555437088
0.16521330177783966 -0.13248714804649353 -0.1327633112668991
0.291830450296402 -0.16213345527648926 0.14259926974773407
-0.1519104689359665 0.1404387354850769 0.16733418405056
-0.012733696028590202 0.1539793461561203 -0.136161208152771
0.0482303723692894 0.14115652441978455 0.16849878430366516
0.04622739553451538 0.14926661550998688 -0.20796112716197968
0.1463548094034195 -0.2492678314447403 -0.12872545421123505
0.09900683164596558 0.14462962746620178 0.17071415483951569
0.29792067408561707 -0.2360069900751114 0.054947175085544586
-0.2553442120552063 0.3358224034309387 0.01869344152510166
0.20432035624980927 0.18870499730110168 0.15686018764972687
0.2605118155479431 -0.44387853145599365 -0.05132424086332321
0.15344394743442535 -0.2129765748977661 0.1601739227771759
-0.27127695083618164 -0.2138376384973526 -0.11817621439695358
0.2917936146259308 -0.4176650941371918 0.06665357947349548
0.2743808925151825 -0.23959380388259888 -0.1326279640197754
0.29728150367736816 -0.1433481127023697 -0.11726847290992737
-0.07358259707689285 -0.24289876222610474 -0.135173037648201
0.07388916611671448 -0.12148183584213257 0.17240798473358154
0.14613111317157745 -0.37427449226379395 0.10594308376312256
0.19159947335720062 0.22686263918876648 -0.11989002674818039
0.2877797484397888 0.06486532092094421 -0.13187094032764435
0.276724636554718 -0.07947643846273422 0.1614041030406952
0.30094850063323975 -0.23046109080314636 -0.1329040378332138
-0.03625939413905144 0.06326425820589066 0.16919417679309845
0.23830296099185944 -0.24171991646289825 -0.13138972222805023
0.09218107908964157 0.144310861825943 0.16690468788146973
-0.23939043283462524 0.20649422705173492 -0.13409307599067688
0.26393547654151917 -0.06687482446432114 -0.1290687620639801
0.2974982261657715 -0.23032033443450928 -0.10582330077886581
0.10339957475662231 0.22922246158123016 -0.11354929208755493
-0.26245325803756714 -0.032751813530921936 -0.13377967476844788
0.2962213456630707 0.22321298718452454 -0.04508933424949646
0.14852485060691833 0.19265247881412506 -0.1347581148147583
-0.2666335701942444 -0.13017483055591583 -0.1152704581618309
-0.16742610931396484 -0.3847261667251587 0.021138006821274757
