0.26536795496940613 -0.3287874162197113 0.1096406802535057
0.2817789912223816 0.22825857996940613 -0.10380515456199646
0.059331014752388 0.0945790708065033 0.17025770246982574
-0.25871574878692627 0.2295687198638916 -0.11453008651733398
-0.20854389667510986 0.22334608435630798 -0.13207119703292847
-0.27094346284866333 0.12194830179214478 -0.13185709714889526
0.1371503621339798 0.13619661331176758 0.16925592720508575
0.154000923037529 -0.23764730989933014 -0.13773801922798157
-0.14543206989765167 0.011917617172002792 -0.13527555763721466
-0.16159476339817047 0.41960418224334717 0.08328462392091751
0.14913277328014374 -0.4063609540462494 0.16231733560562134
0.23021914064884186 -0.2781996428966522 -0.05918065458536148
0.29000911116600037 0.13342231512069702 -0.1337948441505432
-0.21328847110271454 0.2307029366493225 -0.043056413531303406
-0.21669286489486694 0.09206554293632507 0.16912658512592316
0.1903403252363205 0.3965447247028351 0.11558932065963745
0.2966115176677704 0.1936468482017517 -0.1291179358959198
0.012765580788254738 0.14606358110904694 -0.13607221841812134
0.2864508032798767 -0.25222641229629517 -0.023103227838873863
0.2973502576351166 -0.05145009234547615 0.14734546840190887
-0.22506771981716156 0.5016717314720154 0.07160189002752304
0.2535528838634491 0.5062458515167236 0.10838951170444489
-0.007882906123995781 -0.1725103259086609 0.1684449017047882
-0.27051103115081787 0.0853416919708252 -0.13246731460094452
-0.20475278794765472 -0.0735926702618599 -0.13515470921993256
0.20888450741767883 0.22798892855644226 0.04160301387310028
-0.2591969072818756 0.009618163108825684 -0.1337873637676239
0.2440098226070404 -0.09711909294128418 0.16796167194843292
0.15936045348644257 0.22436928749084473 0.15177597105503082
0.2437710016965866 -0.43970200419425964 0.1990949660539627
-0.2538130581378937 0.23150943219661713 -0.0009303465485572815
0.1769593507051468 0.4237748980522156 0.09869584441184998
-0.12425098568201065 -0.24078311026096344 -0.13558852672576904
0.22603480517864227 -0.24978353083133698 -0.1242380291223526
-0.3286411166191101 -0.33784276247024536 0.1709395945072174
0.28823381662368774 0.45454680919647217 0.11770307272672653
-0.03577636927366257 0.17381513118743896 -0.13886995613574982
0.29423052072525024 0.4178716838359833 0.11688034981489182
-0.042104337364435196 0.16886234283447266 -0.13510233163833618
-0.02592763677239418 -0.17052069306373596 0.17053115367889404
0.07774867862462997 0.1579926609992981 0.16517841815948486
-0.13117504119873047 0.16133005917072296 0.16008514165878296
0.15005622804164886 -0.44332751631736755 0.015979710966348648
0.18648838996887207 -0.4418478012084961 -0.058813776820898056
-0.2681474983692169 -0.18128536641597748 0.15495462715625763
-0.048803433775901794 0.15952666103839874 -0.1357353925704956
-0.01189521886408329 0.10571099817752838 -0.1366439014673233
0.19694475829601288 -0.24912451207637787 0.1434442400932312
-0.2724611163139343 -0.347048282623291 -0.07980361580848694
-0.13355690240859985 -0.24043186008930206 -0.13205145299434662
-0.2709602415561676 -0.15178006887435913 -0.12817338109016418
-0.2534644305706024 -0.23645836114883423 0.15470147132873535
-0.16949743032455444 0.2212878316640854 -0.13697639107704163
-0.27257075905799866 -0.230910062789917 -0.1303570419549942
-0.046758949756622314 0.1499732881784439 0.1698899120092392
0.0854540690779686 0.22464674711227417 -0.13466784358024597
0.28674983978271484 -0.19953003525733948 -0.136530801653862
0.16663092374801636 -0.2032375931739807 0.15657170116901398
0.058099232614040375 0.19126169383525848 -0.17764925956726074
0.17396029829978943 -0.1679888218641281 0.16938114166259766
-0.2890048325061798 0.04785466194152832 -0.25908082723617554
-0.26118406653404236 -0.24969513714313507 -0.10696913301944733
-0.2047492265701294 0.4362039566040039 -0.07703647017478943
0.21556547284126282 -0.4126399755477905 0.20134341716766357
-0.27282989025115967 0.22135546803474426 0.056825585663318634
0.2891026735305786 -0.06869862973690033 -0.13344644010066986
0.16976073384284973 0.22768734395503998 0.11868934333324432
-0.27047330141067505 -0.1337897926568985 -0.1252189576625824
0.04729601368308067 -0.24348506331443787 -0.13622061908245087
0.05275818333029747 -0.22666892409324646 -0.1347143054008484
0.2751534581184387 -0.24870964884757996 -0.13508205115795135
-0.26283764839172363 0.17969878017902374 -0.13501696288585663
0.2814719080924988 0.3966270089149475 -0.0670621246099472
-0.16745884716510773 0.22775867581367493 -0.12982997298240662
0.29318875074386597 -0.14868642389774323 0.156660795211792
-0.0017044618725776672 0.15190201997756958 0.16875462234020233
-0.12379499524831772 -0.12063086032867432 0.16987234354019165
-0.21722187101840973 -0.4637119174003601 0.058127790689468384
0.22884954512119293 -0.15488091111183167 -0.13531051576137543
-0.2669057548046112 -0.40483301877975464 0.18364587426185608
0.1406107395887375 -0.24930185079574585 -0.12273299694061279
-0.24620115756988525 -0.009001964703202248 -0.24026958644390106
0.29698505997657776 0.3677964210510254 0.06760066747665405
-0.02523818425834179 -0.17469492554664612 0.16874831914901733
-0.22005575895309448 0.0203845277428627 0.16551615297794342
-0.09270090609788895 -0.17481836676597595 0.16895899176597595
-0.06490786373615265 -0.1740010529756546 0.16892321407794952
0.2802477180957794 -0.24893467128276825 0.05455465987324715
0.1389463096857071 -0.41374656558036804 0.03655470162630081
-0.19260413944721222 -0.3232044279575348 0.08176806569099426
0.29074859619140625 0.4324515163898468 0.12631776928901672
-0.1266009658575058 -0.2487758845090866 0.08641573041677475
0.2611480951309204 -0.2518504559993744 -0.11902328580617905
0.29488474130630493 -0.11245466023683548 -0.12218879908323288
0.2826356887817383 -0.3646051287651062 0.0869174674153328
0.2965594530105591 0.1950317919254303 -0.009785736910998821
-0.143783301115036 0.15097089111804962 0.17120294272899628
-0.2640504539012909 -0.07567298412322998 0.15642528235912323
-0.26984938979148865 0.0250291358679533 0.1547883301973343
-0.22392937541007996 -0.28952348232269287 -0.06244589015841484
-0.25835683941841125 -0.1405797004699707 -0.13349753618240356
-0.04341086000204086 -0.2409261018037796 0.1567879617214203
-0.2199091613292694 0.1446247696876526 0.16462969779968262
0.2877221405506134 -0.2425861805677414 -0.13424567878246307
0.2642357349395752 0.22807630896568298 -0.03831757605075836
0.14015081524848938 -0.4365379214286804 0.04594170302152634
-0.007102347910404205 0.18730013072490692 -0.13573722541332245
0.29086756706237793 0.21748897433280945 -0.1319219172000885
-0.270176500082016 0.1965268850326538 -0.0018165241926908493
-0.25682443380355835 0.3400237262248993 0.04527280479669571
0.2976190149784088 -0.24774593114852905 -0.09338043630123138
0.26008182764053345 -0.15421831607818604 0.1534615457057953
0.2571372985839844 -0.17221643030643463 0.15307195484638214
0.23852673172950745 -0.24508723616600037 0.15343117713928223
0.17405003309249878 0.4285675287246704 -0.004951538518071175
0.23421701788902283 0.08131899684667587 0.1714780479669571
0.26299676299095154 -0.44331613183021545 0.1960902065038681
0.2142583578824997 -0.2502519190311432 0.09289605915546417
-0.13270971179008484 -0.2398122102022171 0.1564139425754547
-0.26804235577583313 0.01375022903084755 -0.13370561599731445
0.06207767128944397 0.1195053905248642 -0.1353186070919037
0.19817566871643066 -0.26490315794944763 0.06812036037445068
-0.26766979694366455 0.22751452028751373 -0.07819483429193497
0.03414253145456314 0.22870242595672607 0.1437741219997406
-0.023717105388641357 -0.17230641841888428 0.1679980754852295
0.29726457595825195 0.21386168897151947 0.14718908071517944
0.060404013842344284 0.13864251971244812 -0.13587847352027893
-0.17976221442222595 -0.2623542845249176 0.06890298426151276
-0.087291419506073 -0.24375061690807343 -0.13530795276165009
-0.19064640998840332 -0.24726641178131104 0.14145776629447937
0.29702872037887573 -0.22980426251888275 0.14819446206092834
-0.3052217662334442 -0.36437922716140747 -0.043079059571027756
0.2973634600639343 -0.030133042484521866 0.15383389592170715
0.02355877123773098 0.10305039584636688 -0.1828223317861557
0.16658227145671844 -0.4442133605480194 0.08706550300121307
0.2917039394378662 0.2222391664981842 -0.1332886815071106
0.18165037035942078 0.3447860777378082 0.04941827058792114
0.2960781157016754 0.2114364504814148 0.15406155586242676
0.2304799109697342 0.5183178782463074 0.04086409881711006
0.04911668971180916 0.20586846768856049 -0.13383038341999054
-0.1506766974925995 0.11468009650707245 -0.13592097163200378
0.20194900035858154 0.22676044702529907 -0.13066118955612183
0.2846295237541199 0.4469763934612274 0.1288396716117859
-0.2661858797073364 0.042251791805028915 -0.1378258764743805
-0.2395016849040985 -0.3357044458389282 -0.08457021415233612
0.24766671657562256 0.22743448615074158 -0.12405778467655182
-0.27036231756210327 -0.23954543471336365 0.03649977594614029
-0.13673727214336395 0.02908017300069332 0.17043551802635193
0.25880393385887146 -0.24804553389549255 -0.13414828479290009
-0.2695024609565735 -0.06527625024318695 -0.13342887163162231
0.2354501187801361 -0.3705019950866699 -0.08892098069190979
-0.24375025928020477 0.4833577275276184 0.09946642816066742
0.2969200611114502 0.20989573001861572 0.14251933991909027
0.24104131758213043 0.4983069896697998 -0.04274947568774223
-0.2730853855609894 0.19306226074695587 0.038826823234558105
0.2468988448381424 0.31124940514564514 -0.033505879342556
0.29407206177711487 -0.10841307044029236 -0.1333582103252411
-0.2304375320672989 0.25548070669174194 -0.021753914654254913
0.2961268723011017 -0.12188921868801117 -0.13329008221626282
0.19113099575042725 -0.1913270652294159 0.15866093337535858
0.2883182168006897 -0.4359641969203949 0.012211108580231667
0.19838978350162506 -0.26093772053718567 -0.041385408490896225
0.1447608470916748 -0.24258895218372345 -0.13527388870716095
-0.1817982941865921 0.31887248158454895 -0.005302556790411472
0.29810503125190735 0.11002328991889954 0.15149575471878052
0.29025736451148987 0.1451783925294876 -0.13430583477020264
0.2503010034561157 -0.31602704524993896 0.10444283485412598
0.2757779359817505 -0.36909401416778564 0.1546620875597
0.24085666239261627 0.5066132545471191 0.11263029277324677
0.09499606490135193 -0.18207205832004547 0.16473053395748138
0.18498702347278595 0.38727807998657227 -0.05194570869207382
-0.2710244953632355 -0.12779948115348816 0.14210562407970428
0.170831561088562 -0.3840668499469757 0.15737299621105194
0.017869796603918076 -0.2495240867137909 -0.11934670060873032
-0.20097856223583221 -0.2739192247390747 0.07613778859376907
-0.25174158811569214 -0.4629741907119751 -0.05543598532676697
-0.2603248059749603 0.22717131674289703 0.08009506016969681
-0.3360999524593353 -0.38943207263946533 -0.007301774807274342
-0.27155575156211853 -0.07118242979049683 0.14450131356716156
-0.24891650676727295 0.35109370946884155 -0.051523372530937195
-0.0020681601017713547 -0.21063371002674103 -0.13769066333770752
0.053144048899412155 0.1874588131904602 -0.15717104077339172
-0.26198697090148926 -0.05694255605340004 -0.13306862115859985
-0.17704471945762634 0.48872634768486023 0.09414158761501312
-0.05812335014343262 0.1479702591896057 0.16935545206069946
0.1541444957256317 0.16050049662590027 0.1608564853668213
-0.015086237341165543 -0.2409631907939911 0.1576877236366272
-0.24593324959278107 0.2296273112297058 -0.03299255296587944
-0.12067234516143799 -0.24541841447353363 -0.12999173998832703
-0.2207915335893631 0.08112217485904694 0.16048026084899902
0.029732918366789818 0.25382858514785767 -0.2544359862804413
0.28833359479904175 0.07409168779850006 0.15540611743927002
0.21898618340492249 0.33591216802597046 -0.05973067879676819
0.297425240278244 0.04875319451093674 -0.11002052575349808
-0.3357170820236206 -0.39978739619255066 -0.012808001600205898
-0.2693054974079132 0.13248597085475922 -0.13322409987449646
0.09838289767503738 -0.19328400492668152 -0.13511167466640472
0.05632594972848892 0.12656356394290924 -0.135245218873024
0.29551124572753906 0.2216753363609314 -0.07740255445241928
-0.27057063579559326 0.06209799647331238 -0.025622529909014702
0.2826528251171112 -0.23323191702365875 -0.13559672236442566
0.29942774772644043 0.11315391957759857 0.039580412209033966
0.1863965094089508 0.09434755146503448 -0.13452816009521484
0.27709853649139404 -0.24605754017829895 -0.13750672340393066
-0.22982312738895416 0.07957794517278671 0.15219224989414215
0.17234952747821808 -0.25050950050354004 0.039846450090408325
-0.014061298221349716 -0.24229541420936584 -0.13548557460308075
-0.05645947903394699 0.1501801759004593 0.17022113502025604
-0.2624662220478058 0.2270178496837616 0.05729866772890091
0.28586623072624207 0.15181942284107208 -0.13450480997562408
0.21097241342067719 -0.44481444358825684 -0.07311554998159409
0.20661917328834534 0.2298445701599121 0.03776988387107849
-0.2735980153083801 -0.3149225413799286 0.13850148022174835
-0.2683839201927185 -0.2456052452325821 -0.051985543221235275
-0.15776260197162628 0.36270344257354736 0.03743422031402588
-0.2660156190395355 0.2241424024105072 0.1345123052597046
0.29357436299324036 0.16585515439510345 -0.13355806469917297
-0.12304157018661499 0.14905887842178345 0.1705304980278015
-0.2680223286151886 -0.07529018074274063 -0.13198186457157135
0.18273133039474487 -0.44676265120506287 -0.05165842920541763
-0.26951494812965393 0.08008851110935211 -0.13439688086509705
-0.21640703082084656 0.14904434978961945 0.16841749846935272
-0.2704311013221741 -0.13748443126678467 -0.12675465643405914
0.2919027805328369 -0.4116355776786804 0.15692102909088135
0.007494914345443249 -0.2441484034061432 -0.13551335036754608
-0.27002954483032227 0.05747353285551071 -0.13172562420368195
-0.2676119804382324 -0.15170446038246155 -0.13394075632095337
0.30064937472343445 0.18482808768749237 0.14323842525482178
0.15248440206050873 -0.44441285729408264 0.003827333450317383
0.07921510934829712 -0.23816345632076263 0.15637415647506714
0.29692894220352173 -0.0008887052536010742 -0.1200268417596817
-0.20542162656784058 -0.40798622369766235 0.15265007317066193
0.005272693932056427 0.1802729219198227 -0.13588915765285492
-0.26820406317710876 -0.22808317840099335 -0.1329929381608963
0.22657886147499084 0.22940632700920105 0.05016367509961128
-0.24862244725227356 0.40533605217933655 0.11532403528690338
0.2894827425479889 0.2234383076429367 -0.08772163838148117
-0.02487671934068203 0.01494785025715828 -0.13541613519191742
0.2980153262615204 0.21710288524627686 0.13183164596557617
-0.2701973617076874 0.10491684079170227 0.03593815863132477
-0.26424703001976013 0.40587374567985535 0.1029982715845108
0.2638017237186432 0.004045961424708366 0.15483248233795166
-0.24930527806282043 0.4594038426876068 -0.04971964657306671
0.09420472383499146 -0.034739572554826736 -0.13544148206710815
-0.2704791724681854 -0.16576069593429565 -0.1276264637708664
0.13300004601478577 -0.18168580532073975 0.1654750406742096
-0.242954820394516 -0.3479026257991791 -0.08622074872255325
-0.25839850306510925 0.12550607323646545 -0.1356452852487564
-0.27066749334335327 0.212994784116745 0.1311653107404709
-0.26777341961860657 0.12820878624916077 0.14362037181854248
0.18565192818641663 -0.2489217072725296 -0.12284059822559357
-0.24982059001922607 -0.24396896362304688 -0.12321557104587555
-0.2600671052932739 -0.2529469132423401 -0.11185824126005173
-0.2793857455253601 -0.38887685537338257 0.20257383584976196
0.2430724799633026 -0.31536924839019775 -0.07444635778665543
-0.2544652223587036 -0.31919971108436584 0.12210892885923386
0.23984377086162567 -0.3037045896053314 0.1000869870185852
0.2906149923801422 0.10171760618686676 -0.1336948573589325
-0.09669429808855057 -0.24526287615299225 -0.1281728595495224
0.26243162155151367 -0.08170081675052643 0.15495184063911438
0.08091247081756592 -0.18817974627017975 0.1582735776901245
-0.04428583383560181 0.12473764270544052 -0.13653916120529175
0.23088300228118896 -0.3127939701080322 -0.07509976625442505
-0.25863954424858093 -0.377363920211792 -0.09511411935091019
0.07826516032218933 0.12332409620285034 -0.13649190962314606
0.21173137426376343 0.23217709362506866 -0.02294156514108181
-0.26932382583618164 0.05635968595743179 0.15544560551643372
-0.2699437141418457 -0.30451780557632446 0.10774793475866318
-0.10811600089073181 0.16011527180671692 0.1609351485967636
-0.2359987050294876 -0.46947720646858215 0.053376760333776474
-0.26925498247146606 0.11286957561969757 -0.13350725173950195
0.18292397260665894 0.2155683934688568 0.15638211369514465
-0.24598020315170288 0.4547725021839142 0.11336444318294525
-0.20479053258895874 0.15202009677886963 0.1698233038187027
-0.27251186966896057 0.13136395812034607 0.1511777937412262
-0.27058693766593933 0.062114398926496506 0.1434309482574463
0.2665296196937561 -0.4201403558254242 -0.07339560985565186
-0.27190515398979187 -0.07207068055868149 -0.12422876060009003
0.2590393126010895 0.45806631445884705 -0.08085392415523529
0.050343647599220276 0.05400831997394562 -0.13628831505775452
0.2861361801624298 -0.027975650504231453 -0.1335076093673706
-0.04350445047020912 0.16030927002429962 0.1631370186805725
0.20120257139205933 -0.35244813561439514 0.1356162577867508
0.15958985686302185 0.22513656318187714 0.15316540002822876
-0.23691432178020477 0.40494778752326965 -0.0799202173948288
0.2988286018371582 0.04965604841709137 0.14221590757369995
0.2128797322511673 0.48323866724967957 -0.056859925389289856
-0.2659803032875061 -0.023593474179506302 -0.13373199105262756
-0.2709115445613861 0.11377835273742676 -0.12881945073604584
-0.23948827385902405 0.22420111298561096 0.15548692643642426
-0.27066701650619507 0.04837256669998169 0.1454186737537384
0.24044713377952576 -0.4104786515235901 -0.09071110188961029
-0.2104007601737976 0.07408822327852249 0.1720047891139984
-0.26821455359458923 0.023429809138178825 -0.13595448434352875
0.24887210130691528 -0.3056228756904602 0.09739494323730469
-0.09993772208690643 -0.2508099377155304 -0.05044256150722504
0.0577600859105587 0.20416229963302612 -0.18038491904735565
-0.2681085169315338 -0.21420304477214813 -0.1356787085533142
-0.1090543270111084 0.16370099782943726 -0.13460300862789154
0.23026657104492188 0.31917455792427063 0.05759787559509277
-0.25924357771873474 0.12339578568935394 -0.1339806765317917
0.23928776383399963 -0.24809440970420837 -0.12462595105171204
0.3000440299510956 0.1281343400478363 0.15079167485237122
-0.2630087435245514 0.22443722188472748 0.1003413051366806
0.29993852972984314 0.20766571164131165 0.15012720227241516
-0.27264440059661865 0.22658441960811615 -0.09174313396215439
-0.1616852581501007 0.09632796794176102 0.17119088768959045
-0.2716716527938843 -0.07777868956327438 0.13251569867134094
-0.25250309705734253 0.40453964471817017 0.11697804182767868
-0.23312154412269592 -0.46525317430496216 0.07103629410266876
-0.21976271271705627 -0.17420175671577454 0.16786475479602814
-0.21576730906963348 -0.23785176873207092 0.1560426652431488
-0.24078719317913055 -0.46187445521354675 0.07303692400455475
-0.23594018816947937 0.2256685197353363 -0.1341189295053482
0.2522405683994293 -0.28364068269729614 -0.05495890602469444
-0.009342011064291 0.2387177050113678 -0.19373616576194763
0.1891012042760849 0.224697545170784 -0.13197404146194458
0.24706339836120605 0.08916250616312027 -0.13621921837329865
0.28744760155677795 0.3477739989757538 -0.04167114570736885
0.20771469175815582 0.31196433305740356 -0.01982729136943817
-0.03224588930606842 0.20253422856330872 -0.13684959709644318
0.2605677545070648 0.09548214077949524 0.1549174189567566
0.20204785466194153 0.2289283126592636 -0.11517510563135147
-0.16535070538520813 0.23002299666404724 0.016164809465408325
0.04067490994930267 -0.1727697104215622 0.16944536566734314
0.20388740301132202 0.2994932532310486 0.011229910887777805
0.25881242752075195 -0.41697806119918823 -0.08163619041442871
-0.2662104070186615 0.07401441037654877 0.1559523344039917
0.29804569482803345 -0.08034970611333847 -0.06777013093233109
-0.1674538105726242 0.3415745198726654 0.026393678039312363
-0.22914926707744598 0.4963127374649048 0.10427142679691315
-0.2289646565914154 -0.2475932091474533 -0.11732856184244156
-0.04143846780061722 0.18565768003463745 -0.1359429657459259
0.058639638125896454 -0.24454137682914734 -0.13578873872756958
0.06319650262594223 -0.24679486453533173 0.1431899070739746
0.2898710072040558 0.37625613808631897 0.11131186783313751
-0.21063266694545746 0.2299109399318695 -0.1263631284236908
0.2961427569389343 0.15984705090522766 -0.018016817048192024
-0.20804642140865326 0.22486965358257294 -0.13718277215957642
0.2963823676109314 -0.11640360951423645 -0.12299254536628723
-0.2593316435813904 0.34336531162261963 0.03097524680197239
0.008904584683477879 0.28603553771972656 -0.2381332814693451
-0.2082667350769043 -0.32260552048683167 -0.07047674804925919
-0.18891224265098572 -0.30666640400886536 0.07267916947603226
-0.1985110640525818 -0.2531285881996155 -0.06670208275318146
-0.25910094380378723 -0.24800243973731995 -0.1163165345788002
0.28600794076919556 -0.2114812731742859 -0.13629809021949768
0.18793189525604248 0.391379714012146 0.11554493010044098
-0.019637536257505417 0.22941939532756805 0.04729719087481499
-0.07518570125102997 -0.03639138117432594 -0.13651283085346222
0.23708727955818176 0.31392714381217957 0.05506531149148941
-0.2674710154533386 -0.07552219927310944 -0.1308070719242096
-0.2719034254550934 0.17811498045921326 0.15302130579948425
-0.25968942046165466 -0.16119027137756348 -0.1347137689590454
-0.16419556736946106 0.22934748232364655 0.02241949737071991
0.16842982172966003 0.14594800770282745 0.17038364708423615
0.29879406094551086 -0.15069237351417542 0.0304975938051939
-0.271205872297287 0.11012592166662216 -0.13239580392837524
0.2959434986114502 0.0969545990228653 0.06730867177248001
-0.2436605989933014 0.22663478553295135 0.12418240308761597
-0.2672067880630493 0.012273174710571766 -0.13527221977710724
0.12122072279453278 -0.2501949965953827 -0.12183541059494019
0.2471342831850052 0.04864868149161339 0.1633933186531067
0.2970104515552521 0.4410805106163025 -0.0030746806878596544
0.2142488807439804 0.3945220112800598 -0.08316674083471298
-0.015163153409957886 0.10789888352155685 -0.13539469242095947
0.29480889439582825 -0.08196346461772919 -0.1332475244998932
-0.18248440325260162 0.23046548664569855 0.0455118827521801
0.18636678159236908 -0.2490663081407547 -0.12399924546480179
0.24333447217941284 -0.4022185504436493 -0.09115235507488251
0.29155874252319336 0.22287195920944214 -0.12374451756477356
-0.2669743299484253 -0.04525457322597504 -0.13339106738567352
-0.23741397261619568 -0.24155715107917786 -0.13408394157886505
0.1630820482969284 -0.4203590750694275 0.18507058918476105
0.16303539276123047 -0.1795918047428131 0.16755783557891846
0.0018308702856302261 0.10258407890796661 -0.13780757784843445
-0.2696901559829712 -0.06230476126074791 0.14708060026168823
0.013866143301129341 -0.2498626857995987 0.040069855749607086
-0.26860126852989197 0.22448872029781342 -0.0821518525481224
0.051313988864421844 0.22365343570709229 -0.20263031125068665
0.062199316918849945 0.016692355275154114 -0.13544370234012604
-0.2516461908817291 0.2279253453016281 0.042714886367321014
0.15395519137382507 -0.1834588646888733 0.16509738564491272
-0.050121404230594635 0.15204119682312012 0.1688486635684967
-0.2710251212120056 -0.030636809766292572 -0.12464655190706253
-0.33355629444122314 -0.39808881282806396 0.024052610620856285
-0.21803231537342072 0.10607419162988663 0.16739016771316528
-0.2710176408290863 -0.11143774539232254 -0.12937739491462708
-0.052326932549476624 -0.24764461815357208 -0.12121780216693878
-0.1989099681377411 0.23336100578308105 0.05108160153031349
0.20093540847301483 0.22720858454704285 0.02777157723903656
0.07363100349903107 -0.1794196367263794 0.16732163727283478
0.2893654704093933 -0.25045129656791687 -0.10872609168291092
0.254747211933136 -0.2818664610385895 -0.050065845251083374
-0.1452362835407257 -0.24925099313259125 0.04320289194583893
0.2325989305973053 0.44408345222473145 0.10407007485628128
0.2561890482902527 -0.2478260099887848 -0.1252877563238144
0.07111021876335144 0.17307302355766296 0.15321184694766998
-0.2708360254764557 -0.11568942666053772 -0.03515966236591339
-0.12035708129405975 0.2271871119737625 0.1393418163061142
-0.2634746730327606 -0.2032286524772644 -0.13494637608528137
-0.26872581243515015 0.08514673262834549 0.02442927658557892
-0.2719876766204834 -0.16798298060894012 -0.12620507180690765
-0.25469011068344116 0.39356347918510437 0.11761872470378876
0.04411371797323227 0.22694635391235352 0.14240619540214539
0.2978156805038452 -0.2387891709804535 0.07096574455499649
0.2906308174133301 -0.17946523427963257 -0.13519074022769928
-0.06033308058977127 -0.18606629967689514 0.15995869040489197
0.11596695333719254 0.22917763888835907 0.13909533619880676
-0.028135202825069427 0.19667057693004608 -0.13563846051692963
-0.036298565566539764 0.17663408815860748 -0.13680490851402283
0.29095950722694397 0.04487721621990204 -0.1334189474582672
0.20302164554595947 0.3111306428909302 0.030634494498372078
0.28795942664146423 -0.2503463923931122 -0.0789249986410141
0.24844463169574738 -0.14089900255203247 0.16135816276073456
0.2924967110157013 -0.2513052225112915 -0.05675136297941208
0.1783405840396881 -0.4453516900539398 -0.04112721234560013
0.1713818907737732 -0.24807803332805634 -0.12476719915866852
-0.21002736687660217 0.019809704273939133 0.17132256925106049
0.2580631673336029 -0.14457958936691284 0.1543070375919342
0.25846439599990845 -0.44749993085861206 0.18422119319438934
-0.21073706448078156 0.05963462218642235 -0.13834072649478912
0.29701727628707886 -0.20205137133598328 0.13460709154605865
-0.25087442994117737 -0.23882563412189484 -0.1342356652021408
0.2903050482273102 -0.4388810992240906 0.0677473172545433
-0.2698907256126404 0.026228532195091248 0.053191374987363815
0.2938896119594574 0.21824099123477936 0.15409262478351593
0.21553611755371094 -0.25093722343444824 0.07580474764108658
-0.19226956367492676 0.15935687720775604 0.16368770599365234
0.29765263199806213 0.13143518567085266 0.14908835291862488
-0.18604297935962677 -0.336391419172287 -0.04938443750143051
-0.2669980823993683 0.0032413024455308914 -0.1349601447582245
0.2888425290584564 0.22731636464595795 -0.1253596395254135
0.22435003519058228 -0.2616952955722809 -0.051284223794937134
-0.07830623537302017 0.2274228185415268 0.03156774491071701
0.29672232270240784 0.3600497245788574 0.03424827381968498
0.20703575015068054 0.30352383852005005 -0.011914153583347797
-0.2681955099105835 -0.1755116879940033 -0.13147541880607605
-0.22787337005138397 0.2340809553861618 0.055587608367204666
0.2711033523082733 0.3030781149864197 0.02345261722803116
0.0754997581243515 0.21887405216693878 -0.1342799812555313
0.2904985249042511 0.2233363389968872 -0.13210637867450714
-0.2697770595550537 0.1816503405570984 0.13863742351531982
-0.26322034001350403 0.17500312626361847 -0.13398286700248718
0.2014429271221161 0.21679911017417908 -0.13756482303142548
-0.2856913208961487 0.09027846157550812 -0.28373977541923523
0.29753169417381287 -0.23742741346359253 0.06916414946317673
0.24282172322273254 0.5057219862937927 0.1178126335144043
0.013254791498184204 0.18833684921264648 -0.13661807775497437
-0.007821966893970966 0.10810384154319763 -0.1353669911623001
0.29711848497390747 -0.1819276362657547 -0.13361208140850067
0.23084771633148193 0.2269236445426941 0.07037036865949631
-0.268873006105423 0.22304843366146088 -0.06605994701385498
0.12425211071968079 -0.24745836853981018 -0.13427844643592834
-0.19656673073768616 0.387888640165329 0.09452710300683975
-0.2635473310947418 0.16013550758361816 -0.13392552733421326
0.29448002576828003 -0.21855062246322632 0.1540016233921051
-0.26090770959854126 -0.06114153936505318 -0.13332310318946838
0.19898007810115814 -0.19041107594966888 0.1615622639656067
-0.03177804499864578 0.15944944322109222 -0.20384009182453156
-0.1766737401485443 0.360161691904068 0.09778189659118652
-0.23869074881076813 0.40724727511405945 -0.07969292253255844
-0.2714674174785614 0.11292746663093567 0.14901858568191528
0.14996568858623505 -0.3344156742095947 0.025069190189242363
0.23510868847370148 0.30730706453323364 -0.0303637757897377
0.29532620310783386 0.22339026629924774 -0.08637607097625732
0.29140499234199524 -0.24969297647476196 -0.10040245205163956
-0.2730986773967743 -0.0705723688006401 -0.1112482100725174
0.2909410893917084 -0.43432721495628357 0.02006678655743599
0.24759741127490997 -0.2943102717399597 0.08993910998106003
-0.2671685218811035 -0.058886993676424026 -0.13223706185817719
-0.2134108692407608 0.11363670974969864 0.17137953639030457
-0.24710185825824738 -0.0011128857731819153 -0.2949904799461365
0.2916656732559204 0.04194726049900055 -0.13362598419189453
-0.2623962163925171 0.025460198521614075 0.15711523592472076
0.2381638139486313 -0.2485850751399994 -0.12439556419849396
0.2563208341598511 0.5072761178016663 -0.015511766076087952
0.2855445146560669 -0.4267312288284302 0.05337187275290489
0.271091490983963 -0.34458476305007935 0.1267370581626892
0.24200114607810974 0.3126450479030609 -0.03501453995704651
-0.2668801248073578 0.008751452900469303 -0.1360568255186081
0.29941654205322266 0.1706428825855255 0.14380064606666565
-0.2079250067472458 0.44368839263916016 -0.07294955104589462
0.04127480834722519 0.11150618642568588 -0.13598492741584778
-0.1571747362613678 0.41099366545677185 0.08326860517263412
-0.0014241747558116913 0.22607630491256714 -0.12568189203739166
-0.31989744305610657 -0.37479647994041443 0.1418464630842209
0.1538781374692917 0.2146500051021576 0.15703949332237244
0.2978880703449249 -0.1916990578174591 -0.13266749680042267
0.26473912596702576 -0.42299070954322815 -0.0702374130487442
-0.2181997299194336 0.23044849932193756 0.058664485812187195
0.18086183071136475 0.35099536180496216 -0.0023355770390480757
0.21514369547367096 -0.1971006691455841 -0.13510705530643463
0.2548952102661133 0.21318188309669495 -0.13333925604820251
-0.2709179222583771 -0.089366614818573 0.14893829822540283
-0.14114342629909515 0.2234886735677719 0.15502282977104187
-0.23977912962436676 0.34261223673820496 0.08305191993713379
-0.2178770750761032 -0.12566068768501282 0.1634588986635208
-0.27064093947410583 -0.24366413056850433 -0.034668296575546265
-0.0010511446744203568 -0.25063252449035645 0.14685001969337463
-0.1564227044582367 0.4130593538284302 0.06096675992012024
-0.17739617824554443 0.44006267189979553 0.08793549239635468
0.29103168845176697 0.08382786810398102 0.15532633662223816
-0.15903326869010925 0.3535817861557007 0.01655418798327446
0.28804782032966614 -0.24990473687648773 -0.12374889850616455
0.28644508123397827 -0.3773183524608612 0.14176306128501892
0.2918107211589813 -0.14393357932567596 -0.13461069762706757
-0.2931731939315796 -0.3794780969619751 0.19632917642593384
0.24105829000473022 -0.42118436098098755 0.20518924295902252
-0.1501651555299759 -0.25523900985717773 0.028600400313735008
0.19826887547969818 -0.30536749958992004 0.08914367854595184
0.29592058062553406 -0.05948176607489586 -0.12221187353134155
0.19809654355049133 0.07170278578996658 -0.13483746349811554
-0.26650774478912354 0.22420009970664978 -0.024798525497317314
-0.04257609695196152 -0.252449095249176 -0.11939701437950134
-0.27116459608078003 -0.1614362597465515 0.048864319920539856
-0.11235862225294113 -0.24260801076889038 0.1549595296382904
-0.26828792691230774 0.025779344141483307 -0.1293935775756836
0.28120747208595276 0.3266797363758087 0.04192380979657173
0.05375494435429573 0.19666126370429993 -0.16690753400325775
-0.26171666383743286 -0.24492499232292175 -0.1232842430472374
-0.17814922332763672 0.3566228151321411 -0.050090983510017395
-0.07997061312198639 0.22745557129383087 -0.12455648183822632
0.21366259455680847 -0.18827120959758759 0.1636865735054016
-0.2630681097507477 0.16607841849327087 -0.13385486602783203
-0.20642952620983124 -0.27850037813186646 0.07946720719337463
0.2478691041469574 0.1319299191236496 0.16111771762371063
0.23655912280082703 0.137785866856575 0.16937732696533203
0.2726686894893646 -0.42695775628089905 -0.05974271520972252
-0.26083362102508545 0.04395377263426781 -0.13503733277320862
0.1867597997188568 0.22353675961494446 -0.1337907314300537
-0.26370328664779663 0.2272007316350937 -0.05322674289345741
0.15137700736522675 -0.4315412640571594 -0.02999822609126568
-0.17878080904483795 0.2295311689376831 0.052080683410167694
0.2460840344429016 0.13774853944778442 0.16475090384483337
-0.19405624270439148 -0.17411741614341736 0.17046649754047394
0.29833289980888367 0.02307438850402832 -0.12255643308162689
-0.19371038675308228 0.2308473289012909 0.05292873829603195
0.2486271858215332 0.03532833233475685 0.16257813572883606
-0.2861887812614441 0.061826083809137344 -0.2628314197063446
0.13558784127235413 -0.24316509068012238 -0.13679923117160797
-0.2582753300666809 -0.09981946647167206 -0.13465991616249084
0.024609938263893127 0.12546506524085999 -0.20924825966358185
-0.02741161547601223 -0.24960874021053314 0.15337911248207092
-0.26764795184135437 0.22603783011436462 -0.06380527466535568
-0.2722117304801941 -0.1391817182302475 0.14934173226356506
0.29942458868026733 -0.08390247821807861 0.1462811827659607
0.1747329831123352 0.22724497318267822 -0.10219857096672058
0.2988426089286804 0.40093886852264404 0.07116158306598663
-0.21388787031173706 -0.442760705947876 0.13073721528053284
-0.18227675557136536 0.25612255930900574 0.02178833819925785
0.20032377541065216 0.22666871547698975 0.028381388634443283
-0.1768191158771515 -0.37193965911865234 -0.025594742968678474
0.031085088849067688 0.23008069396018982 0.14012208580970764
-0.21911843121051788 0.05081082880496979 0.16596750915050507
-0.26443052291870117 -0.08094140887260437 -0.13631193339824677
0.09490511566400528 -0.18575379252433777 0.15848687291145325
0.21322447061538696 -0.44177472591400146 0.1940932422876358
0.2661551535129547 0.23812144994735718 -0.02060440555214882
0.05236238241195679 -0.24870654940605164 -0.12304720282554626
0.21009382605552673 0.09754923731088638 -0.13584087789058685
-0.149972066283226 -0.2743917405605316 0.0230800062417984
-0.09549781680107117 0.10590925812721252 0.17120417952537537
-0.2178465574979782 0.025533363223075867 0.16929544508457184
-0.19691404700279236 0.23340626060962677 0.04993581771850586
-0.2678133249282837 0.2014264315366745 -0.13127507269382477
0.2844182848930359 0.34405139088630676 0.08980324864387512
0.039622630923986435 -0.2492394745349884 -0.007384876254945993
0.14852400124073029 -0.4441201388835907 0.11583097279071808
-0.1983269900083542 0.21725361049175262 0.15741929411888123
-0.2169964760541916 -0.2401537150144577 0.1560373306274414
-0.2719880938529968 0.1884133517742157 0.1368669718503952
0.2986840605735779 -0.06798694282770157 0.1427486538887024
-0.1663111299276352 -0.138937309384346 -0.13419774174690247
0.1680406928062439 -0.17654460668563843 0.16811923682689667
-0.3099724054336548 -0.4443449079990387 -0.0733109712600708
0.2985597550868988 -0.24778252840042114 0.13088247179985046
-0.26715096831321716 -0.18245959281921387 -0.12913815677165985
-0.25899744033813477 0.05851000174880028 -0.13545170426368713
0.29591816663742065 0.36935630440711975 0.06413062661886215
0.03719088435173035 -0.09665849804878235 -0.13536928594112396
0.14079152047634125 -0.4360123574733734 0.02442900650203228
-0.2609429955482483 0.2276904582977295 -0.052874479442834854
0.015490008518099785 0.1000034511089325 -0.13679265975952148
-0.2631598711013794 0.22631387412548065 0.10265526175498962
-0.2717074751853943 0.05441803112626076 0.10224579274654388
-0.0507594458758831 0.22933316230773926 -0.041582927107810974
0.2937650680541992 0.22643983364105225 0.0007477281615138054
-0.06468617916107178 0.16066418588161469 0.1627190113067627
-0.25126412510871887 -0.2515643537044525 0.05328690633177757
0.28650930523872375 0.3334956169128418 -0.034372057765722275
-0.26362380385398865 0.4398116171360016 0.10526779294013977
-0.20691293478012085 0.32204172015190125 -0.02810821309685707
0.23627890646457672 0.5045977234840393 0.12041455507278442
-0.17697739601135254 -0.24566298723220825 -0.13136659562587738
0.0728464275598526 0.17628635466098785 -0.1357440948486328
0.19212102890014648 -0.17721027135849 0.16757319867610931
-0.18612822890281677 0.49907222390174866 0.033867090940475464
0.24880395829677582 -0.2651229202747345 -0.04181768745183945
0.2900538444519043 0.22164246439933777 -0.1327608972787857
-0.2384876310825348 -0.30375921726226807 -0.06828633695840836
-0.18701547384262085 0.45786741375923157 0.09263122081756592
-0.24084144830703735 -0.4519427418708801 0.10624777525663376
0.2536846101284027 0.048644907772541046 0.15432442724704742
0.28445959091186523 0.014641493558883667 -0.13340207934379578
0.23869982361793518 0.04399256780743599 0.16979843378067017
0.178022563457489 -0.13646365702152252 0.17021799087524414
-0.16731634736061096 0.4708895683288574 0.0065795183181762695
-0.17456677556037903 -0.2507375478744507 0.0842554122209549
0.029749765992164612 0.20943064987659454 -0.13655266165733337
0.2938991189002991 0.025306280702352524 0.1546015441417694
0.292352557182312 0.0468197837471962 -0.1343996226787567
-0.23275001347064972 -0.3940027356147766 0.1875
0.2935730814933777 -0.119384765625 0.15658248960971832
0.13302728533744812 0.2247515469789505 -0.1330564320087433
0.29794570803642273 0.14426693320274353 -0.023899020627141
0.24473319947719574 0.5131615996360779 0.08720848709344864
0.042176660150289536 -0.24934881925582886 0.14429479837417603
-0.3267793357372284 -0.3587813377380371 0.17388729751110077
-0.17317764461040497 -0.2572530210018158 0.06577792763710022
-0.21968162059783936 0.04720425233244896 0.16241298615932465
-0.27156370878219604 0.2254675179719925 -0.0761290192604065
0.27752962708473206 -0.24939663708209991 0.06491106003522873
-0.2699616849422455 0.22689740359783173 -0.09852506220340729
0.29850009083747864 0.07354064285755157 0.15008392930030823
0.25870972871780396 0.13644184172153473 0.15315188467502594
0.2881726324558258 0.15026287734508514 0.1555480659008026
0.2564578056335449 0.4333190619945526 -0.08681544661521912
-0.27104341983795166 -0.07976626604795456 0.14749760925769806
0.11522476375102997 0.16527986526489258 0.1587090790271759
-0.06006237864494324 0.226264089345932 -0.12734264135360718
0.12868216633796692 -0.2478799968957901 0.12734568119049072
-0.2288491129875183 0.5001392960548401 0.09122799336910248
-0.24129325151443481 0.2299472689628601 0.05288136750459671
0.14930088818073273 -0.25016719102859497 -0.12387547641992569
0.28996801376342773 0.22498491406440735 0.07268795371055603
-0.2504483163356781 -0.24061007797718048 0.15498709678649902
-0.26989710330963135 -0.21563319861888885 0.14526142179965973
0.08501027524471283 -0.23993176221847534 -0.13457852602005005
-0.1475505530834198 0.2163396179676056 0.1563408523797989
0.1628444790840149 -0.2011171281337738 0.15580818057060242
-0.2654375731945038 -0.2437250316143036 -0.132869690656662
-0.24195073544979095 -0.29555705189704895 0.08651316165924072
-0.2468598335981369 0.4251357913017273 -0.06772570312023163
0.2907487154006958 -0.1475219428539276 -0.13426825404167175
0.29809170961380005 -0.24577119946479797 0.08331316709518433
0.21857963502407074 -0.4228878617286682 -0.08802522718906403
0.2937227487564087 0.21131201088428497 -0.027466025203466415
0.2343176007270813 -0.21755629777908325 -0.1340690404176712
-0.2663046717643738 -0.2460414469242096 -0.13178253173828125
-0.22225776314735413 -0.4125292897224426 0.1786787509918213
0.12643451988697052 0.16694952547550201 -0.1358434110879898
-0.3360654413700104 -0.3682189881801605 0.118740513920784
-0.2565365433692932 -0.2529836595058441 0.05589986965060234
0.17194709181785583 -0.19552552700042725 0.15259003639221191
-0.2699449062347412 0.22341911494731903 0.048803217709064484
0.09077459573745728 -0.2467237114906311 0.1531466394662857
-0.29029208421707153 0.016818275675177574 -0.29808300733566284
-0.26228153705596924 -0.24815407395362854 -0.11041772365570068
-0.264621376991272 -0.2461554855108261 0.1265062838792801
0.2472696453332901 -0.06670814007520676 0.16526642441749573
-0.2648389935493469 0.17597560584545135 -0.13190370798110962
-0.22346386313438416 -0.45393043756484985 0.13068750500679016
-0.19617706537246704 0.12535379827022552 0.17106057703495026
0.29432860016822815 -0.4358981251716614 0.062338218092918396
0.03272583335638046 0.22682039439678192 -0.12271179258823395
0.26352182030677795 -0.3757549822330475 -0.07672061026096344
0.29624444246292114 -0.04199458658695221 -0.13157910108566284
0.1849772185087204 0.44068869948387146 0.1115281879901886
0.2872849702835083 -0.43379104137420654 0.0015210066922008991
0.24695417284965515 0.14747780561447144 0.16315042972564697
0.29310545325279236 0.18021951615810394 -0.13320870697498322
0.2747459411621094 -0.23385874927043915 -0.13553966581821442
0.28870800137519836 -0.16940253973007202 0.15703396499156952
0.00302137341350317 0.11685234308242798 -0.13564682006835938
0.17650264501571655 -0.4437062740325928 -0.049677446484565735
-0.2579721212387085 0.12772923707962036 -0.13536913692951202
-0.19315770268440247 -0.20971611142158508 -0.13512757420539856
0.29821011424064636 0.2127404659986496 0.11291705071926117
-0.2626766860485077 0.1349041908979416 -0.13428950309753418
-0.26849204301834106 -0.06742827594280243 0.1550360769033432
-0.006988396868109703 -0.17041394114494324 0.16877910494804382
0.26424020528793335 -0.24644246697425842 -0.1359805166721344
-0.04018088057637215 0.11887456476688385 -0.13705004751682281
-0.21607699990272522 -0.4403170049190521 0.148028165102005
0.1384248584508896 -0.39110225439071655 0.04310231655836105
-0.2697797417640686 -0.15744876861572266 -0.12885066866874695
0.17924615740776062 -0.2496885359287262 -0.03920496627688408
-0.33088523149490356 -0.3633435368537903 0.145640566945076
0.2851101756095886 0.4067768156528473 0.132077157497406
-0.031695954501628876 0.11721126735210419 -0.13476182520389557
0.1607632339000702 -0.4465194046497345 -0.030129238963127136
-0.26968029141426086 0.040762122720479965 0.14948958158493042
0.278607040643692 -0.4439559280872345 0.09751935303211212
0.02387763001024723 0.1665351837873459 0.15423855185508728
-0.07907764613628387 0.04071323573589325 0.1712738424539566
-0.26946479082107544 0.17602744698524475 -0.13061277568340302
-0.25096362829208374 -0.24581067264080048 -0.1352328658103943
0.2626468539237976 -0.4135536253452301 0.19957402348518372
0.2971760332584381 0.09413470327854156 0.14621847867965698
0.2986011505126953 0.07907228171825409 0.14885565638542175
0.12076446413993835 0.2289830893278122 -0.09543246030807495
-0.2678578495979309 0.0745573490858078 -0.13328586518764496
-0.29842567443847656 -0.4541265070438385 -0.06373870372772217
-0.27043968439102173 -0.13744358718395233 0.15243691205978394
0.22777965664863586 -0.2916051149368286 -0.06694480776786804
0.2629173696041107 0.22863909602165222 -0.03005155548453331
0.23464736342430115 0.3715468943119049 -0.08856729418039322
0.29335299134254456 -0.24953623116016388 0.028805887326598167
0.08881483972072601 -0.24521738290786743 0.15401671826839447
-0.07814064621925354 -0.19972866773605347 0.15570548176765442
-0.14295075833797455 0.15408527851104736 0.16974297165870667
0.2927910387516022 0.21456517279148102 0.1535479724407196
-0.21930932998657227 0.08470538258552551 0.1649625301361084
0.20080052316188812 -0.15407079458236694 -0.1351127326488495
-0.014526739716529846 0.17326097190380096 -0.2215575873851776
0.027216928079724312 -0.19231657683849335 0.1531023383140564
0.3010917901992798 -0.18445724248886108 -0.12365368008613586
0.2889102101325989 -0.0888957530260086 -0.13364358246326447
0.28813260793685913 0.22170108556747437 -0.1328316330909729
-0.03727719932794571 0.17346075177192688 -0.13572236895561218
-0.27090924978256226 -0.21833212673664093 -0.13248828053474426
-0.1938338279724121 -0.4027584493160248 0.1029684990644455
-0.2391788810491562 -0.4768465459346771 -0.028933433815836906
0.27875131368637085 -0.44349291920661926 0.1929233819246292
0.06593139469623566 -0.04201502725481987 -0.13554604351520538
0.03495891019701958 0.21659161150455475 0.15698744356632233
-0.13963156938552856 -0.17423796653747559 0.16989663243293762
0.07503045350313187 -0.19032439589500427 0.15231239795684814
-0.23570245504379272 -0.4520893692970276 0.12379232794046402
-0.14810152351856232 -0.2533307373523712 -0.012400085106492043
0.07141145318746567 0.154424786567688 0.16681678593158722
-0.0675213411450386 0.04753328859806061 0.17046381533145905
0.2913724184036255 0.22279122471809387 -0.12873026728630066
-0.2698948085308075 -0.01750938594341278 0.153285413980484
0.2663729786872864 -0.42302408814430237 0.20008240640163422
0.29224395751953125 -0.43311089277267456 0.09345196932554245
-0.17685151100158691 0.15047401189804077 0.16991572082042694
-0.1304248422384262 0.15108934044837952 0.17043402791023254
-0.25735700130462646 -0.2525179386138916 -0.07082848250865936
-0.056391261518001556 0.0906856507062912 -0.13691189885139465
0.2936113178730011 0.0874018594622612 -0.13284969329833984
0.29834723472595215 0.1705845147371292 0.1508922278881073
-0.07980513572692871 -0.19844985008239746 0.1542349010705948
0.10983139276504517 -0.1827172338962555 0.16474586725234985
-0.16396626830101013 0.3729418218135834 0.06943327188491821
-0.03837458789348602 0.16578596830368042 0.15535886585712433
-0.2413322627544403 -0.2452811747789383 -0.1322973072528839
0.2112579047679901 0.2874630093574524 -0.005834958981722593
-0.2626158595085144 -0.3223620057106018 -0.07081273198127747
-0.25788387656211853 -0.24743792414665222 -0.1210489422082901
0.29118627309799194 -0.2096596360206604 0.15621188282966614
-0.26632586121559143 0.22471407055854797 0.07956385612487793
-0.20199546217918396 -0.15158475935459137 0.1701560616493225
-0.21268755197525024 -0.4170171320438385 0.16548335552215576
0.291023313999176 0.2212267518043518 -0.13293465971946716
-0.2592260539531708 0.16254881024360657 0.1579551100730896
0.24382126331329346 0.23032979667186737 -0.03617209196090698
0.2979796230792999 0.025138238444924355 0.145062655210495
0.16008438169956207 0.14973312616348267 0.1702037900686264
0.2875600755214691 -0.42356449365615845 0.17604851722717285
0.05782267823815346 0.22861512005329132 0.11550398170948029
-0.2439490705728531 -0.39348524808883667 0.1966705024242401
-0.291019082069397 0.06876125931739807 -0.27118006348609924
0.29117754101753235 0.22779373824596405 -0.0245777927339077
0.1004926785826683 0.22565694153308868 0.14840537309646606
-0.17605522274971008 0.2301904857158661 -0.022017372772097588
-0.010045815259218216 -0.2448926717042923 0.15443074703216553
-0.1918499618768692 0.2459573745727539 0.039361804723739624
-0.2633706033229828 0.2257869392633438 0.09908947348594666
0.17571806907653809 0.445059210062027 -0.004531707614660263
-0.25975310802459717 -0.3985552489757538 0.20656457543373108
0.2959776818752289 0.22329676151275635 0.04600267857313156
-0.15963827073574066 0.1508772075176239 0.17200231552124023
0.294746071100235 0.22265011072158813 0.15252624452114105
0.05061237886548042 0.21889446675777435 -0.19872352480888367
0.20962902903556824 0.2787376046180725 0.019717613235116005
0.18265238404273987 0.4301117956638336 0.1141858845949173
0.14993783831596375 -0.11033087968826294 -0.13498245179653168
0.28905606269836426 0.04264390468597412 -0.13387486338615417
0.29769375920295715 -0.23469635844230652 -0.052315279841423035
-0.25740429759025574 0.4703926146030426 0.10003210604190826
0.21976256370544434 -0.18294435739517212 0.16698294878005981
0.19063700735569 -0.2472211718559265 -0.13477858901023865
0.022690830752253532 0.14843587577342987 -0.13516539335250854
0.2491801679134369 -0.12306927889585495 0.16098283231258392
-0.23567426204681396 -0.42125073075294495 0.1931215524673462
0.1670888364315033 -0.24984696507453918 0.03781188279390335
-0.07525946199893951 0.16553379595279694 0.1531105637550354
-0.27188345789909363 0.21985501050949097 0.11687900125980377
0.14223426580429077 0.17363107204437256 0.15304751694202423
