0.2987867593765259 0.44786468148231506 0.03139808773994446
0.07672148942947388 -0.251081645488739 -0.10402894020080566
0.2401968240737915 -0.10918508470058441 -0.1356702446937561
0.2033352106809616 -0.15713204443454742 -0.13514912128448486
0.17855098843574524 -0.04845840856432915 0.1694602519273758
0.2909245193004608 0.47590577602386475 0.07210911065340042
-0.16858074069023132 0.08283359557390213 -0.13475491106510162
-0.2575148344039917 0.41808852553367615 -0.04835130274295807
-0.09561203420162201 -0.14637744426727295 0.1710272580385208
-0.16230903565883636 -0.30306363105773926 0.04466645047068596
-0.2715580463409424 -0.03331322968006134 -0.007442440837621689
0.2649713456630707 -0.29413026571273804 -0.03180944547057152
0.06753458827733994 0.22610321640968323 -0.01534549705684185
-0.046435143798589706 0.00849416758865118 0.17063921689987183
-0.27339211106300354 -0.022216152399778366 -0.0480334535241127
-0.03830678015947342 0.22829705476760864 0.04024641215801239
-0.21321310102939606 -0.4405217468738556 -0.04628561809659004
-0.2688170373439789 -0.18073904514312744 0.06844758987426758
-0.005345579236745834 0.1633409857749939 -0.2209828943014145
0.2957206964492798 -0.16124668717384338 0.013713513500988483
-0.05651650205254555 -0.05447735637426376 0.16990947723388672
-0.18723903596401215 -0.11188417673110962 0.1689310073852539
-0.15645454823970795 0.4374798536300659 0.011807942762970924
-0.25359511375427246 0.09766446799039841 0.1556536704301834
0.2166583389043808 -0.4446983337402344 0.17750386893749237
0.30160918831825256 0.05854764208197594 -0.11011920869350433
0.053593553602695465 -0.25151365995407104 -0.07349345833063126
-0.21423839032649994 -0.3636265993118286 0.11643300205469131
0.29484057426452637 -0.1280788630247116 -0.03648146986961365
0.2821590304374695 0.32716450095176697 0.028226740658283234
0.08401716500520706 0.0384138859808445 0.16705861687660217
-0.29528141021728516 -0.4399459958076477 -0.005172676872462034
0.06863562762737274 0.22837574779987335 0.015836458653211594
-0.27173855900764465 -0.09193586558103561 -0.08127429336309433
-0.007577886339277029 0.05295359343290329 -0.13406796753406525
-0.27112093567848206 0.1466367095708847 0.019036956131458282
0.26174306869506836 -0.22740055620670319 0.1613408476114273
0.1892634630203247 0.22675126791000366 -0.07293984293937683
0.14135350286960602 -0.37112852931022644 0.06828662753105164
0.19092337787151337 0.48878589272499084 0.03598560765385628
0.2358585000038147 -0.15984179079532623 -0.13567019999027252
0.29709509015083313 0.18390315771102905 0.1127973347902298
-0.15203957259655 0.10666941106319427 -0.1330418586730957
-0.1977005898952484 0.06958267092704773 -0.13448402285575867
-0.20272651314735413 -0.44790124893188477 0.03584258258342743
0.25687459111213684 0.10941773653030396 -0.13436801731586456
-0.2736416459083557 -0.06252510100603104 -0.08718167245388031
0.16485595703125 -0.03810718283057213 0.17098090052604675
0.16203366219997406 -0.4467710852622986 0.14209376275539398
-0.2706860303878784 0.0038393603172153234 0.13091914355754852
0.016655292361974716 -0.0829530730843544 0.16949895024299622
-0.270978718996048 0.20682081580162048 0.03551722690463066
0.3001464009284973 -0.0667792484164238 0.049902159720659256
-0.2561371624469757 0.004729909356683493 -0.13892804086208344
0.30195653438568115 0.06454236060380936 0.08503028005361557
-0.2816157639026642 -0.3182677626609802 0.020625734701752663
-0.21981768310070038 0.41464918851852417 0.08932464569807053
-0.26494401693344116 0.38285455107688904 -0.004738559480756521
-0.1532631814479828 0.1735486388206482 -0.13660460710525513
-0.2401466965675354 0.08761902898550034 -0.1319047510623932
-0.32122334837913513 -0.36635488271713257 0.003122757188975811
-0.20360474288463593 0.04693068936467171 0.16952240467071533
0.055470794439315796 0.1700344830751419 -0.1903907209634781
0.20936554670333862 -0.29529106616973877 0.09303128719329834
-0.31052422523498535 -0.4156648814678192 0.033936433494091034
-0.12381812930107117 -0.2546473741531372 0.045002780854701996
-0.030117090791463852 -0.15594279766082764 -0.13513609766960144
0.2785338759422302 0.4856920838356018 -0.025758463889360428
-0.15593567490577698 0.44270622730255127 0.06470586359500885
0.2944776713848114 -0.42770692706108093 0.08039815723896027
-0.07608345150947571 0.1516353338956833 -0.13362433016300201
-0.12165132910013199 -0.09928858280181885 0.16604673862457275
0.2971527576446533 -0.16918118298053741 0.023889826610684395
0.21725541353225708 0.22885383665561676 0.08181370049715042
0.020490512251853943 -0.25231918692588806 -0.015008357353508472
0.03322291374206543 -0.15248051285743713 0.16668827831745148
0.24774613976478577 -0.4467741549015045 0.03900757431983948
0.29714295268058777 0.007459705229848623 -0.004097262397408485
-0.1494823694229126 0.2289990931749344 -0.10225032269954681
0.0847581997513771 0.0005549534107558429 0.17385664582252502
-0.25853076577186584 -0.4689406156539917 0.014663385227322578
-0.24606426060199738 -0.05350019410252571 -0.2433866709470749
0.17433050274848938 -0.09527181088924408 -0.1422259658575058
-0.31834378838539124 -0.4291378855705261 -0.029618345201015472
0.15585269033908844 -0.3772841691970825 -0.03873000666499138
0.1268492043018341 -0.019422492012381554 0.16835947334766388
0.22413893043994904 0.4376591742038727 -0.08536963164806366
0.23625269532203674 0.23071874678134918 -0.11704743653535843
0.1988449990749359 -0.4466565251350403 0.0014297121670097113
-0.1543634682893753 0.2263425886631012 -0.005930600222200155
0.08168795704841614 -0.012385689653456211 -0.13560934364795685
0.26704028248786926 0.4114956855773926 -0.08304286748170853
0.10042494535446167 0.2283618301153183 0.05526677519083023
-0.27175530791282654 -0.22594687342643738 -0.056914906948804855
-0.1997433453798294 -0.25122714042663574 -0.08499220013618469
-0.2095668464899063 -0.4558636546134949 0.051975324749946594
-0.11983277648687363 -0.1596396416425705 0.17197050154209137
-0.15651340782642365 0.451328843832016 0.03862375393509865
0.1291804015636444 0.12119597941637039 0.169517382979393
-0.26617199182510376 0.4563847482204437 0.03504495695233345
0.27933964133262634 -0.4021603763103485 -0.022083576768636703
0.27544111013412476 0.17065663635730743 -0.13467994332313538
-0.07444500178098679 0.14152279496192932 0.16957004368305206
-0.09662177413702011 -0.07872378081083298 -0.1354001760482788
-0.20293480157852173 -0.3864130675792694 -0.06545571982860565
-0.17953863739967346 -0.37013065814971924 0.06549132615327835
-0.03424505516886711 -0.2267615646123886 -0.13561473786830902
-0.15519043803215027 0.4301556348800659 -0.015496962703764439
0.29717761278152466 -0.1597011238336563 0.03519333899021149
0.07833922654390335 -0.2521364986896515 0.04917057976126671
0.09053866565227509 -0.09621968865394592 -0.1327829509973526
0.17026832699775696 -0.39640167355537415 -0.051415327936410904
-0.2685723900794983 0.41453689336776733 0.005135917570441961
-0.26842445135116577 0.02154628001153469 0.09151827543973923
-0.21544858813285828 0.22575850784778595 0.07331433147192001
-0.043684132397174835 -0.24850618839263916 0.07187599688768387
0.18620431423187256 0.22764581441879272 0.05206391215324402
0.26361706852912903 -0.21106749773025513 0.15716099739074707
0.17753170430660248 -0.25153157114982605 -0.06809239834547043
0.2498769909143448 -0.2506841719150543 0.11738468706607819
0.16320408880710602 -0.07866528630256653 -0.13565972447395325
-0.19575905799865723 0.2247762531042099 -0.1037021204829216
-0.09034950286149979 0.20809714496135712 -0.13383623957633972
-0.1660449504852295 0.36522376537323 -0.03518005087971687
0.29055264592170715 -0.41780269145965576 0.08025068789720535
0.003691243939101696 0.22604835033416748 -0.009995898231863976
0.1402178406715393 -0.37432050704956055 0.09606550633907318
0.10983148962259293 -0.253903865814209 0.07753164321184158
0.29786843061447144 0.017243104055523872 -0.0323231965303421
0.10641694813966751 0.23038482666015625 -0.043654005974531174
0.29500868916511536 0.4638728201389313 0.085392065346241
0.286397784948349 0.4837781488895416 0.007742489688098431
0.21043743193149567 -0.2514269948005676 -0.08466599881649017
0.05230468139052391 -0.22950972616672516 -0.1333661526441574
-0.04650825262069702 0.22769995033740997 -0.08983117341995239
-0.15442980825901031 0.4175049066543579 0.05443120747804642
0.29942190647125244 -0.12100419402122498 -0.01862536184489727
0.2368646115064621 0.33229386806488037 0.08281300216913223
-0.26966121792793274 -0.019386963918805122 0.05624037981033325
-0.19747857749462128 -0.44136643409729004 0.005459518171846867
-0.2717447280883789 -0.097474604845047 -0.06823417544364929
0.04844790697097778 -0.24834094941616058 0.04570417478680611
0.017936671152710915 -0.04318447783589363 0.16945652663707733
-0.03785998374223709 0.17454878985881805 -0.18800002336502075
-0.2565985321998596 -0.4718279242515564 -0.0007492357399314642
0.3001071512699127 0.4375678598880768 0.06163804605603218
-0.08638280630111694 -0.12141215801239014 -0.1394944190979004
0.2966018617153168 -0.09773121774196625 0.06315726041793823
-0.2040918916463852 -0.3885487914085388 0.1394459307193756
-0.20193853974342346 -0.09670551866292953 -0.13447895646095276
0.19095595180988312 0.22922421991825104 0.006626526825129986
-0.22350120544433594 0.026020660996437073 -0.13482266664505005
0.11565915495157242 -0.21372051537036896 0.1563379466533661
-0.2717590034008026 0.07202812284231186 0.1082204207777977
-0.14230696856975555 0.09872028976678848 0.16971395909786224
0.1746714860200882 -0.252175897359848 0.08173567056655884
0.20491436123847961 -0.0020843185484409332 -0.13556250929832458
0.19490085542201996 0.37841731309890747 -0.06385985761880875
0.08714122325181961 0.22546224296092987 0.040442146360874176
-0.26482126116752625 -0.3257579803466797 -0.06665674597024918
0.2789365351200104 0.443299800157547 -0.06419503688812256
-0.04165036976337433 -0.2527097463607788 0.009695230051875114
0.019185516983270645 -0.2512000501155853 0.04253954440355301
-0.05811333283782005 0.22838467359542847 0.009451614692807198
0.06675702333450317 -0.04442860931158066 -0.1320260614156723
0.153817281126976 0.2068653404712677 -0.13435670733451843
-0.1685623675584793 -0.3384225368499756 0.050939954817295074
0.2960014045238495 0.13097979128360748 -0.028238197788596153
0.29716911911964417 -0.08422809839248657 -0.04401344060897827
-0.07894355058670044 -0.1931443065404892 -0.13579097390174866
-0.14036518335342407 0.22612743079662323 0.07920774072408676
0.276863694190979 -0.2512613832950592 0.008224757388234138
-0.12928660213947296 0.05776653811335564 0.16642475128173828
-0.18152745068073273 -0.3216068744659424 0.0616917759180069
0.0687735378742218 -0.2538740634918213 -0.09651849418878555
0.12434584647417068 -0.04041527956724167 0.16829605400562286
-0.27172717452049255 -0.17699240148067474 -0.10942503064870834
0.26921361684799194 0.2278578281402588 -0.09428548812866211
-0.11151199042797089 0.13164229691028595 0.16875435411930084
-0.1597498059272766 0.45729056000709534 0.06275476515293121
0.09512387216091156 0.2290404736995697 0.021051075309515
-0.124024897813797 -0.1706404834985733 0.16897831857204437
0.2623687982559204 -0.446851909160614 -0.020562591031193733
0.1402352750301361 -0.3768972158432007 0.07741167396306992
-0.2731447219848633 0.18202847242355347 0.034122224897146225
0.2979566156864166 0.046539220958948135 -0.0199023075401783
-0.26993781328201294 0.43778321146965027 0.071478471159935
0.21094101667404175 0.23253971338272095 0.09658179432153702
0.061160024255514145 0.2283894270658493 0.012994013726711273
-0.19309492409229279 -0.33588042855262756 -0.06255403906106949
-0.07087580114603043 -0.05141894519329071 -0.13877341151237488
-0.10024166107177734 0.04908712953329086 0.17002812027931213
0.29722410440444946 -0.14606741070747375 0.1397443264722824
0.14441542327404022 0.15429368615150452 -0.13390366733074188
0.2986545264720917 0.20034514367580414 -0.10273802280426025
-0.08875001966953278 0.22809819877147675 0.11578067392110825
0.019300121814012527 -0.22761738300323486 0.1566048115491867
0.11023953557014465 -0.25099697709083557 -0.023490060120821
-0.05403618887066841 -0.252004474401474 0.12467864155769348
0.29552197456359863 0.36411139369010925 0.04491427540779114
0.17490322887897491 -0.015140438452363014 -0.13579893112182617
0.29892370104789734 0.376962274312973 0.0717230886220932
-0.26927250623703003 -0.15131202340126038 -0.052080150693655014
-0.27378329634666443 -0.08817928284406662 -0.041128482669591904
-0.1882188469171524 0.34050610661506653 0.06196342781186104
-0.026271741837263107 -0.2493346482515335 -0.11778171360492706
0.05179569870233536 -0.1482856422662735 0.16951251029968262
-0.06295770406723022 0.07780883461236954 0.16910402476787567
0.00530823040753603 -0.050123441964387894 0.1666778326034546
0.08178166300058365 -0.1515853852033615 -0.13574883341789246
0.006886634044349194 -0.25036460161209106 0.02474197931587696
-0.06928206980228424 -0.04085452854633331 -0.13253054022789001
0.1229548528790474 -0.11671621352434158 -0.13407638669013977
-0.2802755534648895 -0.3376544415950775 0.18170014023780823
-0.18047736585140228 -0.4050824046134949 0.044065140187740326
-0.1795726865530014 -0.22886011004447937 0.1565777212381363
0.17557761073112488 -0.39569714665412903 0.1826840192079544
-0.06902462244033813 0.00491582415997982 0.1694435030221939
-0.14206136763095856 -0.20222622156143188 -0.13130469620227814
0.22622162103652954 -0.44853675365448 0.09997706860303879
-0.27177944779396057 -0.23136618733406067 0.10761670023202896
0.21387606859207153 0.17970818281173706 -0.13531655073165894
0.30131345987319946 0.42584845423698425 0.013925012201070786
-0.27303415536880493 0.016052570194005966 0.05703160539269447
-0.3092974126338959 -0.3398706614971161 0.03038828633725643
0.050586357712745667 0.22602416574954987 0.08186649531126022
-0.16930387914180756 -0.2204284518957138 0.15773561596870422
-0.181065171957016 -0.2526882588863373 0.09641878306865692
0.29573386907577515 0.03781948611140251 0.10780603438615799
0.1432974636554718 -0.41104942560195923 0.14697153866291046
0.17728407680988312 -0.20864182710647583 0.15795040130615234
-0.09672432392835617 -0.10344119369983673 0.16876529157161713
-0.2718731760978699 -0.2056208699941635 0.051824528723955154
-0.22316652536392212 -0.37454530596733093 0.15736493468284607
-0.330856055021286 -0.3789980709552765 0.09587951004505157
0.29675787687301636 -0.05080081894993782 0.03245225176215172
0.2972288429737091 -0.1341022253036499 0.10709651559591293
-0.24566923081874847 -0.44646844267845154 0.1136823296546936
0.2657584547996521 0.5098220705986023 0.05230005085468292
0.0965970903635025 0.20292188227176666 -0.13864220678806305
-0.05773572251200676 -0.09247498214244843 0.16953511536121368
-0.22997227311134338 0.49890443682670593 0.06228139251470566
-0.2136802077293396 0.22717276215553284 -0.07476331293582916
0.19206389784812927 -0.21422278881072998 -0.13125227391719818
-0.2078709453344345 -0.34906497597694397 -0.06916042417287827
-0.3142709732055664 -0.3760868310928345 0.17894747853279114
-0.18958395719528198 -0.18184633553028107 -0.13488836586475372
0.2974579632282257 0.18250490725040436 -0.05698256567120552
-0.2716791331768036 0.1643856167793274 0.009329317137598991
0.2129596322774887 -0.12323171645402908 0.17098946869373322
0.21405144035816193 0.22751843929290771 -0.03946955129504204
0.2958548367023468 0.07558748871088028 0.07308558374643326
-0.1597214788198471 -0.07469257712364197 0.16951963305473328
0.07542107254266739 0.22619321942329407 0.079617440700531
-0.16418850421905518 0.37229034304618835 0.08323496580123901
-0.27177315950393677 -0.12116967886686325 0.06933843344449997
0.19744306802749634 0.2300146222114563 -0.07548871636390686
-0.13733996450901031 0.20071516931056976 0.1582913100719452
-0.2434035986661911 0.48369300365448 -0.012781519442796707
0.17597205936908722 0.45194289088249207 0.03812379017472267
-0.15167033672332764 0.14202460646629333 -0.13539987802505493
0.21616017818450928 0.5136993527412415 0.03772492706775665
-0.27253639698028564 0.41157233715057373 0.009342160075902939
0.08521070331335068 -0.252553790807724 0.07861515879631042
0.17512325942516327 0.44664400815963745 0.010349693708121777
0.24858099222183228 -0.19070491194725037 -0.13569003343582153
0.26589667797088623 -0.1114807054400444 0.15448588132858276
0.09461343288421631 0.2004563957452774 -0.13567914068698883
-0.12563388049602509 -0.2525804936885834 0.025896504521369934
-0.2805980443954468 -0.44247499108314514 0.02956315688788891
0.1646912842988968 -0.44529807567596436 0.03477467969059944
0.2388882040977478 0.4751523733139038 -0.07290803641080856
-0.2515013813972473 -0.13636621832847595 0.1547277718782425
0.18386779725551605 -0.38913846015930176 0.17412564158439636
0.2544752359390259 0.41486936807632446 -0.09117960184812546
0.16957058012485504 0.40463560819625854 0.013296930119395256
-0.14879921078681946 -0.20823372900485992 0.15618322789669037
0.08104930073022842 -0.2348165065050125 -0.13279876112937927
-0.19117851555347443 0.22941893339157104 -0.09533323347568512
0.2971564531326294 -0.0015335711650550365 -0.027091216295957565
0.006046068388968706 -0.19098114967346191 -0.1356431245803833
-0.1402004361152649 -0.2536018192768097 0.05266467481851578
-0.17309768497943878 -0.35321715474128723 0.05689212679862976
0.010929164476692677 0.15243053436279297 -0.22004258632659912
0.2990223169326782 0.0070810443721711636 0.07825607061386108
-0.27024734020233154 0.16728444397449493 0.06335695087909698
-0.021807875484228134 0.06003905460238457 -0.138734370470047
-0.15066954493522644 -0.20919308066368103 -0.1374957412481308
-0.05416540428996086 -0.07492629438638687 0.16948656737804413
0.2608848512172699 -0.44749686121940613 0.01101893000304699
0.17111557722091675 0.22837600111961365 0.032027944922447205
-0.2120118886232376 0.5062431693077087 0.04587937146425247
0.16073788702487946 -0.13710473477840424 -0.1310202032327652
-0.3118734061717987 -0.37904268503189087 0.1641891747713089
0.29588595032691956 0.45686638355255127 0.019713150337338448
-0.2616575062274933 -0.2954258620738983 -0.02173488773405552
-0.11312740296125412 -0.020050743594765663 0.16988052427768707
-0.2720906436443329 -0.19449882209300995 0.07967493683099747
0.11804024130105972 0.19745424389839172 0.15635964274406433
0.14242640137672424 0.13712479174137115 -0.13554741442203522
0.056056633591651917 0.14153730869293213 0.16760806739330292
0.29662203788757324 -0.23174789547920227 0.014262085780501366
0.1243911162018776 -0.2507707476615906 -0.08189040422439575
0.1781906932592392 -0.4479173421859741 0.057721275836229324
-0.27203279733657837 0.41512683033943176 0.0003052488318644464
-0.21989473700523376 -0.002382575301453471 -0.13463257253170013
0.06554014980792999 -0.19937442243099213 -0.1322769820690155
-0.17153912782669067 -0.38844022154808044 0.021255280822515488
-0.27077776193618774 0.1583249866962433 -0.007234761957079172
0.2051723301410675 0.4074998199939728 -0.07854529470205307
-0.17360804975032806 0.3304350674152374 0.003179355524480343
0.17683790624141693 0.4073227643966675 -0.015934603288769722
0.19583716988563538 0.07369988411664963 -0.1367482990026474
0.2325497567653656 0.42313769459724426 0.10045821219682693
-0.27371203899383545 0.1403038501739502 0.01283982302993536
0.057738691568374634 -0.25122976303100586 -0.0810902863740921
0.047766391187906265 -0.1178373470902443 -0.13757921755313873
-0.05692996829748154 0.22379134595394135 0.09493032097816467
0.05023430287837982 0.22832313179969788 0.12005263566970825
-0.09341366589069366 0.1042894795536995 -0.13575971126556396
-0.27524736523628235 -0.4479162395000458 0.030785316601395607
0.29686713218688965 0.14077292382717133 0.12729720771312714
0.05679904296994209 0.14750179648399353 -0.18808704614639282
-0.14456266164779663 -0.2525367736816406 -0.07372972369194031
-0.24247948825359344 -0.0932224839925766 0.16014085710048676
0.15318723022937775 -0.3185890316963196 -0.0076804435811936855
0.1200648844242096 -0.2228301614522934 -0.13821080327033997
0.1936407834291458 -0.3225628435611725 0.10469508171081543
0.29808497428894043 0.4294686019420624 -0.012696854770183563
0.15766245126724243 -0.05779533088207245 0.1694575995206833
-0.06434419751167297 0.22965987026691437 -0.018871577456593513
0.18835070729255676 0.22758802771568298 0.06695640087127686
0.29252880811691284 0.38784006237983704 -0.03594701364636421
0.004545339848846197 0.13031350076198578 0.16813164949417114
0.10452239215373993 0.19863085448741913 -0.13621558248996735
0.24034827947616577 0.12178085744380951 -0.13467368483543396
0.1631111055612564 0.19807742536067963 -0.13586992025375366
-0.2742837965488434 -0.09966087341308594 0.01730729267001152
0.2971830666065216 -0.15845519304275513 0.0372692309319973
0.1837645322084427 0.34566184878349304 0.030294721946120262
-0.20433522760868073 -0.28230801224708557 -0.05967675894498825
0.2971709072589874 -0.06846325099468231 0.061466556042432785
-0.15877340734004974 -0.08356233686208725 0.17121420800685883
-0.20136456191539764 -0.38746845722198486 -0.06504924595355988
-0.27124032378196716 -0.17219381034374237 0.006393578369170427
0.2788994312286377 -0.3280777633190155 0.036639343947172165
-0.1558099389076233 -0.25330618023872375 -0.09275440126657486
-0.2717863917350769 -0.09366241097450256 0.08941549062728882
0.026757366955280304 -0.10299818962812424 0.16623249650001526
-0.15850751101970673 0.3772674798965454 -0.01727491058409214
-0.2442435920238495 -0.05477839708328247 0.1588127315044403
0.29742431640625 -0.23025192320346832 0.035292692482471466
-0.0817093476653099 0.22504961490631104 -0.05954570323228836
-0.0655130073428154 0.1740128993988037 -0.13675884902477264
-0.18329033255577087 0.21047288179397583 -0.13241064548492432
0.032628677785396576 -0.2519777715206146 0.01940157823264599
-0.23857520520687103 0.4953448474407196 0.01880584843456745
-0.24615618586540222 0.22821685671806335 -0.06831683963537216
0.04675443097949028 -0.02160324901342392 -0.13469022512435913
0.25822970271110535 -0.4464074671268463 0.15018326044082642
0.03534644469618797 -0.1564604789018631 -0.1386888176202774
0.28720611333847046 -0.39171335101127625 0.10339117050170898
0.2581581473350525 -0.03232554346323013 -0.1357365995645523
0.17099611461162567 -0.3705015182495117 0.14285297691822052
-0.21664510667324066 -0.3459024429321289 0.10851594805717468
-0.18052013218402863 -0.2500866949558258 0.12273339182138443
-0.2617962658405304 -0.2983230948448181 0.07412174344062805
0.1418527513742447 0.2248508632183075 0.02333410643041134
0.026116661727428436 -0.10476402938365936 -0.1356123685836792
-0.03923124819993973 -0.18623174726963043 -0.13610240817070007
-0.023251274600625038 -0.2531960606575012 0.05325315147638321
0.2872377634048462 0.3567078709602356 -0.036833640187978745
0.017193201929330826 0.22729210555553436 -0.10731982439756393
-0.177616149187088 -0.3566064238548279 -0.03847690671682358
-0.2099711298942566 -0.44292038679122925 0.11898250877857208
-0.2644858658313751 -0.45176005363464355 0.03857322037220001
0.29798853397369385 -0.04538070037961006 0.11508586257696152
-0.27178412675857544 -0.1413130760192871 0.019618164747953415
0.08521804958581924 0.2263954132795334 -0.08597449958324432
-0.1267407387495041 -0.11984159797430038 -0.1384814828634262
0.04507290571928024 0.11904211342334747 -0.13408437371253967
0.23114579916000366 -0.25302210450172424 0.10734311491250992
-0.2913963198661804 -0.4458136558532715 -0.013886280357837677
0.2964639365673065 0.14296752214431763 0.07505103200674057
-0.22053423523902893 -0.07353880256414413 -0.13925494253635406
0.1289297193288803 -0.14897184073925018 -0.13281215727329254
0.008844654075801373 0.061993587762117386 -0.13568070530891418
0.29734641313552856 -0.17634212970733643 0.03074919432401657
0.29784005880355835 -0.053011953830718994 -0.0046967677772045135
-0.2717728614807129 -0.09898003935813904 0.0423232838511467
0.07356081902980804 0.07348037511110306 0.1694953292608261
0.2956130802631378 0.20789571106433868 -0.022854246199131012
-0.320519357919693 -0.3435380756855011 0.07515406608581543
0.14927241206169128 -0.11926881223917007 0.16952873766422272
0.07301042973995209 -0.09821369498968124 0.17027778923511505
0.027250267565250397 -0.08657291531562805 0.16949589550495148
-0.01796446368098259 0.2039421647787094 -0.13614828884601593
0.2972371280193329 -0.13300515711307526 0.1163439005613327
-0.030374960973858833 -0.0439770333468914 -0.13571040332317352
-0.22548368573188782 0.12870219349861145 -0.1353425234556198
-0.18499356508255005 -0.003950526937842369 0.1674095243215561
0.2968802750110626 0.19915609061717987 -0.027830563485622406
0.08096255362033844 -0.12336066365242004 0.16960392892360687
-0.10025501251220703 -0.028728105127811432 0.16637372970581055
-0.27112701535224915 -0.004920029081404209 0.08812079578638077
0.07842623442411423 0.2277127206325531 -0.06188390031456947
-0.008569350466132164 0.22923621535301208 -0.09610922634601593
-0.22239738702774048 0.23303046822547913 0.1322735697031021
-0.2683689296245575 0.14681613445281982 0.09523587673902512
-0.10698913782835007 -0.0007070372812449932 -0.13531777262687683
0.02401636354625225 -0.25119855999946594 0.05331959202885628
-0.1944042593240738 -0.39918261766433716 0.11125204712152481
-0.2691218852996826 -0.10903904587030411 0.038379233330488205
-0.02950393408536911 -0.04555126279592514 -0.13381433486938477
0.29720762372016907 -0.2301124632358551 0.09771692007780075
0.09891509264707565 -0.24876916408538818 0.03324675187468529
0.29871052503585815 -0.005746305920183659 -0.07103704661130905
-0.27173691987991333 0.0010313426610082388 -0.09802895039319992
-0.2497108280658722 -0.2810027301311493 -0.010454214178025723
0.04648657888174057 0.003253114176914096 -0.13792367279529572
-0.1913224458694458 0.3388923108577728 0.06176810339093208
-0.03926002234220505 -0.019006213173270226 0.16759681701660156
-0.2600075900554657 -0.30973199009895325 -0.05211203545331955
-0.2526092231273651 -0.03284796327352524 -0.13538040220737457
0.1839202493429184 0.47161194682121277 0.08981705456972122
-0.21126684546470642 0.2276289463043213 -0.06724537909030914
-0.27574047446250916 0.16409660875797272 0.06223919987678528
0.1819571554660797 0.06361070275306702 -0.13596251606941223
0.22623053193092346 0.04009243845939636 0.16943740844726562
0.2996906340122223 -0.041012052446603775 -0.09105008840560913
0.26972702145576477 0.506324291229248 0.053606607019901276
-0.2725423574447632 -0.1915646493434906 -0.03983078524470329
-0.15549008548259735 0.4318276643753052 0.023095780983567238
0.17679542303085327 -0.25121942162513733 0.10295984894037247
0.2548186182975769 0.09126576036214828 -0.13568416237831116
0.25989940762519836 0.42007115483283997 0.10733135789632797
-0.10210583359003067 0.2282245010137558 0.015806805342435837
0.17785294353961945 -0.14059022068977356 0.16952262818813324
-0.06587143987417221 0.1551433801651001 -0.13411569595336914
-0.20996619760990143 0.22823642194271088 -0.09251831471920013
0.21216753125190735 0.22846578061580658 -0.08610435575246811
0.06449837982654572 -0.25027281045913696 -0.11067128926515579
0.29715439677238464 -0.10032143443822861 -0.023147324100136757
-0.18682561814785004 0.22635801136493683 0.0745827704668045
-0.21300867199897766 -0.2508007884025574 0.10077502578496933
0.1714727133512497 -0.37921425700187683 -0.056393302977085114
-0.06191910430788994 0.22730517387390137 0.13829803466796875
0.2976226210594177 0.44985517859458923 -0.0012918313732370734
0.10652956366539001 0.22745785117149353 0.08121524006128311
-0.2579607665538788 -0.3291642665863037 0.14556503295898438
-0.09205315262079239 0.018736565485596657 0.16946811974048615
0.20278851687908173 0.3469454348087311 0.09499462693929672
0.17799875140190125 -0.04782974347472191 0.169696643948555
-0.28900137543678284 -0.39473506808280945 0.16990330815315247
-0.2750493586063385 -0.21181930601596832 0.12107469886541367
0.17756929993629456 0.35834646224975586 0.07296466827392578
0.18838055431842804 0.2285119742155075 -0.04974362254142761
0.17620384693145752 0.22865073382854462 -0.05333366245031357
0.06178867444396019 0.1728394329547882 -0.1845741868019104
0.11727701872587204 -0.2466680407524109 0.11096826195716858
0.2956705689430237 0.15959782898426056 -0.014021705836057663
-0.20063509047031403 0.1332710087299347 0.17187033593654633
0.18074944615364075 -0.3433477580547333 0.11281011253595352
-0.11847949028015137 0.08061660826206207 -0.13949739933013916
0.2968275547027588 0.043730318546295166 0.029222708195447922
0.021634619683027267 -0.25361940264701843 -0.04923063889145851
0.1794184446334839 0.10674020648002625 -0.13820911943912506
-0.22756646573543549 0.23007649183273315 -0.10622157156467438
0.266335129737854 -0.14305716753005981 0.15777073800563812
0.26317298412323 0.0438639372587204 -0.13436338305473328
-0.1854853630065918 0.19709469377994537 0.1596117615699768
0.2843516767024994 -0.4174616038799286 0.00032321762409992516
-0.2697423994541168 0.20027565956115723 0.05750695988535881
0.08094948530197144 -0.2505034804344177 -0.0970064103603363
0.2959810793399811 0.08897946774959564 0.07553517073392868
-0.0793018490076065 -0.1086052879691124 0.16951848566532135
-0.27072465419769287 -0.1667098104953766 -0.0401858314871788
-0.22738638520240784 -0.048319824039936066 -0.13550694286823273
0.14473874866962433 -0.12969067692756653 -0.1359504759311676
0.2896820902824402 -0.392591267824173 0.08094507455825806
0.17146232724189758 0.05754240229725838 0.1713181436061859
0.0915263369679451 0.08350098133087158 -0.13842912018299103
0.29831236600875854 -0.026829387992620468 0.02857130952179432
0.23465469479560852 -0.21562516689300537 0.15637154877185822
0.29325634241104126 0.20217609405517578 -0.05919359624385834
0.2013120949268341 0.20545512437820435 0.15642379224300385
0.17771576344966888 0.43368831276893616 0.09518221020698547
0.2100335657596588 0.1435820758342743 0.16947942972183228
0.12121590226888657 0.14818136394023895 0.16881753504276276
-0.2410232573747635 0.001683899899944663 -0.25847840309143066
0.29718661308288574 -0.07459630072116852 0.09793991595506668
-0.27172014117240906 -0.07754352688789368 -0.11648372560739517
-0.2736881673336029 -0.06410838663578033 0.03919012472033501
-0.09833429753780365 -0.08720117062330246 0.16881254315376282
0.2971489727497101 -0.18928739428520203 -0.09124783426523209
-0.1596636325120926 -0.34307771921157837 0.030529392883181572
0.1777440458536148 -0.44626766443252563 -0.004082709550857544
0.025205954909324646 0.2326037436723709 0.036758363246917725
-0.1728280484676361 -0.25786831974983215 0.08585358411073685
-0.16782552003860474 0.3883228003978729 -0.050512246787548065
-0.20630204677581787 -0.4428728520870209 -0.027738597244024277
-0.06683564931154251 -0.008184022270143032 -0.1339206099510193
0.18719170987606049 -0.32453402876853943 -0.06311613321304321
0.13943804800510406 0.10102204233407974 -0.1355646550655365
0.24009878933429718 0.517764151096344 0.04860124737024307
0.23426811397075653 -0.44558215141296387 0.1290435791015625
0.23662139475345612 0.22715534269809723 0.11432567983865738
0.009706724435091019 0.22842366993427277 -0.06013903766870499
0.07825437933206558 -0.1655830442905426 -0.13476301729679108
0.0033572367392480373 0.029143482446670532 -0.13553071022033691
-0.0298534594476223 -0.08183678984642029 -0.13559989631175995
0.2954934239387512 0.080697201192379 0.11756300181150436
0.2876336872577667 -0.4010218679904938 0.03676305338740349
0.25196319818496704 -0.22508789598941803 -0.13790790736675262
0.17601248621940613 0.4516791105270386 0.06883062422275543
0.30027148127555847 0.4146939218044281 0.05733795464038849
0.18745075166225433 -0.20805060863494873 0.15879079699516296
0.10552502423524857 0.15864458680152893 -0.13327251374721527
-0.2247118055820465 -0.3902454674243927 0.1779678761959076
-0.06639066338539124 -0.13739816844463348 -0.13560307025909424
-0.11385077983140945 -0.0832635909318924 0.169486403465271
-0.17179429531097412 0.22843006253242493 -0.05055521801114082
-0.30694907903671265 -0.3502275347709656 -0.012196834199130535
0.13966844975948334 -0.3796725273132324 0.041183192282915115
-0.17453235387802124 -0.15886999666690826 -0.13507632911205292
-0.27130621671676636 -0.21007929742336273 -0.06268487125635147
0.2277745008468628 -0.4466209411621094 0.1187928095459938
-0.27173787355422974 0.07760939747095108 0.028911493718624115
-0.1814420223236084 0.48270177841186523 -0.00668156985193491
0.2708348333835602 -0.2513206899166107 0.04502461478114128
0.1898798793554306 0.23049136996269226 0.12470211833715439
-0.021707523614168167 0.227945014834404 -0.09064755588769913
0.25699567794799805 -0.4488668143749237 -0.01293937023729086
0.26860877871513367 -0.00871398113667965 -0.13676515221595764
-0.30944153666496277 -0.3701249957084656 0.19138449430465698
0.025624442845582962 -0.1274377703666687 -0.13906963169574738
0.2924446165561676 0.4665156900882721 0.03999263420701027
-0.02343418449163437 -0.24907106161117554 0.11307137459516525
-0.27308040857315063 0.18776154518127441 0.10060400515794754
-0.24962159991264343 0.24604196846485138 0.024036940187215805
0.031770315021276474 0.08672314882278442 0.1695050150156021
0.29184457659721375 0.12084119766950607 -0.06969977170228958
0.06067347526550293 -1.1521959095261991e-05 0.17019204795360565
-0.27446603775024414 0.19557364284992218 -0.08253465592861176
-0.24279651045799255 0.3145175278186798 -0.005722465924918652
0.2971647083759308 -0.18883894383907318 -0.09464262425899506
0.2515251636505127 0.4318201243877411 0.1040274128317833
-0.08900541067123413 0.2283846139907837 -0.05616917461156845
-0.16731752455234528 0.48321062326431274 0.05775641277432442
0.2970849573612213 0.1654873639345169 -0.04522830992937088
-0.03923168405890465 -0.00693510239943862 0.1701551228761673
-0.01733952946960926 -0.049515560269355774 -0.13538511097431183
-0.2711208164691925 -0.19446547329425812 0.03727832809090614
0.29412952065467834 0.09939897060394287 -0.0322563573718071
-0.27056628465652466 -0.19794699549674988 -0.08359698206186295
0.26044762134552 -0.4183458089828491 0.2014910876750946
0.11712422966957092 -0.1517198085784912 0.17072179913520813
0.287288635969162 -0.3692495822906494 0.11945964395999908
0.2985146641731262 -0.08488190174102783 0.06046133115887642
0.170285165309906 0.4078456461429596 0.009251841343939304
-0.32913243770599365 -0.4136345684528351 -0.01594310626387596
0.07526475936174393 -0.20700912177562714 -0.13501477241516113
-0.025263017043471336 -0.1402709037065506 0.17337830364704132
-0.26602858304977417 -0.2996039390563965 -0.014485578052699566
0.18760651350021362 -0.3465907573699951 0.12434928864240646
-0.16924765706062317 -0.07313548773527145 0.16861264407634735
0.1357744038105011 -0.02657889947295189 0.16944605112075806
-0.31162112951278687 -0.3927638530731201 0.1156388446688652
-0.053962577134370804 0.2298423945903778 0.11304618418216705
-0.27009162306785583 0.010070227086544037 -0.04572376236319542
0.09106884151697159 -0.0498981773853302 -0.1337212771177292
0.1089489683508873 -0.2513289153575897 -0.038908325135707855
0.294102281332016 0.4615079462528229 0.07306727021932602
0.29707980155944824 0.20980171859264374 -0.006633893586695194
-0.158979594707489 0.3653922379016876 0.023970652371644974
0.29744401574134827 0.15204674005508423 -0.005642016418278217
0.23060573637485504 -0.44707468152046204 0.06638682633638382
0.0800643041729927 -0.003813866525888443 -0.13744191825389862
0.17138120532035828 -0.22878068685531616 -0.1357015073299408
0.177232027053833 0.22797386348247528 -0.10047068446874619
-0.19995509088039398 0.4085654616355896 0.08917386829853058
-0.3191145360469818 -0.33925876021385193 0.08744153380393982
0.29016613960266113 0.3361426889896393 0.03429270163178444
-0.23337478935718536 -0.45387545228004456 -0.05081041529774666
0.05263857915997505 0.012412427924573421 -0.13557830452919006
0.19610291719436646 -0.4460049271583557 0.08307231217622757
-0.20675739645957947 -0.39636731147766113 0.14665047824382782
0.190012589097023 -0.44859936833381653 0.03710120916366577
-0.27153176069259644 -0.1669445037841797 -0.0883982703089714
0.1731921136379242 0.23091565072536469 -0.00037942390190437436
-0.08916685730218887 -0.12382340431213379 -0.13557696342468262
0.027670007199048996 0.003579753218218684 0.1694549322128296
-0.28217455744743347 -0.41382846236228943 0.13173307478427887
0.29716241359710693 0.023444103077054024 0.016576435416936874
-0.27176177501678467 0.11415261775255203 0.1286989450454712
0.25386321544647217 -0.44851598143577576 0.13419105112552643
-0.3177137076854706 -0.42129725217819214 -0.008481775410473347
0.18683458864688873 0.22840286791324615 0.02636265940964222
0.22470854222774506 -0.0514799989759922 0.1694479137659073
-0.2582847774028778 0.4464740455150604 -0.03254412114620209
0.015181455761194229 -0.029649343341588974 0.16950899362564087
-0.1044415533542633 0.22913996875286102 0.09237206727266312
0.006874913815408945 0.22705170512199402 -0.07982931286096573
0.3005097508430481 0.029247496277093887 -0.11149884760379791
-0.24096649885177612 -0.04935317859053612 -0.13547970354557037
0.06881539523601532 -0.009791730903089046 0.16687919199466705
-0.16417431831359863 0.34194836020469666 0.010273550637066364
-0.000517542939633131 -0.24776466190814972 -0.0638151466846466
0.13803020119667053 -0.41662687063217163 0.13167618215084076
0.06975286453962326 -0.15868410468101501 0.1695743203163147
-0.16943389177322388 -0.25187304615974426 -0.11068437248468399
0.19215832650661469 0.47659313678741455 -0.032196249812841415
0.25781378149986267 -0.25001758337020874 0.13265444338321686
-0.271709144115448 -0.22648535668849945 0.03575602173805237
0.174423485994339 -0.27430787682533264 0.0458906926214695
0.06158588454127312 -0.1892155110836029 -0.1366778463125229
-0.15744391083717346 0.3749779760837555 -0.008573406375944614
-0.2681599259376526 0.1294291913509369 0.06292052567005157
-0.27174532413482666 0.037755005061626434 0.03949485346674919
-0.0007170846220105886 -0.04458239674568176 -0.13714589178562164
-0.1503574401140213 0.22821968793869019 0.01449250616133213
-0.2690468430519104 -0.13873665034770966 0.10907932370901108
0.04484625160694122 -0.11360281705856323 -0.1374802440404892
0.20475532114505768 0.22850294411182404 0.07004616409540176
-0.0074828616343438625 -0.03675105795264244 -0.13647982478141785
0.2896253764629364 -0.40494099259376526 0.05166792497038841
0.02395564690232277 -0.1554080843925476 0.16984742879867554
0.22535675764083862 0.515707790851593 0.06137564033269882
-0.06875135004520416 0.22571027278900146 0.13904918730258942
0.29720160365104675 -0.10895907878875732 0.04095706716179848
-0.24943900108337402 0.3343161344528198 -0.021208247169852257
0.10549960285425186 0.22966942191123962 -0.11700328439474106
0.259213387966156 0.0102259311825037 -0.1395239382982254
0.29567861557006836 0.12175271660089493 0.13686206936836243
-0.22137700021266937 0.1912960261106491 0.15682262182235718
0.08033765107393265 0.2283729910850525 0.05390245094895363
0.10829063504934311 -0.1852303445339203 -0.13846050202846527
0.2971138060092926 0.13348855078220367 0.058787669986486435
0.24942776560783386 -0.40425875782966614 0.19975005090236664
-0.05713112652301788 -0.25649493932724 -0.054358985275030136
0.17566776275634766 0.44764381647109985 0.06065335497260094
-0.21172653138637543 -0.3879808783531189 0.1512075662612915
-0.18181158602237701 -0.25358206033706665 -0.09195970743894577
0.2702314257621765 -0.41591793298721313 -0.057689957320690155
-0.24612309038639069 0.3113012909889221 -0.004804404452443123
0.2961229085922241 0.1888955533504486 0.009660538285970688
-0.2425173968076706 0.49283918738365173 0.018738651648163795
-0.31644320487976074 -0.356843501329422 -0.0006768307066522539
0.2970161437988281 0.20447111129760742 -0.11366746574640274
0.29859641194343567 0.0763930082321167 0.09992136061191559
-0.17713861167430878 -0.31430894136428833 -0.04742550104856491
0.22539864480495453 -0.2523217499256134 0.11554842442274094
-0.2446637898683548 -0.0027807024307549 -0.2767781615257263
-0.23263584077358246 -0.11210795491933823 -0.13341498374938965
0.17194029688835144 -0.10970979183912277 -0.1356675773859024
-0.016347834840416908 -0.25134140253067017 0.08900739997625351
-0.1946490854024887 0.09732892364263535 -0.13539861142635345
0.2224593311548233 -0.29046785831451416 -0.06259378790855408
0.18575981259346008 0.3947579860687256 -0.0498654730618
0.3013538122177124 0.12484611570835114 -0.10562332719564438
0.0817180722951889 0.2307387739419937 -0.10128094255924225
0.2966913878917694 0.19668643176555634 0.05751940980553627
0.29983094334602356 -0.0897284597158432 0.031165335327386856
-0.30877596139907837 -0.4339277446269989 -0.03344004228711128
-0.27175918221473694 0.007579525467008352 -0.010365292429924011
-0.02496170438826084 -0.2525160014629364 0.11364752799272537
0.038737595081329346 0.15739880502223969 -0.13526651263237
-0.03861658647656441 0.22735661268234253 0.11063108593225479
0.17913085222244263 -0.251279354095459 0.09605784714221954
0.2977464199066162 -0.06401307135820389 0.00907736923545599
0.15123237669467926 -0.39036285877227783 0.14369527995586395
0.10997165739536285 0.135453999042511 -0.13207100331783295
0.21687209606170654 0.14606873691082 0.1666063815355301
0.05218110233545303 -0.03198818489909172 -0.13904286921024323
0.16134460270404816 0.22838284075260162 0.03080028109252453
-0.09977903217077255 -0.2510354816913605 0.019239282235503197
-0.07890866696834564 -0.2516093850135803 0.0018896490801125765
0.300234854221344 0.02664969116449356 0.0806821882724762
-0.027851184830069542 0.18893612921237946 0.15642590820789337
0.1459469199180603 0.04617862403392792 -0.13889603316783905
-0.07917357981204987 0.10464031249284744 -0.13388998806476593
0.02437438815832138 0.2283572256565094 0.049435000866651535
0.1780814379453659 0.4615055024623871 0.06615612655878067
-0.2710556387901306 -0.2078922986984253 0.0805872231721878
-0.0904371589422226 -0.20044474303722382 -0.1339164525270462
-0.22678698599338531 -0.4493526220321655 -0.04774168133735657
-0.2716597020626068 0.1890251785516739 0.030682865530252457
0.19106309115886688 0.1097978875041008 -0.13767017424106598
-0.19818535447120667 -0.3623402714729309 0.10010138899087906
-0.27135589718818665 -0.0076956660486757755 0.02761058323085308
-0.26997116208076477 0.026779474690556526 0.1407124251127243
-0.23999899625778198 -0.2262255847454071 -0.13977722823619843
0.06145186349749565 -0.040913619101047516 -0.13409361243247986
0.021307259798049927 0.046437934041023254 -0.13521446287631989
0.1474214345216751 0.11177220940589905 0.16951529681682587
0.18509671092033386 0.4787798225879669 0.03359776362776756
-0.14967060089111328 0.09306313842535019 0.17140527069568634
-0.2688330113887787 0.39557042717933655 0.07097938656806946
0.2230735719203949 -0.055108748376369476 -0.13787546753883362
-0.055479686707258224 -0.251902312040329 0.006951405666768551
-0.06810638308525085 -0.008332944475114346 0.16944032907485962
0.297551691532135 -0.031235957518219948 0.007478777319192886
-0.1698809713125229 -0.3792133033275604 0.03599713370203972
0.14012861251831055 -0.4178870618343353 0.0391518659889698
0.2414693832397461 -0.35401466488838196 0.14908859133720398
-0.20177118480205536 -0.005398373119533062 0.1723015159368515
-0.10844144225120544 -0.1614735722541809 0.1654595583677292
0.15033438801765442 -0.3687410056591034 0.09672369807958603
-0.20360159873962402 -0.06543252617120743 -0.1355276107788086
0.18479762971401215 0.12909772992134094 -0.1360776573419571
-0.24771828949451447 -0.427857905626297 0.1718943566083908
-0.3265831470489502 -0.41593852639198303 -0.014045107178390026
-0.022554656490683556 -0.22866062819957733 0.15653973817825317
0.04679815098643303 -0.17605531215667725 -0.13496410846710205
0.1482686549425125 -0.3712674677371979 0.10638114809989929
0.23348811268806458 0.3320527970790863 0.07546388357877731
0.21812166273593903 -0.28922003507614136 -0.062163759022951126
-0.154056578874588 0.4365503191947937 0.016309188678860664
-0.0698036402463913 -0.2514512836933136 -0.05084418132901192
0.29980480670928955 0.16791945695877075 0.09393223375082016
0.17041997611522675 0.22978056967258453 -0.06469573825597763
-0.27350255846977234 -0.032006386667490005 -0.014113417826592922
0.18110090494155884 0.22993583977222443 0.032076478004455566
-0.17566202580928802 0.22608137130737305 0.08482714742422104
-0.06446140259504318 -0.0054331193678081036 0.16808080673217773
0.09486105293035507 0.04222610220313072 -0.1357143670320511
0.0390646755695343 -0.04987340793013573 -0.1356269270181656
0.060914963483810425 -0.25009194016456604 0.028526518493890762
0.13090114295482635 0.007002496626228094 0.1694527268409729
0.19746042788028717 -0.3223424553871155 -0.06626936048269272
-0.12713947892189026 -0.25462162494659424 0.13318884372711182
0.21912933886051178 0.5159810185432434 7.560884114354849e-07
0.14013373851776123 -0.250749409198761 0.1305253952741623
-0.2717806100845337 -0.13690361380577087 0.09951791167259216
-0.2715533971786499 0.1828913390636444 -0.11628291010856628
-0.1398300975561142 0.15560081601142883 -0.13540275394916534
0.12364291399717331 0.024204082787036896 -0.13560406863689423
-0.15774407982826233 -0.2904603183269501 0.03883235529065132
0.17758864164352417 0.45916280150413513 0.06404200941324234
-0.1545926332473755 0.3991357684135437 0.02858903631567955
0.2951175272464752 0.3672615885734558 0.08018723130226135
0.15297570824623108 0.00805991142988205 0.1694350242614746
0.04915940761566162 0.058214183896780014 -0.13517335057258606
0.04185871034860611 0.12611041963100433 0.1722431480884552
-0.01554135512560606 -0.026674825698137283 0.16944067180156708
-0.19002963602542877 -0.31409284472465515 -0.058519743382930756
0.14825966954231262 -0.21574664115905762 0.1563931256532669
-0.02646114118397236 0.2284986823797226 0.0871497169137001
0.2949002981185913 0.14101773500442505 0.09044408798217773
0.10398273915052414 0.22566018998622894 0.07322899997234344
0.21097519993782043 -0.05190146341919899 -0.13665935397148132
-0.2723861634731293 0.10612648725509644 -0.09313830733299255
0.2721969783306122 0.44950154423713684 -0.07220204174518585
0.2995775640010834 0.10851806402206421 -0.005041953641921282
0.2975674271583557 0.11470618098974228 0.12793521583080292
0.297210693359375 -0.03751855716109276 0.11295115947723389
-0.22748902440071106 -0.25128239393234253 -0.09775339066982269
-0.26861169934272766 -0.11483380198478699 0.0774296298623085
0.20636849105358124 -0.2511022686958313 0.11351087689399719
-0.12752880156040192 0.1770409494638443 -0.13499081134796143
0.19959260523319244 -0.3438727855682373 -0.07527294754981995
0.04373214766383171 0.22842101752758026 -0.11099638044834137
0.09981489181518555 -0.25125664472579956 0.010116975754499435
0.11037695407867432 0.030039871111512184 0.17067302763462067
0.07858654856681824 0.1496967077255249 -0.13642928004264832
0.08597743511199951 -0.03949660807847977 -0.1356341391801834
0.26324206590652466 0.22919712960720062 0.08008573204278946
-0.14355316758155823 0.07933118939399719 0.1668921709060669
0.17187264561653137 -0.03241504728794098 -0.1356694996356964
-0.005785902496427298 0.07872800529003143 0.16784578561782837
0.04270464926958084 0.04433542862534523 -0.1347113847732544
-0.07173926383256912 -0.25621211528778076 -0.006399303674697876
0.0868326872587204 0.10384102910757065 0.1706753671169281
0.20053212344646454 0.22504310309886932 -0.0038805007934570312
-0.26744017004966736 -0.16327518224716187 0.0014689777744933963
-0.15786510705947876 0.2265651822090149 0.12005048990249634
0.29709216952323914 0.18325623869895935 0.1102820485830307
0.2928924560546875 0.4391326606273651 -0.031581200659275055
-0.020805029198527336 -0.2511310577392578 -0.029183702543377876
-0.192379891872406 0.014414999634027481 0.16639696061611176
0.17343144118785858 0.38800084590911865 0.05235135182738304
0.29982244968414307 -0.04251658543944359 -0.08571846038103104
-0.14614532887935638 0.060330986976623535 -0.13693147897720337
0.29871678352355957 -0.1026001125574112 -0.05062360316514969
-0.11151669919490814 0.22959789633750916 0.009963206946849823
0.2972867786884308 0.44671645760536194 0.08949430286884308
0.030701547861099243 0.0960984155535698 0.16840794682502747
0.2967644929885864 -0.16425848007202148 0.06891464442014694
