-0.2244061529636383 -0.23798489570617676 -0.13547314703464508
0.14195378124713898 -0.3990746736526489 0.1114429235458374
-0.05180905759334564 0.2269371896982193 -0.12809985876083374
-0.0556921660900116 0.22701260447502136 -0.12945972383022308
0.2822597026824951 -0.4291398525238037 -0.0330338180065155
0.25286993384361267 -0.10119254887104034 0.15059511363506317
-0.33834874629974365 -0.35706809163093567 0.09436516463756561
-0.33590251207351685 -0.3745747208595276 0.09161357581615448
-0.28522253036499023 -0.44331562519073486 -0.08581215888261795
0.05353906750679016 0.04258512705564499 -0.1344822347164154
0.00886799581348896 -0.19670186936855316 0.1520066261291504
0.28858569264411926 -0.4319276511669159 0.09794891625642776
-0.26976141333580017 0.218914195895195 0.054931942373514175
0.2923984229564667 0.2263287752866745 -0.13199123740196228
-0.2702809274196625 0.22154882550239563 -0.05541205406188965
0.15344958007335663 -0.24997861683368683 -0.12186567485332489
-0.06008300185203552 0.14351315796375275 -0.13384011387825012
-0.2482498586177826 0.4824276864528656 0.10840852558612823
-0.26367565989494324 0.43582215905189514 0.10701515525579453
0.29622524976730347 0.16108891367912292 0.14878466725349426
-0.02230626530945301 -0.25584134459495544 0.058246709406375885
-0.2593962252140045 0.48310235142707825 0.04393655061721802
-0.1494017243385315 0.17902716994285583 0.15477000176906586
-0.2923479378223419 -0.4081783890724182 -0.09525851905345917
-0.02372605726122856 0.17702850699424744 -0.13478271663188934
0.2750946879386902 0.010612018406391144 -0.1329171508550644
-0.2152179777622223 -0.43492069840431213 0.14852029085159302
0.2114977240562439 -0.27308985590934753 0.07595428079366684
-0.2716134786605835 -0.014491943642497063 0.14433732628822327
0.28108876943588257 -0.4450221359729767 0.14993992447853088
-0.019003788009285927 -0.24817967414855957 -0.13189128041267395
-0.1089094877243042 0.22637663781642914 -0.1266368180513382
0.2953011393547058 0.3964120149612427 -0.017492201179265976
0.20258845388889313 0.22919155657291412 -0.006612413562834263
-0.04746730625629425 0.21952307224273682 0.15357504785060883
0.29080700874328613 0.35180962085723877 0.09117831289768219
0.041287247091531754 0.11355233192443848 -0.13576361536979675
0.2961820960044861 0.22001346945762634 0.059737443923950195
0.011902502737939358 0.09762382507324219 -0.1371895968914032
0.25385403633117676 0.49479183554649353 -0.05907019227743149
0.29537004232406616 0.44042491912841797 0.11724936962127686
-0.007621701341122389 0.23133061826229095 -0.0625443384051323
-0.13166801631450653 -0.23854807019233704 0.1551666557788849
-0.024159658700227737 0.19373777508735657 -0.1388765573501587
-0.009219827130436897 0.2269919514656067 -0.12770909070968628
0.23090431094169617 -0.4458712041378021 0.04751278832554817
0.2857207953929901 0.33273786306381226 -0.025647221133112907
-0.15118759870529175 -0.2540150284767151 -0.028265628963708878
0.1657329797744751 0.17270508408546448 0.15208104252815247
-0.280656099319458 -0.07425916194915771 -0.257247656583786
0.007733017206192017 0.10784568637609482 0.1696753352880478
-0.2699265778064728 0.2190210521221161 -0.011863261461257935
0.28790515661239624 0.22480115294456482 -0.08210709691047668
0.005332642234861851 -0.248824805021286 0.15163837373256683
-0.05323178321123123 0.22311890125274658 -0.13407886028289795
0.07679697871208191 -0.25312530994415283 0.14629453420639038
0.016489611938595772 0.19735033810138702 -0.13576483726501465
-0.20374523103237152 0.07325088977813721 0.1699674278497696
0.29699915647506714 0.2253921926021576 0.10138745605945587
-0.11986157298088074 0.22646774351596832 -0.12292768806219101
0.08544804155826569 -0.1855359673500061 0.16304071247577667
-0.2701204717159271 0.17343582212924957 0.15448671579360962
0.07103782892227173 0.01989668421447277 0.16773025691509247
0.29677918553352356 0.14487387239933014 -0.12854395806789398
0.2081993818283081 0.2267497479915619 -0.022646170109510422
-0.24338757991790771 0.2270362228155136 -0.1346404105424881
-0.26688531041145325 0.20956680178642273 -0.13467401266098022
0.27938002347946167 -0.44344818592071533 0.0838920995593071
0.1700417697429657 -0.2542896270751953 0.016144683584570885
0.2071121335029602 -0.44780847430229187 0.18574903905391693
0.1411501169204712 -0.2369692027568817 -0.13566964864730835
-0.2715975344181061 -0.09693269431591034 -0.1236506998538971
0.06139000505208969 0.16937895119190216 -0.13534583151340485
0.28844916820526123 0.4521979093551636 0.1280105710029602
-0.2701171040534973 -0.2488417774438858 0.05335703119635582
-0.14567698538303375 -0.1924552470445633 0.15124358236789703
0.28304189443588257 0.3351922333240509 0.06842111051082611
-0.2714652121067047 0.17912377417087555 0.1500440090894699
0.20625613629817963 0.22716975212097168 0.1441318541765213
0.2792101204395294 -0.4438677132129669 0.062207937240600586
0.28124040365219116 0.38861319422721863 0.13030186295509338
0.2915652096271515 0.08632872998714447 -0.13382187485694885
0.28808167576789856 0.1826944798231125 -0.13533581793308258
-0.12777140736579895 -0.05417237803339958 -0.13505633175373077
-0.2586323618888855 -0.2521527111530304 -0.04285237193107605
0.19885142147541046 -0.21879231929779053 -0.1351373940706253
-0.1886986792087555 0.16254287958145142 0.16337478160858154
-0.30908632278442383 -0.3253137767314911 0.18164533376693726
0.2922617793083191 0.16193248331546783 -0.13498061895370483
-0.1857265830039978 0.22904618084430695 0.04830680787563324
-0.13146361708641052 0.09502162039279938 0.1682371199131012
-0.2587035000324249 0.20932093262672424 -0.13496476411819458
0.12654849886894226 -0.2505674958229065 0.14736351370811462
0.2014365941286087 -0.24633635580539703 0.15559357404708862
0.19560712575912476 0.33488625288009644 -0.03952282294631004
-0.2713967561721802 0.187247633934021 0.13425423204898834
-0.271332710981369 -0.24471351504325867 -0.118360236287117
0.28159618377685547 -0.2502959072589874 0.018277324736118317
0.025492817163467407 0.2532544434070587 -0.25774866342544556
-0.1697026491165161 -0.2361372411251068 -0.13415175676345825
-0.25992852449417114 0.41675853729248047 0.11665278673171997
-0.259284108877182 -0.24731440842151642 -0.03407220169901848
-0.2865836024284363 -0.023998647928237915 -0.23593959212303162
0.29795125126838684 0.011533576995134354 0.14496134221553802
-0.2329975962638855 -0.3943037986755371 0.19453519582748413
-0.2671046853065491 -0.06075422465801239 -0.13209378719329834
-0.14857280254364014 -0.23717017471790314 0.15521781146526337
0.29055798053741455 0.12560026347637177 -0.13429678976535797
0.2967364192008972 0.015873536467552185 -0.12841494381427765
0.09455335140228271 -0.05149480700492859 -0.13391906023025513
0.02994493953883648 0.18666169047355652 -0.13604213297367096
-0.22033442556858063 -0.33230066299438477 0.10595722496509552
0.24791382253170013 0.08497104048728943 0.15476834774017334
-0.04358278959989548 -0.2338225394487381 -0.13602623343467712
0.29685258865356445 -0.1962842494249344 0.015006884932518005
0.1707129180431366 -0.255382239818573 0.008660891093313694
-0.26584479212760925 0.015331819653511047 -0.13353261351585388
-0.33169910311698914 -0.41302019357681274 -0.04138452187180519
-0.21484385430812836 -0.45004603266716003 -0.018247006461024284
0.29099810123443604 -0.4334632158279419 0.07892711460590363
-0.2091764658689499 -0.29213619232177734 -0.06764435768127441
0.1579001545906067 -0.2502494752407074 -0.13326627016067505
0.2786587178707123 -0.4345608055591583 -0.041994303464889526
-0.26057499647140503 0.22637218236923218 -0.06384579092264175
0.07204451411962509 0.11406325548887253 -0.13444076478481293
0.20384207367897034 0.2264331877231598 -0.04750518873333931
0.14583176374435425 -0.19786125421524048 0.1515992134809494
0.046880438923835754 -0.06413808465003967 -0.13509997725486755
-0.20668759942054749 -0.004290802404284477 0.16947658360004425
0.269150972366333 -0.3822433054447174 0.177387073636055
0.29643064737319946 -0.21291863918304443 0.14903461933135986
-0.2711253762245178 0.06124942749738693 0.1422184556722641
0.07311823964118958 0.22704237699508667 -0.13060830533504486
0.2955726087093353 -0.0900101587176323 -0.13498543202877045
0.1454826444387436 0.2125478982925415 0.15396669507026672
-0.19410340487957 -0.12729141116142273 -0.13498836755752563
-0.11399498581886292 -0.2405700385570526 0.15515534579753876
-0.2697630226612091 0.21366912126541138 -0.1355704665184021
-0.2710320055484772 -0.23528026044368744 0.11100003123283386
0.28098323941230774 0.22802364826202393 0.05765196681022644
0.2973274290561676 -0.15213245153427124 0.15636713802814484
-0.33465585112571716 -0.36407721042633057 0.12787693738937378
0.1752195805311203 -0.2571670711040497 -0.01810564659535885
0.2952488660812378 0.22617527842521667 -0.030499804764986038
0.29064831137657166 0.22569796442985535 -0.13411663472652435
0.061986811459064484 0.17024654150009155 -0.13536110520362854
-0.19401052594184875 -0.2597592771053314 0.07012723386287689
0.28848424553871155 0.12587755918502808 -0.13493691384792328
0.2206401228904724 0.21764825284481049 0.1539633572101593
0.2981186807155609 -0.05385586619377136 -0.12439252436161041
0.29154762625694275 -0.2507539391517639 -0.06502654403448105
-0.18833878636360168 0.32490113377571106 -0.02360425516963005
-0.2546445429325104 0.3711194097995758 0.10290150344371796
-0.18252481520175934 0.3123435378074646 0.0009074367117136717
-0.2221301943063736 -0.4680261015892029 0.007343966513872147
-0.22660058736801147 -0.4623975157737732 0.08765482157468796
0.29388880729675293 0.12576168775558472 -0.13462801277637482
0.23535414040088654 0.21853531897068024 0.15381239354610443
-0.2309955209493637 -0.256523072719574 -0.04043528810143471
0.2984560430049896 -0.03900815546512604 0.153591126203537
0.165525883436203 -0.30918416380882263 -0.02462039329111576
0.2321772277355194 -0.44820934534072876 0.19933342933654785
-0.3131505250930786 -0.3984988033771515 -0.07010580599308014
-0.07878091931343079 -0.10844973474740982 -0.13562090694904327
-0.33591198921203613 -0.35425034165382385 0.09686311334371567
0.26453277468681335 -0.25244536995887756 0.04318435117602348
0.24746522307395935 0.2255537509918213 0.15181736648082733
0.2901960015296936 -0.41873839497566223 0.15962347388267517
0.2538869082927704 -0.44133132696151733 -0.07912543416023254
0.2973164916038513 0.22363290190696716 -0.09914977848529816
0.003027193248271942 -0.1794569045305252 0.16578619182109833
-0.20013892650604248 0.18276357650756836 0.1529809534549713
-0.197293221950531 0.33920085430145264 -0.04949495568871498
0.19330467283725739 -0.19343067705631256 0.15681013464927673
-0.09295017272233963 -0.18188928067684174 0.16330589354038239
-0.17190270125865936 0.3721557557582855 0.09455938637256622
0.2865356206893921 0.12314808368682861 -0.13529618084430695
0.29651200771331787 -0.24499621987342834 0.08390603214502335
0.2978130280971527 0.1792023628950119 0.1459733247756958
0.20996001362800598 0.2285994589328766 0.005218782927840948
-0.1733236312866211 -0.1749085932970047 0.16798149049282074
-0.3306894898414612 -0.35508185625076294 0.1635081022977829
-0.04028965160250664 0.14962761104106903 -0.13781893253326416
0.29249581694602966 -0.1269395649433136 -0.1357511430978775
-0.2719057500362396 -0.09955110400915146 -0.12376677989959717
-0.27175259590148926 0.09524239599704742 0.1442382037639618
0.16934730112552643 -0.24313804507255554 0.15603940188884735
0.28822118043899536 -0.4418236017227173 0.1543559432029724
0.24212032556533813 0.36272504925727844 -0.08687574416399002
-0.22173289954662323 0.1790124773979187 0.15122941136360168
-0.2252964824438095 -0.47154733538627625 0.04124367609620094
0.28548893332481384 -0.4368778467178345 -0.01715230755507946
0.28023654222488403 0.3570164144039154 0.12163923680782318
-0.057210613042116165 0.22752946615219116 -0.11619943380355835
-0.05361282825469971 0.0653148666024208 0.16838069260120392
-0.024647992104291916 0.22582343220710754 -0.1348782777786255
-0.25525784492492676 0.22741807997226715 0.0010677836835384369
-0.16683374345302582 0.2270827442407608 -0.010205786675214767
0.2513881027698517 0.16904546320438385 0.14925096929073334
0.2343706488609314 -0.17412154376506805 0.16832229495048523
-0.20132365822792053 0.2325875610113144 0.056960828602313995
0.20200182497501373 -0.10348192602396011 -0.1331772655248642
0.1462090015411377 0.22599975764751434 -0.13004201650619507
0.23849090933799744 0.3694840371608734 -0.0912623256444931
-0.1667761653661728 0.22678878903388977 -0.13385169208049774
-0.2581102252006531 -0.24324646592140198 -0.13262486457824707
-0.23519811034202576 0.39543020725250244 -0.07769867777824402
0.24035678803920746 0.2961028218269348 0.046284351497888565
-0.22674228250980377 -0.11626629531383514 0.15245071053504944
0.21499156951904297 0.5136889815330505 0.06875819712877274
-0.21271787583827972 0.2453606128692627 0.046760961413383484
-0.096233069896698 0.22746044397354126 0.14845874905586243
0.20737892389297485 0.22747960686683655 0.027623146772384644
0.24294818937778473 0.020592760294675827 0.16269615292549133
0.09713226556777954 0.22705040872097015 0.1412404328584671
0.24272486567497253 0.432846337556839 -0.091049924492836
0.2907470166683197 0.22623054683208466 -0.1326599419116974
0.059658829122781754 -0.2565172016620636 -0.024928199127316475
0.24527475237846375 0.016303129494190216 0.15471050143241882
0.2030632495880127 0.2271476686000824 -0.012395769357681274
-0.33651357889175415 -0.3735311031341553 0.049013830721378326
-0.2095310091972351 -0.24633462727069855 -0.12865667045116425
0.12644776701927185 -0.1776288002729416 0.16712579131126404
0.07762208580970764 0.15859580039978027 0.16836342215538025
0.235341414809227 0.44138282537460327 -0.09118978679180145
0.2651856541633606 -0.34175941348075867 0.12787242233753204
-0.28502023220062256 -0.31309619545936584 0.05380717292428017
-0.2670835256576538 -0.04151943325996399 0.15429753065109253
0.14954335987567902 -0.18066446483135223 0.167368546128273
0.11886390298604965 0.17982053756713867 0.1533406525850296
-0.05057578533887863 0.2258875072002411 -0.12765729427337646
0.29654660820961 -0.09221067279577255 0.0769527405500412
0.0035797441378235817 0.2244935780763626 0.15206970274448395
0.2975626289844513 -0.07850081473588943 0.04424825683236122
0.23738695681095123 0.5056449174880981 -0.04051036015152931
0.17841528356075287 0.46474164724349976 0.05654244124889374
0.237761452794075 -0.3573783338069916 -0.08739708364009857
0.21460863947868347 0.17506638169288635 0.14868886768817902
-0.2717837393283844 0.14501526951789856 -0.12385569512844086
0.2600371241569519 0.47147899866104126 -0.0745287761092186
-0.17910140752792358 0.2255920171737671 -0.1342765837907791
-0.21591170132160187 0.40490877628326416 -0.08194030821323395
0.11629064381122589 -0.2505127489566803 0.1408219039440155
-0.2258588969707489 0.23715412616729736 0.0501113161444664
0.16063417494297028 -0.2886873185634613 0.014828053303062916
-0.054796792566776276 -0.2466985136270523 -0.13214567303657532
-0.20894351601600647 0.116144560277462 0.16888274252414703
0.24107298254966736 0.22781923413276672 -0.04787018895149231
-0.27261045575141907 -0.385372132062912 -0.09607217460870743
-0.003972848877310753 -0.08666932582855225 -0.13504955172538757
0.19117756187915802 -0.18218888342380524 0.16719558835029602
0.18999157845973969 0.39734750986099243 0.10970257222652435
-0.26974570751190186 0.21665386855602264 0.07748228311538696
-0.27097368240356445 0.13494284451007843 -0.10204588621854782
-0.08076748996973038 0.16325530409812927 0.16144053637981415
-0.14153704047203064 0.21783806383609772 -0.13533562421798706
0.18554678559303284 0.15335284173488617 0.17084680497646332
0.2823964059352875 -0.44307100772857666 0.14767806231975555
0.29730403423309326 0.1329788863658905 0.14560410380363464
0.09583695232868195 0.03891778737306595 -0.13591314852237701
0.1578490138053894 0.15189403295516968 0.16842341423034668
-0.21044155955314636 0.2289804220199585 -0.133187398314476
0.127630352973938 0.17005231976509094 0.15483932197093964
-0.29245251417160034 -0.3811725974082947 0.20167192816734314
0.2500200569629669 0.07398844510316849 0.151364266872406
0.0039723883382976055 0.21309390664100647 0.15345720946788788
0.2961167097091675 -0.07651843875646591 0.1551947146654129
0.2859501838684082 0.42464733123779297 -0.06376581639051437
0.19397220015525818 -0.24506694078445435 0.15702371299266815
0.2976008355617523 -0.048183001577854156 -0.13241730630397797
0.27383142709732056 0.42888393998146057 -0.07996237277984619
0.24114730954170227 -0.34360259771347046 -0.08380833268165588
0.2986162304878235 -0.015666261315345764 0.0524313822388649
0.1596885323524475 0.2118300497531891 -0.13448171317577362
0.15661196410655975 0.17704734206199646 0.14974024891853333
-0.30266836285591125 -0.3165878653526306 0.12903013825416565
0.2939016819000244 0.20610642433166504 -0.1348603069782257
-0.1792362481355667 0.18550223112106323 -0.1349049210548401
-0.26608896255493164 0.1502605676651001 -0.13439564406871796
0.27370917797088623 0.3890279233455658 0.12889063358306885
0.04612720012664795 0.13494083285331726 -0.20500607788562775
0.29138776659965515 0.11450211703777313 -0.13329586386680603
0.15632466971874237 0.15137657523155212 0.1688292771577835
-0.335303395986557 -0.35339343547821045 0.12558609247207642
0.29191675782203674 0.014959760010242462 0.15348339080810547
-0.03349647670984268 0.1770782619714737 0.15299704670906067
0.2909131646156311 0.22415247559547424 -0.13206134736537933
0.2966863214969635 0.21970055997371674 0.03592114895582199
0.18265216052532196 -0.09853413701057434 0.1698613315820694
-0.22346317768096924 0.15641936659812927 0.15898922085762024
0.2954052984714508 0.12767557799816132 0.14850717782974243
0.2963557541370392 0.22473348677158356 0.062086984515190125
-0.20023216307163239 -0.4134363532066345 0.13814210891723633
0.24338579177856445 -0.40236181020736694 -0.09126955270767212
-0.1492607295513153 0.01685500144958496 -0.13504205644130707
0.29255861043930054 0.05394294112920761 -0.1351061314344406
-0.1605759561061859 -0.24902328848838806 -0.12559174001216888
-0.1704968512058258 0.42836636304855347 0.1013604924082756
-0.2569996118545532 0.22810916602611542 0.043830111622810364
-0.10924918204545975 0.2272903025150299 0.08224639296531677
0.2852790355682373 -0.4417286217212677 0.09745480865240097
-0.24979940056800842 0.3640638589859009 0.10544434189796448
0.2988375127315521 -0.051559917628765106 -0.13050401210784912
0.29253077507019043 0.22239691019058228 -0.13472342491149902
0.25126636028289795 -0.4517079293727875 0.19467096030712128
0.03979375213384628 0.21860018372535706 0.1538359373807907
-0.27180689573287964 0.016112618148326874 -0.12866225838661194
-0.0591123104095459 0.21690848469734192 -0.136309415102005
-0.01894635334610939 0.19256724417209625 -0.1379927098751068
0.19029441475868225 0.4108559191226959 -0.05093739926815033
0.23745355010032654 -0.1995111107826233 0.1536976844072342
0.29470714926719666 0.008099555969238281 -0.13078580796718597
0.10401197522878647 0.17990264296531677 0.1547430157661438
-0.018073637038469315 0.26053857803344727 -0.21977737545967102
0.053911127150058746 0.22658760845661163 0.14705431461334229
0.2960357367992401 -0.22963446378707886 0.01744464784860611
0.21485170722007751 -0.2734358608722687 0.07553678750991821
0.006956029683351517 0.15540482103824615 0.1684139519929886
-0.16504940390586853 0.3937387466430664 0.09450693428516388
0.024509452283382416 -0.20005571842193604 0.15386109054088593
-0.09884776920080185 -0.17506416141986847 0.16783294081687927
-0.25806155800819397 -0.04915173351764679 0.15471868216991425
0.23306158185005188 0.23163031041622162 0.056797683238983154
0.2925128936767578 0.14271044731140137 -0.13409827649593353
0.2498241662979126 -0.2510872781276703 0.14997825026512146
0.28798964619636536 -0.4125582277774811 0.06627552956342697
-0.12257006019353867 0.15593694150447845 -0.13380838930606842
0.25095826387405396 0.14050130546092987 0.15286578238010406
0.00478704646229744 -0.24004150927066803 0.15396849811077118
0.031129905954003334 -0.2515738308429718 -0.1281866431236267
0.23411384224891663 0.3371298909187317 -0.07268866896629333
-0.2683340013027191 -0.22143138945102692 -0.13362981379032135
0.2970215380191803 -0.0479997918009758 0.05258160084486008
0.04731600731611252 -0.23440338671207428 0.1562415063381195
0.2576274871826172 -0.04642040282487869 0.1549093872308731
0.2372768670320511 0.013699831441044807 0.1696271449327469
-0.09931372106075287 0.17344319820404053 -0.13736358284950256
0.2881498336791992 0.17013156414031982 -0.13594727218151093
-0.2689381241798401 -0.24708864092826843 0.02753518335521221
0.12868884205818176 0.2243817001581192 0.14799921214580536
0.2903438210487366 -0.43358445167541504 0.0409170426428318
0.14557433128356934 -0.43075352907180786 -0.01208818331360817
-0.2698218822479248 -0.015387007966637611 -0.13265582919120789
-0.12830045819282532 0.004342302680015564 -0.13326498866081238
-0.2679389715194702 0.03422507271170616 -0.1359184980392456
0.29182374477386475 0.22329071164131165 0.1530153751373291
-0.11006206274032593 -0.19838933646678925 0.1530275046825409
-0.26145434379577637 -0.24825800955295563 -0.12320907413959503
0.29863226413726807 0.11062546074390411 0.12824147939682007
0.16159097850322723 0.21313001215457916 -0.13529632985591888
0.06329060345888138 -0.24975845217704773 -0.1194889172911644
0.23835639655590057 0.5034905672073364 -0.040479354560375214
0.23069770634174347 0.31383848190307617 0.05667182803153992
-0.3367171585559845 -0.3677373230457306 0.055622946470975876
-0.24883848428726196 -0.30414605140686035 -0.061873264610767365
-0.1896878331899643 0.473520427942276 -0.05263030529022217
0.15915361046791077 -0.2536916732788086 0.025754626840353012
0.21472524106502533 -0.44618359208106995 0.1974269449710846
0.23842869699001312 -0.3109275996685028 0.1037980392575264
-0.21074646711349487 -0.4229160249233246 0.16752156615257263
0.030368275940418243 0.20923957228660583 -0.23418039083480835
0.24249427020549774 -0.36543041467666626 -0.0871892124414444
0.2844669818878174 -0.37076807022094727 0.019685624167323112
0.2865182161331177 -0.2507956922054291 -0.002905726432800293
-0.1896502524614334 0.06630527228116989 -0.13587859272956848
-0.2142985314130783 -0.07000266015529633 0.16660602390766144
-0.2587231397628784 0.2282496988773346 0.08346939831972122
-0.2999897301197052 -0.3755754828453064 0.19960404932498932
0.24138431251049042 -0.39936062693595886 -0.09149731695652008
0.2903278172016144 -0.4349142014980316 0.057500965893268585
0.19771826267242432 -0.4474828541278839 -0.011956383474171162
0.25500592589378357 -0.4425387978553772 -0.07181434333324432
0.02045964077115059 -0.19245383143424988 0.155379980802536
0.11470749974250793 -0.18018104135990143 0.16594628989696503
0.11853866279125214 -0.17959940433502197 0.1684315949678421
-0.06543852388858795 -0.24969349801540375 -0.12444072961807251
0.20815612375736237 0.22972679138183594 0.04355182498693466
-0.26840487122535706 -0.08076931536197662 -0.12864018976688385
-0.2745200991630554 -0.10592691600322723 -0.10613682121038437
-0.25978249311447144 0.22569482028484344 -0.049998946487903595
0.2915650010108948 -0.12547221779823303 -0.13580681383609772
0.2908785939216614 0.0721006691455841 -0.13458789885044098
-0.15571540594100952 -0.28189653158187866 -0.014370683580636978
0.2935267388820648 0.21395081281661987 0.14928877353668213
-0.2086292952299118 -0.24616003036499023 -0.13062624633312225
0.2989751100540161 -0.004601620137691498 -0.10496111214160919
0.25248730182647705 0.012796327471733093 0.15063223242759705
0.2830119729042053 0.1048935130238533 0.15626193583011627
0.2610602378845215 -0.020372111350297928 0.1556420624256134
-0.02534235268831253 0.21661269664764404 -0.1342957466840744
-0.2724676728248596 -0.1468820869922638 -0.12106772512197495
0.29780837893486023 0.20613795518875122 -0.1307935267686844
0.04757871478796005 0.1814717948436737 0.15339387953281403
-0.05915858596563339 0.22527116537094116 -0.13258096575737
0.2812817096710205 -0.2375786006450653 -0.13731618225574493
0.2964986562728882 -0.24312689900398254 0.14228889346122742
0.2997378706932068 0.10051022469997406 0.14529924094676971
-0.2186017632484436 -0.4451799988746643 0.13346561789512634
0.01033676229417324 -0.06270071119070053 -0.13433893024921417
-0.24323242902755737 0.2268528938293457 -0.13561129570007324
0.2935124337673187 0.22024866938591003 -0.13374841213226318
-0.03697250783443451 -0.2534480690956116 0.04146149754524231
-0.17231324315071106 0.22919011116027832 -0.13250283896923065
-0.16150963306427002 0.22509396076202393 0.15034624934196472
-0.09016869962215424 -0.08027985692024231 -0.13972550630569458
-0.018164396286010742 0.26966220140457153 -0.2758740186691284
0.25347909331321716 -0.24282389879226685 0.15335196256637573
0.17668724060058594 0.3969869017601013 0.09363395720720291
0.28475168347358704 -0.034865669906139374 0.1552964150905609
0.10999719798564911 -0.2536640465259552 -0.05164017528295517
-0.2258351445198059 0.39136481285095215 -0.08015549182891846
0.2950606346130371 -0.06139525771141052 0.15461981296539307
-0.2982844412326813 -0.35551193356513977 -0.05079273134469986
-0.26808735728263855 -0.24841156601905823 0.058565616607666016
0.11769308894872665 -0.09320953488349915 -0.1341288685798645
0.26187917590141296 0.2442549616098404 -0.01735755428671837
0.2030593603849411 0.22964026033878326 -0.019295169040560722
-0.07445895671844482 -0.24993105232715607 -0.1207583025097847
0.2888668179512024 0.22039803862571716 -0.13307751715183258
0.21018579602241516 0.3607437312602997 -0.076494500041008
0.1870710551738739 -0.44594627618789673 -0.05593624711036682
0.29629477858543396 0.213933527469635 -0.0036905482411384583
-0.2699742615222931 0.22116082906723022 0.10737352073192596
-0.13795867562294006 -0.25404006242752075 0.008421078324317932
0.2556355893611908 0.13313116133213043 0.14742961525917053
0.2985565662384033 0.06737957894802094 0.0034910887479782104
0.10699944943189621 -0.24741482734680176 -0.1308567225933075
0.2148309201002121 0.22042222321033478 0.1527116745710373
0.015513962134718895 0.09330318868160248 -0.13697779178619385
-0.264182448387146 0.20064958930015564 0.15307393670082092
-0.21917635202407837 -0.46367451548576355 0.0525062158703804
-0.24601352214813232 -0.07643017172813416 -0.24402344226837158
-0.27037084102630615 -0.19331903755664825 -0.1282254159450531
-0.07776964455842972 0.17309755086898804 0.15184885263442993
-0.20805774629116058 0.16701488196849823 0.1540767401456833
-0.2558055818080902 -0.35849741101264954 0.19107429683208466
-0.2130061388015747 -0.41462084650993347 0.16727253794670105
0.24758704006671906 0.16554993391036987 0.1491546481847763
-0.2749643325805664 -0.38731494545936584 0.20835541188716888
0.09847966581583023 -0.11292409896850586 -0.1362372487783432
-0.14252036809921265 0.17326557636260986 0.1523716151714325
0.2820063531398773 0.23035213351249695 0.018603438511490822
0.25618988275527954 -0.3026892840862274 -0.05548904463648796
0.1697695553302765 0.15560664236545563 0.1676601767539978
-0.27224379777908325 -0.04140506684780121 -0.02610369771718979
-0.27190375328063965 -0.14441713690757751 0.04041378200054169
0.25771430134773254 0.20896217226982117 0.1543252319097519
0.2917880117893219 0.22641313076019287 -0.1346660703420639
0.28831636905670166 -0.06823122501373291 -0.13541880249977112
-0.20629988610744476 0.054279886186122894 0.16858607530593872
-0.2536197304725647 0.22677838802337646 -0.13743354380130768
-0.2514307498931885 0.04770973324775696 -0.2713830769062042
0.29493096470832825 -0.09059365838766098 -0.13497400283813477
0.1905665248632431 -0.2518111765384674 0.05317321792244911
0.2968601584434509 -0.0019996613264083862 -0.13208220899105072
0.29662808775901794 0.22456477582454681 -0.11908161640167236
0.22915096580982208 -0.25059568881988525 0.14317050576210022
-0.2716131806373596 -0.24651196599006653 -0.08953478187322617
-0.11912837624549866 0.22641268372535706 -0.12188386917114258
-0.06290960311889648 -0.23589757084846497 -0.13538022339344025
0.2972300350666046 0.13242655992507935 0.15506649017333984
0.26586413383483887 -0.2514059245586395 0.004918854683637619
-0.12311120331287384 -0.25125303864479065 -0.10571368783712387
0.2598162889480591 -0.24818888306617737 -0.12752550840377808
0.29182639718055725 0.14527086913585663 -0.13297687470912933
0.2966246008872986 -0.00403914600610733 -0.129940465092659
-0.16516438126564026 0.22720792889595032 -0.013849398121237755
-0.10274318605661392 -0.22034183144569397 -0.13507698476314545
0.29792580008506775 0.11506998538970947 0.06919799745082855
-0.26280418038368225 0.4468193054199219 0.08480120450258255
0.2329932451248169 -0.25167199969291687 0.1441744565963745
-0.2210318148136139 -0.37276342511177063 0.15306919813156128
-0.2613499164581299 -0.21996603906154633 -0.1321515142917633
-0.27142423391342163 -0.006556134670972824 0.14409267902374268
0.2871098816394806 -0.412031888961792 0.17973297834396362
-0.2189764380455017 0.32721737027168274 -0.03829944133758545
-0.2343718409538269 0.09055493772029877 0.15402202308177948
-0.27102363109588623 0.05544041842222214 -0.12335507571697235
-0.28432324528694153 -0.39785727858543396 -0.09623564779758453
-0.20758786797523499 -0.0010701697319746017 0.1688866764307022
0.2973746359348297 -0.15068013966083527 0.12837371230125427
0.0008048228919506073 -0.25046712160110474 -0.07387074828147888
-0.21556800603866577 -0.023816652595996857 0.16568855941295624
0.25503674149513245 -0.2531763017177582 -0.03079112060368061
0.224733367562294 -0.25201481580734253 0.1404668688774109
-0.2715504467487335 -0.07486939430236816 0.14213827252388
-0.15882474184036255 -0.2560999095439911 0.045439884066581726
-0.2732802927494049 -0.1815911829471588 -0.028023965656757355
0.2451469600200653 0.0755685567855835 0.15739448368549347
0.23688596487045288 0.503433346748352 -0.04545764997601509
0.17826969921588898 0.3960272967815399 -0.028134901076555252
0.24553392827510834 -0.26490887999534607 -0.04374279826879501
-0.2613261938095093 0.1781114935874939 -0.13645553588867188
0.04152350127696991 0.226716548204422 -0.12140262126922607
0.1392151266336441 0.2267112284898758 0.051868487149477005
-0.21230044960975647 -0.4351262152194977 0.13562510907649994
-0.2065173089504242 0.227914497256279 -0.1328040063381195
0.12689156830310822 0.22619196772575378 0.14983142912387848
0.29276716709136963 0.2258593589067459 -0.13330021500587463
-0.24395808577537537 -0.46783727407455444 0.037119124084711075
-0.2449752688407898 -0.3360566794872284 -0.08644604682922363
-0.03473363816738129 0.15616944432258606 -0.19037103652954102
-0.2730965316295624 -0.1512337177991867 -0.08030819147825241
-0.2222026288509369 0.49787190556526184 -0.01737162098288536
0.19421906769275665 0.43175798654556274 0.10926518589258194
-0.17686037719249725 0.4903807044029236 0.05699029192328453
-0.21878184378147125 -0.13590946793556213 0.1616254448890686
-0.27425453066825867 -0.23670020699501038 -0.06110908091068268
-0.1133916974067688 0.17772303521633148 0.15159152448177338
0.2623940408229828 0.2068006694316864 0.15420350432395935
-0.3399410843849182 -0.368843674659729 0.06675231456756592
-0.11430034041404724 0.21911583840847015 -0.13495446741580963
0.21346139907836914 0.22641806304454803 0.04501846805214882
0.01991145685315132 0.1064523458480835 0.1688932329416275
0.2977680265903473 0.08208112418651581 0.054017696529626846
-0.27222204208374023 0.07907553017139435 -0.13480831682682037
0.2646336853504181 0.30594974756240845 0.0456647053360939
-0.20891126990318298 0.3724747896194458 -0.07818368077278137
0.29529792070388794 0.13200795650482178 0.15033870935440063
0.17463621497154236 0.22229772806167603 -0.13416433334350586
0.2925121486186981 0.012697204947471619 -0.13093769550323486
0.2832033634185791 0.14363251626491547 0.15486817061901093
-0.0035848282277584076 0.21774381399154663 -0.13538646697998047
-0.2865201532840729 -0.013635976240038872 -0.302225798368454
0.2978018522262573 0.03464195877313614 -0.12426625937223434
0.10623249411582947 0.15368162095546722 0.1679699420928955
-0.27279776334762573 -0.1445719599723816 -0.06808914244174957
-0.28975287079811096 -0.019165286794304848 -0.24371802806854248
0.2978818714618683 0.07680115848779678 -0.09465046226978302
-0.0982666015625 0.2145453840494156 0.1530182808637619
-0.33902090787887573 -0.3935309052467346 0.018225276842713356
-0.23613618314266205 -0.47704094648361206 -0.01845877431333065
0.25810253620147705 0.217936709523201 0.1551705002784729
0.23728148639202118 0.15886113047599792 0.1632997691631317
-0.27112725377082825 0.08928824961185455 0.1443016231060028
0.11091075837612152 0.2259405106306076 -0.13014863431453705
-0.2704658508300781 -0.4051961898803711 0.19431671500205994
-0.18712498247623444 0.3843493163585663 -0.07395164668560028
-0.2582216262817383 0.46952709555625916 0.10417865216732025
0.0774867907166481 -0.2474309355020523 -0.12698647379875183
-0.03159970045089722 0.15990862250328064 -0.13775038719177246
0.2608104348182678 0.2276155650615692 -0.12739525735378265
0.28926917910575867 0.026804529130458832 -0.1336933970451355
0.16133791208267212 -0.443927526473999 0.17862769961357117
0.012320196256041527 0.09107689559459686 -0.13943450152873993
-0.04285472631454468 0.22202251851558685 0.15281054377555847
-0.2154712826013565 -0.04291157424449921 0.16365008056163788
0.29723209142684937 -0.03220241889357567 0.0820702463388443
0.026429584249854088 0.21409234404563904 0.1533125787973404
-0.24051015079021454 0.35756629705429077 0.10592122375965118
0.032767631113529205 -0.19587349891662598 0.15247514843940735
0.24679876863956451 -0.3970431089401245 -0.08892884105443954
-0.02810647338628769 0.12086059153079987 0.1686556339263916
0.27406400442123413 -0.33515655994415283 0.10474951565265656
-0.26460665464401245 -0.15185728669166565 -0.1334475725889206
-0.247439906001091 -0.27272796630859375 0.009845015592873096
0.2959437966346741 0.2113143801689148 -0.046101346611976624
-0.27331802248954773 0.04093248024582863 0.14330831170082092
0.24856975674629211 -0.3447299003601074 0.13712447881698608
0.14003169536590576 -0.434503972530365 0.03859817236661911
0.22525104880332947 -0.41324472427368164 -0.08824651688337326
-0.2717980444431305 -0.21924921870231628 -0.13078251481056213
0.1597261279821396 0.1582999974489212 0.16752469539642334
-0.13755738735198975 0.22381474077701569 0.15189960598945618
0.20288991928100586 0.18035946786403656 0.15362080931663513
-0.13905538618564606 0.2175789475440979 -0.13364049792289734
0.12767000496387482 0.17859897017478943 0.15264903008937836
0.2925957143306732 0.05859239399433136 -0.13557499647140503
0.1729828268289566 0.2166893631219864 0.15340858697891235
-0.09659699350595474 -0.2476993352174759 -0.12817466259002686
0.18690183758735657 0.22493210434913635 -0.13380084931850433
-0.271963894367218 0.0631762444972992 0.14363881945610046
-0.16655233502388 -0.25550493597984314 0.058646224439144135
-0.20263278484344482 0.2217901200056076 0.15309491753578186
-0.20968332886695862 -0.3217878043651581 -0.07153496146202087
0.291439950466156 0.22574231028556824 -0.1345570683479309
0.297177255153656 0.08289980888366699 0.15071822702884674
-0.05210304260253906 0.07258914411067963 0.16992220282554626
0.2970650792121887 0.05289556086063385 -0.1313619613647461
0.2594515085220337 -0.36660560965538025 -0.07757679373025894
0.2828717529773712 -0.431796133518219 0.1871652752161026
-0.2032587230205536 0.34075650572776794 0.08384506404399872
0.20877522230148315 0.3633674085140228 -0.080746591091156
0.1645277887582779 -0.40856993198394775 0.17984221875667572
0.28746479749679565 -0.24792256951332092 -0.009796634316444397
0.03340368717908859 0.187682643532753 -0.13748668134212494
0.2573050260543823 0.502117931842804 -0.03586392477154732
-0.257906049489975 -0.03578849509358406 -0.13789626955986023
-0.031742073595523834 -0.2357649803161621 -0.13441751897335052
0.09986968338489532 0.10567498207092285 -0.135606586933136
-0.10127110779285431 0.15363752841949463 0.17019091546535492
-0.29096004366874695 -0.4446941316127777 -0.08384978026151657
-0.21615082025527954 -0.19819676876068115 0.15322569012641907
0.24113517999649048 -0.12734411656856537 0.1632087677717209
0.1909448504447937 -0.2653982639312744 0.06057559698820114
0.23371140658855438 -0.30770280957221985 -0.0747542604804039
0.28180527687072754 -0.44327476620674133 0.08190938085317612
-0.13112159073352814 0.22521807253360748 0.1444328874349594
-0.23446732759475708 0.22821572422981262 -0.13413994014263153
-0.14862163364887238 -0.26131707429885864 0.02145376242697239
0.2906907796859741 -0.08452187478542328 0.1559612900018692
0.10434384644031525 -0.2491419017314911 -0.1261262595653534
0.010042183101177216 0.19559794664382935 -0.13771574199199677
0.22009921073913574 0.21749359369277954 0.15296894311904907
-0.25755518674850464 -0.2502555251121521 0.1296217441558838
0.17047488689422607 -0.25324898958206177 0.0076349275186657906
0.22776928544044495 -0.3401927351951599 -0.08388485759496689
-0.26563718914985657 -0.24880632758140564 0.15059126913547516
0.2764451503753662 0.33386150002479553 -0.04830090329051018
0.17297588288784027 0.3861807882785797 0.06250088661909103
0.10873670130968094 -0.1970251351594925 0.1515825092792511
0.18921895325183868 -0.3930680453777313 -0.07332684099674225
0.292537659406662 0.10400689393281937 0.15216492116451263
0.03716425597667694 0.22653213143348694 0.03871944546699524
0.13983678817749023 0.15135329961776733 0.16891735792160034
-0.16683197021484375 0.4725450873374939 0.05188329517841339
0.2927579879760742 0.01228582113981247 -0.13541138172149658
-0.16173498332500458 0.35259032249450684 -0.014692220836877823
0.18665695190429688 -0.253188818693161 -0.04073086380958557
0.2913658320903778 0.2231537401676178 -0.13189078867435455
-0.17206330597400665 0.35223159193992615 -0.04480365291237831
-0.27037855982780457 -0.238618865609169 -0.005544120445847511
0.21016010642051697 0.21640507876873016 0.15415054559707642
0.035763759166002274 0.19280600547790527 -0.23221218585968018
0.29705387353897095 0.05805043876171112 0.15185748040676117
-0.2706562876701355 -0.1990978717803955 0.1476725935935974
0.2948216497898102 0.22280436754226685 -0.021428480744361877
0.14307792484760284 0.03628220409154892 0.16908830404281616
0.29851704835891724 0.10366977751255035 -0.016632981598377228
0.12141379714012146 -0.25359293818473816 -0.03393768519163132
0.2585327923297882 0.10486635565757751 0.15297167003154755
0.2648831307888031 0.24871604144573212 -0.009885899722576141
0.009919926524162292 0.22790196537971497 -0.016860220581293106
0.2881292700767517 0.22614063322544098 0.08047963678836823
0.04926520213484764 0.17296138405799866 0.14797383546829224
0.29580289125442505 0.21584148705005646 0.15424369275569916
-0.23138460516929626 0.22901281714439392 0.13920088112354279
0.12818804383277893 0.172710120677948 0.15075361728668213
-0.193918377161026 0.42492255568504333 -0.07718782126903534
0.2963293492794037 -0.12459671497344971 -0.0699349045753479
0.2316618710756302 -0.19983237981796265 0.14875048398971558
-0.2707001268863678 -0.35475993156433105 -0.08588986098766327
-0.21441391110420227 -0.25080233812332153 0.14175744354724884
-0.3387809991836548 -0.3961772918701172 0.01326889917254448
0.2682926654815674 -0.44742876291275024 -0.0491291768848896
-0.22532497346401215 -0.45970138907432556 0.09582199901342392
-0.07205143570899963 -0.24868343770503998 0.1509687900543213
-0.18808335065841675 0.4991246461868286 0.022307028993964195
-0.3122308850288391 -0.3199099898338318 0.14910931885242462
0.22481665015220642 -0.25109851360321045 0.14654210209846497
-0.25816941261291504 0.14173462986946106 -0.13486790657043457
-0.13083049654960632 -0.25362908840179443 0.05536867678165436
0.261644572019577 -0.4488444924354553 -0.055198125541210175
-0.060489967465400696 0.2285594344139099 0.144240140914917
-0.1331431269645691 -0.24922767281532288 0.14930719137191772
-0.2977941632270813 -0.4269973337650299 -0.09182454645633698
-0.22546955943107605 0.38391339778900146 -0.07970845699310303
0.2919877767562866 0.2217102199792862 -0.13476736843585968
0.292336642742157 0.1681983470916748 -0.13524499535560608
0.2969774901866913 0.21696975827217102 0.01206827163696289
-0.1783018410205841 -0.2557510733604431 0.06659453362226486
0.08428867161273956 0.15329931676387787 0.16869819164276123
0.24142009019851685 0.047683920711278915 0.16392338275909424
-0.258687287569046 -0.2484755665063858 -0.03891025111079216
-0.14821825921535492 -0.2542576789855957 -0.023720955476164818
0.1949920505285263 0.4833678901195526 0.1100776344537735
0.16433852910995483 -0.2492855191230774 -0.1242503672838211
-0.20749498903751373 0.2271929234266281 -0.04821586608886719
0.19280949234962463 -0.24407045543193817 0.15605264902114868
0.29301223158836365 -0.24846409261226654 -0.10350267589092255
0.22933179140090942 -0.2520655691623688 0.14665572345256805
-0.3011782765388489 -0.411039799451828 0.08166419714689255
-0.09940634667873383 -0.25030702352523804 0.14638632535934448
0.28391900658607483 -0.24381054937839508 -0.13421529531478882
0.0010982882231473923 0.17101909220218658 0.15258145332336426
-0.33031532168388367 -0.4213606119155884 -0.050385862588882446
-0.27207255363464355 0.09304668754339218 -0.128266841173172
-0.2152685672044754 0.42243286967277527 -0.08080416172742844
-0.25976285338401794 -0.0125914691016078 -0.13539791107177734
0.162257581949234 0.21196085214614868 0.15348750352859497
-0.011373478919267654 0.2196577787399292 -0.1340714395046234
0.16441768407821655 -0.4233147203922272 0.18504686653614044
0.2914302945137024 0.0750732570886612 0.15516629815101624
0.07312032580375671 -0.24876293540000916 -0.12774306535720825
-0.26225823163986206 0.22648566961288452 -0.13680878281593323
0.1847970336675644 -0.2549974024295807 0.04902234673500061
0.2963521182537079 -0.13229873776435852 0.14849719405174255
-0.25080156326293945 -0.3542020320892334 -0.09357470273971558
-0.20983096957206726 0.21236000955104828 -0.1346706598997116
0.29785794019699097 0.20633673667907715 -0.13045412302017212
0.19164197146892548 -0.26412734389305115 -0.04159509763121605
0.05107741430401802 -0.25001662969589233 -0.13194292783737183
0.17294234037399292 -0.07547466456890106 0.16559657454490662
0.2237728387117386 0.3472154140472412 0.11208908259868622
-0.260728657245636 0.22135919332504272 0.14705580472946167
-0.03814122453331947 0.04339569807052612 -0.1355772763490677
-0.26034465432167053 0.16592253744602203 -0.13663634657859802
-0.2712526023387909 -0.24080120027065277 -0.12409412860870361
0.2631095051765442 -0.250573068857193 0.15059122443199158
-0.2696654200553894 0.1516636312007904 0.15257064998149872
0.24467632174491882 0.017092373222112656 0.15928886830806732
-0.14679157733917236 -0.25872886180877686 0.025922145694494247
0.16160568594932556 0.15267300605773926 0.1675856113433838
0.13438403606414795 -0.05705711990594864 0.16814075410366058
0.26771795749664307 0.2931568920612335 0.015482308343052864
0.29551318287849426 -0.24374127388000488 0.06898260116577148
0.11898288130760193 -0.24978064000606537 0.14097236096858978
-0.2679596245288849 0.013869434595108032 -0.1336321085691452
0.24047203361988068 0.50630784034729 0.11542977392673492
0.2907528877258301 0.22716300189495087 -0.010640516877174377
0.21158668398857117 0.22745631635189056 0.12426729500293732
-0.03424011170864105 0.170977383852005 0.15238478779792786
-0.3105660378932953 -0.39791855216026306 -0.07742813974618912
-0.26614630222320557 0.3650990128517151 0.022900903597474098
0.29813557863235474 0.08773770928382874 0.1469830423593521
0.2816810607910156 0.22668591141700745 -0.05655045807361603
-0.10742312669754028 0.17326894402503967 0.1495015025138855
-0.021396540105342865 -0.24656914174556732 0.15311294794082642
0.009481712244451046 0.22474488615989685 0.14179813861846924
0.0769912376999855 -0.24968142807483673 0.14066430926322937
0.2820860743522644 0.42608070373535156 -0.07206013798713684
-0.202324777841568 -0.25707942247390747 -0.05276339128613472
0.23776322603225708 -0.029573781415820122 0.16769970953464508
0.2835804522037506 -0.42522385716438293 -0.01334768533706665
0.29230642318725586 0.22660037875175476 -0.12953241169452667
0.26310494542121887 -0.32731249928474426 -0.06350617855787277
-0.19224615395069122 0.21456919610500336 0.15458786487579346
0.12274192273616791 0.16951844096183777 0.15506167709827423
0.2868633270263672 0.22607208788394928 -0.0429299958050251
0.296170711517334 -0.0727296769618988 0.14054450392723083
0.010526901111006737 0.2687501907348633 -0.21889252960681915
0.25035569071769714 -0.250669002532959 0.1440013200044632
-0.2701990604400635 0.17421938478946686 0.15047337114810944
0.28772878646850586 0.12931668758392334 -0.1341383010149002
0.2701640725135803 -0.450518399477005 0.18794402480125427
-0.26950758695602417 0.2212410271167755 0.00045049935579299927
-0.2070375233888626 -0.26370102167129517 0.0744277611374855
0.22761830687522888 -0.2858072519302368 0.08456708490848541
0.28173887729644775 0.338074654340744 -0.0527939535677433
-0.2161286473274231 -0.2772732377052307 -0.06090712547302246
-0.20642054080963135 0.054314859211444855 0.16722024977207184
-0.3009053170681 -0.3179328143596649 0.1613733172416687
0.28942030668258667 -0.4281133711338043 0.16883262991905212
0.2975709140300751 0.20185521245002747 0.15106236934661865
0.2230999916791916 0.427004337310791 0.099152572453022
0.25792282819747925 -0.0741860419511795 0.15509700775146484
-0.25647908449172974 0.3632991909980774 0.0940922349691391
0.2120407223701477 0.2279289960861206 -0.1337788850069046
-0.2715260684490204 -0.22456619143486023 -0.13143309950828552
0.2782936692237854 -0.4474847614765167 -0.015342027880251408
-0.06863400340080261 -0.23343074321746826 -0.13569562137126923
-0.2717796266078949 0.2149108648300171 0.12877647578716278
0.0557519756257534 0.12489324808120728 -0.13482634723186493
-0.2662109136581421 -0.1719142645597458 0.1533975452184677
-0.26646485924720764 -0.1805141419172287 0.1538509726524353
0.29656320810317993 -0.005571667104959488 0.1440798044204712
-0.029370471835136414 0.22291749715805054 0.1095607578754425
0.2967720627784729 0.02769828587770462 -0.13140416145324707
0.29651910066604614 0.0478627011179924 -0.1302359253168106
-0.009044530801475048 0.22224518656730652 -0.137299582362175
0.28921079635620117 0.1553374081850052 -0.13310158252716064
0.265676349401474 -0.23943255841732025 0.15725380182266235
-0.21788153052330017 -0.443052738904953 0.14071470499038696
0.24701163172721863 -0.34271499514579773 0.13172093033790588
0.18856973946094513 0.3785684108734131 0.10097652673721313
-0.2739652395248413 -0.1140841543674469 0.042171623557806015
0.28894659876823425 -0.14255188405513763 -0.13681557774543762
0.29094821214675903 0.1304835081100464 -0.13676288723945618
0.14311014115810394 -0.3573921024799347 0.031844981014728546
0.05954993516206741 0.17604702711105347 -0.13644039630889893
-0.2610936462879181 -0.3182501792907715 0.12241841852664948
0.2775382995605469 0.23548123240470886 0.015519736334681511
-0.21670523285865784 0.2276279330253601 -0.1277463734149933
0.03489145264029503 0.18179386854171753 0.15362553298473358
-0.2489001303911209 0.22665774822235107 -0.13261647522449493
0.16346800327301025 -0.25283095240592957 0.027280502021312714
-0.0025831004604697227 0.1855962723493576 -0.13365869224071503
-0.16333889961242676 0.42755505442619324 0.09733681380748749
-0.26478880643844604 -0.20690715312957764 -0.13588650524616241
0.1685905158519745 -0.2532358169555664 0.023828787729144096
-0.2736664116382599 -0.22803598642349243 -0.13118931651115417
0.2368355244398117 -0.23876085877418518 0.15750159323215485
-0.02833728678524494 -0.19964522123336792 0.15537577867507935
0.2060461938381195 0.29256051778793335 0.014141757972538471
0.18825818598270416 0.3412509262561798 0.05392766743898392
-0.2730986773967743 -0.23708365857601166 0.09045649319887161
-0.2112848311662674 0.0044990964233875275 0.1706511229276657
0.22870419919490814 0.1572612076997757 0.16889688372612
-0.2328665554523468 0.4977470636367798 0.08781158179044724
0.28631797432899475 0.365023136138916 0.12144406139850616
-0.26471778750419617 0.16948282718658447 -0.13501183688640594
-0.3335608243942261 -0.3567170798778534 0.1635536104440689
