-0.4918120503425598 -0.21450385451316833 -0.06916255503892899
-0.07083798199892044 -0.29830461740493774 -0.07112528383731842
-0.5029393434524536 -0.29187607765197754 -0.05238083750009537
0.0823686271905899 0.05679216608405113 0.38790959119796753
-0.25242459774017334 -0.15775234997272491 0.06720179319381714
0.2624632716178894 0.10915590077638626 0.17049141228199005
0.4135209023952484 -0.304506778717041 -0.29853177070617676
-0.0860133171081543 0.15410083532333374 0.2411600798368454
-0.5521333813667297 -0.10493668913841248 0.05253392085433006
0.004243072122335434 -0.2983347773551941 0.049053095281124115
0.18636642396450043 0.07470858097076416 0.2669292986392975
0.2653808295726776 -0.011358436197042465 -0.07357674837112427
-0.5588684678077698 -0.2041974663734436 0.04894091188907623
-0.37919899821281433 -0.02061307802796364 0.06156538426876068
-0.08638405799865723 -0.2784869968891144 0.05108864977955818
-0.3314852714538574 -0.11336827278137207 0.05498969927430153
0.2600105106830597 -0.17897804081439972 0.20423640310764313
-0.1474025547504425 -0.11943796277046204 0.22845736145973206
0.22854799032211304 0.29365676641464233 0.05405344441533089
-0.24742168188095093 -0.1114245131611824 0.13767240941524506
-0.4671369791030884 -0.13134309649467468 -0.021012865006923676
0.06147510185837746 -0.08514553308486938 0.1688450276851654
-0.435570627450943 -0.24227869510650635 -0.036896705627441406
-0.5518960356712341 0.17641571164131165 0.053024809807538986
0.025247760117053986 0.09104911237955093 0.4232681095600128
-0.14723750948905945 0.13217243552207947 0.20188865065574646
-0.3037205636501312 0.2919110357761383 0.05279829353094101
0.22702185809612274 0.3110097348690033 0.03743511438369751
-0.46662160754203796 0.2812938690185547 -0.062065597623586655
0.32730233669281006 0.006117148324847221 0.13491816818714142
-0.23521831631660461 0.2949729859828949 0.05699852481484413
-0.05466742813587189 -0.2991192042827606 -0.07482074201107025
-0.2686426341533661 0.29496556520462036 0.05301327258348465
-0.38284969329833984 0.20339173078536987 -0.023813337087631226
-0.28457513451576233 -0.15772603452205658 0.051671482622623444
-0.2765181064605713 -0.2999352514743805 -0.06761990487575531
-0.5617164969444275 0.17274688184261322 0.04970468953251839
0.08907704800367355 0.08812761306762695 0.20478379726409912
-0.3530396819114685 0.097786083817482 0.05415360629558563
-0.4433835744857788 -0.28959545493125916 -0.0686827003955841
0.17539098858833313 0.19736433029174805 0.2829453945159912
0.18855160474777222 -0.2979360818862915 -0.07094849646091461
0.2258317619562149 0.3096350431442261 0.04993407428264618
0.25084367394447327 -0.19480790197849274 0.09648832678794861
-0.2260117530822754 0.29667767882347107 0.054452016949653625
0.05833848565816879 0.1786629557609558 -0.07063990831375122
-0.3330754041671753 -0.11408731341362 0.05392421782016754
-0.3236600160598755 0.29119396209716797 0.054796252399683
0.3099672794342041 0.2025332748889923 0.08041619509458542
-0.17801536619663239 -0.19030360877513885 0.05295250564813614
0.2936200499534607 -0.01681201159954071 -0.3832399547100067
-0.4440845847129822 -0.07554809749126434 0.05431128665804863
0.09765930473804474 0.21993480622768402 0.05227227881550789
0.01865808665752411 -0.29892557859420776 0.04946356639266014
-0.35256409645080566 -0.2890392541885376 -0.06857802718877792
0.33314722776412964 -0.15905795991420746 -0.21789711713790894
0.4204220473766327 0.2966544032096863 -0.22690121829509735
-0.0886283740401268 -0.19369249045848846 0.09540405124425888
0.01759619638323784 0.06383851170539856 0.43346792459487915
0.2891014814376831 -0.28331995010375977 0.04927309602499008
0.41660353541374207 0.0414440855383873 0.042404189705848694
0.4144553244113922 -0.09227064996957779 0.05014035478234291
0.2083878070116043 -0.3029918372631073 -0.07277102768421173
0.13991720974445343 -0.1768387258052826 0.32823121547698975
0.262631356716156 0.1280733197927475 0.16251224279403687
0.415924072265625 -0.11337479948997498 -0.28422945737838745
-0.4126571714878082 0.24164098501205444 0.05261782556772232
0.06112337484955788 -0.1420598179101944 0.3996938467025757
-0.12240859866142273 0.3059843182563782 0.04660208523273468
-0.5052136778831482 -0.1983507126569748 -0.07123183459043503
0.008962467312812805 0.19732075929641724 0.07490242272615433
0.41308292746543884 -0.28974342346191406 -0.19171281158924103
0.40983498096466064 -0.007312179543077946 -0.39429980516433716
-0.003290437161922455 -0.05401327833533287 0.4220810532569885
-0.39180120825767517 -0.011955207213759422 0.05197766423225403
0.024763695895671844 0.20012499392032623 0.07522022724151611
0.05178564414381981 -0.12642505764961243 0.40914762020111084
0.31128376722335815 -0.06742599606513977 -0.3954383134841919
0.41751736402511597 -0.2972278892993927 -0.03818420320749283
0.08838991820812225 0.2080739587545395 0.05371817201375961
-0.16422797739505768 -0.2908763885498047 -0.07914439588785172
-0.31600263714790344 -0.131099671125412 0.053970176726579666
0.17949405312538147 0.2976631820201874 -0.06864611804485321
0.3011593818664551 -0.2972451448440552 -0.2845630943775177
0.4176937937736511 -0.30096665024757385 0.008712146431207657
-0.31414392590522766 -0.3083445727825165 0.02579350583255291
-0.4046866297721863 -0.3078101575374603 -0.06708169728517532
0.11613553762435913 0.30642998218536377 0.04709041491150856
0.06525436043739319 0.304375022649765 -0.06784144788980484
0.16438604891300201 0.20997145771980286 0.05271829664707184
0.4153638184070587 -0.17071323096752167 -0.37313157320022583
-0.37457719445228577 -0.0549769289791584 0.05778975784778595
0.1160380095243454 0.16145457327365875 0.35770779848098755
0.14992214739322662 -0.23158122599124908 -0.0755745992064476
0.0766148567199707 0.3094697594642639 -0.059933215379714966
0.24994370341300964 -0.07753968238830566 0.2072577327489853
0.07821688055992126 -0.1687110811471939 0.3769523501396179
-0.48782625794410706 -0.22171801328659058 -0.040184248238801956
0.05049620196223259 0.1309756487607956 0.41238829493522644
0.1871628761291504 -0.06625299900770187 -0.0740949884057045
0.048862043768167496 0.298326313495636 -0.06851272284984589
0.4217587113380432 -0.21950913965702057 0.05028858035802841
0.18311676383018494 0.30933845043182373 -0.0598873570561409
0.19116061925888062 0.19831156730651855 0.2685184180736542
-0.38098177313804626 -0.2153281569480896 0.05020323395729065
-0.4680330157279968 -0.25977444648742676 0.052327144891023636
0.2995314598083496 0.14378230273723602 -0.23029568791389465
-0.425301194190979 0.12231341004371643 -0.026811938732862473
-0.5599573254585266 0.04507520794868469 -0.023312252014875412
0.13985657691955566 -0.1906733214855194 0.3190479278564453
0.31361719965934753 -0.3007284104824066 -0.19250163435935974
-0.1339830607175827 -0.3040381073951721 -0.06481482088565826
0.41398516297340393 -0.13218092918395996 0.05275250971317291
-0.34140709042549133 -0.3073189854621887 -0.03883123770356178
-0.3110044300556183 0.3032287061214447 0.05374033749103546
0.4209986925125122 -0.06344705820083618 0.041824206709861755
-0.5604075193405151 -0.16919809579849243 0.04226120561361313
-0.3094673156738281 0.0333561934530735 0.12629374861717224
0.08250189572572708 0.297597736120224 -0.06798623502254486
0.01346660777926445 -0.30480730533599854 -0.06123564392328262
-0.3766884207725525 0.2094344049692154 0.04839089512825012
0.19237616658210754 -0.08503088355064392 0.2791926860809326
-0.01671532541513443 -0.2040785849094391 0.05138229951262474
0.24348387122154236 -0.07615035772323608 0.21330563724040985
0.05639878287911415 0.30412212014198303 -0.06464114040136337
0.19260916113853455 0.19832736253738403 0.26529255509376526
-0.5560473203659058 0.13267283141613007 0.05185074359178543
-0.5361275672912598 -0.07416952401399612 0.05339064821600914
0.424782931804657 0.04332285374403 -0.08511818200349808
0.40294942259788513 0.3130660355091095 -0.16321951150894165
0.14660900831222534 -0.2546243965625763 -0.07560451328754425
0.03201121836900711 0.10876152664422989 0.4163320064544678
0.2921329140663147 0.2313174307346344 -0.3825998604297638
0.2910245358943939 0.2746312618255615 -0.1462615579366684
-0.5520994067192078 0.08794037997722626 0.05025845766067505
0.41566622257232666 -0.23763863742351532 0.0457506887614727
0.3360626995563507 -0.2844681441783905 0.04659067839384079
0.013667594641447067 0.1908024698495865 0.2210976779460907
-0.3137393593788147 -0.3019559681415558 -0.06985935568809509
-0.11408929526805878 0.10886584967374802 -0.07101507484912872
0.2756510376930237 -0.020870959386229515 -0.0738481655716896
-0.3805052638053894 -0.16209256649017334 -0.06338054686784744
0.12959609925746918 0.3087034523487091 0.0380198210477829
-0.38017556071281433 0.19699911773204803 0.011465810239315033
-0.1893538385629654 0.30397358536720276 0.052824996411800385
-0.353384792804718 -0.09314245730638504 0.05321919545531273
-0.3463408946990967 -0.30789944529533386 -0.05411507934331894
0.04349562153220177 -0.08568692207336426 0.43035390973091125
-0.401924729347229 0.29759591817855835 -0.06295010447502136
0.045252181589603424 0.30844539403915405 0.04451030492782593
-0.38223934173583984 0.1397118866443634 -0.06327442824840546
0.22682827711105347 -0.19447684288024902 0.051389455795288086
0.24815106391906738 -0.19566123187541962 0.08255697786808014
0.04119894653558731 0.29171109199523926 -0.0684313178062439
-0.3889571726322174 -0.14516711235046387 -0.06885341554880142
-0.44150856137275696 0.30131587386131287 0.044465769082307816
-0.25400853157043457 -0.3097923696041107 -0.05562012270092964
0.11132939159870148 -0.07715059816837311 0.36179155111312866
0.017235010862350464 0.27014249563217163 -0.07107456773519516
-0.505435049533844 0.18807440996170044 -0.018393579870462418
0.018095456063747406 -0.03592370077967644 0.29310548305511475
0.1070031225681305 -0.18348735570907593 0.3478359282016754
-0.09179456532001495 -0.3018907308578491 -0.0702553242444992
0.040343962609767914 -0.3007776141166687 -0.07482090592384338
0.29031968116760254 -0.11490704864263535 -0.3098844885826111
0.057762764394283295 0.10992604494094849 0.41564255952835083
-0.4669286012649536 0.24455708265304565 -0.06899266690015793
-0.4607904553413391 0.2976577579975128 0.05848788470029831
-0.3425489664077759 0.10460290312767029 0.05365844815969467
0.41017937660217285 -0.24632292985916138 -0.37435224652290344
0.32886219024658203 -0.12039785832166672 0.13300763070583344
0.28520452976226807 0.2634861469268799 -0.07208207994699478
0.042899422347545624 0.308841735124588 0.02230101265013218
0.08771710097789764 0.16942302882671356 0.3784744441509247
-0.07300861179828644 0.3057090640068054 0.04518035799264908
-0.5227596759796143 -0.06213108450174332 0.052877362817525864
0.41377636790275574 -0.2681230902671814 -0.27723148465156555
0.41023972630500793 -0.1713389903306961 -0.3968437612056732
0.36919504404067993 0.28423088788986206 -0.3441760540008545
0.3046908974647522 -0.30158859491348267 -0.19731509685516357
-0.567965567111969 0.1640518754720688 0.04062142223119736
-0.14207947254180908 -0.18610653281211853 -0.07640507817268372
-0.028456684201955795 -0.30434131622314453 0.04061136022210121
0.18242929875850677 0.2906469702720642 0.05279388278722763
-0.36983051896095276 -0.0801670178771019 0.0489886999130249
0.30692335963249207 0.14487847685813904 -0.3989458978176117
0.0932319387793541 0.2143302857875824 0.05344770848751068
0.2917243540287018 0.2017386108636856 -0.34514811635017395
0.04775897413492203 0.13697756826877594 0.40250101685523987
-0.26825445890426636 -0.17188799381256104 0.04977666586637497
0.30923399329185486 -0.26315560936927795 -0.3629358410835266
-0.5626213550567627 0.16385139524936676 -0.04954444617033005
0.42047110199928284 -0.11664095520973206 -0.01444389671087265
-0.39083877205848694 -0.30769044160842896 -0.0011528711766004562
-0.5481972098350525 0.14310899376869202 -0.06466585397720337
-0.2107812613248825 -0.20070132613182068 0.05118526890873909
-0.08912671357393265 0.20930828154087067 0.05315398424863815
-0.43362006545066833 0.2885958254337311 -0.061885934323072433
-0.3778302073478699 0.22608986496925354 -0.06134382262825966
-0.32649120688438416 0.30218884348869324 -0.060364920645952225
-0.5637099742889404 0.015349747613072395 -0.06263206154108047
-0.1347857266664505 0.2013782560825348 0.05359133332967758
-0.5499959588050842 -0.15284506976604462 0.05175450071692467
-0.3754957318305969 0.2995339035987854 -0.06442145258188248
0.4191839396953583 -0.0890701413154602 0.040688276290893555
0.27282074093818665 0.0002087429165840149 0.18544992804527283
0.23510868847370148 0.309003084897995 0.04604320973157883
-0.47432741522789 -0.13291703164577484 0.04995270073413849
-0.03134438022971153 -0.19268189370632172 0.07590417563915253
-0.5490307211875916 -0.016442805528640747 0.05240590497851372
-0.558238685131073 0.1873585283756256 -0.061986908316612244
0.3187711238861084 0.30905139446258545 0.03754938766360283
0.20760312676429749 0.20050884783267975 0.2532559931278229
-0.44476214051246643 -0.11982100456953049 0.05028044432401657
-0.5564953684806824 0.028956439346075058 -0.06906227767467499
-0.4643822908401489 -0.2709122598171234 -0.07322226464748383
-0.4309638440608978 -0.12533892691135406 -0.020166650414466858
0.4178840219974518 0.00021937862038612366 -0.3753470480442047
-0.09809581935405731 0.3060460686683655 -0.05542488023638725
-0.3388137221336365 -0.19879630208015442 -0.06988520175218582
0.33506661653518677 0.1448129117488861 0.137335866689682
0.16516627371311188 0.26559188961982727 -0.06464848667383194
0.30295878648757935 -0.17965352535247803 -0.39149579405784607
0.2991383373737335 0.31226402521133423 -0.11622591316699982
0.1662915199995041 0.17995762825012207 0.31067201495170593
-0.41254276037216187 0.245274156332016 0.04742516949772835
0.4128243625164032 -0.1557159721851349 0.05584967881441116
0.3848998546600342 0.3141151964664459 -0.04043511673808098
0.4178522229194641 -0.1442958265542984 -0.12992484867572784
0.2414778769016266 -0.19291993975639343 0.21378207206726074
0.05617650970816612 0.13562484085559845 0.40960997343063354
-0.4076887369155884 0.11789730191230774 0.056644637137651443
-0.5405813455581665 -0.19614963233470917 0.0509873703122139
-0.4785604476928711 0.28911033272743225 -0.06381675601005554
-0.004361491650342941 0.2976760268211365 -0.07016769051551819
0.16125522553920746 -0.29406505823135376 -0.07835136353969574
0.04333264380693436 -0.19453401863574982 0.11977561563253403
-0.4294986128807068 -0.13234259188175201 -0.018445156514644623
-0.38044318556785583 0.17723403871059418 -0.005669742822647095
0.41707414388656616 -0.17583806812763214 -0.20998524129390717
-0.2068631798028946 0.3021676242351532 0.042219314724206924
0.41515904664993286 -0.2586474120616913 -0.2148078978061676
-0.31043291091918945 -0.13928015530109406 0.05138690769672394
0.30185335874557495 0.12886004149913788 -0.3940766155719757
0.1991364061832428 -0.19423960149288177 0.24447236955165863
-0.13263729214668274 0.18981054425239563 0.06457501649856567
-0.48797085881233215 0.08078046143054962 0.05629320815205574
0.42280080914497375 0.05768270790576935 -0.038360632956027985
-0.48628878593444824 -0.0625097006559372 -0.07411319762468338
-0.3196784257888794 0.12723179161548615 0.05580146610736847
-0.4527171552181244 -0.31103551387786865 0.03785998001694679
0.2570786774158478 0.29231783747673035 -0.07016359269618988
0.24438628554344177 -0.19230012595653534 0.168418288230896
0.4185600280761719 -0.29561954736709595 -0.038004253059625626
0.3055318593978882 0.07323115319013596 -0.39261218905448914
0.001149037852883339 0.30625829100608826 -0.06533835083246231
-0.5605090260505676 -0.06816970556974411 0.033960141241550446
-0.01480787992477417 0.2935978174209595 0.05460186302661896
0.07548229396343231 -0.15877950191497803 0.3802422285079956
-0.3738994300365448 0.21778303384780884 -0.06253331899642944
-0.3790073096752167 0.3033449947834015 0.054184235632419586
0.19239071011543274 -0.19432085752487183 0.19396282732486725
-0.06534110754728317 -0.18961851298809052 0.1367306113243103
-0.516107439994812 -0.24371330440044403 0.05167701095342636
0.41143250465393066 -0.16935205459594727 0.0559568777680397
0.4095243811607361 -0.028578057885169983 -0.39375343918800354
0.08121518045663834 0.19447681307792664 0.22915387153625488
0.4131743907928467 -0.13134685158729553 -0.23809003829956055
-0.5438505411148071 0.08242441713809967 0.05220668017864227
0.049124300479888916 -0.10401781648397446 0.41947856545448303
-0.5547353625297546 0.01512133702635765 0.05293911322951317
-0.4223199188709259 -0.1285802721977234 -0.026324965059757233
0.4195769429206848 -0.20562691986560822 0.02591308206319809
-0.15283025801181793 -0.2943175435066223 -0.07533024996519089
0.4156670868396759 -0.03233650326728821 -0.3829962909221649
0.29537883400917053 -0.047835901379585266 -0.09417040646076202
0.322647362947464 -0.17196454107761383 -0.39541882276535034
-0.4882660508155823 -0.1502714455127716 -0.03915758430957794
0.2443947046995163 0.28978678584098816 -0.07093386352062225
0.058861568570137024 -0.14942587912082672 0.3897857367992401
0.3239780068397522 -0.30159276723861694 -0.014033295214176178
-0.49718886613845825 0.1351165771484375 -0.06092347949743271
0.31671056151390076 0.22713063657283783 -0.2234545797109604
-0.4911789000034332 0.21708330512046814 0.05435570701956749
0.04025939106941223 0.12404897809028625 0.41023311018943787
-0.5502026081085205 0.18852031230926514 0.056036897003650665
0.3101344108581543 0.20578984916210175 0.052986256778240204
-0.39531221985816956 0.23432064056396484 0.0503108873963356
-0.14905427396297455 0.29504868388175964 -0.06841831654310226
-0.1467808187007904 -0.30911535024642944 0.03847436606884003
0.30267268419265747 0.2602711319923401 -0.3719651699066162
0.06251886487007141 -0.14762794971466064 0.3936854302883148
0.06046197563409805 0.21306422352790833 0.052668750286102295
-0.25109755992889404 -0.14756877720355988 0.09002088010311127
-0.3358191251754761 0.11539346724748611 0.055767640471458435
0.2901453375816345 -0.14995817840099335 -0.32963261008262634
0.41850852966308594 -0.29637670516967773 -0.009488612413406372
-0.02727978117763996 -0.2822902798652649 -0.075670525431633
0.4204593598842621 0.07336793094873428 0.04009160399436951
-0.08634407073259354 -0.30592554807662964 -0.06595677882432938
-0.45358148217201233 0.3003612160682678 0.03252094238996506
0.39847397804260254 0.31266316771507263 0.02331545203924179
-0.44088056683540344 -0.1155032142996788 -0.068252332508564
0.3636571168899536 -0.1331576406955719 -0.31230413913726807
-0.09838031977415085 0.30298569798469543 -0.06742304563522339
0.07671697437763214 -0.30413904786109924 0.022280491888523102
0.24620530009269714 -0.3056474030017853 -0.038820281624794006
-0.2806015908718109 -0.3104420006275177 -0.05738573521375656
-0.5612614154815674 0.042091257870197296 -0.052136167883872986
0.0513337068259716 -0.2901837229728699 -0.07475343346595764
0.3049003481864929 0.09021245688199997 -0.3991081714630127
-0.43423980474472046 0.10520151257514954 0.054018039256334305
-0.2544664442539215 -0.2981090247631073 -0.07223495841026306
0.41111254692077637 0.3114093542098999 0.016460420563817024
0.41274163126945496 -0.12544377148151398 -0.28545042872428894
-0.003908276557922363 -0.20036371052265167 0.05234261602163315
0.015390153042972088 0.046570248901844025 0.4359985291957855
-0.3702325224876404 0.1627843976020813 0.05281052365899086
-0.1755063533782959 -0.1905248910188675 0.056133709847927094
-0.0444922149181366 -0.29051077365875244 -0.07472490519285202
0.41341668367385864 -0.23805412650108337 0.04802088811993599
0.09207524359226227 0.0050013381987810135 0.37051981687545776
-0.17105251550674438 -0.11583444476127625 0.20805543661117554
0.08094079792499542 -0.1636340469121933 0.37973424792289734
0.41129234433174133 -0.15270748734474182 -0.40000635385513306
0.26565995812416077 -0.30694952607154846 0.027255970984697342
0.020173169672489166 -0.026365848258137703 0.4441413879394531
-0.08011177182197571 0.305046945810318 -0.06844541430473328
-0.31572943925857544 0.11231587082147598 0.06653925776481628
-0.08051973581314087 -0.19406922161579132 0.05375561863183975
-0.4711436927318573 -0.22746683657169342 -0.047548431903123856
-0.5451071262359619 0.04333912208676338 0.056950055062770844
-0.3073185682296753 0.1357411891222 0.05322013795375824
0.29507553577423096 0.2852863371372223 -0.3420499265193939
-0.26849040389060974 -0.3071252703666687 -0.06442180275917053
0.09284121543169022 -0.07937414199113846 0.37451040744781494
0.16999204456806183 -0.28299784660339355 0.048016004264354706
-0.3652613162994385 0.27497851848602295 -0.062325626611709595
-0.3067938983440399 0.29507172107696533 -0.06500476598739624
-0.07640177011489868 -0.09062850475311279 0.32471635937690735
0.28869640827178955 -0.193852037191391 0.05789891630411148
0.3412908911705017 -0.28372836112976074 0.045954179018735886
0.42088207602500916 0.18602579832077026 -0.19369229674339294
0.4166121482849121 0.13460026681423187 -0.2899544835090637
0.3026582896709442 -0.27103886008262634 -0.3503330945968628
0.41396546363830566 -0.2958522439002991 -0.1590787172317505
0.41995930671691895 0.2900606095790863 -0.04094451293349266
0.41750556230545044 0.18363814055919647 0.0468742772936821
-0.4757614731788635 -0.13019660115242004 0.05276114121079445
-0.5625662207603455 0.05676998198032379 0.035934653133153915
0.30895841121673584 -0.30072495341300964 -0.08649168908596039
0.40653330087661743 -0.3008069396018982 -0.12945851683616638
-0.3861214518547058 0.2239914834499359 0.05182558298110962
0.2947959005832672 0.2612655460834503 -0.36998119950294495
0.4113450348377228 0.2713873088359833 0.05453766882419586
0.2963089644908905 -0.0004511810839176178 -0.37129586935043335
0.41844794154167175 -0.06406348943710327 0.037820301949977875
0.30431851744651794 0.2973131239414215 0.05448942258954048
-0.120570108294487 -0.30795446038246155 0.04610959440469742
0.006817314773797989 -0.30359745025634766 -0.07341477274894714
0.08332875370979309 -0.16240017116069794 0.3711632490158081
-0.503012478351593 -0.2263643741607666 -0.07072041928768158
0.3964817523956299 0.13187634944915771 -0.2436569184064865
-0.5536384582519531 -0.2269044816493988 0.04910963028669357
-0.4069976508617401 0.13300234079360962 -0.029974624514579773
-0.17182612419128418 0.3053319454193115 0.041230909526348114
-0.4038575291633606 -0.12541677057743073 0.05189661309123039
-0.14164341986179352 0.2983021140098572 -0.06833536922931671
-0.43478697538375854 -0.24144229292869568 -0.0612114779651165
0.4070291221141815 0.2917889952659607 -0.3404562771320343
0.16577742993831635 -0.15029844641685486 0.3022020161151886
-0.32705116271972656 -0.11195296794176102 0.06111142039299011
0.2942024767398834 0.31290391087532043 0.04280852526426315
0.2894033193588257 0.18848580121994019 -0.3848215639591217
0.36204981803894043 -0.2874803841114044 0.05087609216570854
-0.43421775102615356 -0.04154731333255768 -0.06759919226169586
-0.3864858150482178 -0.2660270929336548 -0.06903141736984253
-0.27245032787323 0.040077630430459976 0.154627725481987
0.4138084948062897 -0.1229313313961029 -0.27778834104537964
0.16044040024280548 -0.09052015841007233 0.3068073093891144
0.4136229455471039 0.21849718689918518 -0.3902776837348938
-0.023264288902282715 0.2096622884273529 0.053524889051914215
-0.48801615834236145 0.2908526659011841 0.023153651505708694
0.09508027136325836 -0.01285889744758606 0.372859388589859
0.41644030809402466 -0.2886503040790558 -0.016233839094638824
0.41964372992515564 -0.030422352254390717 -0.07200674712657928
-0.2941805422306061 -0.28686264157295227 -0.07313545048236847
-0.3329049348831177 0.23612812161445618 0.05002715438604355
-0.5617262125015259 0.022340327501296997 -0.06389538198709488
-0.20342642068862915 -0.29731637239456177 -0.0741933062672615
-0.385222852230072 0.1325940191745758 0.05513223633170128
0.41798335313796997 0.22434936463832855 -0.2208346724510193
0.24479378759860992 -0.29641538858413696 -0.07360737025737762
-0.5495898127555847 -0.09865553677082062 0.05337046831846237
0.01871512085199356 -0.05040948837995529 0.43864893913269043
-0.05609848350286484 0.19676533341407776 0.07332233339548111
-0.038718897849321365 -0.30369627475738525 -0.06618022918701172
-0.0217128898948431 -0.3057844936847687 0.040205568075180054
0.03866270184516907 -0.3048177659511566 0.01751566119492054
-0.0552854910492897 0.30150094628334045 -0.06787852942943573
-0.08671028912067413 0.30472010374069214 0.03676191717386246
-0.2006264626979828 -0.2893734276294708 -0.07237661629915237
0.2888798415660858 -0.10633181035518646 -0.29470357298851013
0.40378594398498535 -0.29915645718574524 -0.29300108551979065
0.4098450243473053 0.31522125005722046 -0.12479612231254578
-0.19274362921714783 0.30290573835372925 0.015001676976680756
0.01447654515504837 -0.1998746693134308 0.05301213264465332
-0.5356939435005188 -0.09956832975149155 0.052495528012514114
-0.17500562965869904 -0.31085240840911865 -0.043963849544525146
0.21893668174743652 0.19385883212089539 0.24561843276023865
-0.43650129437446594 0.2861745357513428 0.05822568014264107
-0.2345864176750183 -0.2952103614807129 -0.07525885850191116
0.27747586369514465 -0.06707018613815308 0.18239565193653107
-0.24357815086841583 0.16989262402057648 0.05649956315755844
0.23318906128406525 0.19699658453464508 0.1611085683107376
0.33133018016815186 0.0067437998950481415 0.1314016431570053
-0.35316845774650574 -0.17274585366249084 -0.06875734031200409
0.2292538583278656 0.020600125193595886 0.24105361104011536
-0.31734853982925415 0.12843681871891022 0.055580634623765945
-0.5579628348350525 -0.05464402213692665 -0.06160205230116844
0.04935811832547188 -0.09141159802675247 0.4251099228858948
0.2930079996585846 -0.23458120226860046 -0.2341495007276535
0.17456160485744476 0.19679389894008636 0.2956746518611908
-0.07255872339010239 -0.188524067401886 0.1480216681957245
-0.01708359643816948 0.041788019239902496 -0.07164259254932404
-0.37338557839393616 -0.18069036304950714 -0.009933900088071823
-0.010851554572582245 0.1972440928220749 0.07556323707103729
-0.28385236859321594 -0.1507379412651062 -0.07121479511260986
-0.1873781979084015 -0.30600231885910034 -0.0660727396607399
-0.31890565156936646 -0.25001102685928345 0.05470273643732071
-0.5639384388923645 -0.11790647357702255 0.04425343498587608
0.29362234473228455 0.2677065134048462 -0.36241260170936584
0.2503001391887665 -0.3040526509284973 0.02634095959365368
0.051455724984407425 -0.10749411582946777 0.4195149838924408
0.41391879320144653 -0.2195839285850525 -0.23155714571475983
-0.3839831054210663 0.1271710991859436 -0.06306637078523636
-0.3793172240257263 -0.15583957731723785 -0.07070178538560867
-0.042830076068639755 -0.3089820146560669 -0.061603229492902756
-0.41713473200798035 -0.12333130836486816 0.051320869475603104
-0.3572140336036682 0.08852934092283249 0.05444313585758209
-0.4442632794380188 0.29903411865234375 -0.026520242914557457
-0.36205920577049255 -0.30751273036003113 -0.060806334018707275
0.26731330156326294 -0.19337323307991028 0.18594571948051453
0.29704761505126953 -0.0018357820808887482 -0.36873936653137207
0.18078462779521942 0.21668854355812073 -0.07076286524534225
0.4224279522895813 -0.20837748050689697 0.031555455178022385
0.20752854645252228 -0.30148831009864807 -0.07205352187156677
-0.19040261209011078 -0.17907533049583435 0.07183614373207092
-0.5615832805633545 -0.12367358803749084 -0.001320448238402605
-0.3699725866317749 -0.1298123300075531 0.05461177974939346
0.2305174618959427 -0.050027020275592804 0.23632529377937317
-0.41863420605659485 0.24659037590026855 0.05056283250451088
-0.4185011088848114 -0.30557385087013245 0.04416368901729584
-0.20355769991874695 -0.18740175664424896 0.05580838769674301
-0.3800051212310791 0.1663859784603119 -0.01939704641699791
-0.36655765771865845 0.29173174500465393 0.053386226296424866
0.0482039712369442 0.09344832599163055 0.4252625107765198
-0.5500422716140747 0.07023688405752182 0.05177883058786392
0.30120715498924255 -0.2647065818309784 -0.18240585923194885
0.292874813079834 0.18971286714076996 -0.39346936345100403
0.4150093197822571 -0.1564416140317917 -0.3257090449333191
0.339063823223114 -0.18634334206581116 0.12480878084897995
-0.3857501745223999 0.2138514220714569 -0.05381277576088905
-0.536567211151123 -0.2659510672092438 -0.04171415790915489
-0.3993698060512543 -0.24359330534934998 -0.0694708377122879
0.24351546168327332 0.12482865154743195 -0.07546844333410263
0.05767004191875458 0.1391066461801529 0.40008753538131714
0.24772709608078003 -0.2850756049156189 0.04887828975915909
0.253667950630188 0.19592994451522827 0.1088290587067604
-0.21441364288330078 0.20093561708927155 -0.06524690240621567
0.4144258499145508 -0.13273514807224274 -0.225852370262146
0.03837936371564865 0.10418452322483063 0.42618948221206665
0.4168531894683838 0.2688029408454895 -0.30288031697273254
0.29315629601478577 0.3034053444862366 -0.23760849237442017
0.23971936106681824 -0.19563716650009155 0.05346497893333435
0.12154658883810043 -0.20535708963871002 0.046471014618873596
-0.3792800307273865 0.03297857195138931 0.054959386587142944
0.20889003574848175 -0.2880183458328247 -0.07571063935756683
0.3083398938179016 0.1291089653968811 -0.39517444372177124
0.41783231496810913 0.1846865713596344 -0.3701097071170807
-0.23523038625717163 0.30242908000946045 0.02911863662302494
0.30270901322364807 -0.1252269148826599 -0.08417514711618423
0.4150688946247101 -0.13533224165439606 -0.31325849890708923
0.40275004506111145 -0.23602630198001862 -0.38056519627571106
0.0643991082906723 -0.2994067966938019 0.04554775357246399
-0.46989428997039795 -0.13016994297504425 0.04829390347003937
0.4182632565498352 0.05990994721651077 -0.0055590346455574036
-0.5249974131584167 -0.009153504855930805 0.055374231189489365
-0.21508175134658813 -0.29684510827064514 -0.07312808185815811
0.41667747497558594 -0.13157762587070465 0.05113716423511505
-0.4788992404937744 -0.13280200958251953 0.053247496485710144
0.41998088359832764 0.10600811243057251 0.0465790331363678
0.2948767840862274 -0.2959330677986145 -0.1491670161485672
0.035089559853076935 0.11808605492115021 0.413957417011261
0.4118785560131073 -0.22776541113853455 -0.36870795488357544
-0.37098222970962524 -0.08263345062732697 0.04992516338825226
-0.5358620882034302 -0.08478433638811111 0.05323640629649162
0.41358521580696106 -0.12225539982318878 -0.2693094313144684
0.323648065328598 -0.2755187749862671 0.05005370080471039
-0.26564937829971313 0.3018251061439514 -0.06404303014278412
0.09643059968948364 0.1783531904220581 0.35900285840034485
0.027362849563360214 0.1924981027841568 0.20903633534908295
-0.22151276469230652 -0.10949713736772537 -0.07347041368484497
-0.2125433385372162 0.302570641040802 0.04485587775707245
-0.21515849232673645 0.2865726947784424 0.05414256826043129
0.29993292689323425 -0.25477805733680725 -0.09099569916725159
0.27400580048561096 -0.19568601250648499 0.17557395994663239
-0.021378254517912865 -0.19588612020015717 0.06816870719194412
-0.001044057309627533 -0.21730445325374603 -0.07630927115678787
-0.05772078037261963 0.30673593282699585 0.03878171369433403
0.2514849007129669 -0.3030596077442169 -0.06645361334085464
-0.33943843841552734 0.11400344967842102 0.056131452322006226
0.12773269414901733 0.1869794726371765 0.3295314311981201
0.03423340991139412 0.1033213809132576 0.4183790385723114
0.41760531067848206 0.13525015115737915 -0.2285168319940567
-0.47224172949790955 0.05568058043718338 0.056581515818834305
0.3029469847679138 0.1513199806213379 -0.3936503529548645
-0.3615003526210785 -0.09475439786911011 0.04874000698328018
-0.3997878432273865 -0.2970234453678131 0.055709678679704666
-0.4007318317890167 -0.00694961566478014 -0.0659777820110321
-0.05933813750743866 -0.30891701579093933 -0.023711005225777626
0.30989620089530945 0.1785615235567093 -0.20784339308738708
0.07789072394371033 0.1701655089855194 0.37124520540237427
-0.06257458031177521 -0.25905048847198486 -0.07622560858726501
-0.5480157136917114 -0.14876659214496613 0.05309145897626877
0.17811043560504913 0.20349577069282532 0.056777097284793854
0.2958725690841675 0.10728057473897934 -0.3790660798549652
0.4214369058609009 -0.1555526852607727 0.030755169689655304
-0.3545338213443756 0.2575852870941162 -0.06366757303476334
0.2940792739391327 0.15783841907978058 -0.37850794196128845
-0.23442652821540833 -0.10757627338171005 -0.06930875778198242
-0.22380152344703674 -0.2952364981174469 -0.07233108580112457
-0.3325180113315582 0.1217687726020813 0.05777691304683685
0.030915705487132072 0.028947636485099792 0.43981313705444336
0.3163502514362335 -0.17190209031105042 -0.3954354226589203
0.25006797909736633 -0.13841579854488373 0.2105146199464798
-0.562788188457489 0.14388644695281982 -0.035399019718170166
0.10329438000917435 -0.28762295842170715 -0.07609056681394577
0.41998764872550964 0.05659584701061249 -0.16910797357559204
-0.31424036622047424 0.12514543533325195 0.055469900369644165
-0.15815488994121552 -0.18970108032226562 0.05842610448598862
0.37809401750564575 -0.18743617832660675 0.08399423956871033
-0.24923965334892273 0.1788681149482727 0.05599752068519592
0.391902893781662 -0.30155640840530396 -0.19376584887504578
0.28389737010002136 0.248185396194458 -0.07530330866575241
0.42048898339271545 0.07478401809930801 -0.07217065989971161
-0.5335453152656555 -0.07949288189411163 0.05197156220674515
-0.03241976723074913 -0.2933109998703003 -0.07449909299612045
0.05130250006914139 -0.10043679922819138 -0.07339205592870712
-0.4194238781929016 -0.12840984761714935 -0.0625966414809227
0.2992962598800659 -0.23503060638904572 -0.12181507796049118
-0.13447585701942444 -0.3061356246471405 -0.05720142275094986
-0.2179018259048462 0.07334236055612564 0.20126166939735413
0.3450387716293335 -0.14690695703029633 -0.31851935386657715
-0.09760833531618118 0.29936134815216064 -0.06871489435434341
-0.5447613596916199 0.1246151477098465 0.05131345987319946
-0.27834078669548035 0.11396196484565735 0.10977639257907867
0.05750104784965515 -0.14128625392913818 0.3985660970211029
0.09424402564764023 -0.17763486504554749 0.3528366684913635
-0.36416059732437134 0.11017055809497833 -0.06229718402028084
0.4076346158981323 -0.3051997721195221 -0.08605882525444031
-0.5407942533493042 -0.26372843980789185 0.04418833181262016
-0.3936005234718323 0.2651929557323456 -0.06288754940032959
-0.5264343023300171 -0.274224191904068 0.041287317872047424
0.4137892723083496 0.033416979014873505 -0.38484448194503784
0.24772000312805176 -0.20618602633476257 0.04525567591190338
-0.13031917810440063 -0.2664833068847656 0.05070938915014267
-0.3414221405982971 -0.10851117223501205 0.05191081762313843
0.1404959112405777 0.01704832911491394 0.16685304045677185
0.16936223208904266 -0.294427752494812 -0.08089579641819
0.3021852374076843 0.12367574870586395 -0.28264060616493225
0.41846033930778503 0.1492379605770111 0.043467823415994644
-0.21291610598564148 0.29605650901794434 -0.06263621896505356
-0.13414643704891205 -0.2807796001434326 -0.07529067993164062
-0.5578984618186951 0.13696013391017914 0.006205745041370392
0.03324433043599129 -0.09739576280117035 0.42482319474220276
-0.38154229521751404 -0.20412899553775787 -0.01805853098630905
-0.4513809382915497 -0.12520036101341248 -0.004465602338314056
-0.38376981019973755 -0.03027883544564247 0.054272621870040894
0.2726094126701355 -0.29106593132019043 0.04652099311351776
0.41545334458351135 -0.2890367805957794 -0.060903627425432205
-0.0794735699892044 0.287019819021225 0.055390894412994385
0.30823495984077454 -0.13075752556324005 -0.39625823497772217
-0.277917742729187 -0.29280588030815125 0.05279973894357681
-0.3203154504299164 -0.13129015266895294 0.05004017800092697
-0.5604645013809204 -0.055519893765449524 0.021717624738812447
0.11126889288425446 -0.0695006400346756 0.3495248556137085
-0.5469358563423157 0.24296708405017853 -0.06112058460712433
-0.3737119734287262 0.2815799117088318 0.05605011805891991
-0.2558322548866272 -0.28976163268089294 -0.06863225996494293
0.29577794671058655 -0.2482273280620575 -0.09467647969722748
0.3422054648399353 -0.30033692717552185 -0.08461050689220428
0.11947214603424072 0.30887606739997864 -0.061284326016902924
-0.5168728232383728 -0.10581493377685547 -0.06892465800046921
0.417674720287323 -0.28678011894226074 -0.07950770854949951
0.15139922499656677 0.3070397675037384 0.04900046065449715
0.41848108172416687 -0.12614311277866364 -0.1031106486916542
0.41514870524406433 -0.2902507185935974 -0.148737370967865
-0.2379927933216095 0.17897793650627136 0.05634191632270813
0.10973961651325226 -0.29966500401496887 -0.06886272877454758
0.07591412961483002 0.15278717875480652 0.3885855972766876
-0.3467189073562622 0.10691247135400772 0.054244980216026306
0.3074405789375305 0.17148615419864655 -0.3912494480609894
0.02014271728694439 -0.07504716515541077 0.43140602111816406
0.31990838050842285 -0.12191924452781677 0.12710338830947876
0.05887719243764877 -0.08977296203374863 0.18151572346687317
0.10174325108528137 0.08018061518669128 0.36368876695632935
0.23136606812477112 0.011578384786844254 0.23807473480701447
-0.06591404974460602 -0.30726492404937744 0.040098194032907486
0.18916772305965424 -0.30609044432640076 0.04140458256006241
0.06735974550247192 0.049616023898124695 0.3134833574295044
0.29359328746795654 0.30838310718536377 -0.12610255181789398
-0.34197938442230225 -0.29777729511260986 -0.06930481642484665
-0.11454608291387558 -0.11479716747999191 0.2701113522052765
0.3023363947868347 -0.2992813289165497 -0.26258233189582825
-0.38252225518226624 0.045352596789598465 0.055996477603912354
-0.2547571063041687 0.2942327857017517 -0.06383666396141052
0.41818898916244507 -0.29927173256874084 0.02782280370593071
0.4179856777191162 0.020554620772600174 0.04058004915714264
-0.03183664381504059 0.043728504329919815 0.3974653482437134
0.0186455138027668 -0.059246309101581573 0.43553316593170166
0.18824678659439087 0.07941184937953949 0.27110275626182556
-0.3084263205528259 -0.11086397618055344 0.08557060360908508
0.3106614947319031 -0.17311473190784454 -0.3942103087902069
0.36917200684547424 -0.18105605244636536 0.08935243636369705
-0.5582305192947388 0.10900258272886276 -0.06558151543140411
0.2715695798397064 0.1224159225821495 -0.0741172805428505
-0.2565818130970001 0.3019019365310669 0.05245577543973923
-0.5488303303718567 0.020131921395659447 0.051870763301849365
0.3321707844734192 0.1568753868341446 0.135495126247406
0.253535658121109 -0.055607229471206665 0.16192971169948578
-0.5251492857933044 0.2641717791557312 0.04279937967658043
0.06909453123807907 -0.12386417388916016 0.40393856167793274
-0.42940786480903625 -0.31419405341148376 0.027982022613286972
-0.4003213346004486 0.12151295691728592 0.052918609231710434
0.05059632658958435 -0.13232767581939697 0.40852978825569153
-0.5604233741760254 -0.10465028136968613 0.019988827407360077
0.33279985189437866 0.0478244349360466 0.13463905453681946
0.25735220313072205 0.293744832277298 -0.06987314671278
-0.06095992773771286 -0.1748621016740799 0.21336305141448975
-0.4090777635574341 -0.13367366790771484 -0.04879583790898323
0.3404548466205597 -0.17685523629188538 0.12381535768508911
-0.10983473062515259 -0.2962583899497986 -0.07413039356470108
-0.5623298287391663 0.16030898690223694 -0.054080620408058167
-0.4701921343803406 -0.299463152885437 0.04387831687927246
-0.5536471009254456 -0.0976814404129982 -0.06871435046195984
-0.45393675565719604 -0.12669438123703003 0.0011105313897132874
0.0863289013504982 -0.29545897245407104 -0.07670795917510986
0.24763493239879608 -0.1971084028482437 0.0497712567448616
-0.09081068634986877 0.2934800982475281 0.057919371873140335
-0.29991811513900757 0.29254627227783203 -0.06439864635467529
0.2143717259168625 0.3104970455169678 -0.02115407958626747
-0.3487202823162079 0.08477917313575745 0.05493668094277382
-0.39074525237083435 -0.016903020441532135 0.05119432508945465
-0.37687480449676514 0.2223215401172638 -0.06335034966468811
-0.40447115898132324 0.28786057233810425 -0.06432798504829407
-0.1461549699306488 0.1895761340856552 0.0693163126707077
0.42439156770706177 0.29784560203552246 -0.01690775528550148
0.33311235904693604 0.09881219267845154 0.1357274353504181
-0.10537970811128616 -0.19313004612922668 0.07023578137159348
0.286728173494339 0.30151402950286865 0.05249535292387009
0.2552805542945862 0.19937501847743988 0.10400606691837311
0.33442941308021545 -0.3065681755542755 -0.12151749432086945
0.41191065311431885 0.24333350360393524 -0.2578648626804352
0.2959507405757904 0.03391274809837341 -0.3730965852737427
0.41601142287254333 -0.28873348236083984 -0.08808974921703339
-0.47903141379356384 0.29319027066230774 0.057304710149765015
0.3561614155769348 0.1940944790840149 0.10831372439861298
0.4178234338760376 -0.29753947257995605 -0.003872578963637352
-0.029284844174981117 -0.2824484705924988 -0.07627545297145844
-0.26743993163108826 0.16268402338027954 0.05833995342254639
-0.37494611740112305 0.1994752734899521 -0.06427525728940964
0.05790967866778374 0.1081484705209732 0.41944074630737305
0.14643719792366028 0.225030317902565 0.05287858471274376
-0.45472216606140137 0.08536174893379211 -0.0634070336818695
0.41339176893234253 0.07887481153011322 -0.3955017626285553
-0.18258684873580933 -0.05205274745821953 -0.07256285846233368
-0.4653630256652832 0.2932445704936981 -0.0594378262758255
-0.2699417769908905 -0.3034610152244568 -0.06969931721687317
0.2512177526950836 0.19702363014221191 0.1868368536233902
-0.007441077381372452 -0.2938545346260071 -0.07381286472082138
0.055290672928094864 0.20111870765686035 0.07183685153722763
-0.21139271557331085 -0.2936127185821533 -0.07594221085309982
0.28945392370224 0.3109916150569916 -0.0785575807094574
0.01811196655035019 0.05346912518143654 0.4331386983394623
-0.12034139037132263 -0.015759898349642754 0.3150482773780823
-0.47845861315727234 -0.22596798837184906 -0.06885600835084915
0.2948833107948303 0.15739744901657104 -0.3865676522254944
0.3075113892555237 -0.026922013610601425 -0.3959316313266754
0.33130526542663574 0.03899892792105675 0.1347331404685974
0.29687148332595825 0.03741687536239624 -0.3908669948577881
-0.3987451493740082 0.13999676704406738 -0.03261801227927208
0.03318753093481064 -0.19527266919612885 0.05977978557348251
0.03149840980768204 0.21009451150894165 0.05145370960235596
-0.3922330141067505 -0.09579470753669739 -0.07249386608600616
-0.3039180338382721 0.14309696853160858 0.055748045444488525
0.023609917610883713 -0.10101163387298584 0.41633141040802
0.41639530658721924 -0.28845739364624023 -0.08629195392131805
-0.35056668519973755 -0.017772862687706947 0.08756454288959503
0.051255885511636734 0.19615261256694794 0.20083607733249664
-0.5567006468772888 -0.194053053855896 -0.03741012513637543
0.3408241271972656 -0.20452846586704254 0.04974907264113426
-0.16254566609859467 -0.19216808676719666 0.05289672315120697
-0.4256249666213989 0.22877934575080872 -0.03343942016363144
-0.5596693754196167 0.10596106946468353 -0.06448421627283096
-0.21632345020771027 -0.17324298620224 0.06583958864212036
-0.16780471801757812 0.21885022521018982 0.05063490569591522
0.05690627917647362 0.20882871747016907 0.05247816443443298
-0.24829423427581787 -0.28933948278427124 -0.07163042575120926
-0.048311617225408554 -0.1935551017522812 0.07707341015338898
0.1222602128982544 -0.1977514922618866 0.051912061870098114
0.22130151093006134 -0.30275967717170715 0.043786074966192245
0.23141685128211975 0.176976278424263 0.2411591112613678
0.17620506882667542 0.20280541479587555 0.060298603028059006
0.03217465057969093 -0.2903611660003662 -0.07535205781459808
-0.31977754831314087 0.3025337755680084 0.038483187556266785
-0.38749444484710693 0.297628790140152 -0.061317577958106995
-0.3367323875427246 0.20386767387390137 0.05359211564064026
-0.3826683759689331 -0.058417003601789474 0.05193614959716797
-0.5098326206207275 -0.29335540533065796 0.037766940891742706
0.4139014482498169 -0.2950226068496704 -0.19501855969429016
0.323103666305542 0.30030557513237 -0.3220842182636261
0.13839906454086304 -0.19336189329624176 0.3196723461151123
-0.3838196098804474 0.3026891052722931 -0.06196146458387375
0.41440024971961975 -0.28422901034355164 -0.22592875361442566
0.16054382920265198 0.3103986382484436 0.04306201636791229
-0.4823131561279297 0.28472015261650085 -0.06079280376434326
0.2989377975463867 0.3093758523464203 -0.11816830188035965
0.06845461577177048 -0.0407395102083683 -0.0756952315568924
0.1758379489183426 -0.1954849511384964 0.07076545059680939
0.2923531234264374 -0.13453161716461182 -0.3231096565723419
0.35744524002075195 0.3109901249408722 0.03191707283258438
0.2910044491291046 0.18725912272930145 -0.20214898884296417
-0.5576608777046204 -0.048704057931900024 -0.05203633010387421
-0.3928760886192322 -0.03545144945383072 0.05053907632827759
-0.06786791980266571 0.1329154074192047 -0.06933104246854782
0.4047512114048004 0.24330177903175354 0.049190863966941833
-0.5100463628768921 -0.22405807673931122 -0.07224366068840027
0.41895920038223267 -0.04268737882375717 -0.1294691115617752
0.4137786626815796 0.24115127325057983 -0.2551964819431305
0.25638648867607117 0.1999024748802185 0.1808726191520691
0.4190619885921478 -0.1082160621881485 0.02940358966588974
-0.0064726099371910095 0.30928298830986023 -0.05461542680859566
-0.015264958143234253 -0.2875688374042511 0.04809744656085968
0.02056141197681427 -0.05311795324087143 0.43707942962646484
0.30733466148376465 0.30995258688926697 -0.07990805804729462
0.15640413761138916 -0.16079087555408478 0.3094424605369568
0.38567879796028137 0.13075432181358337 -0.24619244039058685
0.3962132930755615 0.19216686487197876 -0.3938602805137634
-0.383084237575531 0.20790286362171173 -0.04688766598701477
-0.5143994092941284 -0.24549219012260437 0.056040797382593155
0.06808488070964813 0.25277307629585266 -0.07158595323562622
-0.13222074508666992 0.3051389455795288 -0.06262154132127762
0.3012903928756714 -0.07453957200050354 -0.09308262914419174
-0.051905155181884766 -0.18432794511318207 0.1804904043674469
-0.2521894574165344 -0.1849839836359024 0.05089635029435158
0.18798178434371948 0.20956750214099884 0.05562109500169754
0.41482990980148315 0.14010044932365417 -0.37081006169319153
-0.05962049216032028 0.21757052838802338 0.054351046681404114
-0.5187453627586365 -0.28048738837242126 -0.06294722855091095
0.08763483911752701 -0.2996262013912201 -0.07612305134534836
-0.4843987226486206 0.14307859539985657 -0.03920071944594383
-0.5596424341201782 -0.07729920744895935 -0.07039419561624527
-0.4921901822090149 -0.007148357108235359 0.053408458828926086
-0.44830480217933655 0.1155167892575264 -0.06335742771625519
0.302357017993927 -0.2163010537624359 -0.08794142305850983
0.4176770746707916 0.03589729592204094 -0.3764646053314209
0.41645029187202454 -0.2968618869781494 -0.13764908909797668
-0.5555800795555115 -0.17336568236351013 -0.067632295191288
0.4195963740348816 -0.23811578750610352 0.03602471947669983
0.41390806436538696 -0.14370469748973846 -0.37127870321273804
-0.5505170226097107 0.041406743228435516 0.05349007993936539
0.37716177105903625 0.3129800856113434 -0.10651035606861115
-0.38377684354782104 -0.009496957063674927 0.05856761336326599
0.2761778235435486 -0.14405065774917603 -0.07253590226173401
0.2382771372795105 -0.3036438524723053 -0.06801516562700272
-0.3788963556289673 0.0036408202722668648 0.054404616355895996
0.16619502007961273 -0.2355472445487976 -0.07603985071182251
0.41834649443626404 0.11451046168804169 -0.18429356813430786
-0.558380663394928 0.1871909499168396 0.04941986873745918
0.4188101887702942 -0.2677825391292572 -0.010413087904453278
-0.442026287317276 -0.12680180370807648 -0.06373418867588043
0.04609444737434387 -0.11791878193616867 0.4169757068157196
-0.39232105016708374 0.00043439026921987534 0.05458289384841919
-0.5548675656318665 -0.06863027811050415 -0.06772870570421219
0.09021536260843277 -0.16865696012973785 0.3671696186065674
0.40671998262405396 0.31635624170303345 -0.26627448201179504
0.13425306975841522 0.1940329372882843 0.32413575053215027
-0.3763262629508972 0.03669266030192375 0.05582661181688309
-0.5487509965896606 -0.11511620879173279 -0.07073285430669785
