-0.3928430676460266 0.31192493438720703 -0.06316917389631271
-0.4074365496635437 0.24823732674121857 0.05657024309039116
-0.454326331615448 -0.2765243947505951 0.0494648814201355
0.17777332663536072 -0.19214293360710144 0.23682855069637299
0.422425776720047 0.18807564675807953 0.04487374424934387
-0.5615779757499695 0.02047768607735634 -0.04079030081629753
0.4040422737598419 0.0063889725133776665 -0.397276908159256
-0.245510071516037 -0.30525100231170654 -0.06802954524755478
0.41606220602989197 0.1588791012763977 -0.3719388544559479
0.3690696954727173 -0.18211722373962402 0.08970116823911667
-0.34182316064834595 0.2921266257762909 -0.06449861079454422
0.06855331361293793 0.15381841361522675 0.387891948223114
-0.388522207736969 0.19068355858325958 -0.012705542147159576
0.04819921404123306 -0.2613655626773834 -0.07722892612218857
0.2601628005504608 -0.10545403510332108 0.16816937923431396
0.41985952854156494 0.2974103093147278 -0.1190977469086647
0.060409821569919586 0.3097884953022003 -0.051909059286117554
-0.3412624001502991 0.0840180292725563 -0.06643825024366379
0.4144974648952484 -0.17771053314208984 0.048862770199775696
0.215192973613739 0.20494619011878967 0.053112953901290894
-0.05243624746799469 0.17710092663764954 0.21409684419631958
0.4141179621219635 -0.1454547941684723 -0.3228549361228943
0.39171215891838074 0.290082722902298 0.047024115920066833
-0.41535207629203796 -0.13295862078666687 0.05401080846786499
-0.1514233946800232 0.19630396366119385 0.054725006222724915
0.3844605088233948 0.31536543369293213 -0.2126878947019577
0.3866301476955414 -0.1985120326280594 0.07058683037757874
-0.1385442167520523 0.19284652173519135 0.06277257204055786
-0.32337331771850586 -0.3031156361103058 -0.07223862409591675
-0.5595290660858154 -0.21575362980365753 0.014200892299413681
0.3401557207107544 -0.07315608859062195 0.12990009784698486
-0.5314435362815857 -0.17272160947322845 0.050568655133247375
0.2762161195278168 -0.14114251732826233 -0.07649489492177963
-0.09447821974754333 -0.20997771620750427 0.04233507439494133
0.4152899384498596 -0.15069162845611572 -0.3838750422000885
0.39959967136383057 0.1459614336490631 -0.3962230980396271
0.17926567792892456 0.15538737177848816 -0.07634279131889343
0.030119076371192932 0.29671722650527954 0.05261349305510521
0.4177873134613037 -0.2993606925010681 -0.04263152927160263
0.41849544644355774 -0.28253281116485596 -0.0853823572397232
-0.3578265607357025 0.29983487725257874 0.04777371510863304
-0.16702358424663544 -0.2980736494064331 -0.07421459257602692
0.4136974811553955 -0.30287548899650574 -0.02699318900704384
0.009718980640172958 -0.20231236517429352 0.04388072341680527
-0.5095450282096863 0.25543299317359924 -0.06241975352168083
-0.4548095166683197 -0.12495596706867218 -0.06931128352880478
-9.221211075782776e-05 -0.3065667748451233 -0.06968598812818527
0.0606994554400444 0.20121046900749207 0.0528876930475235
0.3001396358013153 -0.26141852140426636 -0.1385747790336609
-0.43749815225601196 -0.010790610685944557 -0.07135108858346939
-0.4193481206893921 -0.30780133605003357 -0.06885495781898499
-0.34714940190315247 -0.10308720916509628 0.05168605595827103
0.41325512528419495 -0.13470010459423065 -0.2201722413301468
-0.5021856427192688 -0.2959306240081787 -0.06003507971763611
0.31471875309944153 -0.21972890198230743 -0.387489378452301
-0.21597668528556824 -0.30657249689102173 -0.07080814242362976
0.20628006756305695 -0.19189582765102386 0.25682124495506287
0.04168079048395157 0.30179139971733093 -0.06882253289222717
0.2974679470062256 -0.03389382362365723 -0.1651727259159088
0.2977270483970642 0.31256815791130066 0.04408883675932884
0.29135122895240784 0.3148527443408966 -0.07392267882823944
0.2437489926815033 -0.19056348502635956 0.09776492416858673
-0.559838056564331 -0.11230506747961044 -0.042679138481616974
0.41681820154190063 -0.26563721895217896 0.05528780072927475
-0.10830354690551758 -0.20792067050933838 0.042969100177288055
-0.5612920522689819 -0.12204182147979736 0.043372198939323425
-0.5437291860580444 -0.25457003712654114 0.04130289703607559
0.41863229870796204 0.006701938807964325 0.04915991425514221
0.4139641225337982 0.22679506242275238 0.052917107939720154
0.07192576676607132 -0.1611820012331009 0.3813006579875946
0.0450751893222332 0.030396929010748863 0.42465484142303467
0.21242080628871918 0.19562384486198425 0.2369648963212967
0.39361143112182617 -0.04596952348947525 0.0681372880935669
0.0824613869190216 -0.035735923796892166 0.13086062669754028
0.3180154860019684 0.2950822412967682 0.052660953253507614
0.41848042607307434 -0.28113362193107605 -0.0566832609474659
0.08728240430355072 0.3110124468803406 0.048302069306373596
0.29588353633880615 -0.2817783057689667 -0.15263210237026215
-0.494447261095047 0.11243368685245514 -0.0691157877445221
0.0368490144610405 -0.11491353064775467 0.4087713360786438
0.030885202810168266 -0.29901909828186035 -0.07548562437295914
-0.2308570146560669 0.17579707503318787 0.049564555287361145
-0.02371734380722046 -0.2687748074531555 0.04773328825831413
0.2912513315677643 0.16630999743938446 0.10383878648281097
0.4187603294849396 0.13689638674259186 0.04832650348544121
0.4172013998031616 -0.23982049524784088 -0.3844926059246063
0.09269075095653534 -0.19391953945159912 0.06273406744003296
0.28691163659095764 0.31256103515625 -0.06676170974969864
0.27369463443756104 0.1913856565952301 0.09578518569469452
0.4103727340698242 -0.3009103536605835 -0.1852881908416748
-0.36664271354675293 0.04722351208329201 0.052574291825294495
-0.26624011993408203 0.23162294924259186 -0.06703081727027893
0.09293558448553085 0.30709007382392883 0.046501509845256805
0.11648998409509659 0.29601791501045227 -0.06766441464424133
0.1236005425453186 -0.1942819058895111 0.3013654351234436
-0.294952929019928 -0.30736637115478516 -0.06991486996412277
-0.27203914523124695 0.30665239691734314 -0.04921777546405792
-0.15093186497688293 -0.3065548539161682 -0.06906242668628693
-0.567200243473053 0.14356683194637299 -0.0497533455491066
-0.2540300488471985 -0.09915067255496979 -0.0706007182598114
0.031413860619068146 -0.2919536232948303 -0.07751163840293884
0.3995828926563263 -0.12751205265522003 -0.3978242576122284
0.3599208891391754 -0.06001109629869461 -0.39952653646469116
0.16015055775642395 0.3079591989517212 0.04092475026845932
-0.2656945586204529 -0.30343306064605713 -0.07133276760578156
-0.24244986474514008 -0.30812162160873413 0.0425349622964859
-0.41535502672195435 -0.14522333443164825 -0.03091339021921158
-0.5646032094955444 0.078020840883255 -0.06384503096342087
0.3127286434173584 -0.22586163878440857 -0.24583537876605988
-0.3979794383049011 -0.16960085928440094 -0.05338473618030548
0.2970273196697235 -0.21673035621643066 -0.3896256685256958
-0.2190319299697876 0.047994498163461685 -0.06910037249326706
0.11630958318710327 -0.19220070540905 0.06331682950258255
0.4206724762916565 0.3020874559879303 -0.25072187185287476
0.4214504659175873 0.2992730140686035 -0.19699978828430176
0.41305631399154663 -0.29970067739486694 -0.2787054777145386
0.136233851313591 0.08567169308662415 0.31604674458503723
-0.025969743728637695 -0.3029361069202423 0.04306438937783241
0.401123583316803 -0.1722608059644699 -0.3969883918762207
-0.36205601692199707 -0.16612045466899872 -0.0699087455868721
0.3065779209136963 0.1480349898338318 -0.22603024542331696
-0.37219560146331787 0.046750638633966446 0.05258149653673172
0.28896039724349976 0.31008461117744446 -0.05439237132668495
-0.1397186666727066 0.19846510887145996 0.05421696603298187
0.40992721915245056 0.31537237763404846 -0.038397110998630524
0.11331220716238022 0.18988293409347534 0.33978357911109924
0.2352803498506546 0.31080377101898193 0.04433770477771759
-0.05602642893791199 0.19413483142852783 0.10269893705844879
-0.47679391503334045 -0.13889144361019135 -0.04048534855246544
0.12757478654384613 0.09246992319822311 0.23877429962158203
0.12822267413139343 -0.3065892457962036 -0.08009643852710724
-0.5585730671882629 0.15476766228675842 0.05124746635556221
-0.13753965497016907 -0.3048209547996521 0.033699553459882736
0.28722596168518066 0.29660356044769287 0.04739290848374367
-0.045258499681949615 -0.3032708764076233 -0.06845937669277191
0.27283596992492676 0.04401135817170143 0.18553638458251953
0.40371859073638916 0.06479139626026154 -0.3942858576774597
0.16648642718791962 -0.12179138511419296 -0.07705283164978027
-0.37522098422050476 -0.03518439829349518 0.049737945199012756
-0.3998531997203827 0.1528424471616745 -0.017789170145988464
0.29658904671669006 -0.2148745357990265 -0.39255931973457336
-0.3484972417354584 -0.3070654273033142 -0.07074903696775436
-0.3742995858192444 0.21420493721961975 0.055030982941389084
-0.3053891658782959 0.13678880035877228 0.05273444950580597
-0.10373462736606598 0.09580668807029724 -0.06712520122528076
-0.230136901140213 -0.30884072184562683 -0.0568842813372612
-0.26141858100891113 -0.17363794147968292 0.04652480036020279
0.105038121342659 -0.04915394261479378 0.3686407804489136
0.2505072057247162 0.02758541703224182 0.2234903872013092
-0.0650562196969986 0.30625954270362854 0.04202684387564659
-0.08252730965614319 -0.3037605583667755 -0.07081139087677002
-0.38416507840156555 0.19891610741615295 -0.03432055562734604
0.08942553400993347 -0.16827398538589478 0.36852529644966125
-0.4583582282066345 -0.13283029198646545 0.051826294511556625
-0.5575559139251709 0.04274033382534981 0.03842209279537201
0.3480089008808136 -0.011408355087041855 0.11347268521785736
0.4043034613132477 0.3107282519340515 0.025499016046524048
0.1320161074399948 0.1928132027387619 0.3288744390010834
-0.35560595989227295 -0.30861014127731323 -0.006893381476402283
0.25404661893844604 0.20065370202064514 0.19251306354999542
0.058610133826732635 0.12109648436307907 0.41363248229026794
0.14064498245716095 -0.08740153908729553 0.317437082529068
-0.33136579394340515 0.3023720681667328 0.04842178896069527
0.29494526982307434 -0.20632404088974 -0.12442377954721451
0.05193030461668968 0.1971588283777237 0.15814310312271118
-0.24983380734920502 -0.1850723922252655 0.04420135170221329
-0.23878885805606842 0.30457577109336853 -0.002170264720916748
-0.07418213039636612 0.20259472727775574 0.052126601338386536
0.07892157137393951 -0.3055439889431 -0.06738898158073425
-0.06329020857810974 -0.3016206622123718 -0.06964422762393951
-0.40428730845451355 -0.23725590109825134 0.04709602892398834
-0.4179823398590088 -0.3084379732608795 -0.06638984382152557
0.046823885291814804 0.16519197821617126 -0.07172629982233047
0.25970688462257385 0.07430075109004974 0.16699326038360596
-0.5650212168693542 -0.13964726030826569 -0.050439123064279556
0.3632197976112366 0.3143019378185272 -0.0020971903577446938
-0.5626180768013 0.20914311707019806 0.049114078283309937
-0.560558021068573 -0.03524048998951912 0.05120590329170227
0.4173220694065094 -0.21759894490242004 -0.08541256189346313
0.04994712024927139 0.14274953305721283 0.38738885521888733
-0.028998147696256638 0.09070608019828796 0.3632100224494934
0.06969986855983734 -0.15336671471595764 0.3816199004650116
-0.3968576192855835 0.1455492079257965 -0.06618207693099976
-0.3661573529243469 0.30107930302619934 -0.06421413272619247
0.41561466455459595 0.08029373735189438 0.054112471640110016
0.19469384849071503 0.1945054829120636 0.21645726263523102
-0.2975984811782837 0.3026908338069916 0.04046177119016647
-0.5622214674949646 0.059718117117881775 0.04015713185071945
0.2501108646392822 0.1563558131456375 0.2251574695110321
0.2942054271697998 0.3107045292854309 0.010000118985772133
-0.2418709397315979 -0.29971230030059814 -0.07182798534631729
-0.306208074092865 0.3036905825138092 -0.06387974321842194
-0.3202192187309265 0.30495062470436096 0.0401238352060318
0.24680693447589874 -0.19117531180381775 0.1704910844564438
-0.3320768475532532 0.04405844584107399 0.08454303443431854
0.03605716675519943 -0.30659088492393494 -0.05802737921476364
-0.3193528354167938 -0.09846315532922745 0.0674871951341629
0.2919294238090515 0.29485487937927246 -0.3280811309814453
0.2952522039413452 0.21040226519107819 0.046082861721515656
-0.41485530138015747 -0.26668158173561096 -0.07177823781967163
-0.2737332582473755 -0.29612094163894653 -0.07105099409818649
0.29124173521995544 -0.15431475639343262 -0.3717794120311737
0.10727690905332565 -0.3036634027957916 -0.0665360540151596
0.15906719863414764 0.19450734555721283 0.14094433188438416
-0.3752870559692383 -0.1572728008031845 -0.06952013075351715
-0.40113890171051025 0.12861144542694092 -0.06408898532390594
-0.4018036127090454 0.1451694667339325 0.027978457510471344
0.4079693555831909 0.2088305503129959 0.04987255483865738
-0.21261689066886902 0.30394667387008667 0.04874929040670395
-0.47457650303840637 -0.13871826231479645 0.04735652357339859
-0.3858024477958679 0.20101691782474518 0.047324299812316895
0.04161156713962555 0.1223529577255249 0.4122389554977417
-0.1394728571176529 0.20028476417064667 0.05529463291168213
0.15027578175067902 -0.300469309091568 0.038725558668375015
0.298721581697464 0.15012584626674652 -0.222744420170784
0.4091204106807709 -0.30024224519729614 -0.2364395260810852
-0.4680411219596863 0.005972422659397125 0.05576344206929207
-0.2805580496788025 -0.3125125467777252 0.04029529541730881
0.05618669465184212 0.17102676630020142 0.32971954345703125
-0.356106162071228 -0.1578851044178009 -0.07121282070875168
-0.4463343024253845 0.28147101402282715 0.05261113494634628
0.4035440683364868 0.22607767581939697 0.05189410597085953
0.4227052927017212 0.0682312399148941 0.04773985221982002
0.29876813292503357 -0.2815723717212677 -0.2571737468242645
0.2981167435646057 0.10900674015283585 -0.35248807072639465
0.41887834668159485 -0.3037373423576355 0.012479443103075027
0.41765543818473816 0.08286723494529724 -0.3846248984336853
0.2350228875875473 -0.3023560345172882 0.03225277364253998
-0.35117828845977783 -0.3083021640777588 -0.06920389086008072
0.4194243848323822 -0.11856673657894135 0.04352276027202606
0.2988112270832062 -0.28157857060432434 -0.234171062707901
0.18795078992843628 0.29817521572113037 0.04986415430903435
0.0629022866487503 -0.19933056831359863 0.044545285403728485
0.39825665950775146 -0.3047966957092285 0.03211840242147446
-0.4236343801021576 -0.2560962736606598 0.04916689544916153
0.41482049226760864 -0.2003193497657776 -0.3972049057483673
-0.10569558292627335 0.13376252353191376 0.23884746432304382
0.3486517071723938 0.3128871023654938 0.045071471482515335
-0.49492698907852173 -0.1404881775379181 -0.07002398371696472
0.05370672792196274 -0.2883174419403076 0.048415545374155045
-0.4390861690044403 -0.31365346908569336 -0.05090036243200302
0.29887810349464417 0.04322832077741623 -0.39390960335731506
0.4062487483024597 -0.30306628346443176 0.018807049840688705
0.017120271921157837 -0.3033548891544342 0.046814825385808945
0.0353776179254055 0.18978016078472137 0.267929345369339
-0.5589075684547424 0.14828619360923767 -0.06438581645488739
-0.3336316645145416 0.10793782025575638 0.05047449469566345
-0.06436125189065933 0.18354646861553192 0.16934256255626678
-0.38664373755455017 0.17562739551067352 -0.013806693255901337
-0.5552353262901306 -0.10320062190294266 0.05412360280752182
-0.4140619933605194 -0.15039822459220886 -0.05672840029001236
-0.37773650884628296 0.04693809896707535 0.053526803851127625
0.4214770495891571 0.13321399688720703 0.04521515592932701
-0.21052701771259308 -0.1796099841594696 0.05825822055339813
0.36643490195274353 -0.16892343759536743 0.09449975192546844
0.40574130415916443 0.26195070147514343 0.050159625709056854
0.30165284872055054 -0.15629510581493378 -0.219245046377182
0.24268141388893127 -0.19768674671649933 0.04493563622236252
0.06448272615671158 -0.15750889480113983 0.37744492292404175
0.09222549200057983 0.19928884506225586 -0.07152856141328812
-0.42190003395080566 -0.1300281435251236 -0.07069441676139832
-0.18521809577941895 -0.1095670536160469 0.19182856380939484
0.1185934767127037 -0.3046168088912964 -0.06928912550210953
0.1665797084569931 -0.09724099934101105 0.3012610077857971
0.2966444492340088 -0.27929672598838806 -0.11844580620527267
-0.28235605359077454 -0.3025055527687073 -0.07078985869884491
0.042551666498184204 -0.30070123076438904 0.0369291827082634
-0.5174129605293274 -0.28331807255744934 -0.059043172746896744
-0.10723147541284561 0.11278454959392548 -0.07041759788990021
0.40327081084251404 0.31387850642204285 -0.18016332387924194
0.40617772936820984 -0.29573094844818115 0.045369651168584824
0.14410489797592163 -0.3083341717720032 -0.07619921118021011
-0.10175731778144836 0.20087112486362457 0.05514988303184509
0.14114010334014893 0.1954263299703598 0.3156457543373108
-0.38095027208328247 -0.18535712361335754 -0.07328133285045624
-0.08539781719446182 0.29784297943115234 -0.06837458163499832
0.2944917678833008 -0.20425790548324585 -0.3982146978378296
0.2888275980949402 -0.08607644587755203 0.09672742336988449
0.4134409427642822 -0.06739269196987152 -0.38459527492523193
-0.3319627046585083 0.2970436215400696 -0.06632037460803986
-0.37262284755706787 0.3057520389556885 -0.06075961887836456
-0.37209731340408325 0.023803701624274254 0.052497491240501404
0.029913214966654778 0.025717008858919144 0.43977323174476624
-0.5586366057395935 -0.025666378438472748 0.04075729101896286
0.29294782876968384 -0.16821232438087463 -0.3637946844100952
0.013216167688369751 0.19959670305252075 0.05502200871706009
0.11378223448991776 -0.3080882430076599 -0.07140839099884033
0.04127476364374161 0.2972969114780426 -0.07371643930673599
-0.005012132227420807 -0.30017271637916565 -0.07889005541801453
-0.33681049942970276 0.29318323731422424 -0.06613080948591232
-0.3763561248779297 -0.019935935735702515 0.05038079619407654
0.39773356914520264 0.31313827633857727 -0.08820535242557526
-0.48403653502464294 0.2617360055446625 0.05423853546380997
-0.10858601331710815 -0.042327430099248886 -0.07150694727897644
-0.10542444884777069 -0.30385416746139526 -0.07231137901544571
-0.40626993775367737 0.1368638575077057 0.05177092179656029
-0.21480059623718262 -0.3101472556591034 0.023101795464754105
-0.172084242105484 0.3067336678504944 -0.017534617334604263
-0.04335382580757141 -0.17964228987693787 0.2179722785949707
0.0192558616399765 0.07187970727682114 0.42565664649009705
0.3362082242965698 -0.049221351742744446 0.1290399581193924
-0.5557815432548523 0.037749797105789185 0.04983457550406456
-0.1517544835805893 0.19283249974250793 0.06622786819934845
0.16176308691501617 -0.30058860778808594 -0.03890866041183472
-0.18458399176597595 -0.17727376520633698 0.08751225471496582
0.41926881670951843 0.12256903201341629 -0.07090426981449127
-0.5494185090065002 -0.01012738049030304 -0.06625643372535706
0.19287902116775513 -0.2840285897254944 0.04820489138364792
-0.5585442781448364 0.11890469491481781 -0.06237666681408882
0.39330044388771057 -0.3022569417953491 -0.21750245988368988
0.2769297957420349 0.20571815967559814 0.06206041947007179
-0.5549813508987427 0.15267139673233032 0.05713146552443504
-0.0691809207201004 -0.2982340157032013 -0.07234453409910202
-0.20185577869415283 -0.14104735851287842 0.1372896283864975
0.4155505299568176 -0.11710827052593231 0.04578878730535507
0.2931913137435913 -0.22398433089256287 -0.2208501100540161
-0.45899727940559387 -0.3050280511379242 0.03814925253391266
0.08251246064901352 -0.092225581407547 0.2026001214981079
-0.2323356568813324 0.3053101897239685 -0.06264153122901917
0.41498950123786926 0.014501143246889114 -0.3889572322368622
-0.1626010537147522 0.06425337493419647 0.245548278093338
0.39269623160362244 -0.19799695909023285 0.06834327429533005
0.014635492116212845 -0.08769066631793976 -0.07665714621543884
0.0389053076505661 0.3112383484840393 -0.06501022726297379
0.21697908639907837 0.1964186578989029 0.22621653974056244
0.3259463608264923 -0.032767608761787415 0.1371658444404602
0.29483354091644287 0.29883915185928345 -0.13967882096767426
-0.17088347673416138 -0.12731103599071503 0.18228553235530853
0.2907615900039673 0.2664145529270172 -0.3553343713283539
-0.325193852186203 0.3076876997947693 -0.05785412713885307
0.1407952457666397 0.311022013425827 -0.07014776021242142
0.4079013764858246 -0.30053430795669556 -0.16003629565238953
0.18007978796958923 0.0890679657459259 0.29790785908699036
0.03979955613613129 0.12385016679763794 0.41275089979171753
0.14284002780914307 -0.19519859552383423 0.3058303892612457
0.2931922674179077 -0.1976865977048874 -0.3234638273715973
-0.2652378976345062 -0.1517275720834732 0.06107911467552185
-0.13090530037879944 -0.21153011918067932 0.04613277688622475
0.40945830941200256 -0.12560135126113892 -0.24388539791107178
-0.36913928389549255 -0.05338626354932785 0.05501699075102806
-0.3495059311389923 0.0991494283080101 0.05251625180244446
-0.4028705358505249 -0.13267965614795685 -0.07163822650909424
-0.40585264563560486 0.13774454593658447 0.054581254720687866
-0.3074801564216614 -0.13228169083595276 0.05322045087814331
0.023572178557515144 0.09599271416664124 0.4172869920730591
-0.3621246814727783 0.0801553726196289 0.05175306275486946
0.03661831095814705 0.114250548183918 0.41730543971061707
-0.2144412100315094 -0.30689921975135803 0.04115482047200203
0.002225082367658615 0.3059261441230774 -0.0670635923743248
-0.07156266272068024 0.17503221333026886 0.2073298692703247
-0.40818196535110474 -0.14927302300930023 -0.06837114691734314
0.27138692140579224 0.04114815965294838 0.19256721436977386
-0.16970211267471313 -0.1451808661222458 0.1631973683834076
0.18712608516216278 -0.30283501744270325 0.034150440245866776
0.42101985216140747 0.09304547309875488 -0.04330938681960106
0.42121705412864685 0.048140838742256165 0.04966970160603523
0.39879652857780457 0.13181611895561218 -0.39081475138664246
0.30077260732650757 0.31262972950935364 -0.2856203317642212
-0.11217647790908813 -0.292927622795105 -0.07612443715333939
-0.4856603741645813 -0.3003799617290497 -0.055296652019023895
0.02382761612534523 -0.09985324740409851 0.4176695942878723
0.1728513538837433 -0.19477249681949615 0.28076285123825073
-0.09436354041099548 0.29579874873161316 -0.06697295606136322
-0.5079472661018372 0.13872352242469788 0.05263480171561241
0.409504234790802 -0.17130401730537415 -0.39668819308280945
0.4038817286491394 -0.13666951656341553 -0.39669176936149597
-0.2723889946937561 -0.1505422294139862 0.05136290192604065
0.11617840826511383 0.060701195150613785 0.34923887252807617
0.42148706316947937 0.2474289834499359 -0.26943647861480713
-0.4203665852546692 -0.1499142050743103 -0.06352806836366653
-0.4379890561103821 -0.1342758983373642 -0.02242284268140793
0.07501235604286194 0.2975611090660095 -0.0703633725643158
-0.5217729806900024 -0.1395934820175171 0.054043110460042953
-0.5636563897132874 0.0626179426908493 -0.05121978372335434
0.29646584391593933 0.07571646571159363 -0.22368645668029785
0.39979204535484314 -0.30183085799217224 -0.135746031999588
-0.1947050392627716 0.3066364824771881 -0.05440118908882141
0.2408740520477295 -0.19741682708263397 0.04308640956878662
0.10265738517045975 0.03301084041595459 0.35611802339553833
0.2892926335334778 -0.2287195324897766 -0.22136497497558594
0.4132551848888397 -0.18790996074676514 -0.2119322270154953
-0.5239406228065491 0.11638330668210983 0.054476674646139145
-0.405068039894104 -0.132147416472435 0.04956310614943504
-0.439829558134079 -0.30537790060043335 0.0480005145072937
-0.5628257393836975 0.13572876155376434 -0.04577905684709549
0.41485005617141724 0.03518655523657799 -0.38128384947776794
-0.37690219283103943 -0.04476693272590637 0.052672602236270905
0.3618830442428589 -0.18842028081417084 0.09448982775211334
0.29741141200065613 -0.19890442490577698 -0.10052385926246643
-0.32968276739120483 0.3076890707015991 -0.05861453711986542
-0.19391630589962006 -0.307854026556015 -0.05730217695236206
-0.4886670708656311 0.2923358082771301 -0.0681428462266922
0.28080031275749207 0.2004425823688507 0.08945241570472717
0.4179043769836426 -0.2966401278972626 -0.23134228587150574
-0.035909753292798996 0.3021317422389984 -0.06697872281074524
-0.38235992193222046 -0.042111750692129135 0.04854891449213028
-0.51349276304245 0.2740378975868225 0.052230801433324814
-0.4510408341884613 0.12103532254695892 -0.06619355082511902
-0.15865860879421234 0.29318109154701233 -0.06371801346540451
-0.01761285960674286 -0.304874062538147 -0.018323689699172974
0.0178108811378479 0.05843411013484001 0.42916762828826904
-0.36541947722435 -0.12937872111797333 0.05605035275220871
-0.27035966515541077 -0.15204718708992004 0.05294860899448395
-0.004374757409095764 -0.09902875870466232 -0.07446592301130295
-0.35804396867752075 0.2893891930580139 0.052779387682676315
0.27262628078460693 0.1360180377960205 0.19560277462005615
0.4086078405380249 -0.3060522675514221 -0.06024831905961037
0.29756322503089905 -0.1021224707365036 -0.36596018075942993
-0.3395105004310608 0.29994094371795654 -0.06358940154314041
-0.0247555673122406 -0.1873898059129715 0.19713717699050903
0.2978985607624054 -0.05688388645648956 0.106852687895298
-0.3616187870502472 -0.2089354544878006 0.049331121146678925
0.4193013608455658 0.22296148538589478 -0.3235514760017395
0.014783548191189766 0.03691479191184044 0.43059101700782776
-0.137100949883461 -0.29767268896102905 -0.07213104516267776
-0.4312168061733246 0.2959974706172943 0.052047599107027054
0.42002204060554504 0.006834432482719421 0.0449255034327507
-0.16510558128356934 -0.306355357170105 -0.05698830634355545
-0.3849629759788513 0.20367354154586792 -0.06884079426527023
-0.4760953187942505 -0.30192723870277405 -0.06576381623744965
-0.25099197030067444 0.2252807468175888 0.05211418867111206
-0.3786700963973999 -0.02621586062014103 0.05085253715515137
-0.0036532990634441376 -0.2864541709423065 0.04920976608991623
-0.39301422238349915 0.16299109160900116 -0.004286311566829681
-0.37891000509262085 -0.18586595356464386 0.05110974982380867
-0.5571978688240051 -0.04929622635245323 0.05065732076764107
-0.46051573753356934 -0.3046976923942566 -0.06768966466188431
-0.3484507203102112 0.09039682149887085 0.050476931035518646
0.2988276183605194 -0.205609992146492 -0.3957873284816742
-0.3458011746406555 -0.30419492721557617 -0.07127954810857773
0.3348057270050049 -0.19052892923355103 0.12490807473659515
-0.45484933257102966 0.26448893547058105 -0.0657699853181839
0.29383134841918945 0.15043318271636963 -0.3074577748775482
-0.3957761824131012 0.14817270636558533 -0.04714073985815048
0.3457253873348236 -0.1991405040025711 0.045483481138944626
-0.3806663453578949 0.2967270314693451 -0.06299242377281189
0.30476510524749756 -0.20275196433067322 0.040818724781274796
0.1966719627380371 0.29922807216644287 0.05121868848800659
0.30490365624427795 -0.06234133616089821 -0.3967912793159485
-0.45194604992866516 -0.25300905108451843 0.04884679988026619
-0.4766519069671631 -0.26831892132759094 0.051976971328258514
-0.43587082624435425 0.269440621137619 -0.06349731981754303
-0.06669318675994873 -0.30245649814605713 -0.07180075347423553
0.06633009016513824 0.2886524498462677 0.0537508949637413
-0.09612837433815002 -0.04605960100889206 0.3234671950340271
0.39949652552604675 0.3140268623828888 -0.2289690524339676
-0.35290011763572693 0.08844493329524994 0.05724458768963814
0.11414425820112228 -0.07642506808042526 0.3419815003871918
-0.4177238345146179 0.29306215047836304 -0.06862212717533112
0.4221244752407074 0.2990547716617584 -0.2796383202075958
0.07120795547962189 -0.13867199420928955 0.3990035951137543
-0.558247983455658 -0.06275536864995956 0.04094824939966202
0.2991122901439667 -0.16784238815307617 -0.20690643787384033
0.1569238305091858 -0.2954576015472412 -0.08033458143472672
0.11865203082561493 -0.08677365630865097 0.357543021440506
-0.12244884669780731 -0.29551956057548523 -0.07460875809192657
0.281980961561203 0.19986918568611145 0.09098923951387405
0.4059593975543976 0.2831418216228485 -0.3538503646850586
-0.10298798978328705 -0.18481464684009552 0.13267812132835388
0.421094685792923 0.29632672667503357 -0.166224405169487
-0.3494175970554352 -0.08546240627765656 0.05433676764369011
0.16977828741073608 -0.18564841151237488 0.2970147132873535
0.0854397863149643 -0.19185474514961243 0.2890322804450989
-0.46954286098480225 0.07837606966495514 0.05661553516983986
0.4060813784599304 -0.2982636094093323 -0.2678297758102417
-0.3244401216506958 0.30141645669937134 -0.06181812286376953
0.38756492733955383 -0.30237171053886414 -0.12338818609714508
-0.19641241431236267 0.1842702031135559 0.05314047634601593
0.19005808234214783 0.2892181873321533 0.05077419430017471
0.40509578585624695 0.15793290734291077 -0.39471742510795593
-0.3467525243759155 -0.09103472530841827 -0.06994874030351639
0.41521668434143066 0.012146219611167908 -0.3738017976284027
0.013639640994369984 0.05819481238722801 0.4279317557811737
-0.4180941879749298 -0.29532527923583984 0.048835162073373795
0.09357745945453644 0.30317652225494385 -0.06708896905183792
-0.08135917782783508 0.29769080877304077 -0.07278591394424438
-0.3358948826789856 -0.3095208406448364 -0.06756099313497543
0.40997514128685 -0.27334824204444885 -0.36413058638572693
0.30074259638786316 -0.177850604057312 -0.10246066004037857
-0.5601587891578674 -0.18835388123989105 0.05157734081149101
-0.38325220346450806 0.29803863167762756 -0.06357875466346741
0.246577188372612 0.18359364569187164 0.13337716460227966
-0.026362456381320953 0.29986611008644104 -0.0708552747964859
0.1544581800699234 0.20147424936294556 0.05047006905078888
-0.20766639709472656 0.18253803253173828 0.05069270357489586
0.28845393657684326 0.11347690224647522 -0.08343623578548431
-0.37741830945014954 -0.18187545239925385 0.05210622400045395
0.3343494236469269 0.31760749220848083 0.03923182189464569
0.41950616240501404 0.22652141749858856 -0.22592194378376007
0.3158389925956726 -0.24757322669029236 -0.37234732508659363
-0.4722950756549835 -0.14291533827781677 0.05157937854528427
-0.36700910329818726 -0.06013139337301254 0.05265476554632187
-0.5586811304092407 -0.1340225487947464 -0.06296996772289276
-0.5628523826599121 0.18190276622772217 0.040939927101135254
-0.3690435290336609 -0.24145953357219696 0.049707021564245224
-0.3390007019042969 0.10781769454479218 0.05215926468372345
0.41545307636260986 0.017491821199655533 0.0508737713098526
0.20158961415290833 -0.0833534523844719 0.2757435739040375
0.4139067828655243 -0.1546172946691513 0.05533008277416229
-0.17223098874092102 -0.2957477569580078 -0.07401296496391296
-0.19513268768787384 0.3011571764945984 -0.06664571166038513
-0.27149495482444763 -0.0966901034116745 0.12144257128238678
-0.38402169942855835 0.3014499247074127 -0.06388863176107407
0.07200060784816742 0.30590176582336426 -0.046812914311885834
0.3157232999801636 0.3061070442199707 -0.30735284090042114
0.35397276282310486 0.24045532941818237 -0.38446298241615295
-0.4649837613105774 0.24468451738357544 0.05007006227970123
0.30035534501075745 -0.29984375834465027 0.03765931725502014
-0.24952401220798492 -0.2946590185165405 -0.07010236382484436
-0.3697561025619507 -0.3130752444267273 -0.0590723380446434
-0.5521852374076843 -0.15299823880195618 -0.0653141513466835
-0.5634302496910095 -0.16758936643600464 -0.05295591428875923
-0.4305824935436249 0.29264333844184875 -0.06572337448596954
0.2576940357685089 0.19893833994865417 0.17024420201778412
0.29412364959716797 -0.19339576363563538 0.05124287307262421
0.418040931224823 -0.16111494600772858 -0.05416863411664963
-0.13824541866779327 -0.19401808083057404 0.06345419585704803
0.06009131669998169 0.20086751878261566 0.06739796698093414
-0.22702741622924805 -0.31111183762550354 -0.0018910430371761322
0.12559610605239868 -0.17723041772842407 0.34345802664756775
0.3074297606945038 0.12207520008087158 -0.39399152994155884
-0.44929179549217224 0.124894879758358 0.052197642624378204
0.2926110625267029 0.22483932971954346 -0.08911728858947754
-0.038520410656929016 -0.30242717266082764 0.046303268522024155
0.11908911168575287 -0.18651974201202393 0.3394758403301239
-0.5034251809120178 -0.17956851422786713 -0.06322699040174484
-0.4868926405906677 -0.14730289578437805 -0.07198795676231384
0.15759849548339844 -0.1950148493051529 0.2915477156639099
-0.48361337184906006 -0.14006781578063965 0.05066905543208122
0.4171542525291443 0.15665827691555023 -0.35426387190818787
-0.5591407418251038 -0.17295238375663757 -0.010738985612988472
-0.4538790285587311 0.12633062899112701 -0.026943348348140717
-0.31874239444732666 -0.022028889507055283 -0.06975822150707245
0.4082382619380951 -0.2910541594028473 -0.3284090459346771
-0.2767101228237152 -0.15124288201332092 0.053389132022857666
0.13876424729824066 0.16925738751888275 0.3329693377017975
0.17046408355236053 -0.2894432544708252 -0.07248488068580627
-0.2177504599094391 -0.18738511204719543 0.04537416994571686
0.2744746804237366 0.019408922642469406 0.18916207551956177
0.038856763392686844 0.19617488980293274 0.11193989217281342
0.11892881244421005 0.03966665267944336 -0.07316231727600098
0.3730531334877014 0.2973686456680298 0.050237808376550674
-0.15792527794837952 -0.29745447635650635 -0.0692846029996872
-0.09223853796720505 -0.2154044806957245 0.045786309987306595
-0.26651912927627563 -0.30194276571273804 -0.07321758568286896
-0.5654466152191162 0.07275205850601196 -0.058053646236658096
0.10723322629928589 0.04278748482465744 0.36358538269996643
-0.37790489196777344 -0.18386401236057281 -0.07102014869451523
0.4010287821292877 -0.300605833530426 -0.12099964916706085
-0.4350009560585022 -0.23798803985118866 -0.05378657951951027
-0.3828318119049072 0.04847044497728348 0.0515422448515892
0.41892609000205994 -0.04039492458105087 0.04518052935600281
-0.20064020156860352 -0.2978670597076416 -0.07257923483848572
0.27698269486427307 0.20627489686012268 0.05956535041332245
0.294852614402771 0.29695457220077515 0.05260876193642616
-0.3537934720516205 -0.08319447934627533 0.05348864197731018
0.020140714943408966 0.021087758243083954 0.43570172786712646
-0.268214613199234 -0.30754709243774414 -0.06807736307382584
-0.1483033001422882 -0.11419644206762314 0.22234654426574707
0.21264880895614624 0.3101065158843994 0.04278111457824707
0.04410816729068756 0.3076072037220001 -0.006885963026434183
-0.47079890966415405 0.12140961736440659 0.051771823316812515
-0.006704950705170631 -0.172532856464386 0.2749161422252655
-0.03491326421499252 -0.1881774663925171 0.19016660749912262
0.10730224847793579 0.19236257672309875 -0.07245846092700958
-0.4948011040687561 0.1312507539987564 -0.06928557902574539
0.01701018586754799 -0.3014967739582062 -0.07219191640615463
-0.3055981993675232 0.2949935495853424 -0.06396450847387314
-0.4998847246170044 0.1808091253042221 -0.04806826263666153
0.28290998935699463 0.3137573301792145 -0.0670970231294632
-0.0838770940899849 -0.3063962161540985 0.0020226575434207916
0.20047149062156677 -0.30385589599609375 -0.07050811499357224
-0.369257390499115 -0.04497940093278885 0.05608281493186951
-0.5620078444480896 0.026044655591249466 0.038984574377536774
0.22591640055179596 -0.1888285130262375 0.24909357726573944
-0.34171608090400696 -0.09577946364879608 0.053939089179039
-0.3446330726146698 -0.1269044578075409 0.053460076451301575
-0.4959132969379425 -0.13813185691833496 0.05221931263804436
0.0006850594654679298 -0.008342565968632698 0.4308985471725464
-0.10946046561002731 0.3062807321548462 0.04586304724216461
-0.20754703879356384 0.306344598531723 -0.06171407550573349
0.3527856767177582 -0.11455875635147095 0.11069853603839874
0.10596959292888641 -0.29533547163009644 -0.07913269847631454
-0.3793714642524719 0.022479090839624405 0.054151616990566254
0.2791038155555725 0.2013079673051834 0.09265907853841782
-0.4221348166465759 0.12806464731693268 0.04998790845274925
0.29611995816230774 -0.21446998417377472 -0.39143112301826477
0.39999377727508545 0.3143628239631653 -0.10546263307332993
0.1297101527452469 0.07199316471815109 0.18694044649600983
-0.5656681060791016 0.04549526795744896 -0.06692992150783539
0.04617595300078392 -0.13098473846912384 0.3995550274848938
0.2675720155239105 -0.1985711306333542 0.045603491365909576
0.2845858335494995 0.20055566728115082 0.09877730160951614
0.41094693541526794 -0.1256663203239441 -0.28963610529899597
-0.07954826951026917 -0.0533154159784317 0.3350260555744171
0.28037554025650024 -0.1892874389886856 0.08543635159730911
-0.4186888039112091 0.1172083392739296 -0.06427071988582611
-0.14754894375801086 -0.15712709724903107 0.16179300844669342
0.005748076364398003 -0.1769239604473114 0.2671354115009308
-0.04719288647174835 -0.30672916769981384 -0.06876325607299805
0.28702497482299805 0.3108524680137634 -0.07161547243595123
0.16042262315750122 0.2022763043642044 0.05312247574329376
-0.3921965956687927 0.21178829669952393 -0.0623479001224041
0.3896167278289795 -0.19415810704231262 0.07159771025180817
-0.3029581308364868 0.3022267520427704 -0.06698230654001236
0.06204890459775925 0.0577058345079422 0.4063510596752167
-0.008985606953501701 -0.1982252597808838 0.054012835025787354
-0.41912755370140076 0.11943341046571732 -0.06293588131666183
0.11275866627693176 0.05470682680606842 0.3508376479148865
0.29672446846961975 0.3136953115463257 -0.25058913230895996
0.28956955671310425 0.3121497333049774 -0.07297586649656296
-0.5600063800811768 0.2147388458251953 -0.06664690375328064
-0.39830467104911804 0.219884991645813 -0.06535756587982178
-0.38242244720458984 0.05171136558055878 0.05119205266237259
-0.34414374828338623 -0.16699042916297913 -0.07048729062080383
-0.14733020961284637 -0.2971653342247009 -0.07284370809793472
-0.4957704544067383 0.14805589616298676 0.056059226393699646
-0.005008809268474579 0.032243840396404266 0.4182583689689636
-0.008319864980876446 0.30958688259124756 0.025747310370206833
0.41833338141441345 -0.29431918263435364 -0.09527357667684555
0.10141924023628235 0.20248213410377502 0.06456834077835083
-0.17757736146450043 -0.19798114895820618 0.047043055295944214
-0.5063367486000061 -0.18238791823387146 -0.060101255774497986
-0.30872994661331177 0.307942271232605 -0.06016119569540024
0.28553199768066406 -0.03261087089776993 0.09792780131101608
0.28967559337615967 0.24824640154838562 -0.28771987557411194
0.3945402503013611 -0.20166483521461487 0.06165497377514839
-0.21909484267234802 -0.27570363879203796 0.04704746603965759
-0.25199344754219055 -0.3091219961643219 0.04860304296016693
-0.4920094609260559 -0.025166261941194534 -0.06853476166725159
-0.37145891785621643 0.07396336644887924 0.05051383376121521
0.049309052526950836 0.19568461179733276 0.1926233023405075
-0.07195310294628143 -0.2936157286167145 -0.07006733864545822
-0.2992267310619354 -0.29888448119163513 -0.07330504804849625
0.17171433568000793 0.18746013939380646 0.30094608664512634
0.016555290669202805 0.2969532907009125 -0.07031624019145966
0.09532289952039719 -0.03864603862166405 0.37585189938545227
-0.4373229742050171 0.1175435483455658 0.05501442775130272
0.1701124757528305 -0.3023016154766083 -0.06356330215930939
-0.3345489501953125 0.2908543646335602 -0.06312700361013412
-0.5680791735649109 0.050684329122304916 0.049886152148246765
-0.3747447729110718 0.04799726977944374 0.054321419447660446
-0.3058410584926605 -0.3087647557258606 -0.07280522584915161
-0.5561552047729492 -0.14546069502830505 0.04609920457005501
0.2785677909851074 0.028702523559331894 0.1836070716381073
-0.38378116488456726 -0.009872432798147202 0.054127439856529236
0.4183531701564789 -0.1500519961118698 0.04399997740983963
0.35745424032211304 -0.3010863661766052 -0.0634872168302536
0.40616747736930847 0.056426361203193665 -0.39575690031051636
-0.387203574180603 0.16229183971881866 -0.03891535848379135
-0.20759090781211853 0.3052665591239929 0.007579118013381958
-0.2671591639518738 -0.16446731984615326 0.05759778618812561
-0.45958516001701355 -0.13457345962524414 0.05203650891780853
0.14228418469429016 0.09283620864152908 0.32899388670921326
0.045885223895311356 0.29444295167922974 0.05286948382854462
0.18871815502643585 -0.07847172766923904 0.26538774371147156
0.28971004486083984 0.14671865105628967 -0.19706787168979645
0.03885992243885994 -0.089898020029068 0.4295180141925812
-0.17808133363723755 0.30883052945137024 0.03889396786689758
0.15531481802463531 0.18661293387413025 0.31872186064720154
-0.5645146369934082 0.06209944933652878 0.0400087796151638
-0.46599727869033813 0.11632664501667023 -0.06312616169452667
0.12682375311851501 -0.30620482563972473 -0.0714782178401947
-0.261628657579422 -0.17851221561431885 0.04281262308359146
-0.5281782150268555 -0.18722623586654663 0.04984298348426819
0.4096004366874695 -0.19882306456565857 -0.39482131600379944
-0.5155321359634399 -0.2839776277542114 -0.05887160822749138
0.23359394073486328 -0.19088426232337952 0.1012096032500267
-0.42165321111679077 0.30019712448120117 0.04365000128746033
0.14856389164924622 -0.10923531651496887 0.3240581750869751
-0.5554608106613159 -0.15997181832790375 0.04228169471025467
0.08107645809650421 0.2405136525630951 -0.07234328985214233
0.296891987323761 -0.2885443866252899 -0.1476334184408188
0.30052849650382996 0.22686061263084412 -0.22435727715492249
0.29425716400146484 0.31250959634780884 -0.18201981484889984
0.22872716188430786 -0.30314040184020996 0.0326264351606369
0.09876275062561035 -0.015678759664297104 0.37544530630111694
-0.4991542398929596 -0.1706744134426117 -0.06121884286403656
-0.0060607134364545345 -0.30423223972320557 0.035932186990976334
0.07629044353961945 -0.1581057608127594 0.37381497025489807
-0.28124380111694336 -0.16587525606155396 0.04371332377195358
0.39065688848495483 0.25326648354530334 0.05339450389146805
-0.5580597519874573 0.017845384776592255 0.053193651139736176
0.41852304339408875 0.15973350405693054 -0.22015255689620972
-0.15267214179039001 0.30990666151046753 -0.06429874151945114
0.23488210141658783 -0.299858957529068 0.03421526402235031
0.08305510878562927 0.16654853522777557 0.37264692783355713
-0.03694314509630203 -0.21354658901691437 0.05033986642956734
0.4201114773750305 -0.30643129348754883 -0.2925677001476288
0.30021923780441284 0.3114890456199646 -0.0954982340335846
0.18133850395679474 0.30960404872894287 -0.03836489096283913
-0.35833609104156494 -0.19949224591255188 -0.07229435443878174
-0.3980340361595154 -0.30951547622680664 -0.07088522613048553
-0.5528061985969543 -0.17236408591270447 -0.06580419093370438
0.423063188791275 0.15840165317058563 0.046626195311546326
-0.20209380984306335 0.10943139344453812 0.17623504996299744
0.41378167271614075 -0.17680886387825012 0.04943634942173958
0.4114154875278473 0.13893744349479675 -0.2667962908744812
-0.15151645243167877 -0.08936820924282074 -0.07270067930221558
0.41692057251930237 0.12428896129131317 -0.2451746016740799
-0.33116188645362854 -0.11887582391500473 0.05040379613637924
-0.09883841872215271 0.30560266971588135 -0.05553063750267029
-0.304811954498291 0.09395141899585724 0.08223293721675873
0.3538980484008789 0.31287339329719543 -0.19561472535133362
0.4194609522819519 -0.30236750841140747 0.014160659164190292
-0.37426304817199707 0.036421142518520355 0.05301709473133087
-0.3559490442276001 0.24366822838783264 -0.06522677093744278
-0.5126028656959534 -0.28400084376335144 -0.041208747774362564
-0.3638324737548828 0.054895009845495224 0.052810922265052795
-0.14493680000305176 0.3095446527004242 -0.06209259480237961
-0.37366002798080444 -0.005406223237514496 0.051705434918403625
-0.4021075665950775 -0.16489005088806152 -0.04142804443836212
0.2895258069038391 0.31336700916290283 -0.06869059056043625
0.03698849678039551 -0.1221974715590477 0.40744832158088684
-0.2819491922855377 -0.15697187185287476 0.049152523279190063
0.28311285376548767 0.1088053435087204 0.09417267143726349
-0.3208557069301605 -0.11630672961473465 0.05507966876029968
0.27333614230155945 -0.18861030042171478 0.08043739199638367
-0.5551559329032898 0.22446879744529724 -0.061785630881786346
0.2925523519515991 0.09432075172662735 -0.0879955142736435
0.40344536304473877 0.22209081053733826 0.052326444536447525
-0.3626893162727356 0.04603274166584015 0.053987741470336914
-0.4289395213127136 -0.31752660870552063 0.03604371100664139
-0.1694277822971344 0.30459484457969666 0.04602798819541931
0.4107993245124817 -0.24278150498867035 -0.27312108874320984
0.4187459647655487 -0.13604392111301422 0.04185774177312851
0.4180673062801361 0.00494597852230072 0.05102326348423958
-0.35499611496925354 0.3012191653251648 -0.06313024461269379
0.290267676115036 -0.1885090172290802 0.07473976910114288
-0.000742543488740921 -0.29435428977012634 -0.07828336954116821
0.03702815622091293 -0.19235040247440338 0.057910315692424774
-0.5541332960128784 -0.2094678282737732 -0.031107362359762192
0.2691396176815033 0.30849015712738037 0.016866471618413925
0.4060097634792328 -0.0654958114027977 -0.39813533425331116
-0.310384601354599 0.11258573830127716 0.05903318524360657
0.2959568202495575 -0.1953064501285553 -0.21629753708839417
0.3461450934410095 -0.19404615461826324 0.07750965654850006
0.021956104785203934 0.18736201524734497 0.24988457560539246
-0.09086713939905167 -0.03843081369996071 -0.07404252886772156
-0.33349934220314026 0.30611708760261536 -0.051819875836372375
0.06253105401992798 -0.30509641766548157 -0.06028959900140762
0.4040846824645996 -0.17601311206817627 -0.397036075592041
-0.409709095954895 0.2246250957250595 -0.0327305793762207
0.2202562391757965 0.2053816169500351 0.048138998448848724
0.07878869771957397 -0.30072715878486633 0.03787524625658989
0.4155402183532715 -0.139084130525589 -0.3159577548503876
-0.3715437650680542 0.06606123596429825 0.053655996918678284
0.3410443365573883 -0.16838431358337402 0.12610527873039246
0.24486185610294342 0.3069877624511719 0.03443584963679314
-0.5624034404754639 -0.09410066902637482 0.0423097088932991
-0.3708338737487793 0.12556660175323486 -0.06762733310461044
0.14065802097320557 -0.19442212581634521 0.04967055469751358
0.4195440113544464 -0.11416062712669373 0.03976708650588989
0.24620404839515686 -0.3013783395290375 -0.05875535309314728
-0.5073105692863464 -0.23159514367580414 -0.06689582765102386
0.4142133295536041 -0.3042093515396118 -0.170880526304245
0.4157087206840515 0.0721404105424881 -0.38312050700187683
0.27505791187286377 -0.19665640592575073 0.044924020767211914
-0.2739904820919037 -0.15671652555465698 0.059159811586141586
-0.1547699272632599 -0.30830201506614685 0.03705170005559921
-0.0798807442188263 0.2954968810081482 -0.06915421783924103
0.2961427867412567 0.2419690191745758 -0.38146695494651794
-0.3664880096912384 0.08273002505302429 0.04892505705356598
-0.23350411653518677 0.30402040481567383 0.050884850323200226
-0.44563111662864685 0.2971666157245636 -0.06238618865609169
0.2872984707355499 0.015771836042404175 0.08979625999927521
0.15726244449615479 -0.27868854999542236 0.04643741250038147
0.01543337106704712 0.3106534481048584 -0.06848856806755066
0.17488087713718414 0.20471462607383728 0.05035824328660965
-0.34313488006591797 0.1251833289861679 -0.06351684033870697
-0.11118055880069733 -0.20219168066978455 0.04783381149172783
0.33157843351364136 -0.20470060408115387 0.04629628732800484
0.30501535534858704 0.22861795127391815 -0.22268521785736084
0.13587895035743713 -0.04865103214979172 0.170847088098526
-0.08400142192840576 -0.305003821849823 -0.07403093576431274
-0.3581780791282654 0.163651242852211 0.05342995747923851
-0.40041860938072205 -0.15856634080410004 -0.07242380082607269
-0.16690434515476227 0.19153828918933868 0.054994359612464905
-0.36111339926719666 0.30561837553977966 0.049540504813194275
0.4133661687374115 -0.25402259826660156 -0.3331398069858551
0.2886868417263031 0.23640695214271545 -0.3817194998264313
-0.39289504289627075 0.2054084837436676 -0.027705736458301544
0.13146187365055084 -0.10040131211280823 0.34634584188461304
0.1473015695810318 0.06314310431480408 0.1977607011795044
0.4014734625816345 -0.06238272413611412 -0.39571091532707214
0.12418609857559204 -0.07362718135118484 0.19304364919662476
-0.3921899199485779 0.16213516891002655 -0.0705818235874176
-0.3813325762748718 -0.02140677347779274 0.049523621797561646
0.260858952999115 0.31376346945762634 -0.05699334293603897
0.04361974447965622 0.17502793669700623 0.31305328011512756
0.03881482034921646 -0.2929966151714325 -0.07577705383300781
