0.023999355733394623 -0.3112879991531372 -0.06968080252408981
0.03588443249464035 -0.05102890357375145 0.29727238416671753
0.009630484506487846 -0.2999233901500702 -0.07065919786691666
-0.3392893075942993 -0.31115448474884033 -0.06967629492282867
-0.38775309920310974 0.18399052321910858 0.03975135460495949
0.11605396121740341 0.05907066911458969 0.177422896027565
0.1594526767730713 0.07936874777078629 0.2504549026489258
-0.5006832480430603 0.17027029395103455 0.003981869202107191
-0.5453569293022156 -0.1845555603504181 0.053197264671325684
0.049007464200258255 -0.1025971993803978 0.4238761067390442
0.1545240581035614 -0.28981494903564453 0.05118158459663391
-0.06544593721628189 0.3099474608898163 -0.055154308676719666
0.2920585870742798 -0.24268922209739685 -0.22159059345722198
0.10063978284597397 0.057168494910001755 0.1693875640630722
0.4135746955871582 -0.3019907474517822 -0.2833256125450134
0.06740567833185196 -0.018370112404227257 0.338388592004776
0.3013850450515747 -0.19644027948379517 -0.39073991775512695
0.20319072902202606 0.0039626238867640495 0.22965335845947266
-0.40640267729759216 -0.10274646431207657 0.05179089680314064
-0.39163434505462646 -0.21866776049137115 0.023610549047589302
-0.252020001411438 -0.30838197469711304 -0.05710459128022194
0.06365753710269928 -0.30127841234207153 0.048457130789756775
0.35814350843429565 -0.13702580332756042 -0.2535554766654968
0.0489426851272583 -0.3046046793460846 -0.06880231946706772
-0.4767717123031616 -0.3040144145488739 -0.06784673035144806
0.11132003366947174 0.18475694954395294 0.3575565218925476
0.2916734218597412 0.2458438128232956 -0.34026744961738586
-0.37136703729629517 -0.3156273663043976 -0.024904875084757805
0.40137729048728943 -0.2988063395023346 0.04464990645647049
0.0413280725479126 -0.07334297895431519 0.43382278084754944
0.2949298024177551 0.25555092096328735 -0.35913389921188354
-0.5571710467338562 -0.15609079599380493 -0.04806717112660408
0.3326222598552704 -0.29754146933555603 0.04879273846745491
-0.38813966512680054 0.2134833037853241 0.05264316871762276
-0.3265339434146881 -0.12851916253566742 0.058496467769145966
0.29572051763534546 -0.13723856210708618 -0.09198170900344849
0.07491670548915863 -0.06871165335178375 0.32274141907691956
-0.07949072122573853 -0.29509085416793823 -0.07110480219125748
-0.31061744689941406 0.13812266290187836 0.0581372007727623
0.08135449886322021 0.30242404341697693 0.052629873156547546
-0.3895830810070038 -0.13747717440128326 0.05088445171713829
0.41783809661865234 -0.27723634243011475 0.047420185059309006
-0.5597319602966309 -0.20144884288311005 0.05632690340280533
0.03971347212791443 -0.054397474974393845 0.30331122875213623
0.36602917313575745 -0.3023792803287506 0.05163190886378288
0.1539314240217209 0.17993776500225067 0.3134409189224243
-0.5639078617095947 0.12459683418273926 -0.06043210253119469
-0.537007212638855 -0.25431451201438904 0.055087149143218994
0.31888389587402344 0.19950509071350098 0.06657963246107101
-0.2295793741941452 -0.3048878610134125 0.053644243627786636
0.0728803277015686 0.29867422580718994 0.05096079036593437
0.41512778401374817 -0.18059071898460388 -0.3959368169307709
0.26833489537239075 -0.12160062789916992 0.16727766394615173
0.3025963008403778 -0.16765232384204865 -0.3957659900188446
0.2929559648036957 -0.1077856719493866 -0.39757752418518066
0.2941913306713104 0.2356250286102295 -0.3571311831474304
-0.5593441724777222 -0.10307656973600388 0.05524231866002083
0.018329668790102005 -0.30814293026924133 0.02508099004626274
0.30656176805496216 -0.1900496482849121 0.08715038001537323
0.27082112431526184 -0.30046817660331726 -0.07049442827701569
-0.37199994921684265 -0.20209455490112305 -0.021607406437397003
0.3119809925556183 -0.1893717497587204 0.12004798650741577
0.2917879521846771 0.16982561349868774 0.10502433776855469
0.22883865237236023 0.2960597574710846 0.05081726983189583
0.10612753033638 -0.3026169240474701 0.05093221366405487
0.1958490014076233 0.1912839263677597 0.27800452709198
-0.5487269163131714 0.251535564661026 0.05113888159394264
0.011424488388001919 -0.30334755778312683 0.052401892840862274
0.11038430780172348 0.17153845727443695 0.36251792311668396
0.13890866935253143 -0.19159914553165436 0.3244515657424927
0.2960765063762665 -0.08122467249631882 -0.388394296169281
0.19369308650493622 0.021172333508729935 0.2245044857263565
0.3978639841079712 -0.15769816935062408 0.07013402879238129
-0.5606461763381958 -0.1458243578672409 0.05615970492362976
-0.13821692764759064 -0.30372700095176697 0.05513510853052139
0.2623556852340698 -0.18224862217903137 0.10906525701284409
-0.031005581840872765 -0.3049320578575134 0.05285616219043732
0.41845789551734924 -0.28102752566337585 0.03203599527478218
-0.13142895698547363 -0.30350378155708313 0.05473872274160385
0.4163678288459778 0.27459046244621277 0.05224538967013359
-0.5535749793052673 0.18880251049995422 -0.06312677264213562
0.3572410047054291 0.20150458812713623 0.05812985077500343
0.32759666442871094 -0.20171675086021423 0.05489692464470863
-0.49359920620918274 0.22743995487689972 0.04954389110207558
0.2614298164844513 0.3095729649066925 -0.07043328881263733
0.20132985711097717 0.2980975806713104 0.05337376520037651
-0.07950982451438904 -0.30749571323394775 -0.062342870980501175
0.2654089629650116 -0.3010140359401703 0.04878821223974228
-0.46525803208351135 -0.23030169308185577 0.049797385931015015
0.38129472732543945 0.18145838379859924 -0.21185962855815887
0.27967575192451477 -0.09117817133665085 0.18258339166641235
-0.5468904376029968 -0.24276255071163177 0.055336251854896545
0.2922120690345764 -0.3009948432445526 -0.22166094183921814
0.2914921045303345 -0.2630031406879425 -0.35500726103782654
-0.3034171164035797 0.13772106170654297 0.056813932955265045
0.2892276346683502 -0.2597792446613312 -0.363193154335022
-0.013150626793503761 -0.29649215936660767 0.05099938437342644
0.4176144301891327 0.039168309420347214 -0.38487327098846436
0.2972868084907532 -0.30071189999580383 -0.16014142334461212
0.10933996737003326 0.3056196868419647 0.055259283632040024
0.2623974680900574 0.16143544018268585 0.1615971028804779
-0.15764164924621582 -0.30522939562797546 0.048597387969493866
0.1099901869893074 0.07398278266191483 0.33338797092437744
-0.433382123708725 0.12495400011539459 0.024240124970674515
0.14544032514095306 -0.19641076028347015 0.31007635593414307
0.3819069564342499 0.3096983730792999 0.053870897740125656
-0.42901140451431274 -0.3072488307952881 0.05522735416889191
0.3166232109069824 -0.0871652215719223 0.12437011301517487
-0.4341210722923279 0.23849104344844818 -0.002855224534869194
-0.5423983931541443 0.24477443099021912 -0.05397089198231697
-0.5637333393096924 0.0667019709944725 0.04657704755663872
0.1988627165555954 0.3146857023239136 -0.06432345509529114
0.29516854882240295 -0.13962841033935547 -0.3888930678367615
-0.12361697107553482 0.31200897693634033 -0.06068437173962593
0.2938474118709564 -0.11740869283676147 -0.08056285232305527
0.28800803422927856 0.05523962900042534 0.09744502604007721
0.038382984697818756 -0.30483531951904297 0.04773285239934921
0.2983499765396118 -0.3002757132053375 -0.19139361381530762
0.4204510748386383 0.10664957016706467 -0.39203426241874695
-0.4891287684440613 -0.19984009861946106 0.0038502756506204605
-0.4249412715435028 0.12314033508300781 0.014978155493736267
0.41178759932518005 -0.2564205229282379 0.04600956663489342
0.4024525582790375 -0.30049917101860046 0.04933905601501465
0.32240793108940125 -0.19351287186145782 0.12341374158859253
0.41676920652389526 0.2729913592338562 0.051778268069028854
0.09185497462749481 -0.06774676591157913 0.3376923203468323
0.2951400876045227 0.1857306808233261 -0.3818761706352234
0.32209280133247375 0.15624688565731049 0.1296215057373047
0.297302782535553 -0.30037352442741394 -0.21100279688835144
0.3796078562736511 -0.220094233751297 -0.23040905594825745
0.35253676772117615 -0.2275223582983017 -0.2848435938358307
0.3292942941188812 -0.19743260741233826 0.11647271364927292
-0.12508060038089752 -0.30615031719207764 -0.0607997365295887
0.2961474061012268 0.25048360228538513 -0.36066269874572754
-0.21145637333393097 0.1814633011817932 0.057159386575222015
-0.5586373805999756 -0.15540677309036255 0.05346664413809776
-0.31354984641075134 0.31010669469833374 -0.05308321490883827
0.33724284172058105 0.1806747168302536 -0.21933802962303162
0.3642285466194153 -0.19096103310585022 0.05931130796670914
0.2917376756668091 -0.2983534336090088 -0.29650020599365234
0.2934589684009552 0.2498377561569214 -0.3185972273349762
-0.16941657662391663 0.29740965366363525 0.05463208630681038
-0.19632814824581146 0.31186726689338684 -0.064573734998703
-0.4173160195350647 -0.3023851215839386 0.052771031856536865
0.13513344526290894 -0.18800653517246246 0.337635338306427
-0.4606180489063263 0.29279419779777527 0.05411772429943085
-0.1550726294517517 -0.3032069504261017 0.053913429379463196
0.3559745252132416 0.2078724503517151 -0.2228010594844818
-0.27286699414253235 -0.3094063699245453 0.052947498857975006
0.31920549273490906 -0.05697335675358772 0.1290998011827469
-0.20601719617843628 0.2944665849208832 0.05441279709339142
-0.26208311319351196 0.31169185042381287 -0.06045852601528168
-0.5633239150047302 -0.04115267097949982 0.04808076471090317
0.13707765936851501 -0.30427759885787964 -0.07105337083339691
0.16194629669189453 -0.19192999601364136 0.3097086250782013
-0.10893091559410095 0.3139181137084961 -0.061696190387010574
0.2688314616680145 0.19879411160945892 0.19034288823604584
0.30892327427864075 0.22413437068462372 0.0522305928170681
0.04710188880562782 -0.0856088250875473 0.42935141921043396
-0.5539158582687378 -0.20218554139137268 0.05305405706167221
-0.38134148716926575 -0.18563225865364075 0.0013791397213935852
-0.48852044343948364 0.30246731638908386 -0.05646014213562012
0.2816900610923767 -0.18535231053829193 0.09303776174783707
0.4071177542209625 -0.19809207320213318 0.0539749413728714
0.38500186800956726 0.14657200872898102 -0.2378479540348053
-0.27295947074890137 0.29574233293533325 0.055729351937770844
0.4121822416782379 0.2837255299091339 -0.34993642568588257
0.3347424864768982 -0.19537557661533356 0.05708009749650955
0.12278447300195694 -0.07766785472631454 0.33690232038497925
0.3141239583492279 -0.15735843777656555 0.11770986765623093
0.1495724618434906 -0.19406291842460632 0.30198562145233154
-0.47846701741218567 -0.21689271926879883 -0.04819256812334061
0.29524293541908264 -0.2601465582847595 -0.35798755288124084
-0.06302189826965332 -0.2969701290130615 0.05276305228471756
0.29730379581451416 -0.06022094190120697 -0.39510583877563477
-0.3924134075641632 0.12941104173660278 0.05514015629887581
-0.5497338175773621 0.25066617131233215 -0.0656905323266983
0.2941144108772278 -0.2236054539680481 -0.3859859108924866
0.2662751078605652 -0.19226618111133575 0.16067789494991302
0.23727333545684814 -0.19609642028808594 0.2214958816766739
0.30839887261390686 -0.2929520308971405 0.050894852727651596
0.23214799165725708 0.2132052183151245 0.05277730152010918
0.3742213249206543 0.20130929350852966 0.06659476459026337
-0.212967649102211 -0.19908040761947632 0.05128224566578865
0.1071091741323471 -0.17173464596271515 0.36669108271598816
-0.5423911213874817 -0.1799326390028 0.049617283046245575
0.4236201047897339 -0.2872282564640045 0.032965999096632004
0.2926398813724518 -0.23189516365528107 -0.3657134771347046
0.050232063978910446 0.3032248616218567 0.05342341214418411
-0.34161823987960815 0.2954154312610626 0.055930111557245255
-0.39042845368385315 -0.30958491563796997 0.05673409625887871
0.2967258095741272 -0.08249840140342712 -0.0956963449716568
-0.3048679828643799 0.30802851915359497 -0.05230528116226196
-0.3873162269592285 0.1712353676557541 0.02956131100654602
0.3890480101108551 0.20001615583896637 0.04845569655299187
-0.4069436192512512 -0.24032460153102875 0.04908201843500137
0.37598147988319397 -0.19882777333259583 0.09154068678617477
-0.47131723165512085 -0.13743707537651062 0.05079037696123123
0.2954968214035034 0.17983725666999817 -0.09180598706007004
0.15012864768505096 -0.2923455536365509 0.05186048522591591
0.29120004177093506 0.18666644394397736 -0.38734692335128784
-0.5569038391113281 -0.1658235341310501 0.05387626960873604
0.22884216904640198 -0.19457460939884186 0.2233724743127823
0.2973018288612366 0.31208568811416626 -0.15847449004650116
0.3005736470222473 0.1921810358762741 0.08635814487934113
0.417847216129303 0.20943023264408112 -0.38709405064582825
-0.4950695335865021 0.16168411076068878 0.02616926096379757
0.2676241099834442 0.14580923318862915 0.1035889983177185
-0.5276800394058228 -0.14472146332263947 0.05633275583386421
0.2385389655828476 0.19485655426979065 0.22959358990192413
-0.19403262436389923 0.20237642526626587 0.05284558981657028
0.02786615863442421 0.03882510960102081 0.44701075553894043
-0.5049797296524048 0.17824077606201172 0.01404193602502346
0.4217183589935303 0.3040880262851715 -0.15086379647254944
-0.20589622855186462 -0.308403342962265 -0.057718440890312195
0.3282870352268219 -0.13453970849514008 0.13347788155078888
-0.0598352812230587 0.2130580097436905 0.05519910901784897
0.051746003329753876 -0.08528517186641693 0.1501673310995102
0.07155126333236694 0.01712755672633648 0.3386088013648987
-0.5498332977294922 -0.23658333718776703 -0.06019885465502739
0.39818787574768066 -0.215182825922966 0.04629011079668999
0.08004368841648102 0.15104180574417114 0.3910842835903168
0.03071264922618866 0.02003197744488716 0.29988011717796326
0.1349911391735077 0.3107207715511322 -0.06933873146772385
0.27128350734710693 0.19634398818016052 0.1997002810239792
0.33103758096694946 0.19815315306186676 0.07109818607568741
-0.47355571389198303 -0.30047979950904846 0.05620619282126427
0.2987816631793976 -0.3012324869632721 -0.19580958783626556
-0.13094493746757507 0.2930506467819214 0.054153650999069214
0.12169021368026733 0.04387993365526199 0.15923373401165009
-0.4390906095504761 0.11854377388954163 0.010250911116600037
-0.3902345597743988 -0.1575029343366623 0.026030560955405235
-0.37435662746429443 -0.30919349193573 -0.06663049012422562
-0.5285652279853821 -0.14190495014190674 0.055570684373378754
-0.5599662065505981 -0.012815961614251137 0.05629750341176987
0.29920804500579834 -0.26483380794525146 -0.33539578318595886
-0.0644875317811966 0.2924007177352905 0.05380504950881004
0.2830110490322113 -0.16496211290359497 0.09068077802658081
-0.5589232444763184 0.04988492280244827 0.05583388730883598
0.12182799726724625 0.09347698837518692 0.25408607721328735
-0.5596527457237244 0.12230506539344788 0.05542105808854103
-0.021229024976491928 -0.2923770844936371 0.05123042315244675
-0.5617063641548157 -0.1521683931350708 0.05540591850876808
-0.5637545585632324 0.034825243055820465 0.05086059123277664
0.3506704866886139 -0.2293778657913208 -0.28966042399406433
-0.4383792281150818 -0.2436450719833374 0.04526342824101448
0.29428285360336304 0.31439709663391113 -0.17651230096817017
-0.4429253041744232 0.2826281487941742 0.05476747080683708
0.29467299580574036 0.30939149856567383 -0.2052568793296814
-0.551664412021637 0.22478704154491425 0.04401954635977745
0.022038429975509644 0.2909446954727173 0.05230818688869476
-0.31485381722450256 -0.29748982191085815 -0.06898175179958344
-0.5158994793891907 0.27634862065315247 0.044760480523109436
0.29804351925849915 0.28711816668510437 -0.3109988868236542
0.34468236565589905 0.20588603615760803 -0.2209469974040985
-0.40108057856559753 -0.22556108236312866 0.019637975841760635
-0.5613118410110474 -0.19073592126369476 -0.06228894367814064
-0.13644486665725708 0.19134466350078583 0.062157999724149704
-0.43726876378059387 0.3010002672672272 0.04965920373797417
-0.4970824122428894 0.2105281949043274 0.05958528071641922
-0.44725194573402405 -0.13044556975364685 -0.009743660688400269
0.3252077102661133 -0.20716680586338043 -0.22330735623836517
-0.3912420868873596 0.1535700559616089 0.027919180691242218
0.29889342188835144 -0.22014838457107544 -0.3677661716938019
0.10057461261749268 0.09484673291444778 0.2588215172290802
-0.5495169162750244 -0.18858835101127625 -0.06514792144298553
0.3257201015949249 0.3036307692527771 0.05690190568566322
0.28350651264190674 0.14655844867229462 0.09167603403329849
-0.39922598004341125 0.21661977469921112 0.0017002075910568237
-0.3256610333919525 0.2972744405269623 0.05784334987401962
-0.07656837999820709 -0.30926012992858887 -0.06783825159072876
0.16414089500904083 0.2979334592819214 0.05311167612671852
0.2988645136356354 0.10715774446725845 -0.09382795542478561
0.3320474922657013 -0.1413944512605667 -0.30760523676872253
-0.5613877773284912 -0.08471135795116425 -0.0647861510515213
0.07491980493068695 0.07122764736413956 0.2853032350540161
0.14964713156223297 0.19793342053890228 0.0618191622197628
-0.303742915391922 0.3114531338214874 -0.06345485895872116
0.3227996826171875 -0.18427017331123352 0.13225355744361877
-0.46948203444480896 -0.2962803542613983 0.05363995209336281
0.05667920410633087 -0.30107077956199646 -0.06476778537034988
0.10597822070121765 -0.2107253074645996 0.05447927862405777
0.12493854761123657 -0.20905719697475433 0.05376247689127922
0.04628215730190277 0.10934026539325714 0.4222654402256012
-0.4002406597137451 0.2894476652145386 0.054318808019161224
0.4061245322227478 -0.1357203871011734 -0.3931964337825775
0.2940528690814972 0.27746760845184326 -0.3174758553504944
0.3487115502357483 -0.19749736785888672 0.10583125799894333
0.4135345220565796 -0.27535006403923035 -0.33620819449424744
-0.3990227282047272 0.2280612289905548 0.05334024131298065
-0.5585954189300537 -0.19518236815929413 -0.05844080448150635
-0.3824658691883087 -0.031248170882463455 0.05786164104938507
-0.4119885265827179 0.22905762493610382 0.029058771207928658
-0.4865032434463501 -0.15148404240608215 0.006196585483849049
0.2754368782043457 -0.3018401861190796 0.045008834451436996
0.15293322503566742 0.08784618973731995 0.2667890787124634
0.2950194478034973 0.20049308240413666 -0.3821242153644562
-0.4711652398109436 0.23157945275306702 0.012399133294820786
0.2936135232448578 0.24644213914871216 -0.35198551416397095
0.41460785269737244 -0.3005952835083008 -0.10307855904102325
-0.469571977853775 0.29229283332824707 0.054813534021377563
0.29377812147140503 -0.2344592809677124 -0.3631192445755005
-0.23075264692306519 -0.3029041588306427 -0.06724101305007935
-0.186052143573761 -0.31136244535446167 -0.05847570672631264
-0.553826630115509 0.16363343596458435 0.05462219566106796
0.4100915789604187 -0.282776415348053 -0.3378228545188904
0.3784950077533722 0.13635358214378357 0.08850434422492981
-0.012964028865098953 -0.30155330896377563 -0.07128065079450607
0.3435058891773224 0.20833604037761688 0.057517699897289276
0.31026366353034973 0.30636993050575256 0.054681286215782166
0.4123055934906006 -0.22776488959789276 -0.38706621527671814
-0.4696733355522156 -0.2373286485671997 -0.04853517934679985
-0.149241104722023 -0.30888479948043823 -0.06854512542486191
-0.23802728950977325 -0.3080058693885803 -0.053208187222480774
-0.5658637881278992 0.005788521841168404 0.04352942854166031
0.32015398144721985 0.016877800226211548 0.1307433545589447
0.2960692048072815 0.29973429441452026 -0.2611074149608612
0.4144373834133148 -0.30193212628364563 -0.1980365812778473
-0.10777556896209717 -0.21075284481048584 0.054480183869600296
-0.5232511758804321 -0.2744552493095398 0.05348503962159157
0.08283276855945587 -0.07177139818668365 0.3199573755264282
0.31764957308769226 0.02818729355931282 0.1293317675590515
0.2836630642414093 0.0875503197312355 0.09601432830095291
0.18597060441970825 0.06459984183311462 0.2425781637430191
0.4112512469291687 -0.2983629107475281 -0.30395442247390747
0.015596561133861542 -0.01702035404741764 0.4404529333114624
0.40797165036201477 0.3043896555900574 -0.320388525724411
-0.37606319785118103 -0.17424194514751434 0.046901948750019073
-0.31271010637283325 0.2998334765434265 0.053820155560970306
0.2955944240093231 0.17866680026054382 -0.3879757821559906
0.09960168600082397 -0.16101574897766113 0.37194526195526123
-0.5639427900314331 -0.0370936281979084 -0.05610724538564682
-0.10179201513528824 -0.3081173300743103 -0.0668097510933876
0.29569363594055176 0.24610479176044464 -0.3611038327217102
0.4088795781135559 -0.1631980836391449 -0.3974197804927826
-0.3421081602573395 0.3112661838531494 -0.06121952831745148
0.2959257662296295 0.16016879677772522 -0.0807284340262413
0.047893278300762177 -0.09924642741680145 0.4292590916156769
-0.3860655128955841 0.1843298077583313 0.024488840252161026
-0.43861496448516846 0.24047544598579407 0.05893933027982712
0.41100066900253296 -0.2728908956050873 -0.35965293645858765
0.2928876578807831 0.13025419414043427 -0.39038166403770447
0.017600100487470627 0.31347352266311646 -0.05887064337730408
0.3745812475681305 0.3080214262008667 0.0552099384367466
0.03592178225517273 -0.07390350103378296 0.43351584672927856
-0.5648324489593506 -0.18619446456432343 -0.05833466351032257
-0.5609501004219055 0.0705605000257492 -0.05758778005838394
0.32853055000305176 -0.1921672224998474 0.10023964196443558
0.2911151051521301 0.2430175393819809 -0.3120810091495514
0.04944132640957832 -0.08816875517368317 0.16219636797904968
0.28342872858047485 -0.12827998399734497 0.09126762300729752
0.2521924078464508 0.3027600049972534 0.05335088446736336
-0.40250393748283386 0.21693959832191467 -0.012079406529664993
-0.11847186088562012 0.20082814991474152 0.056485239416360855
0.29198306798934937 -0.2851181924343109 -0.33118706941604614
-0.1573740690946579 -0.2087404727935791 0.053278904408216476
0.2999923527240753 -0.1474161148071289 -0.08717651665210724
-0.4973008930683136 0.25863564014434814 -0.06426580995321274
-0.39558932185173035 -0.22583097219467163 -0.008966583758592606
0.4158724546432495 -0.2955350875854492 -0.16813166439533234
0.29761525988578796 0.058091647922992706 -0.39262741804122925
0.2943488359451294 -0.22915947437286377 -0.384168803691864
-0.3731464445590973 0.3129400908946991 -0.05573655664920807
0.16451065242290497 0.31321483850479126 -0.06036883220076561
0.4121280312538147 -0.30204951763153076 -0.1226046234369278
0.09858112037181854 0.0907435417175293 0.274638831615448
0.18346384167671204 -0.18967528641223907 0.2827998399734497
-0.4798278212547302 -0.24004918336868286 0.004107028711587191
0.4097272753715515 -0.1075589656829834 -0.3964676260948181
0.41591835021972656 -0.13896897435188293 -0.3899811804294586
0.29783985018730164 0.27691954374313354 -0.3291894197463989
-0.41614001989364624 0.1251886487007141 0.043408676981925964
-0.1826283484697342 0.2984706461429596 0.053391095250844955
0.29381322860717773 0.21170400083065033 -0.07665674388408661
-0.26641371846199036 0.3089272975921631 -0.05123486369848251
-0.4793807566165924 0.2285458743572235 -0.03298359364271164
-0.3686177730560303 0.29923418164253235 0.05403180792927742
-0.15733401477336884 -0.31148675084114075 -0.054689329117536545
0.2543477416038513 -0.303061306476593 0.05130257084965706
0.2940120995044708 0.2974659502506256 -0.2288539558649063
0.4176689684391022 0.0722750723361969 -0.3826882243156433
0.4080897867679596 -0.25305700302124023 -0.3718225657939911
-0.5589000582695007 0.1407257318496704 0.04304872825741768
-0.10937651246786118 0.31103116273880005 -0.06230217218399048
-0.48287084698677063 -0.22205643355846405 -0.006891270168125629
0.2508743107318878 0.1350247710943222 0.13683563470840454
0.4191189706325531 0.27610108256340027 -0.33421292901039124
-0.5600319504737854 -0.06939226388931274 0.048097968101501465
0.2629302144050598 -0.19766180217266083 0.1709749847650528
0.1111052855849266 0.059772178530693054 0.16569611430168152
-0.41421473026275635 0.2949633300304413 0.05770840868353844
0.31739604473114014 0.17181408405303955 -0.3256390392780304
-0.17691883444786072 0.19589456915855408 0.052444711327552795
-0.5035737156867981 0.21629595756530762 0.06122971698641777
-0.06678701192140579 -0.3006487190723419 -0.07142113894224167
-0.509482204914093 0.2831158936023712 -0.05732087790966034
0.2985863983631134 -0.025938160717487335 -0.39664655923843384
0.40666699409484863 -0.26502662897109985 -0.36106425523757935
0.3604089319705963 -0.19998270273208618 0.0981263592839241
0.2879372835159302 0.30313777923583984 0.054321277886629105
-0.4338759481906891 -0.2746431529521942 0.05388496071100235
-0.5152161717414856 -0.2812333106994629 -0.06115034222602844
-0.558715283870697 0.17123310267925262 0.054993730038404465
-0.41469234228134155 -0.2299012988805771 -0.02446157857775688
0.0031596943736076355 -0.21320421993732452 0.05428203195333481
-0.3736611604690552 -0.312070369720459 -0.03017899952828884
-0.027323126792907715 0.19710677862167358 0.06257782876491547
0.015710391104221344 0.31106677651405334 -0.054156672209501266
0.29656982421875 0.31099745631217957 -0.10608568042516708
-0.038197651505470276 0.300486296415329 0.05292639881372452
0.26047253608703613 0.3132100999355316 -0.06735854595899582
0.048741936683654785 -0.07142294943332672 0.28502941131591797
0.4149981737136841 -0.012411965057253838 -0.39852476119995117
-0.5526441335678101 -0.2236538976430893 -0.05049861595034599
0.25477316975593567 0.17513138055801392 0.16353459656238556
0.41659659147262573 -0.296246737241745 -0.18456394970417023
0.29916858673095703 -0.28329911828041077 -0.2650257349014282
0.09713497012853622 0.16423693299293518 0.3750056326389313
0.12522876262664795 0.31643345952033997 -0.0627255067229271
0.06166011095046997 -0.2946555018424988 -0.06987445056438446
0.350641131401062 -0.20919010043144226 0.05000581219792366
-0.4384326934814453 -0.12764789164066315 0.01187958475202322
-0.4754691421985626 0.30300596356391907 -0.05558960884809494
0.41532227396965027 -0.2886335849761963 -0.1361897885799408
0.30072739720344543 -0.3024241626262665 -0.21886712312698364
-0.5626618266105652 -0.07107067853212357 0.05556038022041321
-0.4802773892879486 -0.2927792966365814 -0.07249969989061356
0.35754358768463135 -0.1928694099187851 0.0538422092795372
-0.5641382932662964 0.011953642591834068 0.04952823743224144
-0.48635679483413696 -0.2735711932182312 0.055787425488233566
-0.14274096488952637 -0.29897257685661316 -0.06893499195575714
0.4184897243976593 0.26735129952430725 -0.35361382365226746
0.4169244170188904 -0.29736006259918213 -0.16406242549419403
0.11608529090881348 0.18731670081615448 0.33565443754196167
-0.21050488948822021 -0.305542528629303 -0.06908941268920898
-0.034008387476205826 0.29991772770881653 0.051748473197221756
0.2771523594856262 0.17355331778526306 -0.07246588170528412
-0.5002247095108032 0.2993582487106323 -0.061496004462242126
0.27516764402389526 -0.145584374666214 0.08795104175806046
-0.5584200620651245 0.1637592762708664 -0.06472234427928925
0.010689586400985718 -0.3057534694671631 -0.06235840544104576
-0.2904384434223175 0.13315609097480774 0.06268361955881119
0.2990960478782654 -0.30425551533699036 -0.1316465437412262
0.08133497089147568 -0.30633294582366943 0.05145587772130966
0.296784907579422 0.27489805221557617 -0.3332836925983429
0.24985194206237793 0.1945684254169464 0.21720841526985168
0.2950449585914612 -0.29434478282928467 -0.20571580529212952
0.38585394620895386 -0.2688514292240143 -0.35774141550064087
0.30316486954689026 0.1298852562904358 -0.2575368285179138
0.28802913427352905 0.13200226426124573 -0.0752791240811348
-0.5644144415855408 0.04963431879878044 -0.058544524013996124
0.4120158553123474 -0.21394196152687073 -0.3900262713432312
0.06618775427341461 0.20153477787971497 0.05650847405195236
0.4146971106529236 -0.24489283561706543 0.04982166737318039
0.28520652651786804 -0.1743013709783554 0.09162203967571259
0.29705294966697693 0.2429276406764984 -0.29582446813583374
-0.49716925621032715 -0.2866111695766449 -0.05984804406762123
0.13742433488368988 -0.08311445266008377 0.3155837059020996
0.04235540330410004 -0.08879043161869049 0.20091325044631958
-0.5564237236976624 0.1359303593635559 -0.06164269149303436
-0.48772338032722473 -0.2747809588909149 -0.06601805239915848
0.2934390604496002 -0.3020416498184204 -0.20290666818618774
0.13240188360214233 -0.1767752319574356 0.3392545282840729
-0.24978965520858765 0.2914857864379883 -0.06066105514764786
-0.4079415500164032 0.22347068786621094 -0.018390070647001266
0.41556841135025024 -0.18688172101974487 -0.33553677797317505
0.14479216933250427 -0.29626142978668213 -0.07367508113384247
-0.17296786606311798 0.301787793636322 0.05404948070645332
-0.24121227860450745 -0.2925318479537964 0.054296087473630905
0.27789390087127686 0.29240840673446655 -0.07489510625600815
0.09620371460914612 -0.08024491369724274 0.31810498237609863
0.3226078450679779 0.21020233631134033 -0.33445948362350464
0.2768487334251404 -0.04060167074203491 0.18613216280937195
-0.48860853910446167 -0.2962152659893036 0.05650496855378151
0.29445070028305054 0.15568745136260986 -0.08636195957660675
0.41717979311943054 -0.2977384626865387 -0.33451661467552185
0.4122926890850067 0.25457412004470825 -0.3745572865009308
0.29558995366096497 0.30627721548080444 -0.17828771471977234
0.26377707719802856 0.19954665005207062 0.19454199075698853
0.3800109922885895 -0.13040614128112793 -0.2916458249092102
0.24257385730743408 0.2145841419696808 0.05534835159778595
0.2696249783039093 -0.19441084563732147 0.1919984370470047
0.12595205008983612 0.18792128562927246 0.34622690081596375
0.2824580669403076 0.05384739488363266 0.18621021509170532
-0.45115432143211365 -0.309273898601532 0.054997362196445465
-0.5501643419265747 0.15403875708580017 -0.06533399969339371
0.2688838243484497 0.19652538001537323 0.20482972264289856
0.410256028175354 0.30128687620162964 -0.3283223509788513
-0.419649213552475 -0.13168151676654816 -0.009723275899887085
-0.5537967681884766 -0.2263411581516266 0.056389398872852325
-0.14086687564849854 -0.20169328153133392 0.05262185260653496
0.2899705767631531 -0.30280601978302 0.05226558819413185
0.29676100611686707 -0.30044594407081604 -0.14192239940166473
0.12566742300987244 -0.19198204576969147 0.3328390121459961
0.07821560651063919 -0.08936122804880142 0.23146624863147736
0.2927626669406891 -0.11148715019226074 -0.39255666732788086
-0.4438796043395996 -0.2422599494457245 0.0254182368516922
0.37097257375717163 -0.22554312646389008 -0.2576552629470825
-0.3977539837360382 0.208156019449234 0.02974623627960682
-0.5601443648338318 0.14702120423316956 -0.0559825599193573
0.41765841841697693 -0.2914850115776062 -0.2857096791267395
-0.3841347098350525 -0.1870017945766449 0.011723790317773819
0.11270485073328018 -0.05549940466880798 0.16175058484077454
0.4129171371459961 0.13646270334720612 0.058414533734321594
-0.5154554843902588 -0.25635474920272827 -0.07359729707241058
-0.555864155292511 -0.13974857330322266 0.0542977899312973
0.3008764386177063 -0.29846951365470886 -0.16368348896503448
0.42123815417289734 0.24732130765914917 0.043188951909542084
0.37474754452705383 -0.13060729205608368 -0.25637245178222656
0.29449424147605896 -0.12791384756565094 -0.3924305737018585
-0.562226414680481 -0.14739269018173218 0.05201497673988342
0.2933448255062103 0.22608716785907745 -0.3684302568435669
-0.5069653391838074 0.27056437730789185 -0.06169959530234337
0.2987266480922699 0.008969435468316078 -0.3931879997253418
0.2509368360042572 -0.18872106075286865 0.21617349982261658
0.20990072190761566 0.19431999325752258 0.25987932085990906
-0.38888412714004517 0.2982925474643707 0.05505905672907829
0.05552363395690918 -0.0834822952747345 0.15202520787715912
0.41165298223495483 -0.3023281693458557 -0.18046258389949799
0.3245754837989807 -0.13920468091964722 0.12822841107845306
0.11954718828201294 -0.30596253275871277 0.03479054570198059
-0.4664081335067749 0.268170028924942 0.05704595521092415
-0.3992727994918823 0.1451883614063263 0.005787312984466553
-0.5179970860481262 -0.16307157278060913 0.05532623082399368
0.2593994736671448 0.15209254622459412 0.15107418596744537
-0.48931387066841125 -0.1673927903175354 0.051103994250297546
-0.5559934377670288 -0.21997860074043274 0.0561378039419651
0.2922450602054596 -0.3013274371623993 -0.19088296592235565
0.13263027369976044 0.10109315067529678 0.293813019990921
0.29634368419647217 0.30572807788848877 -0.267132431268692
-0.3291032016277313 -0.298809289932251 -0.06643316894769669
0.010313890874385834 0.2249223291873932 0.05253269895911217
0.42378804087638855 0.3000279664993286 -0.33886903524398804
0.23702029883861542 0.3030877411365509 0.053707435727119446
-0.2815353572368622 -0.15158279240131378 0.06040506437420845
0.2852155566215515 0.02342105284333229 0.09634958952665329
0.2960071265697479 0.28742218017578125 -0.2779727578163147
0.40747886896133423 -0.21533292531967163 0.05496518686413765
0.4118057191371918 -0.3038787543773651 -0.1636991649866104
0.41900718212127686 0.3120245933532715 0.023603688925504684
-0.43382975459098816 0.29393965005874634 0.05703923478722572
0.19948002696037292 -0.2134910225868225 0.0517423041164875
0.0986989364027977 -0.0716414824128151 0.3414580821990967
0.40111449360847473 -0.18599295616149902 0.05899590998888016
0.3374609053134918 0.20797771215438843 0.05605572089552879
0.37949803471565247 0.0861683338880539 0.0965215340256691
0.02538827806711197 -0.3021310567855835 0.050778649747371674
-0.3896913230419159 0.17065253853797913 0.038629163056612015
0.1067371666431427 -0.1733735352754593 0.3640628457069397
0.122275210916996 0.04908817633986473 0.16544607281684875
0.05832904204726219 0.29088911414146423 0.05544595420360565
0.2993086278438568 -0.304281622171402 -0.10933298617601395
-0.45285141468048096 -0.3117607533931732 -0.06788749247789383
-0.39690324664115906 -0.23173078894615173 -0.01570696011185646
0.4153856933116913 -0.13793928921222687 -0.26262930035591125
0.26872342824935913 0.02369045466184616 0.10307209938764572
-0.42619389295578003 -0.3148788809776306 0.037423983216285706
0.2915533483028412 -0.2360752522945404 -0.36292552947998047
-0.4830751419067383 0.22454103827476501 -0.03166250139474869
-0.4565509259700775 -0.23508736491203308 0.050812408328056335
0.09001991897821426 -0.06473666429519653 0.34719318151474
0.41141456365585327 0.31411275267601013 -0.17226506769657135
0.2791993319988251 -0.30409324169158936 -0.0732046365737915
-0.09983409196138382 0.292084276676178 0.053127337247133255
-0.45814192295074463 0.3053537905216217 -0.05831972509622574
0.15116949379444122 -0.30373328924179077 0.050880447030067444
-0.5462465286254883 0.21593227982521057 0.059365250170230865
0.41680654883384705 -0.28623145818710327 -0.3312740623950958
0.10422398149967194 -0.20539385080337524 0.05060570314526558
0.3206292688846588 -0.07679872959852219 0.1280326247215271
-0.5622042417526245 0.08443565666675568 -0.0638195127248764
0.12351367622613907 -0.1871645748615265 0.3426491320133209
0.35851508378982544 -0.2114465832710266 0.05219241604208946
-0.545830249786377 0.24066871404647827 -0.06484875082969666
-0.4971064627170563 0.164956197142601 0.04448910802602768
-0.49984702467918396 -0.1878066062927246 0.035629358142614365
0.29127374291419983 0.18120177090168 -0.09308889508247375
0.29599276185035706 0.3033778965473175 -0.19928154349327087
0.416665256023407 -0.0328664593398571 -0.39677858352661133
0.3371737003326416 -0.19856899976730347 0.057819511741399765
0.17474235594272614 0.30198508501052856 0.05193491280078888
0.32256561517715454 -0.1958424299955368 0.09431219846010208
0.42413651943206787 -0.30105534195899963 -0.19502757489681244
-0.5638265013694763 0.08768754452466965 0.05544605851173401
-0.5576027631759644 -0.079581618309021 0.05449299141764641
-0.4932461977005005 0.16293422877788544 0.053577084094285965
-0.49381932616233826 -0.2389688491821289 0.05324624478816986
0.02082957699894905 -0.3048379719257355 -0.06180090829730034
0.07490750402212143 -0.21442261338233948 0.05179058760404587
-0.5605969429016113 -0.1543767899274826 0.05226986110210419
-0.5477544069290161 -0.23011444509029388 -0.06348298490047455
-0.5619291663169861 0.046823956072330475 -0.052066102623939514
-0.4092239737510681 -0.13631224632263184 0.002659481018781662
0.30152544379234314 -0.11683472245931625 -0.38449084758758545
-0.15559686720371246 -0.19228585064411163 0.05881229788064957
0.27094313502311707 -0.307167112827301 0.04708872735500336
0.09711220860481262 -0.08745557814836502 0.29721659421920776
-0.2613190710544586 0.29847970604896545 0.05373962223529816
0.41360995173454285 -0.16254305839538574 -0.2309691309928894
-0.48521748185157776 0.2052212655544281 -0.009353261440992355
0.2940697968006134 0.2315223515033722 -0.3328069746494293
0.19199536740779877 -0.30305054783821106 0.05121755599975586
0.2946571409702301 -0.29600393772125244 -0.10664524137973785
-0.48991623520851135 0.15140476822853088 0.011827200651168823
-0.4983385503292084 0.16289660334587097 0.05178191512823105
0.045948632061481476 -0.1226753294467926 0.41317129135131836
-0.41331127285957336 0.23483848571777344 -0.000410374253988266
0.29584410786628723 -0.28800880908966064 -0.3303745687007904
0.29324638843536377 -0.26551833748817444 -0.3519652783870697
-0.34655916690826416 -0.30028587579727173 0.06109582632780075
0.08198907971382141 -0.2992343604564667 0.05205864459276199
-0.5281178951263428 0.21005438268184662 0.05046406015753746
-0.5577890872955322 -0.207502081990242 0.056675806641578674
0.41486242413520813 -0.24971891939640045 -0.3617621064186096
0.2603330910205841 -0.19492033123970032 0.15954411029815674
0.04696136713027954 0.10282523185014725 0.42582830786705017
-0.5259414911270142 0.2583647668361664 -0.06221946328878403
0.41391071677207947 -0.06799639016389847 -0.3996456563472748
0.3048522472381592 -0.3021887242794037 0.047842465341091156
0.09001881629228592 0.08459755778312683 0.290421724319458
-0.46460047364234924 0.12654328346252441 0.033720795065164566
-0.5612927079200745 0.025143029168248177 0.04503186419606209
0.2646963894367218 0.030810397118330002 0.11329254508018494
-0.38798046112060547 0.16245858371257782 0.04845225438475609
-0.49794483184814453 0.24286770820617676 -0.0655401349067688
0.2972368597984314 -0.030986130237579346 -0.3939904272556305
0.4126257002353668 -0.14363574981689453 -0.3155410885810852
-0.35297825932502747 -0.1251431405544281 0.05867350846529007
0.23520126938819885 -0.1955675631761551 0.2228599190711975
0.35323745012283325 -0.19472284615039825 0.048537638038396835
0.2916044592857361 0.17686980962753296 -0.3898921310901642
0.2772364318370819 0.09276961535215378 0.09171438217163086
-0.4986495077610016 -0.18408766388893127 0.05362384021282196
0.005784362554550171 0.30224722623825073 0.05133137106895447
0.003469443880021572 -0.3027428090572357 0.04790392890572548
-0.409719854593277 -0.13435913622379303 -0.012553881853818893
-0.36797958612442017 0.31195297837257385 -0.059585168957710266
0.14515523612499237 -0.2987082600593567 -0.06612826883792877
0.313973069190979 -0.16741083562374115 -0.3230201303958893
0.08684781193733215 0.19558943808078766 0.06445757299661636
0.10865060240030289 -0.3043483793735504 0.049056198447942734
0.3496772348880768 -0.1969113051891327 0.09824653714895248
-0.5004280209541321 0.16949909925460815 -0.003876795992255211
-0.2550707161426544 0.3110237717628479 -0.057605594396591187
-0.49155476689338684 -0.17011797428131104 0.0034747770987451077
-0.5605567097663879 0.12954160571098328 0.053023625165224075
0.35193145275115967 -0.20779085159301758 -0.2164168655872345
0.13848474621772766 -0.20869705080986023 0.05048211291432381
-0.5043519735336304 0.28510984778404236 -0.06015022099018097
0.29434341192245483 0.20196814835071564 -0.38130733370780945
-0.3846384584903717 -0.21511244773864746 0.050349365919828415
0.026229964569211006 -0.002529369667172432 0.44587716460227966
-0.3786720335483551 -0.17942927777767181 0.05362943932414055
0.27711066603660583 -0.043083447962999344 0.17409822344779968
-0.4231896698474884 -0.3111061155796051 -0.012703507207334042
-0.32440584897994995 0.11675254255533218 0.05914703384041786
0.024743905290961266 -0.037713780999183655 0.44412001967430115
0.3333221971988678 -0.18970219790935516 0.06101773679256439
0.3001134693622589 -0.03336040675640106 0.10466375201940536
0.03421702980995178 -0.0828152522444725 0.4287191927433014
0.17587077617645264 -0.05779409781098366 0.2307630479335785
-0.1195221021771431 0.31399309635162354 -0.060599446296691895
-0.5540235638618469 0.0033793076872825623 0.055173978209495544
0.09901951253414154 -0.179966539144516 0.3572576642036438
0.26851874589920044 -0.0942862331867218 0.09989522397518158
0.29081183671951294 -0.23804622888565063 -0.37137728929519653
-0.5006355047225952 -0.17565588653087616 -0.0009272125316783786
0.4176451563835144 0.10233857482671738 -0.39540043473243713
0.40309152007102966 -0.22900407016277313 -0.25063446164131165
0.3461713492870331 -0.1660970151424408 -0.22221028804779053
0.03735826164484024 0.28852760791778564 0.05408582463860512
0.3959072530269623 -0.21688860654830933 -0.22733500599861145
0.24728645384311676 -0.18970400094985962 0.21626517176628113
0.3343464732170105 0.17390671372413635 -0.22387757897377014
-0.49768590927124023 0.16923090815544128 0.001888553611934185
0.28198155760765076 0.0423940010368824 0.18657106161117554
0.3754044771194458 -0.20320773124694824 0.049782611429691315
0.2985667586326599 -0.05160309746861458 0.10678263008594513
0.29564592242240906 -0.28783977031707764 -0.2878771424293518
-0.4087311625480652 -0.025563746690750122 0.0518411323428154
-0.4167020916938782 -0.3082369267940521 -0.058186862617731094
0.41888096928596497 -0.24304577708244324 -0.3745470345020294
-0.3452921211719513 -0.31197696924209595 -0.011482703499495983
0.2946693003177643 -0.27136197686195374 -0.3465661108493805
0.18656203150749207 -0.1922658234834671 0.2638288736343384
0.21297398209571838 -0.18572337925434113 0.25767114758491516
0.41573619842529297 -0.2800827920436859 -0.33589765429496765
-0.5333707332611084 0.2684856951236725 0.050123099237680435
0.09422171860933304 -0.3041561543941498 -0.06924699246883392
-0.490420937538147 -0.16701850295066833 -0.023896092548966408
-0.42051973938941956 -0.3049343228340149 0.055782318115234375
0.41790109872817993 0.23522590100765228 -0.2763615846633911
-0.5606328248977661 -0.017766885459423065 -0.05398930609226227
-0.3818487226963043 -0.313566118478775 -0.058714840561151505
-0.4602343738079071 -0.23657691478729248 -0.05196581780910492
-0.34554871916770935 -0.30550912022590637 0.05684608966112137
0.2954183518886566 -0.1678600311279297 -0.08956751972436905
0.4169061779975891 0.2638707458972931 0.049281612038612366
0.11127962172031403 0.3053323030471802 0.05653635784983635
-0.4667973220348358 0.29111889004707336 0.05270494520664215
-0.5030869841575623 -0.21375100314617157 0.054005127400159836
-0.3981795608997345 -0.152207612991333 0.03525587543845177
0.3655567169189453 -0.2959575057029724 0.05223456770181656
0.4078870117664337 -0.3045485317707062 -0.033174123615026474
-0.38385337591171265 -0.2059948891401291 0.04489169642329216
-0.5545449256896973 -0.12696954607963562 -0.06320398300886154
0.1324181854724884 -0.3025301992893219 0.050244271755218506
0.2894871234893799 -0.30080822110176086 -0.3056780695915222
0.4048333168029785 -0.182281494140625 0.061174627393484116
-0.09783433377742767 0.2992614805698395 0.05382047966122627
0.1735120713710785 0.312020868062973 -0.06879004836082458
-0.23360015451908112 -0.3027576208114624 0.05225898697972298
0.2744365930557251 -0.20110781490802765 0.19653496146202087
-0.419968843460083 -0.23969735205173492 -0.020578715950250626
0.40613478422164917 0.1676269769668579 -0.22041890025138855
-0.028109444305300713 -0.30037298798561096 -0.0705409049987793
0.15617068111896515 -0.3046877980232239 -0.07340776175260544
0.10383729636669159 -0.08066841959953308 0.32083314657211304
0.08982120454311371 -0.3058914244174957 -0.07012428343296051
-0.505189836025238 0.2806423008441925 -0.06172777712345123
-0.49538302421569824 0.28113946318626404 0.05851469561457634
0.29762351512908936 -0.10346895456314087 -0.3981652855873108
0.32994523644447327 0.20071162283420563 0.0638059675693512
0.30875658988952637 0.17970392107963562 0.11438784748315811
0.27068111300468445 -0.3002307713031769 0.052179429680109024
0.1370014250278473 -0.08653397858142853 0.2620410621166229
0.4140265882015228 -0.2945656478404999 -0.15504316985607147
-0.48452046513557434 0.15332385897636414 -0.014954905956983566
-0.4881986081600189 0.2982923090457916 -0.05095445364713669
-0.38028645515441895 0.29729706048965454 0.057162608951330185
0.04794447869062424 -0.09007326513528824 0.17017076909542084
0.37787285447120667 -0.22839689254760742 -0.29385465383529663
-0.40963509678840637 0.2265477329492569 0.03437056392431259
0.15707527101039886 -0.08077922463417053 0.2550434172153473
-0.3861593008041382 -0.17000944912433624 0.04150484874844551
0.41382578015327454 -0.297498881816864 -0.2714393138885498
0.34714600443840027 -0.21219497919082642 -0.22376799583435059
0.2771412134170532 0.12311547994613647 0.0901607871055603
-0.3620257079601288 -0.10869745165109634 0.05905736982822418
0.2670484483242035 -0.10051870346069336 0.11186327040195465
0.08989729732275009 0.15891608595848083 0.37683945894241333
0.09301656484603882 0.023361336439847946 0.35454463958740234
0.4100116193294525 -0.2542145252227783 -0.36789417266845703
-0.3686867952346802 -0.311894953250885 0.05484835058450699
-0.5450221300125122 -0.2237427681684494 0.05617731437087059
0.3921954333782196 -0.021277301013469696 0.08143774420022964
0.294184148311615 0.2513446509838104 -0.3265054225921631
0.26903054118156433 0.21034319698810577 0.05408117175102234
0.4175286889076233 -0.30203208327293396 -0.07425950467586517
0.10695061087608337 0.07040762156248093 0.3196535110473633
0.11388278752565384 0.1808498352766037 0.35364624857902527
-0.46522557735443115 0.3056398034095764 -0.0557713583111763
0.42262643575668335 0.3016892969608307 -0.10521988570690155
-0.5493322610855103 -0.2294832020998001 -0.0598563477396965
-0.4476349949836731 0.3058699667453766 -0.05105050653219223
-0.4058804512023926 -0.23254838585853577 -0.012850411236286163
0.2286643236875534 -0.20143061876296997 0.2352142333984375
0.3508983254432678 -0.23131580650806427 -0.27549025416374207
0.3425227403640747 -0.14763295650482178 -0.24075651168823242
-0.06933261454105377 0.3005964756011963 0.054144907742738724
-0.5637177228927612 0.04399717599153519 0.039025865495204926
0.10403306782245636 -0.08952265232801437 0.2851256728172302
0.39261358976364136 -0.08540327101945877 0.07710759341716766
-0.4362795948982239 0.12032650411128998 0.03674634173512459
0.39121219515800476 -0.1988031268119812 0.07512058317661285
-0.5125652551651001 0.18433763086795807 0.057691507041454315
-0.25886672735214233 0.15773651003837585 0.06307994574308395
0.11756981909275055 0.2925933003425598 0.05392252281308174
-0.4145321249961853 0.12846019864082336 0.00933767855167389
0.36180758476257324 -0.13541936874389648 -0.2541254162788391
0.27051156759262085 0.2951481342315674 0.05180155858397484
0.2949737012386322 -0.30174553394317627 -0.1821707934141159
-0.47186994552612305 0.23118436336517334 -0.001875031739473343
-0.4778987467288971 0.30288442969322205 -0.05755164474248886
0.29405221343040466 -0.3027953803539276 -0.09026863425970078
0.41417163610458374 -0.24201540648937225 -0.2673792839050293
-0.4134766757488251 -0.13560201227664948 -0.009592115879058838
0.2794678807258606 -0.03279490023851395 0.18634851276874542
0.4019457697868347 0.21286039054393768 0.0514695830643177
0.2701747715473175 0.19788865745067596 0.19713471829891205
0.3204875588417053 -0.07094398140907288 0.12989017367362976
0.3767642080783844 0.015402562916278839 0.09423789381980896
-0.023252934217453003 -0.30322229862213135 -0.06664935499429703
0.3437519669532776 0.29317498207092285 0.05167825147509575
-0.4836130738258362 0.21858903765678406 0.020108627155423164
-0.5019536018371582 0.16780006885528564 0.052395712584257126
0.2293248176574707 -0.3048238158226013 -0.07433383166790009
0.28122478723526 -0.0747087374329567 0.09134084731340408
-0.25546908378601074 0.2989875376224518 0.05329982191324234
-0.2651558518409729 -0.31224215030670166 -0.059651657938957214
-0.11291557550430298 -0.3073887228965759 -0.06383585929870605
0.3706125020980835 -0.1941775232553482 0.05754215270280838
0.2989945113658905 -0.2864987254142761 -0.09673459827899933
