0.4118015170097351 -0.29803380370140076 -0.30594494938850403
-0.3540450930595398 0.0752890333533287 0.05707716569304466
-0.44053205847740173 0.24460865557193756 0.05798139050602913
-0.38008517026901245 -0.16497045755386353 -0.06858230382204056
-0.5450373888015747 0.025902559980750084 -0.06448769569396973
0.1504618525505066 -0.1908150017261505 0.30532488226890564
0.4206687808036804 -0.3009202480316162 -0.12071220576763153
-0.30185219645500183 -0.14571413397789001 0.04963675141334534
0.41768184304237366 -0.30850231647491455 -0.15179750323295593
-0.20577508211135864 -0.30968090891838074 -0.07395131140947342
0.3905159831047058 0.31387782096862793 0.04074694961309433
-0.3739737272262573 0.014957977458834648 0.05833032727241516
0.3124319911003113 0.20310693979263306 0.07623045891523361
-0.44430267810821533 0.2446947991847992 -0.05960547551512718
0.13573843240737915 0.17842811346054077 0.3410226106643677
0.4187889099121094 -0.31784528493881226 -0.08956754952669144
-0.3643328547477722 -0.2371574342250824 0.04794356971979141
0.4181554317474365 -0.18250682950019836 0.03671444579958916
0.42413297295570374 0.07398784905672073 0.03950764983892441
0.08029291033744812 -0.08165759593248367 0.3915463984012604
0.2559957802295685 -0.12552405893802643 0.16433747112751007
0.1486172378063202 0.1969297081232071 0.31662717461586
0.06468063592910767 0.2226332128047943 0.053885407745838165
-0.0789649486541748 -0.3093132972717285 -0.07418510317802429
0.2927936017513275 0.3040287494659424 -0.1747191995382309
-0.3404496908187866 -0.14217796921730042 0.05431933328509331
-0.45705610513687134 -0.30496469140052795 0.038839638233184814
0.41530901193618774 -0.2718273997306824 0.04985610768198967
-0.46375876665115356 -0.10413338243961334 -0.06606689840555191
0.02492426335811615 0.08110032975673676 0.43048784136772156
0.2458433210849762 0.20350030064582825 0.06061059609055519
-0.42628833651542664 0.12081487476825714 -0.06842759251594543
0.4206836521625519 -0.12608613073825836 0.04513901099562645
-0.3382025361061096 -0.11050711572170258 0.05106393247842789
0.41609910130500793 -0.30078253149986267 -0.21364741027355194
-0.22574561834335327 0.2888464033603668 0.05563561990857124
-0.09201499819755554 0.29442068934440613 0.05327905714511871
-0.35203173756599426 0.07469432055950165 0.061039917171001434
0.23302742838859558 -0.1965726613998413 0.1915300190448761
-0.1035565733909607 -0.3091496229171753 -0.006351888179779053
0.0171797014772892 -0.048222459852695465 0.43886518478393555
-0.38474369049072266 -0.25681453943252563 -0.07050230354070663
-0.5586647987365723 0.006394095718860626 0.0041651055216789246
0.14459189772605896 0.31231218576431274 -0.07174410670995712
-0.49034374952316284 -0.13209733366966248 0.05157308652997017
0.0637841746211052 -0.1315464824438095 0.4048391878604889
-0.3510637581348419 0.1481945961713791 0.055484838783741
0.4040467143058777 0.31655049324035645 -0.12348750978708267
0.3043287694454193 0.2699037492275238 -0.33738723397254944
-0.3193979263305664 0.10915499180555344 0.06321292370557785
0.032477155327796936 0.005035589449107647 0.43521830439567566
-0.19066712260246277 -0.3129904270172119 -0.07353592664003372
0.11381971091032028 0.029159188270568848 -0.07388383895158768
0.41692644357681274 -0.1746939867734909 0.055661991238594055
0.3607029318809509 -0.13255813717842102 0.10759493708610535
0.41424161195755005 -0.255815714597702 -0.33598655462265015
0.3441823720932007 0.20490004122257233 0.08257690817117691
0.08551178127527237 -0.13852167129516602 0.38782304525375366
0.022307023406028748 -0.20209360122680664 0.04985513538122177
0.415998250246048 -0.050455763936042786 0.05319904536008835
0.07768271863460541 0.1587822139263153 0.38048693537712097
0.19229444861412048 -0.08101238310337067 0.27372831106185913
-0.05594417452812195 -0.3037247955799103 -0.07115117460489273
-0.18879641592502594 -0.0018100142478942871 -0.07270852476358414
0.28276365995407104 0.20463429391384125 0.0865098088979721
-0.27091795206069946 0.16034691035747528 0.05382366478443146
0.2927824854850769 0.24339672923088074 -0.23222419619560242
0.0908801481127739 -0.14414867758750916 -0.07575425505638123
0.1744532585144043 0.19644513726234436 0.28878551721572876
-0.45131435990333557 -0.25311601161956787 0.0462193638086319
-0.28587812185287476 0.14047059416770935 0.05912996828556061
-0.26506102085113525 -0.1711822748184204 0.046951763331890106
-0.125569686293602 -0.3119555115699768 -0.07356341928243637
0.41827109456062317 0.04477914795279503 -0.37998899817466736
-0.206182062625885 0.023885581642389297 -0.07027791440486908
0.2978646755218506 -0.13719293475151062 -0.22652125358581543
0.05815231800079346 -0.2583373785018921 0.056248683482408524
0.06325489282608032 0.14626388251781464 0.3949826955795288
0.10931869596242905 -0.3075405955314636 -0.07446882128715515
-0.5473065376281738 0.21767118573188782 -0.06622359901666641
0.4195205569267273 -0.30232879519462585 -0.09149947762489319
0.3052363693714142 0.3136611580848694 -0.29655027389526367
-0.2563878893852234 0.1546482890844345 0.0620235800743103
0.2195848524570465 0.1982288658618927 0.20739953219890594
0.4174329340457916 0.17783929407596588 -0.20845329761505127
-0.019408248364925385 -0.0042333584278821945 0.4031273424625397
0.10119751840829849 -0.01405143178999424 0.368987500667572
0.017232295125722885 0.20193170011043549 0.0515625923871994
0.4185926020145416 -0.28943026065826416 -0.004063708707690239
0.16134804487228394 -0.3029542565345764 0.03395166993141174
0.02495446428656578 0.31235748529434204 0.035965584218502045
-0.14881020784378052 0.30042150616645813 -0.06825357675552368
0.30907732248306274 -0.3040063679218292 -0.2666068375110626
0.4209340810775757 -0.03440484404563904 -0.07124325633049011
0.4182460904121399 -0.16025973856449127 0.04053759202361107
0.1344507783651352 -0.06540604680776596 -0.07104063779115677
0.0739372968673706 0.2001039832830429 0.06880028545856476
-0.32401934266090393 0.3102163076400757 0.038146328181028366
-0.5153301358222961 0.21076731383800507 -0.06425067782402039
0.23309800028800964 -0.026359889656305313 0.22862766683101654
-0.23406116664409637 0.19598990678787231 0.05730985105037689
0.03678341209888458 0.043420858681201935 0.4316343069076538
-0.3187010884284973 -0.034231480211019516 0.11288230121135712
0.3904682695865631 -0.3054870367050171 -0.22178533673286438
0.3288815915584564 0.13438791036605835 0.1311538964509964
0.30134981870651245 0.31299567222595215 -0.0740855410695076
-0.4268282353878021 0.11484487354755402 0.05428994446992874
0.3094412088394165 -0.2537088096141815 -0.3737759590148926
0.2645014822483063 -0.18613070249557495 0.20427434146404266
0.05609041824936867 -0.11764746159315109 0.4146629869937897
-0.54421466588974 -0.16392356157302856 -0.06732137501239777
0.24891558289527893 0.19963662326335907 0.21212823688983917
-0.3935384750366211 -0.14711233973503113 0.04304305836558342
-0.11550839245319366 -0.19260545074939728 0.07142993807792664
0.3298203945159912 -0.15824970602989197 0.1312277466058731
0.41911548376083374 -0.18069249391555786 0.04332095384597778
-0.02471766620874405 0.16449972987174988 0.26170456409454346
0.1475539654493332 0.015085399150848389 0.1690526008605957
-0.41695553064346313 0.1291811615228653 -0.030494894832372665
0.41646358370780945 -0.1736375391483307 -0.21474967896938324
0.027894221246242523 -0.02277526818215847 0.44730931520462036
-0.40894031524658203 0.11346432566642761 -0.06637097150087357
0.07646797597408295 -0.2977682054042816 -0.07807996869087219
-0.2935607433319092 0.2334536761045456 -0.06583927571773529
-0.4162464141845703 -0.31045112013816833 -0.059719815850257874
0.33882948756217957 -0.013986291363835335 0.13033436238765717
0.19205503165721893 0.3133050799369812 -0.05408937484025955
0.33599233627319336 -0.1857016384601593 0.12494747340679169
0.4063994884490967 0.05010901018977165 -0.39499273896217346
-0.5575836896896362 -0.14924022555351257 -0.06121538206934929
0.06898180395364761 -0.3108631670475006 -0.07795996963977814
0.3092329502105713 -0.15561288595199585 -0.39671775698661804
-0.33157870173454285 0.10841153562068939 0.05561753362417221
-0.3135521709918976 -0.18032747507095337 -0.071022629737854
0.2582353949546814 -0.16691304743289948 0.211811825633049
0.27434220910072327 0.3144378364086151 0.020904220640659332
0.0443769246339798 -0.11193300038576126 0.41794127225875854
0.41646209359169006 -0.29712116718292236 -0.20762555301189423
-0.29466062784194946 0.11197920143604279 0.08673986792564392
0.2975882589817047 -0.16794662177562714 0.10294657200574875
0.21585224568843842 -0.04489784315228462 0.23806621134281158
0.2992551624774933 -0.25801077485084534 -0.20412099361419678
-0.5485844612121582 0.1728394776582718 0.05842040851712227
-0.07911287248134613 -0.15159490704536438 -0.0720720961689949
-0.36786532402038574 -0.05481857433915138 0.058641500771045685
-0.249923437833786 0.31087303161621094 -0.06378450989723206
0.3813026547431946 -0.10484274476766586 0.08363915979862213
-0.5195447206497192 -0.10595148801803589 0.05242374539375305
-0.4782573878765106 -0.2564038336277008 -0.06949972361326218
0.3053690493106842 0.31338903307914734 -0.11155981570482254
0.4155225455760956 -0.16334308683872223 -0.3318427503108978
-0.5598710775375366 -0.15801197290420532 0.040647074580192566
0.0024465639144182205 -0.29684898257255554 -0.08101673424243927
-0.3948628902435303 -0.12773755192756653 0.050720907747745514
0.30323928594589233 0.14614805579185486 -0.22298026084899902
-0.48023131489753723 0.2834613025188446 -0.06688089668750763
0.026243731379508972 0.09220471978187561 0.4233032166957855
-0.40444499254226685 0.30730530619621277 0.041523758322000504
-0.11717191338539124 -0.3087378740310669 -0.07339915633201599
0.30160942673683167 -0.291281133890152 -0.15477266907691956
0.22150570154190063 -0.24346809089183807 0.053794972598552704
0.26756083965301514 0.31610357761383057 0.0412384495139122
-0.29095613956451416 0.2951841354370117 0.052557043731212616
-0.10057716071605682 -0.2998756170272827 -0.07014846056699753
0.12246959656476974 -0.0733160749077797 0.34136763215065
-0.5607960820198059 0.11404638737440109 -0.06577841192483902
0.2807459831237793 -0.3020172715187073 -0.06804454326629639
0.36424800753593445 -0.2849409282207489 0.04820694774389267
0.1253519207239151 0.17834889888763428 0.34687796235084534
0.4203428328037262 0.07762330025434494 -0.334678053855896
-0.32287266850471497 0.27124691009521484 0.053273625671863556
0.19038623571395874 -0.1931755095720291 0.06459913402795792
-0.23309311270713806 0.1735372096300125 0.06030777096748352
0.41854193806648254 -0.3019227385520935 -0.20368592441082
0.3234242796897888 -0.30014923214912415 -0.19383636116981506
0.11067415773868561 0.09995271265506744 -0.07233370840549469
-0.3052702844142914 -0.1412476897239685 0.05089318007230759
-0.18768653273582458 -0.1819400042295456 0.06849551200866699
-0.5561574697494507 -0.0853772908449173 0.04578275606036186
0.4101492762565613 0.314208984375 -0.022442158311605453
0.2624644935131073 0.3063496947288513 -0.06761784106492996
-0.23338741064071655 0.2948620915412903 0.050531383603811264
0.02634497731924057 0.0290878564119339 0.438291072845459
0.35004734992980957 -0.3010956346988678 0.02345525473356247
0.41642123460769653 -0.042269960045814514 0.05413591116666794
0.10303176939487457 -0.3076154291629791 -0.06308454275131226
0.07387711107730865 0.16222254931926727 0.3768686056137085
0.028774496167898178 -0.3142017126083374 -0.07189064472913742
-0.4973343014717102 0.16076606512069702 -0.06579668819904327
-0.341501921415329 -0.21968761086463928 -0.07302208989858627
-0.03052777610719204 -0.3076217472553253 -0.07010526955127716
0.2757711410522461 -0.07636997103691101 0.19353227317333221
-0.5320534706115723 -0.0612025186419487 0.05079018324613571
-0.40290746092796326 0.1303059160709381 0.052843350917100906
0.018354473635554314 -0.04071900621056557 0.44019874930381775
0.13986149430274963 -0.17496109008789062 0.3344503939151764
-0.2534943222999573 -0.06938953697681427 -0.07369515299797058
0.3382532298564911 -0.006736481562256813 0.13622191548347473
-0.5593199729919434 0.20633487403392792 0.03218797966837883
-0.15708212554454803 0.30660706758499146 0.04024793207645416
-0.5450307726860046 -0.05700488016009331 -0.06579336524009705
-0.15491321682929993 -0.31023740768432617 -0.07000480592250824
0.09334822744131088 0.001444922760128975 0.372943252325058
0.40489041805267334 -0.28656142950057983 0.05111359804868698
0.4196404218673706 0.005585335195064545 0.036891914904117584
-0.23272956907749176 0.30602148175239563 -0.053479813039302826
-0.02467297948896885 0.31220337748527527 -0.05113827437162399
-0.1569431871175766 0.19022226333618164 0.05616524815559387
-0.19089758396148682 -0.3089141249656677 -0.07142645120620728
-0.5442821979522705 0.19113850593566895 0.05337950587272644
-0.5542303919792175 -0.0740039050579071 -0.05813249200582504
-0.3309994339942932 0.10856075584888458 0.05466964840888977
0.10232170671224594 -0.17765411734580994 -0.07857495546340942
-0.5562455058097839 -0.09490403532981873 0.04791346564888954
0.1312532126903534 -0.30247724056243896 -0.07280513644218445
0.3279178738594055 -0.1331624984741211 0.1256026029586792
0.15894019603729248 0.2189016491174698 0.0556352399289608
-0.5493136048316956 0.23476649820804596 -0.027289848774671555
-0.4896225333213806 -0.1460350751876831 -0.06838374584913254
-0.3782491087913513 0.01617162488400936 0.054685309529304504
0.42117002606391907 -0.31290215253829956 -0.0016488134860992432
-0.42377039790153503 0.1283758133649826 -0.04757807403802872
-0.31307363510131836 -0.12706120312213898 0.060150474309921265
-0.25639379024505615 -0.3032909035682678 -0.07031778246164322
-0.14431476593017578 0.310280442237854 0.04227159544825554
0.029579855501651764 -0.018483314663171768 0.4454348683357239
-0.2080853134393692 -0.31778213381767273 -0.07243264466524124
-0.3718322515487671 0.06240029260516167 0.05611659586429596
-0.26046985387802124 0.15694491565227509 0.06132575124502182
0.20681534707546234 -0.19437536597251892 0.24245083332061768
0.22878572344779968 -0.30260327458381653 0.04684899002313614
0.027696385979652405 0.30931028723716736 0.04268157109618187
0.34106165170669556 -0.06273698806762695 0.12569919228553772
-0.018538199365139008 0.31273549795150757 0.03356656804680824
-0.47161340713500977 -0.3060333728790283 -0.057779379189014435
0.4213159680366516 0.3006954491138458 -0.2492440640926361
0.34140875935554504 0.17674033343791962 0.13337528705596924
0.02924232743680477 0.20071685314178467 0.06472119688987732
-0.027271825820207596 -0.21797753870487213 -0.07528211176395416
-0.069861501455307 0.31137922406196594 -0.05466099828481674
0.31311482191085815 -0.2992904782295227 -0.22928017377853394
0.1582346260547638 -0.08710689842700958 0.3020383417606354
0.2805580496788025 0.20939576625823975 0.05134069174528122
-0.5549507141113281 0.21263004839420319 -0.0484006330370903
-0.5611187219619751 0.19053886830806732 -0.0618988573551178
0.1771067976951599 0.20044785737991333 0.12618279457092285
0.41681739687919617 -0.1601518988609314 -0.38350722193717957
0.4188499450683594 0.07317684590816498 0.04343801736831665
0.355816513299942 0.06390276551246643 0.11425857245922089
-0.3087826371192932 -0.3174264430999756 -0.0693700760602951
0.20069323480129242 0.17919407784938812 0.2705957293510437
-0.017371710389852524 -0.29972410202026367 -0.07234913855791092
0.103424072265625 -0.3007463216781616 0.04453115537762642
0.2950342297554016 -0.303631991147995 -0.06762135028839111
0.10656452178955078 0.1984732449054718 0.2123335599899292
-0.30049365758895874 0.14035756886005402 0.05311058461666107
-0.09692783653736115 0.1999565213918686 0.055727243423461914
0.1494508981704712 -0.19338196516036987 0.3083568811416626
0.1467214673757553 -0.30847615003585815 -0.0694369375705719
0.30516916513442993 0.14141355454921722 0.10924777388572693
0.03902767598628998 -0.29367080330848694 -0.07601861655712128
-0.22140105068683624 -0.021129827946424484 -0.07230372726917267
-0.36781051754951477 -0.31133317947387695 -0.0732952356338501
0.29990851879119873 0.13554081320762634 -0.24651096761226654
0.29687514901161194 0.27364057302474976 -0.1831749677658081
-0.35174718499183655 -0.26290982961654663 -0.0696987733244896
0.19895970821380615 -0.3011302947998047 -0.07773901522159576
0.18163135647773743 0.20068103075027466 0.2780199646949768
0.38411402702331543 0.2729433476924896 -0.3640962243080139
0.41948774456977844 0.18868060410022736 -0.37853580713272095
0.4028259515762329 -0.11373578757047653 -0.3962925672531128
0.11040805280208588 0.1985088735818863 0.07797924429178238
0.40689903497695923 0.0007058063056319952 -0.39537733793258667
0.1683204025030136 0.1251293420791626 0.30156469345092773
0.40855950117111206 -0.14892370998859406 -0.3991997539997101
-0.24741968512535095 -0.1860564649105072 0.05218980088829994
0.3081873655319214 0.31360986828804016 -0.21942201256752014
-0.3642660975456238 -0.04377012327313423 0.0595170333981514
-0.5120887756347656 0.1515897959470749 0.057069163769483566
0.09383004903793335 -0.19414150714874268 0.0696205273270607
0.31672751903533936 -0.19769392907619476 0.04663296043872833
-0.5594508051872253 0.005780814215540886 -0.03684604912996292
0.11985461413860321 -0.08416908234357834 0.3458559811115265
0.14453719556331635 0.31147703528404236 -0.05339481681585312
0.4208992123603821 -0.018473714590072632 0.034670040011405945
0.4028133749961853 -0.3013516664505005 -0.1464022696018219
-0.39102816581726074 -0.16595903038978577 -0.06423257291316986
-0.5006327629089355 0.162439227104187 -0.062123753130435944
-0.2067556530237198 -0.3062386214733124 0.013086107559502125
-0.26379141211509705 -0.3216438591480255 -0.06981988996267319
0.33612361550331116 -0.1966320276260376 0.1267085075378418
0.3261556923389435 0.11924192309379578 0.127035453915596
0.06357096135616302 -0.19562557339668274 0.1288064420223236
0.4183475077152252 -0.16730256378650665 0.04701892286539078
-0.07203487306833267 0.2002183049917221 0.05375130474567413
0.25440967082977295 0.14110197126865387 0.21623145043849945
-0.10816121846437454 0.06877290457487106 0.29953622817993164
0.33167293667793274 -0.02461525797843933 0.13657300174236298
0.05042118951678276 0.19946371018886566 0.0776892602443695
0.012338613159954548 0.30880874395370483 0.04563377797603607
0.2224063277244568 0.3141799569129944 -0.052487291395664215
0.26160576939582825 -0.3048153519630432 -0.005920102819800377
0.41698208451271057 -0.2874690890312195 -0.24194931983947754
-0.09641985595226288 0.3061390519142151 -0.07040455937385559
-0.38026222586631775 -0.3205294609069824 -0.06714941561222076
0.09030553698539734 0.16833381354808807 0.3718373477458954
-0.327754944562912 -0.1615477055311203 0.04985864832997322
-0.3121490180492401 -0.30903559923171997 0.04343809932470322
0.03819612041115761 -0.18522000312805176 0.2592233121395111
-0.30550214648246765 0.30189248919487 -0.06447717547416687
0.2491723895072937 -0.19795730710029602 0.20030577480793
-0.2613387107849121 0.31353384256362915 -0.061632152646780014
-0.37948283553123474 -0.17167919874191284 -0.06486102938652039
-0.003292098641395569 -0.28503090143203735 0.052459780126810074
0.11154574155807495 -0.18794575333595276 0.3332257866859436
0.29645857214927673 0.09414124488830566 -0.22625426948070526
0.4296499490737915 -0.22242525219917297 0.04982493445277214
-0.38164472579956055 0.18018324673175812 -0.06830096244812012
-0.5584408640861511 -0.11330092698335648 0.04646606370806694
-0.260334849357605 0.15103106200695038 0.06578650325536728
0.31998753547668457 -0.29948753118515015 -0.19411207735538483
0.07330137491226196 -0.3049997389316559 -0.06415365636348724
-0.45091354846954346 -0.13504700362682343 -0.0684240311384201
0.34819507598876953 0.22260111570358276 0.05680415406823158
-0.03917954862117767 -0.31445956230163574 -0.07168575376272202
-0.10608921200037003 -0.3190886974334717 -0.07486285269260406
0.1856914460659027 0.10136328637599945 0.28318148851394653
-0.5459269881248474 0.24322740733623505 -0.03694199025630951
-0.028207458555698395 -0.29451894760131836 0.053070493042469025
-0.3232111930847168 0.11370532959699631 0.05856494605541229
0.15289315581321716 -0.30842897295951843 -0.06847234815359116
0.2672915458679199 0.0005353726446628571 0.1687501221895218
0.417397677898407 -0.10162026435136795 -0.2982751429080963
-0.39399299025535583 -0.16004253923892975 -0.057976096868515015
0.03141302242875099 0.09304885566234589 0.421731173992157
0.4210474193096161 -0.3090161085128784 0.00037433207035064697
0.1863393485546112 0.20051997900009155 0.18033115565776825
-0.23835879564285278 0.3087429404258728 -0.05354352295398712
0.23291660845279694 0.31369003653526306 0.04478833079338074
-0.13088378310203552 -0.14986057579517365 0.1991833746433258
0.20378655195236206 -0.19472655653953552 0.27247095108032227
0.20261596143245697 -0.18975652754306793 0.27236226201057434
-0.4662943482398987 0.09236287325620651 -0.06123019754886627
-0.09032970666885376 -0.17772825062274933 0.17671655118465424
-0.38991037011146545 0.2805030047893524 0.05213833972811699
0.40342265367507935 0.30922630429267883 0.037590015679597855
-0.5102766752243042 -0.14767998456954956 -0.06893900036811829
-0.1441081464290619 0.30652812123298645 -0.05592767894268036
0.1394636482000351 0.0924266129732132 0.3292243182659149
0.29298603534698486 -0.2819444239139557 0.05147029832005501
-0.3476007878780365 0.30934467911720276 -0.04889938607811928
0.025822974741458893 0.13014619052410126 0.383210688829422
-0.18869397044181824 -0.3180180788040161 -0.07051949203014374
-0.3984450697898865 -0.14245644211769104 -0.06743725389242172
0.30083420872688293 -0.12371610105037689 0.10227388143539429
0.06274973601102829 -0.13331574201583862 0.40688762068748474
-0.5606432557106018 -0.16599757969379425 0.031215380877256393
0.0004321690648794174 0.3105393946170807 -0.054017893970012665
0.41530999541282654 -0.2781403958797455 0.01997962035238743
-0.5622445344924927 -0.009437382221221924 -0.06324611604213715
-0.3529389500617981 -0.08729187399148941 0.0554400235414505
0.0618474967777729 -0.3044984042644501 0.04423044994473457
0.41520047187805176 -0.13236168026924133 -0.3070931136608124
0.41812023520469666 -0.11103346198797226 -0.26935070753097534
0.2980470657348633 0.28502538800239563 -0.16876478493213654
-0.12672726809978485 -0.3076978921890259 -0.035498373210430145
0.3431035280227661 -0.30145344138145447 -0.06550219655036926
0.22836385667324066 -0.1780986189842224 0.2354370802640915
-0.15582099556922913 0.1658955216407776 0.1410592794418335
-0.24460074305534363 -0.32262468338012695 -0.0728827714920044
-0.2180626392364502 -0.30504941940307617 0.04441450536251068
-0.07067527621984482 -0.31851518154144287 -0.0711798220872879
0.24452310800552368 0.19684217870235443 0.22575421631336212
-0.01791897416114807 -0.21628211438655853 0.054152630269527435
0.41569891571998596 -0.14093999564647675 -0.23107440769672394
0.2931056022644043 0.21101245284080505 -0.07580520957708359
0.05527554824948311 -0.3040066063404083 -0.05766058340668678
0.30770277976989746 -0.22855770587921143 -0.383100301027298
-0.25312769412994385 -0.1695111095905304 0.047155141830444336
0.29782968759536743 -0.21520093083381653 -0.19754384458065033
0.31294122338294983 -0.20123840868473053 -0.3986772298812866
0.3155069947242737 -0.02826349064707756 -0.39382386207580566
0.29992133378982544 0.0072790347039699554 -0.27285030484199524
-0.4770658314228058 -0.30085933208465576 0.032973743975162506
0.4122961759567261 0.31763508915901184 -0.22354763746261597
0.28525233268737793 -0.2749859094619751 -0.0787893608212471
0.0634579062461853 0.25721967220306396 -0.06999563425779343
0.3689674735069275 0.03564607724547386 -0.3933568000793457
0.23868824541568756 0.17435811460018158 0.1247490718960762
-0.19332711398601532 -0.31229251623153687 -0.07264324277639389
-0.2803890109062195 -0.0902310460805893 0.11959122866392136
-0.5483136773109436 0.02862982638180256 -0.06663637608289719
0.11786537617444992 -0.30085766315460205 0.044447608292102814
0.03838330879807472 -0.10307645052671432 0.42308101058006287
-0.039171501994132996 0.19528403878211975 -0.06868162006139755
-0.2560737133026123 -0.31836408376693726 -0.07392241805791855
0.2777499258518219 0.3135747015476227 -0.05556613951921463
-0.5466846823692322 0.07398980855941772 0.052820730954408646
-0.20290619134902954 0.1830901950597763 0.056346483528614044
-0.470317542552948 -0.08700307458639145 0.051177721470594406
-0.40882959961891174 0.13249598443508148 -0.06719918549060822
0.1531618982553482 0.09502904862165451 0.3102942109107971
0.29645591974258423 -0.16086304187774658 -0.3824130594730377
0.2147737443447113 0.20344528555870056 0.05169448256492615
-0.47650259733200073 0.038779497146606445 0.05519508197903633
-0.5601254105567932 0.22125691175460815 -0.0273883119225502
-0.32556599378585815 0.11565051972866058 0.05582500249147415
0.05330069735646248 0.16304419934749603 0.3569999933242798
-0.046366315335035324 -0.2970725893974304 -0.07420305907726288
0.3015003502368927 -0.2367859184741974 -0.24760788679122925
0.4202568531036377 -0.317477822303772 -0.03202439844608307
0.23516619205474854 0.19958800077438354 0.14549283683300018
0.17852766811847687 -0.19324535131454468 0.26143956184387207
-0.2663344144821167 0.1586974710226059 0.053259506821632385
0.1332244575023651 0.17998717725276947 0.3341045677661896
0.24173447489738464 -0.30020272731781006 0.042878251522779465
-0.2436334788799286 -0.31410273909568787 -0.07151249796152115
0.33782389760017395 -0.15813156962394714 0.13344046473503113
0.31658628582954407 0.31234484910964966 -0.31557515263557434
-0.1783951222896576 -0.15556655824184418 0.146727055311203
0.048101961612701416 -0.12904775142669678 0.4056585431098938
-0.5514070987701416 -0.21669697761535645 -0.010936779901385307
-0.02705879881978035 -0.31578731536865234 -0.06868800520896912
0.41644567251205444 -0.31639933586120605 -0.19905923306941986
0.32456710934638977 -0.2779753506183624 0.05147387832403183
0.051408134400844574 0.16068483889102936 -0.07230979949235916
0.41485416889190674 0.08488564193248749 0.04965321719646454
-0.19994167983531952 0.3069770336151123 0.05012505128979683
-0.4868555963039398 -0.24816963076591492 0.05208558216691017
0.0803384929895401 -0.20225554704666138 0.05090518668293953
0.00875130482017994 -0.3093161880970001 -0.07753369957208633
0.11347341537475586 0.31033575534820557 -0.051972679793834686
0.4196673035621643 0.2139783799648285 -0.20743604004383087
0.02268344722688198 0.3097429871559143 -0.06931492686271667
0.2908872365951538 -0.10027415305376053 -0.3631266951560974
-0.40286985039711 0.3119747042655945 -0.06312942504882812
-0.37013790011405945 0.04992283508181572 0.05397931486368179
0.2977713644504547 -0.26975134015083313 -0.2336473912000656
0.2922249138355255 -0.0019703879952430725 -0.3680657744407654
0.16168071329593658 -0.29376667737960815 -0.07452239096164703
-0.12155976891517639 -0.31295666098594666 -0.0707426518201828
0.4143356382846832 -0.14649714529514313 -0.34130266308784485
0.09534811973571777 0.006925439462065697 0.36634883284568787
-0.044220030307769775 0.19796667993068695 0.06475962698459625
0.17629215121269226 0.18223214149475098 0.29603564739227295
0.4110547602176666 0.14113162457942963 -0.254593163728714
0.02076277881860733 -0.008240675553679466 0.300075501203537
0.3105847239494324 0.20615512132644653 0.054288435727357864
-0.48614802956581116 0.29269230365753174 -0.05742025375366211
-0.5638366937637329 0.04257094860076904 0.03860484063625336
0.2966710031032562 0.230885311961174 -0.07831781357526779
0.04165038466453552 0.11743317544460297 0.4109705090522766
-0.5267301201820374 0.20006199181079865 -0.06103552132844925
-0.4999397099018097 -0.2924911379814148 -0.040469832718372345
-0.36312058568000793 -0.23219002783298492 0.05325447395443916
-0.5327532887458801 -0.25688812136650085 -0.05463668331503868
0.1835462898015976 0.1829032003879547 0.28831779956817627
-0.07740464061498642 -0.3109358549118042 -0.07490662485361099
-0.35023078322410583 -0.2256254404783249 -0.06847698986530304
-0.39923471212387085 -0.14606468379497528 -0.07014632225036621
-0.41469407081604004 -0.09017695486545563 -0.06669005751609802
0.36009088158607483 0.2764442563056946 -0.36167728900909424
0.30015668272972107 -0.10406574606895447 -0.08010043948888779
-0.3865375518798828 0.2430667281150818 -0.06388616561889648
0.2934911847114563 0.23139680922031403 -0.07367667555809021
-0.15129613876342773 -0.3163699209690094 -0.07383189350366592
0.30405840277671814 -0.2544986307621002 -0.3295289874076843
-0.10086154192686081 0.3112219274044037 0.035906486213207245
-0.24457967281341553 -0.16936880350112915 0.05440783500671387
-0.43215158581733704 0.10089493542909622 0.050738681107759476
0.31455910205841064 0.1303688883781433 -0.39319050312042236
0.07239015400409698 0.31849953532218933 -0.06834955513477325
0.07749003171920776 -0.12848442792892456 0.39603114128112793
0.3003213107585907 0.05248427763581276 -0.3890896141529083
-0.5463129281997681 -0.005136318504810333 -0.06167270243167877
0.4075615406036377 0.31307363510131836 -0.2979848384857178
-0.1833106279373169 0.3018849790096283 -0.06748748570680618
-0.5627859234809875 -0.11345131695270538 -0.047114625573158264
0.40750885009765625 -0.2244090735912323 0.04474904388189316
0.4093707799911499 0.10621044784784317 -0.39486753940582275
-0.1626415103673935 -0.30744802951812744 -0.059662140905857086
-0.52729731798172 0.2652985751628876 -0.05120119825005531
-0.5591981410980225 0.034535929560661316 -0.06444939225912094
-0.5205874443054199 -0.0358663946390152 -0.06940140575170517
0.2665107548236847 0.31580349802970886 0.04433765262365341
-0.2769222855567932 0.1567600965499878 0.052775271236896515
0.40649712085723877 0.3167152404785156 -0.15104854106903076
0.16120938956737518 -0.2106308937072754 -0.07972420006990433
0.009395502507686615 -0.017263686284422874 0.43193578720092773
-0.07717235386371613 0.17492438852787018 0.19702133536338806
-0.3675393760204315 -0.32165607810020447 -0.06720949709415436
0.2979927361011505 -0.07241633534431458 -0.09911549091339111
0.42386600375175476 0.040993183851242065 0.04050219804048538
0.22827287018299103 0.3196621537208557 -0.06833645701408386
0.3001713454723358 -0.30138343572616577 -0.18737998604774475
0.4151119589805603 -0.28787708282470703 -0.02747681550681591
0.4182567298412323 -0.29314732551574707 -0.18429675698280334
-0.0906178206205368 0.3093196153640747 0.036440424621105194
0.3034398555755615 -0.2034245729446411 -0.21252180635929108
-0.05655938386917114 -0.22578401863574982 0.0567656010389328
0.26365166902542114 -0.29207244515419006 -0.07457377761602402
-0.5444613099098206 0.1537160724401474 0.05350169539451599
-0.36681824922561646 -0.21672463417053223 -0.06693972647190094
0.11784037202596664 -0.07572337985038757 0.34600335359573364
0.4076257348060608 0.3153069019317627 -0.2845117747783661
-0.06646011024713516 0.2954564094543457 0.0519486665725708
-0.31890374422073364 0.2982885539531708 -0.0677105113863945
0.41564348340034485 -0.11480109393596649 -0.3859892189502716
-0.4942087233066559 -0.298382043838501 -0.05111391842365265
0.2998659014701843 -0.26145926117897034 -0.3619808554649353
-0.36019015312194824 0.07740616798400879 0.054303064942359924
-0.560100257396698 -0.08570585399866104 0.0474979504942894
0.11048425734043121 -0.18524906039237976 0.34125828742980957
-0.3164914846420288 -0.14446215331554413 -0.06903936713933945
-0.417940616607666 0.3101895749568939 0.039344772696495056
0.31155717372894287 0.26701855659484863 -0.3686492443084717
-0.0532916858792305 -0.3041512966156006 -0.07009430229663849
0.22927626967430115 0.2090727984905243 0.04983668029308319
0.24126644432544708 0.3166176676750183 -0.01751062087714672
0.4081552028656006 -0.09770029783248901 -0.39549678564071655
-0.12982505559921265 -0.11830369383096695 -0.07290315628051758
0.3030523359775543 -0.21081596612930298 -0.2110355645418167
-0.4178503751754761 -0.1361849457025528 -0.07170751690864563
0.0730273500084877 0.2999325692653656 -0.06977864354848862
0.42199191451072693 0.3078123927116394 -0.1772010177373886
0.20388926565647125 -0.19877970218658447 0.05205388367176056
0.12683138251304626 -0.1941768229007721 0.0654909536242485
-0.18822252750396729 -0.3083515763282776 0.016512736678123474
-0.2246929407119751 -0.28633663058280945 -0.07223759591579437
0.13423746824264526 -0.19547197222709656 0.3111441135406494
-0.05182940512895584 0.31626221537590027 -0.06552409380674362
-0.5606845617294312 -0.02677016332745552 -0.05847223103046417
0.4121434688568115 0.3162969648838043 -0.13800089061260223
-0.4739511013031006 -0.2693851888179779 0.05303454026579857
-0.2481810450553894 -0.30175459384918213 -0.07059141993522644
0.3145873546600342 0.16334624588489532 -0.39289233088493347
-0.45386195182800293 -0.3107524812221527 -0.050730351358652115
0.29893219470977783 -0.20244939625263214 -0.3321121335029602
0.420101523399353 0.2978302836418152 -0.1354183852672577
0.42176392674446106 -0.30612802505493164 0.011439038440585136
-0.3163754642009735 -0.3195621371269226 -0.07011855393648148
0.4172797203063965 -0.06563913822174072 -0.24017463624477386
0.40118512511253357 -0.20680367946624756 -0.39203670620918274
0.011534884572029114 -0.1988714337348938 0.058564163744449615
-0.03301290422677994 0.3061332106590271 -0.06878398358821869
-0.5625109076499939 0.19815105199813843 0.04308526590466499
-0.3693895936012268 0.040170323103666306 -0.06938643008470535
0.13230584561824799 -0.06158466637134552 0.1788952797651291
0.06273894011974335 -0.29829028248786926 -0.07490535825490952
0.3000558018684387 -0.05542825162410736 -0.24179969727993011
0.4180239140987396 -0.07883583009243011 0.05228970944881439
0.4109705984592438 0.31453946232795715 0.02901853621006012
-0.5065034627914429 0.22400198876857758 0.05632774159312248
0.14476841688156128 0.1991928219795227 0.2278231531381607
0.08974508941173553 -0.16254252195358276 0.3816235363483429
-0.2197140008211136 -0.3102441728115082 -0.004744195379316807
-0.01641799882054329 0.16658447682857513 0.26640382409095764
-0.31527426838874817 -0.3187004625797272 -0.07157356292009354
-0.5511664152145386 0.2201250046491623 -0.04858369007706642
0.4039543867111206 -0.20761172473430634 -0.3891880512237549
0.4207446575164795 -0.00021908432245254517 -0.20973610877990723
-0.4364691972732544 0.0671551451086998 0.0535956472158432
-0.5156465768814087 -0.20507074892520905 -0.06762850284576416
0.107120580971241 -0.15729741752147675 0.36638447642326355
0.2917388677597046 0.30029991269111633 -0.2134009599685669
0.33137965202331543 0.015554096549749374 0.13435271382331848
0.29966893792152405 0.06750138849020004 -0.38822364807128906
0.4218408465385437 0.1583252251148224 0.038189731538295746
0.06655625998973846 -0.145598903298378 0.39851343631744385
-0.3692915439605713 -0.06847324222326279 0.052700936794281006
-0.38562947511672974 -0.01538124494254589 0.054325446486473083
-0.3803372085094452 0.21387578547000885 -0.06532516330480576
0.0601925253868103 -0.1419135481119156 0.400534451007843
-0.5556113123893738 -0.1464463770389557 -0.0692538395524025
0.22824876010417938 -0.14176702499389648 0.23977436125278473
-0.34883764386177063 -0.096183642745018 0.0548311322927475
-0.48100486397743225 0.13116289675235748 -0.0660276710987091
0.4219777286052704 0.1890707165002823 -0.15394970774650574
-0.5471413135528564 -0.03067595139145851 0.054199982434511185
-0.2749272584915161 -0.2697165012359619 -0.07052408903837204
-0.2091926634311676 0.17956772446632385 -0.07381706684827805
0.16907313466072083 0.2847229838371277 0.05371367558836937
-0.01743105798959732 0.2942727208137512 0.05265263840556145
-0.050298672169446945 0.19910937547683716 0.0749344676733017
0.07619898021221161 -0.20218423008918762 0.051757633686065674
-0.4219517111778259 0.1269979327917099 0.05700196698307991
-0.5457395315170288 -0.06854858249425888 -0.06497775763273239
0.011868130415678024 -0.29924023151397705 -0.07214419543743134
0.025688596069812775 -0.30186983942985535 -0.07603505998849869
-0.2682035565376282 -0.0819191038608551 -0.07230474799871445
-0.22460894286632538 -0.31558531522750854 -0.07503841072320938
0.25547534227371216 0.04905756562948227 0.21277184784412384
-0.33218953013420105 0.14349697530269623 0.05184797942638397
-0.01612960919737816 0.31013408303260803 -0.05579834803938866
-0.5255929827690125 -0.2700452506542206 0.03299856185913086
-0.3711002469062805 0.04992463439702988 0.05613735318183899
0.29482051730155945 0.0030913352966308594 -0.0788194090127945
0.1755491942167282 0.310351699590683 0.04393870010972023
0.29735398292541504 -0.07518413662910461 -0.09523697197437286
-0.1187223345041275 0.3150216341018677 -0.06543369591236115
-0.5610849857330322 -0.05014897137880325 -0.026032621040940285
0.013682376593351364 -0.03426748886704445 0.4387516677379608
0.2964770793914795 -0.2890753149986267 -0.17886100709438324
-0.2783280313014984 -0.30796316266059875 -0.06451687216758728
0.11747914552688599 0.09627524018287659 0.2410735785961151
-0.22170770168304443 -0.316006064414978 -0.06846694648265839
-0.5530518293380737 0.04835294932126999 0.054940253496170044
-0.4426071047782898 -0.14140276610851288 -0.06139873340725899
0.35580936074256897 -0.19911804795265198 0.10167016834020615
-0.2715475559234619 -0.13298632204532623 -0.06982385367155075
0.04693880304694176 -0.14226165413856506 -0.07648172229528427
-0.13087281584739685 0.1974221169948578 0.057744309306144714
0.299585223197937 0.25882747769355774 -0.2890050709247589
-0.2835058271884918 0.3000361919403076 -0.06975961476564407
-0.10339667648077011 -0.3059135973453522 0.035873234272003174
-0.47702208161354065 0.30043700337409973 0.034974291920661926
0.2149350643157959 0.31326183676719666 0.04293143004179001
0.4159333407878876 0.22527822852134705 -0.38696855306625366
0.08261355757713318 -0.1523493528366089 0.39365705847740173
-0.10486278682947159 -0.20901522040367126 0.05397428199648857
-0.01002458669245243 0.3030225932598114 -0.06826036423444748
0.27696526050567627 -0.0023450851440429688 0.193198561668396
0.03251829743385315 -0.06851237267255783 0.4328402578830719
-0.5614012479782104 -0.11989505589008331 0.04555718973278999
0.11835228651762009 -0.18993422389030457 0.32964062690734863
0.0983581617474556 0.002624882385134697 0.37287142872810364
0.06625588983297348 -0.13840806484222412 0.402767151594162
0.317670613527298 0.2998735010623932 -0.33182966709136963
0.4180223047733307 0.1675914078950882 -0.20782074332237244
-0.5642014145851135 -0.06332474201917648 -0.05172228813171387
0.4163537621498108 -0.00637584924697876 -0.3790341019630432
0.05371309071779251 -0.1393212080001831 0.3966931104660034
-0.3834277093410492 0.1462244689464569 0.055994972586631775
-0.4031549394130707 -0.30971553921699524 0.042635366320610046
0.28342875838279724 0.20470550656318665 0.07489965111017227
0.1544366478919983 -0.19646766781806946 0.290072500705719
-0.032967060804367065 0.3114033043384552 -0.004473580978810787
-0.50801020860672 -0.286551833152771 -0.05072147771716118
0.41555777192115784 0.023066803812980652 -0.38772621750831604
0.10050062835216522 -0.022853083908557892 0.3684086799621582
-0.22831004858016968 -0.1733149141073227 0.06406839191913605
-0.19176912307739258 -0.30453717708587646 0.04645368829369545
0.421528160572052 0.1827104538679123 0.04490505903959274
-0.5644760727882385 0.0488048791885376 -0.059293195605278015
-0.49567437171936035 0.17347414791584015 -0.05611925572156906
0.4197827875614166 -0.22076697647571564 0.026441197842359543
-0.3490927815437317 -0.0895625427365303 0.05606327950954437
0.2961629033088684 -0.24321946501731873 -0.07942631095647812
-0.26879581809043884 -0.3147476315498352 -0.06939378380775452
-0.38791412115097046 -0.31050729751586914 -0.07213438302278519
0.3497324287891388 -0.19860488176345825 0.1052868515253067
-0.2463361620903015 -0.32187604904174805 -0.06941822171211243
-0.1942887306213379 -0.31563788652420044 -0.06904222071170807
0.17683419585227966 -0.19441165030002594 0.26517173647880554
-0.05383459851145744 -0.30792999267578125 -0.07691826671361923
-0.5459662675857544 0.2490849494934082 0.05795876681804657
-0.42194730043411255 0.13152660429477692 -0.05100938677787781
-0.024737872183322906 0.18772661685943604 -0.06916306167840958
-0.3428075313568115 -0.04141256958246231 0.08400267362594604
0.25595736503601074 -0.007193818688392639 0.162386953830719
0.29884254932403564 0.009683169424533844 -0.15547168254852295
-0.08943875133991241 0.2827933430671692 -0.06646504253149033
0.15944884717464447 -0.20456549525260925 0.049417644739151
-0.5330125093460083 0.10245367884635925 0.05361413210630417
0.11484149843454361 0.31040653586387634 0.03701825067400932
0.20808489620685577 -0.08065927028656006 0.2606457471847534
-0.23484206199645996 0.3051052689552307 -0.051922984421253204
-0.4578041434288025 0.130714550614357 0.04623476415872574
-0.46273094415664673 -0.06936092674732208 0.05187012255191803
0.2988321781158447 0.0028898362070322037 -0.31479573249816895
0.4152955114841461 -0.0698089599609375 -0.39492249488830566
0.41791537404060364 -0.3013477921485901 -0.06933193653821945
-0.05135029926896095 0.1672907918691635 0.23365433514118195
-0.07757553458213806 0.3101629912853241 0.03685776889324188
-0.19391198456287384 -0.3208991289138794 -0.07094171643257141
-0.513994574546814 -0.2858425974845886 -0.06309596449136734
0.34837400913238525 0.16417203843593597 0.12750913202762604
0.09552120417356491 -0.17087610065937042 0.3721047341823578
0.4192883372306824 -0.11232949048280716 0.03136971965432167
-0.23724737763404846 -0.21996992826461792 -0.07152945548295975
0.11612050235271454 0.18691907823085785 0.3502579927444458
-0.09428076446056366 0.11593630164861679 0.2769615948200226
0.0735551118850708 0.198585644364357 0.06841635704040527
-0.4294469952583313 -0.29498153924942017 -0.0649203360080719
0.10687301307916641 -0.31144028902053833 -0.06850103288888931
0.13774195313453674 0.19631963968276978 0.2308744639158249
-0.06320467591285706 0.2019921988248825 0.05215837061405182
-0.40351632237434387 0.14866137504577637 -0.016333401203155518
-0.32424962520599365 0.31248244643211365 -0.0659499540925026
0.2823711335659027 0.20358331501483917 0.054789379239082336
-0.36383214592933655 -0.06726444512605667 0.05564575269818306
0.020255912095308304 0.30553075671195984 -0.0723649188876152
-0.3289050757884979 -0.12257643043994904 0.0501902773976326
0.30321696400642395 -0.25575029850006104 -0.28148993849754333
-0.32691240310668945 -0.21279923617839813 -0.07170175015926361
0.2522096335887909 -0.10017211735248566 -0.07618051767349243
0.11390616744756699 0.30997154116630554 -0.05591988563537598
0.01902819238603115 -0.30923324823379517 -0.034417327493429184
-0.4411619305610657 -0.3084508776664734 -0.07037416845560074
0.20799484848976135 -0.30198192596435547 0.004337841644883156
0.2671152651309967 -0.30717289447784424 -0.07275355607271194
-0.5421698689460754 -0.012416204437613487 0.05282210931181908
0.4129653871059418 -0.293861448764801 -0.22418144345283508
-0.4456912577152252 0.2974892258644104 -0.06819819658994675
0.3226224482059479 -0.21713870763778687 -0.314264714717865
-0.3751642107963562 0.30770426988601685 -0.05019938573241234
-0.505033552646637 -0.27906039357185364 0.04736854135990143
0.36350205540657043 0.18009407818317413 0.11433528363704681
0.0592215433716774 0.18003003299236298 -0.07018604129552841
0.27263471484184265 0.31457334756851196 -0.05376386269927025
-0.17728158831596375 -0.3095799684524536 -0.072279192507267
0.3410360813140869 -0.2007559835910797 0.10644976794719696
-0.07344014197587967 -0.31458818912506104 -0.07670606672763824
-0.11611367762088776 -0.31431859731674194 -0.0679304227232933
0.1967478096485138 -0.19416600465774536 0.06604360789060593
0.31678837537765503 0.31572145223617554 -0.26337558031082153
0.3409225642681122 -0.18386097252368927 0.12484289705753326
-0.5642557144165039 0.14435191452503204 -0.008253178559243679
-0.11564113199710846 -0.19591309130191803 0.06764006614685059
-0.16809126734733582 0.30510562658309937 -0.0682900920510292
-0.1950484812259674 -0.3213554620742798 -0.07178747653961182
-0.32271575927734375 -0.3245130181312561 -0.06751144677400589
0.4186669588088989 -0.3025379776954651 -0.012675641104578972
-0.5635889768600464 0.04265265539288521 -0.02659739926457405
0.11320044100284576 -0.31281864643096924 -0.07228870689868927
0.03144720941781998 -0.08817961066961288 0.4304925799369812
-0.05684089660644531 0.3072011470794678 -0.06594810634851456
-0.2799624502658844 0.30859923362731934 -0.058180030435323715
-0.1350158154964447 0.3133474588394165 -0.05929587781429291
0.32256171107292175 0.21781474351882935 0.058619748800992966
0.09881828725337982 0.17662596702575684 0.3710256516933441
-0.5129458904266357 -0.17027036845684052 0.05270026996731758
-0.34331512451171875 -0.3186619281768799 -0.07062799483537674
0.41564667224884033 -0.2960160970687866 -0.2052595168352127
-0.502792477607727 0.1390099823474884 -0.061020296066999435
0.20358720421791077 -0.20635734498500824 0.05018630251288414
-0.47123393416404724 0.29785096645355225 0.04800523817539215
-0.2415216565132141 0.2978154718875885 -0.06653518974781036
0.0797591283917427 -0.15142138302326202 0.3894089460372925
-0.37144750356674194 0.1939401775598526 -0.06324823200702667
-0.11927936971187592 0.03638112545013428 0.29736876487731934
0.40651512145996094 -0.24056658148765564 -0.37857457995414734
-0.1889195591211319 -0.09237100929021835 -0.0728088766336441
0.2916584312915802 -0.053873591125011444 -0.36664605140686035
-0.22237002849578857 -0.1577540785074234 -0.07190331071615219
0.2908693552017212 -0.06528186798095703 -0.38951361179351807
-0.5605196356773376 0.2049584835767746 -0.06285445392131805
0.3665216863155365 -0.18801294267177582 0.10717645287513733
0.35933518409729004 0.2143617570400238 0.055411506444215775
0.06556901335716248 -0.2984400689601898 -0.07378052920103073
-0.5477163195610046 -0.2346377968788147 0.03477643430233002
0.2958897650241852 -0.11689978837966919 -0.37766119837760925
-0.3969554603099823 0.297245591878891 -0.06703643500804901
0.3519589900970459 0.31690338253974915 -0.0647066980600357
0.18697373569011688 0.31138890981674194 0.04997663572430611
0.4205319285392761 0.16908018290996552 -0.18433405458927155
-0.05446970462799072 0.06541454792022705 0.3533647656440735
0.4088311791419983 -0.2504027783870697 -0.3682694435119629
-0.33742085099220276 0.13817647099494934 0.0523453988134861
-0.08612040430307388 -0.31662967801094055 -0.06941590458154678
0.04566654562950134 0.11203136295080185 0.4243331551551819
0.09486903250217438 0.02260810136795044 0.3774832487106323
0.2936515808105469 0.21403896808624268 -0.35650700330734253
-0.4541069269180298 0.30243027210235596 -0.06869915127754211
0.2197803258895874 -0.060330964624881744 0.2442357987165451
0.4197384715080261 0.3161383271217346 0.0229082852602005
0.1478348970413208 -0.3138597011566162 -0.07221031934022903
-0.4974261224269867 0.28635090589523315 0.041136156767606735
0.11198879033327103 0.3121265470981598 0.03949640691280365
0.09087494015693665 -0.29928287863731384 -0.07432041317224503
0.29944393038749695 0.12739478051662445 0.10363589227199554
-0.14275310933589935 -0.3111494183540344 -0.07160878926515579
0.40274882316589355 -0.14140743017196655 -0.39671579003334045
0.1654629409313202 -0.16929291188716888 0.3050282597541809
0.4129317104816437 0.22963693737983704 0.0489434115588665
-0.46153581142425537 -0.1460348665714264 -0.06481014937162399
-0.364933580160141 -0.06805650889873505 0.05353827774524689
-0.5626249313354492 0.02195598930120468 -0.06754160672426224
-0.3501119613647461 0.30875974893569946 -0.05037178471684456
-0.5639467239379883 -0.026906907558441162 -0.05886968597769737
-0.5601221919059753 0.009586470201611519 0.01784181408584118
-0.5630680918693542 -0.05725301057100296 -0.013079472817480564
0.07784625887870789 0.07021166384220123 0.2977004647254944
0.401238352060318 0.30920130014419556 0.04231015965342522
0.3210694491863251 -0.30053865909576416 0.030542857944965363
-0.459529310464859 -0.3010833263397217 -0.0693884938955307
0.12113102525472641 -0.18617336452007294 0.3406451344490051
-0.4735531508922577 -0.10840768367052078 0.052912406623363495
-0.551069438457489 0.020112499594688416 -0.0667232945561409
0.10039140284061432 0.05625962093472481 -0.07316740602254868
0.4193677604198456 0.2691380977630615 -0.010054066777229309
