0.341733455657959 -0.18988926708698273 0.12095488607883453
0.1898764818906784 -0.31193801760673523 -0.07999943196773529
-0.3425154685974121 -0.3013491630554199 -0.07116111367940903
0.02010698989033699 0.1971253752708435 0.12065860629081726
0.42145538330078125 0.07097919285297394 -0.005955234169960022
-0.4657678008079529 0.1335378885269165 -0.05303191393613815
0.3029160797595978 -0.29486149549484253 -0.19829361140727997
0.3554997444152832 -0.22085890173912048 -0.3845844268798828
-0.3653201758861542 -0.24382856488227844 -0.07218755781650543
0.39753684401512146 -0.06231573596596718 -0.3949005603790283
0.4204333424568176 -0.18337690830230713 0.03763725608587265
0.2674797773361206 -0.19452691078186035 0.08138620853424072
-0.49693286418914795 0.29210999608039856 0.0466882549226284
0.22246026992797852 0.14338749647140503 -0.07282897084951401
0.01908126473426819 0.011285308748483658 0.4472568929195404
0.08561036735773087 -0.012849637307226658 0.38099992275238037
-0.5520837903022766 0.11226692795753479 0.05283358693122864
-0.472337543964386 -0.12279579043388367 0.050998903810977936
0.30580994486808777 -0.1621880978345871 -0.39675173163414
-0.05781438201665878 0.03005131520330906 -0.07352200150489807
-0.5467314720153809 0.016282031312584877 0.05693306773900986
-0.39162886142730713 0.2225872278213501 -0.004131846129894257
-0.3512866795063019 -0.11958350241184235 0.0526023767888546
0.2595774829387665 0.31485649943351746 0.04437829926609993
0.08468399196863174 -0.014426901005208492 0.3699258863925934
0.3229099214076996 0.040079500526189804 0.12664024531841278
0.2978943884372711 -0.2357519418001175 -0.10044663399457932
-0.4733039438724518 -0.13359637558460236 0.051941029727458954
-0.5543763041496277 -0.2126891165971756 0.039881277829408646
-0.31695282459259033 0.1339716911315918 0.052558332681655884
-0.47994744777679443 -0.22090911865234375 -0.06342551857233047
0.2716374397277832 -0.14666953682899475 0.19045618176460266
0.11808928847312927 -0.0907323807477951 -0.07866280525922775
0.4193462133407593 0.0033006221055984497 0.033581748604774475
0.08075162023305893 -0.1650056093931198 0.37039458751678467
-0.5045967698097229 -0.1382523626089096 0.04836408421397209
-0.18794430792331696 0.30885782837867737 -0.05803443491458893
-0.08936341106891632 0.2968612015247345 0.05271512642502785
0.2732805609703064 0.13536310195922852 0.1729574054479599
0.4177229106426239 0.1376533806324005 -0.391350120306015
-0.3699730336666107 -0.21070140600204468 -0.071543850004673
-0.291340172290802 -0.30848437547683716 0.04786214977502823
0.3042452335357666 -0.18092918395996094 -0.3419066369533539
0.26090723276138306 -0.15141797065734863 0.21142606437206268
0.42447492480278015 0.2906026840209961 -0.036293432116508484
-0.25960779190063477 -0.16439710557460785 0.05038861930370331
-0.0630796030163765 0.29536813497543335 0.05292139947414398
0.0666743591427803 0.2519616484642029 0.05670539289712906
0.34398287534713745 0.08802201598882675 0.12269875407218933
-0.37443315982818604 0.19696488976478577 -0.0399564728140831
0.2936529815196991 0.20353245735168457 -0.33846554160118103
0.3981984555721283 -0.019084295257925987 -0.39516228437423706
-0.14178353548049927 -0.19075217843055725 0.058994606137275696
-0.41823166608810425 -0.3029399812221527 -0.07097425311803818
0.0014905445277690887 -0.2992876172065735 0.049163252115249634
-0.13259749114513397 -0.19294041395187378 0.06392122805118561
0.24988850951194763 0.2000238448381424 0.061548762023448944
0.010595113039016724 -0.3030164837837219 -0.07230234146118164
-0.5454223155975342 -0.0622389018535614 -0.06708128750324249
-0.38854509592056274 -0.1458868831396103 -0.050307150930166245
-0.28659698367118835 -0.29390525817871094 -0.07307951152324677
0.42233937978744507 0.2976347506046295 -0.15781182050704956
0.1612999141216278 -0.1963036060333252 0.06678193807601929
0.2979680001735687 -0.04754215478897095 -0.37711888551712036
0.3206329643726349 -0.3078453242778778 -0.11813768744468689
0.20555582642555237 0.0711074098944664 -0.07546064257621765
-0.1042771264910698 0.12188141793012619 -0.06879731267690659
0.3083474636077881 -0.29934340715408325 -0.2565520405769348
-0.03812766075134277 0.3013330101966858 -0.06971743702888489
0.3047686815261841 -0.30033689737319946 -0.2499755620956421
-0.4323001205921173 -0.31113201379776 -0.059153445065021515
0.37568438053131104 -0.28292909264564514 -0.33077991008758545
0.41889408230781555 -0.3017328381538391 0.010227343067526817
0.35792529582977295 -0.30439698696136475 0.015239470638334751
0.13494771718978882 -0.20131288468837738 0.05108465626835823
0.3021695911884308 -0.2592587471008301 -0.3614199459552765
-0.08219541609287262 0.3046819865703583 -0.0684778243303299
-0.5215399265289307 -0.24529069662094116 -0.07005380094051361
-0.39751574397087097 0.14021122455596924 -0.0097024105489254
0.253410667181015 -0.30110836029052734 -0.05004836991429329
-0.09126787632703781 -0.19868004322052002 0.06316441297531128
-0.16439734399318695 0.30361253023147583 0.04715824872255325
-0.4661097526550293 0.26066604256629944 -0.0655580535531044
0.39867815375328064 0.07206247746944427 -0.39517855644226074
0.38328438997268677 0.31592506170272827 -0.21640674769878387
-0.376993328332901 0.03855300694704056 0.05575446039438248
-0.31983911991119385 0.08260904252529144 -0.06813166290521622
-0.17148557305335999 -0.2904304265975952 0.04663753882050514
0.07954917848110199 0.08785472810268402 0.3895191252231598
0.2109651267528534 0.20357298851013184 0.0588664710521698
0.08482956886291504 -0.19635330140590668 0.17416399717330933
-0.21010175347328186 0.3060759902000427 0.04760745167732239
-0.3839419484138489 0.1321314573287964 -0.06760948896408081
0.02443176507949829 -0.02509142830967903 0.4471049904823303
0.42020943760871887 0.19581417739391327 -0.21311432123184204
0.25300633907318115 0.31121429800987244 0.046445392072200775
0.4051070809364319 0.31549662351608276 -0.043995510786771774
0.041694000363349915 -0.19704443216323853 0.05929866433143616
-0.18181481957435608 0.3080592751502991 -0.05006862431764603
0.41977459192276 -0.05490285903215408 0.040298424661159515
0.39823585748672485 -0.30225417017936707 -0.2552042305469513
0.18534739315509796 -0.19947883486747742 0.05785740166902542
0.31702446937561035 0.2481168806552887 -0.37862643599510193
-0.2681616544723511 -0.15882296860218048 0.05180630460381508
0.10778798907995224 -0.3049721121788025 -0.06014107167720795
0.06740628182888031 0.18810826539993286 -0.07086458057165146
0.29186758399009705 -0.2835017442703247 -0.07643584907054901
0.4189716875553131 0.13579922914505005 -0.2355097383260727
-0.42866969108581543 -0.2518209218978882 -0.06907648593187332
-0.3830704391002655 -0.1528908759355545 -0.07333125919103622
0.10646022856235504 0.3071116507053375 -0.06331302970647812
0.2556111216545105 -0.19348078966140747 0.08627646416425705
-0.30784881114959717 -0.12285297363996506 0.05635561794042587
-0.548805296421051 0.06422138959169388 0.053201500326395035
-0.3071567714214325 0.13672198355197906 0.05184084177017212
-0.19051775336265564 -0.29789918661117554 -0.07798481732606888
-0.5613411664962769 0.05079835280776024 -0.05726289749145508
-0.04461672529578209 -0.2015615850687027 0.06818845868110657
-0.4038263261318207 -0.1284702718257904 0.0520821288228035
0.4217817187309265 0.29084938764572144 -0.2571152448654175
0.2694285809993744 -0.10744254291057587 0.16871917247772217
-0.5420936346054077 -0.02720234915614128 -0.07076532393693924
-0.2313503623008728 -0.2942578196525574 -0.07380272448062897
0.3248351216316223 -0.0712900310754776 0.1293811798095703
-0.027508847415447235 0.1974084973335266 0.07784172147512436
-0.30459195375442505 0.3032737970352173 -0.06549866497516632
-0.5144804120063782 -0.27826666831970215 0.03465558961033821
-0.19934827089309692 -0.3005315065383911 -0.06808716803789139
-0.5434736609458923 0.03310934081673622 -0.06583945453166962
0.005539878271520138 -0.1980452835559845 0.06220248341560364
-0.37446343898773193 0.01636667177081108 0.05409878492355347
0.15368707478046417 0.29965558648109436 -0.07196734100580215
-0.43015921115875244 -0.11385749280452728 -0.07053159922361374
0.12825217843055725 -0.30929034948349 -0.07509385049343109
-0.4778536260128021 0.14681383967399597 -0.01051739975810051
0.07910677045583725 0.10944396257400513 -0.07297615706920624
-0.4974832236766815 0.28959110379219055 -0.037053197622299194
0.4207765758037567 -0.30151283740997314 0.013795331120491028
-0.34759145975112915 0.09636294096708298 0.05856947973370552
-0.4838871657848358 0.25524070858955383 -0.06284687668085098
0.05981852859258652 -0.3066319227218628 0.0390021875500679
-0.47452080249786377 0.1213398277759552 0.05209425836801529
0.42125779390335083 0.010118551552295685 -0.19602404534816742
0.420476496219635 0.17875881493091583 -0.38842204213142395
0.4203631579875946 -0.28099292516708374 0.025387020781636238
-0.06938031315803528 -0.3031887114048004 -0.0740065723657608
-0.3267979323863983 0.3081953823566437 -0.05077703297138214
0.046790480613708496 -0.04383279010653496 0.4188374876976013
0.04736752808094025 -0.10730437934398651 0.4229344427585602
-0.2646988332271576 -0.17272105813026428 0.05388127267360687
0.05647304654121399 0.30178773403167725 -0.07241984456777573
-0.23080380260944366 0.16390666365623474 0.06958719342947006
-0.12080539762973785 0.1934245526790619 0.06807036697864532
0.23177175223827362 0.006176449358463287 0.2384922355413437
0.044971928000450134 0.3117205798625946 0.038763538002967834
-0.38857120275497437 0.29494065046310425 -0.062191735953092575
0.046061381697654724 -0.09926950186491013 0.42630159854888916
-0.5488107204437256 -0.06877678632736206 0.05017378553748131
0.10659858584403992 -0.17842797935009003 0.3576083481311798
0.292135626077652 0.0274076908826828 -0.09722166508436203
0.41862329840660095 -0.09479862451553345 -0.1446957141160965
-0.5514483451843262 -0.141266331076622 -0.06970366835594177
-0.4113144278526306 -0.30570366978645325 0.05119345337152481
0.27758416533470154 -0.052424486726522446 0.18971572816371918
0.02622736245393753 -0.04801642522215843 0.4422024190425873
-0.37341228127479553 -0.17492474615573883 -0.059971489012241364
-0.2967417240142822 0.20406416058540344 0.05262274295091629
0.19047395884990692 -0.1976039856672287 0.056405745446681976
0.41769593954086304 -0.3072642982006073 -0.12279479205608368
-0.23743708431720734 -0.07082318514585495 0.17707017064094543
0.2783906161785126 0.20083332061767578 0.07117204368114471
0.059016503393650055 -0.25616344809532166 -0.07437991350889206
-0.3137458562850952 0.13721151649951935 0.05161108076572418
0.42027488350868225 0.28755220770835876 -0.31908896565437317
-0.11793932318687439 0.30736005306243896 0.03324480727314949
-0.5511291027069092 0.06641458719968796 -0.06246213987469673
0.3236326277256012 0.07208933681249619 0.12828239798545837
0.1669258326292038 -0.19019250571727753 0.27262747287750244
-0.12456640601158142 -0.30166560411453247 -0.07334369421005249
0.3876732289791107 -0.3011518716812134 -0.10840805619955063
-0.3130747675895691 -0.13121332228183746 0.0522691011428833
0.4196386933326721 -0.18309760093688965 0.03538155555725098
0.41514477133750916 0.1459098905324936 0.05679946392774582
0.3266022503376007 -0.11836617439985275 0.12390068918466568
0.13090780377388 0.18708127737045288 0.3395068943500519
0.06958204507827759 -0.30263012647628784 -0.07743927836418152
0.02443092130124569 -0.07813773304224014 0.4331757128238678
-0.44894498586654663 0.3057876229286194 -0.06190172955393791
0.40856754779815674 0.3009556531906128 -0.33215945959091187
-0.5610364675521851 0.08673468977212906 0.0341801755130291
0.24521197378635406 -0.2062002569437027 0.049336522817611694
-0.142037495970726 -0.3047407269477844 0.02868138998746872
0.40299510955810547 0.29762330651283264 -0.33840110898017883
0.40417271852493286 0.31622114777565 -0.0833619236946106
0.015250541269779205 -0.30421143770217896 -0.03451035916805267
-0.3448183536529541 -0.16216447949409485 -0.071169912815094
0.29121994972229004 0.14408661425113678 -0.17871689796447754
-0.3635121285915375 0.05172150209546089 0.06101410835981369
0.27096447348594666 -0.0652996152639389 -0.07923373579978943
0.14679516851902008 0.026595808565616608 0.16413478553295135
-0.48762065172195435 0.12110520899295807 -0.06952455639839172
-0.13745726644992828 -0.2968328297138214 -0.07520654052495956
0.02193363755941391 0.008611464872956276 0.4486934244632721
0.4238094687461853 0.1971859633922577 0.03434339910745621
0.4171753227710724 -0.292016863822937 -0.22060027718544006
0.0835207998752594 -0.19837690889835358 0.05574265122413635
-0.5600185990333557 0.054324544966220856 -0.0031546629033982754
-0.1616533100605011 -0.13833098113536835 0.18467076122760773
-0.504487156867981 0.21995466947555542 -0.0677976906299591
0.19295629858970642 -0.19444966316223145 0.24884912371635437
0.26111915707588196 -0.30395790934562683 -0.05831507220864296
-0.31497567892074585 0.30896735191345215 -0.06049636751413345
-0.4998117685317993 0.2908354699611664 0.008959910832345486
-0.09276227653026581 0.3109159469604492 -0.06124243885278702
0.030218150466680527 0.018249988555908203 0.2934764623641968
-0.5630387663841248 0.003071492537856102 -0.006984081119298935
0.04347003251314163 0.30412960052490234 -0.06648196280002594
-0.49413183331489563 -0.051937080919742584 0.05082645267248154
-0.2817571759223938 0.1457570195198059 0.060034748166799545
-0.38227540254592896 -0.045537903904914856 0.048824504017829895
0.33776068687438965 -0.16525813937187195 0.13036178052425385
-0.5611793994903564 0.01917162910103798 -0.0683562234044075
-0.2580038905143738 0.30654534697532654 0.03413613140583038
0.3095846176147461 0.0077677443623542786 -0.3975546956062317
0.03742494061589241 0.31049713492393494 0.03925374522805214
-0.31958672404289246 0.10991393774747849 0.06606428325176239
0.2791542410850525 -0.30320560932159424 0.026948221027851105
-0.5460498332977295 0.04780111089348793 -0.06592129915952682
-0.4761546850204468 -0.2675759792327881 -0.07367785274982452
-0.44116413593292236 0.24490708112716675 -0.056686241179704666
0.2699505388736725 -0.05546114593744278 0.1952681541442871
0.24139472842216492 0.20296141505241394 0.060382694005966187
-0.5482118129730225 0.09771284461021423 -0.0654148980975151
-0.23832625150680542 -0.17497485876083374 0.049488991498947144
-0.3114396333694458 0.10570250451564789 0.0711110383272171
0.1893760710954666 0.09839840233325958 0.278873085975647
-0.4116603136062622 -0.1321219503879547 -0.04777655377984047
-0.36084508895874023 -0.05634889006614685 0.05582267418503761
-0.1919930875301361 0.2302757054567337 0.053882140666246414
0.01752433180809021 0.0069648390635848045 0.44445866346359253
-0.22105088829994202 -0.11647108942270279 0.1579502820968628
-0.10674743354320526 -0.30775612592697144 -0.05451272800564766
0.4240826666355133 0.29557254910469055 -0.255519300699234
-0.03368550166487694 -0.3051470220088959 -0.05348627641797066
0.2613772451877594 -0.092104971408844 0.1734452247619629
-0.08714841306209564 0.16977785527706146 -0.06813351809978485
-0.3240639269351959 0.3005788028240204 -0.06099183112382889
-0.11570814251899719 0.19708403944969177 0.062155067920684814
0.20085500180721283 -0.2037026435136795 0.05149608477950096
-0.2546800971031189 0.17033736407756805 0.05314825475215912
-0.5593761205673218 -0.1909131407737732 -0.031471412628889084
-0.49900850653648376 0.1805759221315384 -0.05416856333613396
0.38955962657928467 -0.15234769880771637 -0.3943239748477936
0.3009597361087799 -0.16308659315109253 -0.21960479021072388
-0.5591787099838257 -0.08103284239768982 -0.05408838018774986
0.1636955738067627 -0.3024081587791443 0.0010998565703630447
0.25845664739608765 0.20325416326522827 0.07005217671394348
-0.5583209991455078 0.04779742658138275 0.05391388386487961
-0.41867271065711975 0.3049611449241638 -0.06169537454843521
-0.5468636155128479 -0.0335383340716362 0.05396668612957001
-0.009636439383029938 -0.05093804746866226 0.4149707555770874
-0.10631738603115082 0.3093431293964386 -0.06630591303110123
0.29343459010124207 0.028800152242183685 -0.3767086863517761
0.41203194856643677 0.312214195728302 -0.3137037754058838
0.07427480816841125 0.3017694056034088 -0.06954263150691986
0.3007669150829315 -0.0738256499171257 -0.33382347226142883
0.1817464381456375 0.311726838350296 0.04299769550561905
-0.4016552269458771 -0.2427966296672821 -0.06986235082149506
0.29897016286849976 -0.2545820474624634 -0.31081628799438477
0.42090755701065063 -0.08523910492658615 0.037919782102108
0.41840946674346924 -0.29782867431640625 0.012906767427921295
0.2970157265663147 -0.13990351557731628 -0.373161643743515
-0.5520924925804138 -0.02558925747871399 -0.0690256878733635
-0.05263069272041321 0.30620720982551575 0.036547526717185974
0.25925031304359436 -0.03336596488952637 0.2164553701877594
-0.4732075035572052 0.2471606284379959 -0.04694576933979988
0.21897746622562408 -0.30228736996650696 0.03760118409991264
0.09732596576213837 -0.2927047908306122 -0.07477500289678574
-0.18456728756427765 0.10748764872550964 0.1970541775226593
0.3116166591644287 -0.13454893231391907 -0.39637306332588196
-0.24275019764900208 -0.29110395908355713 0.05047991871833801
0.02480270154774189 -0.06693494319915771 0.433208167552948
0.2765166163444519 0.31429097056388855 -0.0655442625284195
-0.48736804723739624 -0.19060876965522766 -0.05070027709007263
0.41950488090515137 -0.18277041614055634 -0.19477391242980957
0.2272692620754242 -0.1951681226491928 0.2208036631345749
0.3019670248031616 0.04371517151594162 -0.1807233989238739
-0.2957450747489929 0.05203758180141449 0.12853999435901642
0.023510832339525223 0.30615827441215515 0.042496539652347565
-0.48334357142448425 -0.21713194251060486 -0.06762813031673431
0.4189411997795105 -0.2968422472476959 -0.12272302806377411
-0.5436693429946899 0.23159852623939514 0.05207289382815361
-0.046086885035037994 -0.19764426350593567 0.06335456669330597
-0.04040735587477684 -0.2962752878665924 -0.07274165004491806
-0.32852426171302795 0.09893670678138733 0.06490130722522736
0.03853621333837509 -0.3022826611995697 -0.0747988149523735
0.3220188617706299 0.22790168225765228 -0.23294182121753693
-0.12225943803787231 -0.29960817098617554 -0.07446867227554321
0.3252491354942322 -0.08942589163780212 0.12638159096240997
-0.38851702213287354 0.2138413041830063 -0.013629235327243805
-0.4143289029598236 0.12696045637130737 -0.03927626833319664
0.40210238099098206 0.11729107052087784 -0.3953680992126465
-0.5615941882133484 0.07785294204950333 -0.060457319021224976
0.038842130452394485 -0.3024931848049164 -0.07128232717514038
0.4167358875274658 -0.11059163510799408 -0.27876484394073486
-0.37429261207580566 -0.062069863080978394 0.048857301473617554
0.07026378810405731 0.3096727430820465 -0.07151138782501221
0.015962639823555946 0.3161267638206482 -0.06661834567785263
-0.34675663709640503 -0.09253895282745361 0.05204977095127106
0.4198702573776245 -0.11281968653202057 0.04830920696258545
-0.23491765558719635 0.17781293392181396 0.056317172944545746
-0.4360222816467285 -0.12219423800706863 -0.06537310779094696
-0.5508208274841309 0.008054468780755997 0.05106605216860771
0.094443678855896 -0.17126156389713287 0.3675720691680908
-0.18107406795024872 0.30792737007141113 0.04953797906637192
-0.23986418545246124 0.17529188096523285 0.05373860150575638
-0.31079915165901184 0.14035815000534058 0.05340909585356712
0.29649755358695984 -0.11238621920347214 -0.37071719765663147
-0.272408127784729 -0.08875861763954163 -0.07111130654811859
-0.17066454887390137 -0.17985132336616516 0.07079091668128967
-0.20270022749900818 0.09448565542697906 0.19106358289718628
-0.37259015440940857 0.027163848280906677 0.05779223144054413
-0.2523166537284851 -0.30523446202278137 0.04991352558135986
-0.5641443133354187 -0.03240576386451721 -0.011971862986683846
0.21909131109714508 0.3138568699359894 -0.055636078119277954
-0.06241326779127121 0.2205752730369568 0.053564250469207764
0.14579257369041443 -0.19460025429725647 0.3038941025733948
0.3113982677459717 0.20255139470100403 0.05924130976200104
0.2975025177001953 0.0647222101688385 -0.13257409632205963
-0.47323843836784363 0.138209730386734 -0.06471043080091476
-0.31586527824401855 -0.12900231778621674 0.05252295732498169
0.3911154568195343 0.019305992871522903 0.07989458739757538
-0.3694969415664673 0.03548702597618103 0.0573481023311615
0.036531712859869 -0.19669048488140106 0.18275605142116547
-0.3858467638492584 0.014159084297716618 0.051979608833789825
-0.21348315477371216 -0.05608183890581131 0.20638644695281982
0.18131932616233826 0.089877188205719 0.24644321203231812
0.29521769285202026 0.3132829964160919 -0.08688057214021683
0.04217896983027458 0.3021271824836731 -0.06841686367988586
-0.07612858712673187 -0.292974591255188 0.04871334508061409
0.4147029221057892 -0.11503822356462479 -0.28870949149131775
0.2999890148639679 -0.1272282749414444 -0.10118339955806732
-0.5563048124313354 -0.08127254247665405 0.03810647130012512
0.41834700107574463 0.018664123490452766 -0.3966440260410309
-0.34815019369125366 0.2976607084274292 -0.0669623538851738
-0.37139639258384705 -0.19728098809719086 -0.009214028716087341
-0.16357305645942688 -0.11075195670127869 0.21854060888290405
-0.500520646572113 -0.2915416955947876 -0.06238329038023949
-0.21620717644691467 -0.30077654123306274 -0.06916284561157227
0.30160844326019287 0.30304014682769775 -0.2859131693840027
-0.3688127398490906 -0.18176479637622833 -0.029888339340686798
-0.1540198028087616 -0.2970837354660034 -0.07397033274173737
-0.33430755138397217 -0.10011496394872665 0.05582350492477417
-0.48346224427223206 -0.1418522596359253 -0.06937851011753082
-0.3646702468395233 -0.04683877155184746 0.057866133749485016
0.020343191921710968 -0.025560349225997925 0.4448486566543579
-0.5403974652290344 0.20349426567554474 -0.05818893387913704
0.005057923495769501 -0.04390183836221695 0.4274632930755615
0.1334025263786316 0.19139409065246582 0.33355504274368286
0.29426807165145874 0.31350430846214294 -0.15603455901145935
0.1708112359046936 -0.1947946846485138 0.2884608209133148
0.15454904735088348 0.30735260248184204 0.040676750242710114
0.007726617157459259 0.30982646346092224 -0.05447640269994736
0.09467680007219315 0.31061962246894836 -0.05515696108341217
0.2962488532066345 0.14659053087234497 -0.2245381474494934
-0.4637652635574341 0.2411508709192276 -0.048442207276821136
0.120046466588974 0.1912957727909088 0.33617720007896423
-0.13523471355438232 -0.294038861989975 -0.07791316509246826
0.4202360212802887 -0.11854706704616547 -0.3807242214679718
0.04853661730885506 -0.2981787919998169 -0.07510968297719955
0.30950623750686646 0.27696576714515686 -0.3613906800746918
0.4084848463535309 0.3067990243434906 -0.3194239139556885
0.1979401856660843 0.14341020584106445 0.2744227349758148
0.1731836497783661 -0.19373175501823425 0.0808924213051796
0.27543073892593384 0.19974622130393982 0.09375859797000885
-0.051113925874233246 -0.30472496151924133 0.023550860583782196
-0.5476073622703552 0.022889310494065285 0.055164989084005356
-0.276678204536438 -0.01687803864479065 -0.07015259563922882
-0.4578699469566345 0.06324450671672821 -0.06719019263982773
-0.5614354610443115 0.10084736347198486 0.009673829190433025
-0.37744882702827454 -0.04988629370927811 0.04843294620513916
-0.39309370517730713 -0.13922683894634247 -0.06077921763062477
0.052274562418460846 0.14138436317443848 0.3985753357410431
-0.23686671257019043 -0.3113238215446472 0.03214216232299805
-0.10321234166622162 -0.3018321394920349 0.05146806687116623
0.18080762028694153 0.20352378487586975 0.055210016667842865
0.2560453414916992 -0.19700641930103302 0.06691724807024002
-0.4457096457481384 0.1147206574678421 -0.07015595585107803
0.027287796139717102 0.0996609777212143 0.4132380187511444
0.4155213534832001 -0.3114563822746277 -0.08613325655460358
-0.21498849987983704 0.19706588983535767 0.05159725993871689
-0.5458639860153198 -0.043223634362220764 0.05211353302001953
-0.3381541967391968 0.30385756492614746 -0.05820748209953308
0.29618310928344727 -0.005042857490479946 -0.08074253797531128
-0.5605968236923218 -0.058977656066417694 -0.05239317566156387
-0.3276589512825012 0.11547321081161499 0.054558753967285156
0.2511215806007385 0.17957833409309387 0.10827060043811798
0.23973336815834045 0.10929350554943085 0.22617101669311523
0.3272126019001007 -0.30281826853752136 -0.26530030369758606
0.15893298387527466 -0.16523350775241852 0.31041374802589417
-0.2092544138431549 -0.2941582202911377 -0.07421684265136719
0.3118598759174347 0.31283965706825256 0.049330487847328186
0.3016332983970642 -0.2836921513080597 -0.10366835445165634
0.42032304406166077 -0.2037329077720642 0.03952644020318985
0.38646212220191956 -0.17691002786159515 0.07676784694194794
-0.06942977011203766 -0.296119749546051 -0.07724576443433762
-0.21696552634239197 0.30833473801612854 -0.058018431067466736
-0.5131776928901672 -0.2371947020292282 -0.07108736783266068
-0.5631585121154785 0.14584000408649445 -0.05868513882160187
0.025534912943840027 -0.2968769967556 -0.07881283015012741
0.12508520483970642 -0.2013547569513321 0.05571503937244415
0.2654329538345337 -0.303052693605423 0.03409693017601967
-0.37828585505485535 0.006682467181235552 0.05481407791376114
0.30589693784713745 -0.09825041145086288 -0.39442527294158936
0.12902528047561646 -0.1934053897857666 0.06401950120925903
-0.2824192941188812 0.30147063732147217 -0.06322623044252396
-0.3481554388999939 0.2846561670303345 -0.06482113897800446
0.04199123755097389 -0.30290845036506653 -0.07993855327367783
0.09429916739463806 -0.18901963531970978 0.2904295325279236
0.4203612208366394 0.23718510568141937 0.02938387170433998
-0.03771284967660904 -0.11488210409879684 0.3353847563266754
0.2771146297454834 0.09729450941085815 0.19122529029846191
0.003893510438501835 -0.3017466962337494 -0.07841965556144714
0.3302163779735565 0.3163023889064789 -0.1609165370464325
0.1960361897945404 0.19802670180797577 0.26555413007736206
0.39404726028442383 -0.3021438717842102 -0.14691084623336792
-0.3439331650733948 0.09223995357751846 0.055562928318977356
-0.5461532473564148 -0.20623652637004852 -0.06723356992006302
0.24298341572284698 0.09548800438642502 0.22320522367954254
-0.4550120532512665 -0.2396795004606247 0.051046814769506454
-0.5306312441825867 0.1989455372095108 0.05442904680967331
0.38128969073295593 -0.08196916431188583 -0.403522789478302
-0.2703167796134949 -0.30604052543640137 0.04678559675812721
-0.354030042886734 0.30682283639907837 0.016601240262389183
0.3304445743560791 0.15260450541973114 0.1352977752685547
0.07542692124843597 0.15979157388210297 0.38493970036506653
-0.5431073904037476 0.202134907245636 0.05856640636920929
-0.5484135746955872 0.033467285335063934 0.05686996504664421
0.39977025985717773 0.31538498401641846 0.035309478640556335
0.4028451442718506 0.22530007362365723 0.04709719866514206
-0.47250667214393616 -0.2982051372528076 -0.05879933387041092
0.08964178711175919 0.043125979602336884 0.37390831112861633
0.22088249027729034 -0.19982081651687622 0.05227973684668541
0.16153237223625183 0.3129766285419464 0.04423436522483826
-0.49323171377182007 -0.15898512303829193 -0.07107711583375931
0.04680461809039116 -0.10917629301548004 0.4213767349720001
0.3019493520259857 -0.1461624652147293 -0.20962835848331451
-0.3714669942855835 0.15697081387043 -0.06347052752971649
-0.38477805256843567 -0.29457002878189087 -0.07080859690904617
0.3210199773311615 0.04448288306593895 0.12692250311374664
-0.21227845549583435 -0.27439671754837036 -0.07641786336898804
-0.03799835965037346 0.19686700403690338 0.10641799867153168
0.06597256660461426 0.14567270874977112 0.3926950991153717
0.29892975091934204 0.22482186555862427 -0.19861295819282532
-0.23156198859214783 0.19175903499126434 0.054510582238435745
0.3868635594844818 0.22973290085792542 0.053617559373378754
0.41858309507369995 -0.15705950558185577 -0.3686763644218445
-0.14184358716011047 0.3005010187625885 -0.06662585586309433
-0.1913364827632904 -0.1846398413181305 0.05548257380723953
-0.3872963488101959 -0.0267709419131279 0.049613505601882935
0.42303311824798584 0.19001592695713043 -0.108334481716156
0.4169923663139343 0.047970838844776154 -0.3917172849178314
0.4190096855163574 -0.30036213994026184 -0.04004789516329765
-0.33312293887138367 0.3050258159637451 0.03870527446269989
-0.13563379645347595 -0.2575732469558716 -0.07842416316270828
0.42407524585723877 0.2941648066043854 -0.09779427200555801
0.3582632541656494 0.18527711927890778 -0.395256370306015
-0.3155989348888397 0.13264252245426178 0.05279500037431717
-0.31793805956840515 -0.3053869605064392 0.03614317625761032
0.2980576157569885 -0.08221427351236343 -0.0845651924610138
0.31034204363822937 -0.0872463807463646 -0.39760854840278625
0.39946597814559937 0.16486942768096924 -0.39427998661994934
0.30346524715423584 0.017244234681129456 -0.3950307071208954
0.40030911564826965 0.10801355540752411 -0.3946481943130493
-0.5609918236732483 0.20442110300064087 0.05856304615736008
0.4167627990245819 -0.28153282403945923 -0.31111645698547363
0.03012605383992195 0.08447416126728058 0.42829233407974243
0.18779440224170685 0.3145473897457123 -0.05317923426628113
0.15109005570411682 0.11068432778120041 0.3187362551689148
-0.42196327447891235 0.30001863837242126 -0.06532040238380432
0.41600632667541504 -0.20175965130329132 -0.2185714989900589
-0.40119004249572754 -0.23547616600990295 -0.04670645669102669
-0.4612206220626831 0.12886691093444824 -0.06526236981153488
0.30339348316192627 0.07321228086948395 -0.08244994282722473
-0.4347601532936096 0.30109483003616333 -0.06472533941268921
-0.021692514419555664 0.1312016248703003 0.3385131061077118
0.2944874167442322 -0.10652608424425125 -0.3526333272457123
-0.013675280846655369 -0.2978741526603699 -0.078485868871212
0.1892215460538864 0.31191906332969666 -0.06160953640937805
0.06597565859556198 -0.15094681084156036 0.3859153687953949
0.4163438081741333 0.3159732222557068 -0.27979081869125366
0.41686388850212097 -0.05425802618265152 -0.3369266390800476
-0.3686411678791046 -0.0687275305390358 0.049543872475624084
-0.273967981338501 -0.16517753899097443 0.05538680776953697
-0.11923809349536896 0.29929396510124207 -0.06599809974431992
0.1396278440952301 -0.3081129193305969 -0.07449258863925934
0.2318705916404724 0.09123187512159348 0.23772688210010529
-0.526782214641571 0.26472991704940796 0.03507077693939209
0.40282008051872253 0.0588957704603672 -0.3957933783531189
0.4195730984210968 -0.16308079659938812 0.04018249362707138
0.02538861334323883 0.009439450688660145 0.4496462941169739
-0.3788726031780243 -0.047409288585186005 0.049718499183654785
-0.15996602177619934 -0.01179894432425499 0.2683860957622528
-0.09034571051597595 -0.29598695039749146 -0.07622168958187103
-0.5587607622146606 -0.11145219206809998 -0.056647054851055145
0.2945183515548706 -0.1504167765378952 -0.3303772509098053
0.4199714958667755 -0.27656832337379456 -0.24172866344451904
0.19731631875038147 -0.19544526934623718 0.2670944631099701
-0.29136741161346436 -0.2952248156070709 -0.07546617835760117
-0.03351488709449768 0.28690531849861145 0.05151570215821266
-0.09628383070230484 -0.18742747604846954 0.14220337569713593
-0.3141290247440338 -0.12672971189022064 0.05093253031373024
0.11992378532886505 -0.3030245900154114 0.038044534623622894
-0.2867201268672943 -0.1712867170572281 -0.07688022404909134
0.3100005090236664 -0.17538835108280182 -0.3963746726512909
-0.4759918451309204 0.2953825891017914 -0.06453453749418259
-0.11757087707519531 0.29995185136795044 -0.06584376841783524
0.338253378868103 0.028867602348327637 0.13395264744758606
0.21422944962978363 0.31459295749664307 -0.06457453966140747
0.4177710711956024 -0.3102111518383026 -0.2171706259250641
0.41842198371887207 -0.298785001039505 -0.08001109212636948
-0.5512570738792419 0.22690173983573914 0.05864397808909416
0.41930726170539856 0.16666972637176514 -0.38662001490592957
0.300390362739563 0.2980121672153473 -0.2741260826587677
-0.15377548336982727 -0.298785924911499 0.05099546164274216
-0.5455033779144287 0.16434356570243835 -0.06416530162096024
-0.3763280212879181 -0.005707103293389082 0.05871684104204178
0.4190037250518799 -0.279654860496521 0.043346747756004333
-0.4640727937221527 0.29228296875953674 -0.0646454468369484
-0.40743306279182434 0.13057923316955566 -0.020284682512283325
0.3078300952911377 -0.2946755886077881 -0.30796658992767334
0.406480073928833 0.22963988780975342 0.05320418253540993
0.3988956809043884 -0.3008064329624176 -0.21614059805870056
0.4185349643230438 -0.3134343922138214 -0.0377705916762352
-0.3462715446949005 -0.19943469762802124 -0.06901811808347702
-0.4164610207080841 0.30231553316116333 0.03779056668281555
-0.5611652731895447 0.010543938726186752 0.037529490888118744
0.02587950974702835 -0.030712097883224487 0.44518357515335083
0.30424460768699646 -0.17538686096668243 -0.3948191702365875
0.417042076587677 -0.09001781046390533 0.05078563466668129
0.3090992867946625 -0.28088322281837463 -0.33812326192855835
0.4216787815093994 0.17703837156295776 0.03949787840247154
-0.5582642555236816 0.06562315672636032 0.014534191228449345
0.21833467483520508 -0.029038826003670692 0.2399081587791443
0.41689109802246094 -0.21475186944007874 -0.22148993611335754
-0.33615419268608093 -0.3057437241077423 0.044938959181308746
-0.5583879947662354 0.08716827630996704 0.04270289093255997
0.40407034754753113 0.21551454067230225 0.05602592974901199
0.03359360620379448 -0.30458611249923706 -0.05797775089740753
-0.23105260729789734 0.08145611733198166 -0.07109159976243973
0.17825622856616974 -0.13242273032665253 0.2927069664001465
0.10816057026386261 0.3129069209098816 -0.06075064837932587
0.0467122457921505 0.3151419162750244 -0.07027348130941391
-0.052729301154613495 -0.30444225668907166 -0.07423707842826843
-0.5508243441581726 0.19674119353294373 -0.06163853406906128
-0.2558557391166687 -0.30918779969215393 0.007317468523979187
-0.4557366669178009 -0.31334978342056274 0.031511932611465454
-0.060237713158130646 -0.2987492084503174 -0.07458668947219849
-0.5140450596809387 0.19100826978683472 0.053859829902648926
0.04871075600385666 0.2930716574192047 0.054108235985040665
-0.3320038318634033 -0.16746529936790466 -0.07309994846582413
0.058491386473178864 -0.13589976727962494 0.40398579835891724
-0.13652145862579346 -0.3022974133491516 -0.0716947615146637
0.2985553741455078 0.18599727749824524 -0.07762729376554489
0.03163246810436249 -0.06282070279121399 0.4421203136444092
0.4169170558452606 -0.30955737829208374 -0.07255325466394424
0.0322335883975029 0.3047772943973541 -0.06766588240861893
0.025058941915631294 0.04827548563480377 0.4444669783115387
-0.10835480690002441 -0.06715130805969238 0.3002857565879822
0.14497730135917664 -0.22415043413639069 -0.07875511050224304
0.35536158084869385 0.15546225011348724 -0.3065914213657379
-0.09027048945426941 -0.3023853898048401 -0.07405169308185577
-0.44496870040893555 0.30518966913223267 -0.062029048800468445
0.24082137644290924 0.07923246175050735 0.22745001316070557
0.41796138882637024 0.1498342752456665 -0.3623858392238617
-0.1251010298728943 -0.2990148067474365 -0.07211132347583771
0.40269339084625244 0.05132364481687546 -0.3981042802333832
0.08777762949466705 -0.01139397919178009 0.38397371768951416
0.2577305734157562 -0.1638256311416626 0.16134802997112274
0.3925418555736542 -0.20880867540836334 -0.38783541321754456
0.42146533727645874 0.21132922172546387 0.007981695234775543
0.4187483489513397 0.04057040438055992 -0.12940055131912231
-0.5577825307846069 0.15539200603961945 -0.06149260699748993
-0.5197643041610718 0.2679435610771179 -0.05513764172792435
-0.15910157561302185 0.18189595639705658 0.08863489329814911
-0.3789168894290924 0.1613750010728836 0.050190094858407974
-0.3270476460456848 -0.11169449239969254 0.05332548916339874
-0.23676729202270508 -0.1650722622871399 -0.0735727846622467
-0.4620620012283325 -0.2964801788330078 -0.07181931287050247
-0.5283007025718689 -0.08696678280830383 0.04878169670701027
0.395226389169693 0.11025316268205643 -0.3937774896621704
0.29001253843307495 0.04371761903166771 -0.07813456654548645
0.4205211400985718 0.13822105526924133 -0.23506124317646027
0.2900236248970032 0.20198294520378113 0.08855470269918442
0.02661556750535965 0.022272981703281403 0.4499114751815796
-0.373687744140625 0.1900555044412613 -0.06472404301166534
-0.3930741846561432 0.14110633730888367 0.05105739086866379
0.012396574020385742 0.20883920788764954 0.05514185130596161
0.41644981503486633 -0.3015011250972748 -0.2623538076877594
-0.46701544523239136 0.11842450499534607 0.05505357310175896
-0.28989893198013306 0.1518677920103073 0.05342312157154083
-0.4179378151893616 -0.26401427388191223 0.053263500332832336
-0.37694501876831055 -0.3040069341659546 -0.06647304445505142
0.41726842522621155 0.007346689701080322 0.050213102251291275
-0.5635635256767273 0.016549736261367798 -0.02767881378531456
0.41521671414375305 -0.14244398474693298 0.0488957017660141
0.4203842580318451 0.15525229275226593 0.043940648436546326
-0.37187954783439636 -0.02276794984936714 0.061423107981681824
-0.5465052723884583 0.026700451970100403 -0.06467951089143753
0.02085600048303604 -0.01763048768043518 0.4480874538421631
0.42015501856803894 -0.30924275517463684 0.03380642831325531
0.4222215712070465 0.2415044903755188 0.03124285116791725
-0.355007529258728 0.3105890452861786 -0.048397310078144073
-0.05995195731520653 0.3056045472621918 -0.06619037687778473
0.24253657460212708 0.19815866649150848 0.11390721797943115
0.42351216077804565 -0.13028457760810852 -0.020506098866462708
0.25573867559432983 -0.19400230050086975 0.06266254931688309
0.42118367552757263 -0.2908991575241089 0.02447357028722763
0.29283586144447327 0.2939116060733795 -0.1054760217666626
0.3119905889034271 0.06525745242834091 -0.39357495307922363
-0.5308810472488403 -0.24200093746185303 -0.07013612985610962
0.39510101079940796 -0.20294278860092163 -0.3922104835510254
-0.3435913324356079 -0.15306714177131653 -0.07222400605678558
0.1258954107761383 0.2918287217617035 -0.07116590440273285
0.08073768764734268 0.3031681776046753 -0.07186896353960037
0.22779536247253418 0.19628457725048065 0.23131176829338074
0.2947373688220978 -0.18642668426036835 -0.08238440752029419
-0.437002956867218 -0.11415963619947433 -0.07058297097682953
-0.18912184238433838 -0.30074816942214966 -0.07071702182292938
0.21391506493091583 -0.3036564886569977 0.015210757032036781
-0.25129345059394836 -0.29090994596481323 0.050995275378227234
0.29813864827156067 0.3157132863998413 -0.1446850597858429
-0.03259921446442604 0.20570719242095947 0.0719982385635376
-0.4844026565551758 0.15623000264167786 -0.05389068275690079
0.4176480174064636 -0.3029897212982178 -0.23422802984714508
0.2333335280418396 -0.3062458038330078 -0.07322055846452713
0.21806715428829193 0.05985349044203758 0.24921241402626038
-0.17294162511825562 -0.29586827754974365 -0.0740942656993866
0.3260385990142822 0.1987205296754837 0.06121606379747391
-0.07368387281894684 0.31359800696372986 -0.06501507014036179
0.028209326788783073 0.21001698076725006 0.053799696266651154
-0.4325290322303772 -0.31185680627822876 0.048377685248851776
0.28393712639808655 0.2267337441444397 -0.07511813193559647
-0.4584130048751831 -0.12151139974594116 -0.0547013059258461
0.4210546314716339 -0.2969920337200165 -0.24388816952705383
-0.5014291405677795 -0.22020219266414642 -0.07165011763572693
-0.522363543510437 0.18041715025901794 -0.06175033003091812
0.07326595485210419 -0.3074703514575958 -0.08122314512729645
-0.5547638535499573 0.042944781482219696 -0.06479699164628983
-0.1602851301431656 -0.2050551176071167 0.05083327740430832
-0.0003991667181253433 -0.30447080731391907 0.01988903619349003
0.29981425404548645 -0.08976396173238754 -0.09563469141721725
0.3298567831516266 -0.3028694689273834 0.03170467168092728
-0.5526375770568848 -0.11416199803352356 -0.06626202166080475
0.3716665804386139 0.1284092515707016 -0.2737028896808624
0.28593534231185913 -0.1573660671710968 -0.08127796649932861
-0.00791248120367527 -0.30306369066238403 0.03826086223125458
0.29923325777053833 0.31219688057899475 -0.068610280752182
-0.3340195119380951 -0.10337129980325699 0.057388052344322205
0.3831131160259247 0.3172108829021454 -0.12846307456493378
-0.1640850305557251 -0.2950228750705719 -0.07610215246677399
0.030797360464930534 -0.30418717861175537 0.03653983771800995
-0.40054115653038025 -0.2356555163860321 -0.0187319815158844
0.2999526858329773 -0.07343481481075287 -0.08258208632469177
-0.29823532700538635 0.3049934506416321 -0.06757061183452606
-0.2741555869579315 -0.1436672955751419 0.06569688767194748
-0.5593641996383667 -0.12230151891708374 0.015424907207489014
0.4208108186721802 0.04684501886367798 -0.39034560322761536
0.40091028809547424 -0.2402314692735672 -0.37598979473114014
0.42374303936958313 0.29715046286582947 -0.04698481038212776
-0.47525423765182495 -0.13748209178447723 0.046407002955675125
0.10141301155090332 -0.17796587944030762 0.3621613681316376
0.4229721128940582 0.13405269384384155 -0.1208648830652237
-0.35934194922447205 0.2886028587818146 0.05643884092569351
0.24449042975902557 -0.19321511685848236 0.20665031671524048
0.24898752570152283 0.19862627983093262 0.10389821231365204
-0.36378157138824463 -0.18176379799842834 -0.006714697927236557
-0.27260297536849976 -0.2356492578983307 0.04875890538096428
-0.5503255128860474 -0.22833752632141113 0.045400604605674744
0.41943100094795227 -0.314971923828125 -0.11653444170951843
0.2337551712989807 -0.19662009179592133 0.057910919189453125
-0.2965962886810303 -0.300548255443573 -0.0724182277917862
-0.49590516090393066 0.15541645884513855 0.052678242325782776
0.3731570541858673 0.3147042393684387 0.0427381694316864
0.11350924521684647 -0.30427154898643494 0.013505684211850166
-0.42569342255592346 -0.30585795640945435 -0.05836208537220955
0.13149535655975342 0.08717462420463562 0.32336190342903137
0.34623849391937256 -0.18683397769927979 0.12437616288661957
-0.14643283188343048 0.29733842611312866 0.053514398634433746
0.13032838702201843 0.09755794703960419 0.34043949842453003
0.29917025566101074 0.31404682993888855 -0.19510936737060547
0.18623831868171692 -0.08560015261173248 0.2733229994773865
-0.34184199571609497 -0.12209860980510712 -0.07193915545940399
0.2749457061290741 0.23609182238578796 0.052575282752513885
0.3519127368927002 -0.11953265964984894 0.11787107586860657
0.41644203662872314 -0.2749132215976715 -0.3036894202232361
-0.37913811206817627 -0.04838453605771065 0.04931136965751648
0.4213257431983948 -0.19401252269744873 0.04054480791091919
-0.4395290017127991 0.12559285759925842 -0.034046515822410583
0.4194861352443695 0.31785187125205994 -0.11279279738664627
-0.0067097339779138565 0.05692144110798836 -0.07328654080629349
0.3038589060306549 0.31268855929374695 0.04581715166568756
0.4175538718700409 -0.2680661976337433 -0.3013206720352173
0.3024229407310486 -0.04873652756214142 -0.08408970385789871
-0.33748936653137207 -0.10456711053848267 0.04916314780712128
-0.06831444054841995 -0.19843363761901855 0.06809701025485992
0.17626962065696716 -0.1901731640100479 0.28940460085868835
-0.09046993404626846 -0.30756324529647827 -0.04558281600475311
0.39606618881225586 -0.2813640832901001 -0.334600567817688
-0.38550111651420593 0.2995062470436096 -0.06503404676914215
-0.5221673250198364 0.2720741331577301 -0.01959473267197609
0.29878824949264526 0.1483936905860901 -0.37589231133461
0.41400548815727234 -0.283559650182724 -0.30689775943756104
-0.13600164651870728 0.19143074750900269 -0.06795355677604675
-0.4449041783809662 -0.12358341366052628 -0.0412006676197052
-0.2058001309633255 0.17819738388061523 0.06501200795173645
0.4227186143398285 0.271706223487854 -0.19935761392116547
0.40280619263648987 -0.21457934379577637 0.044760607182979584
0.1370057910680771 0.09854419529438019 0.31293678283691406
-0.32893189787864685 0.3073441684246063 0.04224211350083351
0.2612166702747345 -0.15069368481636047 0.20842033624649048
-0.1415283977985382 0.3116317391395569 -0.05466722697019577
-0.04056643694639206 -0.17872394621372223 0.21696628630161285
0.05264268070459366 -0.30911052227020264 -0.08067942410707474
0.07735051214694977 0.3019937574863434 -0.07338514178991318
-0.36637556552886963 -0.29434555768966675 -0.07011450827121735
-0.48842406272888184 -0.1380084753036499 0.05152345076203346
-0.021361738443374634 0.30266138911247253 -0.06833990663290024
0.29742416739463806 -0.267049640417099 -0.19816064834594727
-0.3999083340167999 0.2789366841316223 0.051841747015714645
0.11927813291549683 -0.19528153538703918 0.2123764604330063
-0.07078341394662857 -0.3032574951648712 0.04489397630095482
0.14917267858982086 0.09976673126220703 0.3203783631324768
-0.134785458445549 0.3081111013889313 -0.061084598302841187
0.3007272183895111 0.31368112564086914 -0.08809928596019745
-0.5467133522033691 0.059576187282800674 0.057104676961898804
0.14007318019866943 0.3088724613189697 0.025937914848327637
-0.5179935693740845 -0.03449854999780655 0.05122968554496765
-0.3990672826766968 -0.1200435534119606 -0.07324396818876266
0.2336607575416565 0.19772039353847504 0.2052951455116272
-0.4033434987068176 -0.24185208976268768 -0.03506975993514061
-0.37798142433166504 -0.21996894478797913 -0.054375629872083664
0.4164191484451294 -0.107724130153656 -0.2791818678379059
-0.3646215498447418 0.053232382982969284 0.06055690348148346
0.170614093542099 0.09887900948524475 0.2998127341270447
0.22577418386936188 -0.09977778047323227 0.24601569771766663
0.41903436183929443 -0.022131673991680145 -0.3730928301811218
-0.04410244897007942 0.3075008690357208 0.0423114150762558
-0.5614365339279175 0.0753062441945076 0.028047289699316025
-0.382673978805542 -0.02759338915348053 0.05023202300071716
0.4066074788570404 0.30997684597969055 0.040866706520318985
-0.3744615316390991 -0.22297561168670654 -0.07640894502401352
-0.5421223044395447 -0.24498361349105835 -0.04463036358356476
0.3010323643684387 0.12000379711389542 -0.09260015189647675
0.42043280601501465 -0.06937435269355774 -0.09467220306396484
-0.32407093048095703 -0.21888142824172974 -0.06805121898651123
0.3283056914806366 0.14567328989505768 -0.30742499232292175
0.163749098777771 -0.18077291548252106 -0.07959721237421036
0.2490621954202652 0.16347572207450867 0.12232410162687302
-0.4811756908893585 -0.2990666627883911 0.05257611721754074
0.416816383600235 -0.31150227785110474 -0.04443143308162689
-0.546051561832428 -0.17823749780654907 -0.07208674401044846
-0.5439198017120361 -0.23124012351036072 0.052974384278059006
0.30060067772865295 -0.13114377856254578 -0.30746662616729736
0.2976667881011963 -0.18114377558231354 -0.3636045455932617
-0.37304019927978516 0.15582317113876343 -0.06321638077497482
-0.38920533657073975 -0.14283603429794312 -0.07031478732824326
0.33956092596054077 -0.3078949749469757 -0.059835903346538544
0.32474225759506226 0.13278727233409882 0.12932658195495605
-0.2376765012741089 0.17496606707572937 0.05452893674373627
-0.3727990984916687 -0.3101871907711029 -0.05909145995974541
0.01578676700592041 -0.2986113131046295 -0.07815372943878174
0.026706010103225708 0.2016163319349289 0.07937701791524887
-0.39946281909942627 0.13320237398147583 0.05244709178805351
0.26275354623794556 0.2208077311515808 0.055765505880117416
-0.21175207197666168 0.308053195476532 0.048173245042562485
0.33767762780189514 -0.3044818043708801 0.028756916522979736
-0.007858265191316605 -0.3039688467979431 -0.07039252668619156
-0.5542141795158386 -0.1153644472360611 0.043634381145238876
-0.366071879863739 0.07092978060245514 0.053408533334732056
0.29838937520980835 0.31388747692108154 -0.15106120705604553
-0.5385308265686035 0.26066556572914124 0.03753545880317688
0.38692161440849304 -0.30051830410957336 -0.2523386776447296
0.11442898958921432 0.30803292989730835 -0.06600954383611679
-0.23555168509483337 -0.09603184461593628 0.15694743394851685
0.2632102966308594 -0.18579575419425964 0.20426945388317108
-0.5609453916549683 -0.15622836351394653 -0.05382581055164337
-0.5622336268424988 0.15502800047397614 0.011718781664967537
-0.5183610916137695 -0.2731854319572449 0.029410403221845627
-0.34444090723991394 -0.1331903636455536 0.05239520221948624
