0.11720546334981918 -0.30072152614593506 0.049775779247283936
-0.2423478364944458 -0.21538046002388 -0.0707642063498497
-0.4630851745605469 0.11009510606527328 -0.06282585859298706
0.29737889766693115 -0.08935067057609558 -0.07746745645999908
-0.18569013476371765 -0.31232714653015137 0.040532901883125305
-0.28497159481048584 -0.15152303874492645 0.05234288424253464
0.4185170531272888 0.08371777087450027 -0.2907254099845886
-0.3067869544029236 0.3025189936161041 -0.06219181790947914
0.1248549371957779 -0.28757211565971375 0.05276710167527199
0.40743646025657654 -0.29810503125190735 -0.12238598614931107
-0.3405532240867615 0.08839613944292068 0.057073816657066345
0.29511651396751404 0.22868755459785461 -0.2284696102142334
0.3047208786010742 -0.291942298412323 -0.20042148232460022
-0.15616339445114136 -0.30290305614471436 -0.07111729681491852
0.4222836494445801 -0.12710842490196228 -0.10391118377447128
0.2998206913471222 -0.15048906207084656 -0.21880698204040527
0.3018344044685364 -0.13922841846942902 -0.39671894907951355
0.2913050949573517 -0.09342645108699799 0.09364312887191772
0.31154993176460266 0.017359446734189987 -0.3931385576725006
0.12768249213695526 -0.1929238736629486 0.32126712799072266
0.07559560239315033 0.021132424473762512 -0.07176961749792099
-0.5368130803108215 -0.26246848702430725 0.053842607885599136
0.2975192070007324 -0.11681113392114639 -0.29757633805274963
0.06250941008329391 0.24824830889701843 -0.06887374818325043
-0.2781597971916199 0.30533134937286377 -0.051768042147159576
0.29303276538848877 -0.08952375501394272 -0.3785022795200348
0.042574308812618256 -0.2975633144378662 -0.07092169672250748
0.34207776188850403 0.16542331874370575 0.1287889927625656
0.3313048481941223 -0.09729143232107162 0.1348734349012375
-0.08272793889045715 0.027871668338775635 0.34132274985313416
0.297373503446579 0.2742750346660614 -0.35665813088417053
-0.3582567572593689 -0.09625332802534103 -0.06968995183706284
0.14326506853103638 -0.09365171194076538 0.32881250977516174
0.29832878708839417 -0.2509179711341858 -0.15488940477371216
0.41960379481315613 -0.30703774094581604 0.015018284320831299
-0.17090469598770142 -0.27905720472335815 -0.07213021069765091
-0.5648186802864075 0.12543785572052002 -0.060676682740449905
0.3919234573841095 0.17251937091350555 0.07699612528085709
-0.22114697098731995 -0.05336412414908409 0.19753000140190125
0.422163724899292 0.01764412224292755 0.04878593236207962
0.4147375226020813 -0.3077455759048462 -0.2221708595752716
-0.12348606437444687 -0.3097432255744934 -0.07482971251010895
-0.5663542747497559 -0.007326442748308182 0.03810983523726463
0.11416486650705338 -0.20176757872104645 0.047800563275814056
-0.05683448910713196 -0.3089263439178467 -0.07209154218435287
0.2971247136592865 -0.18437933921813965 -0.352714866399765
0.32664138078689575 0.312330961227417 0.026968730613589287
-0.5679883360862732 0.05748138576745987 -0.06178219988942146
0.11193671822547913 0.18731357157230377 0.35246288776397705
-0.06850120425224304 0.3066166341304779 0.04784705489873886
-0.4825422465801239 -0.15300226211547852 0.04995914176106453
0.2076777070760727 -0.18892914056777954 0.2556731700897217
0.4171123206615448 -0.03952384367585182 -0.3298502564430237
0.30056479573249817 -0.29892072081565857 -0.1636868417263031
-0.5259516835212708 -0.17592942714691162 -0.07139631360769272
-0.5556408762931824 -0.18529435992240906 0.024371715262532234
0.24591979384422302 0.29954642057418823 0.0518777035176754
0.3601382374763489 -0.17889009416103363 0.11557167768478394
-0.3477898836135864 -0.17271439731121063 -0.0706498995423317
0.05438445508480072 0.1993684619665146 0.06242850422859192
-0.22906076908111572 -0.3094854950904846 -0.07329006493091583
0.2959505319595337 -0.1659446805715561 -0.08266842365264893
-0.5568951368331909 -0.10875239223241806 0.04142463207244873
0.21028627455234528 0.03424170985817909 0.2455914169549942
-0.10609488189220428 0.1641692817211151 -0.06864960491657257
0.4196431636810303 0.28963881731033325 -0.27514660358428955
0.15476347506046295 -0.3049764931201935 -0.0628165528178215
0.33442890644073486 -0.1730913370847702 0.12873438000679016
0.3104650378227234 -0.30383458733558655 0.03229674696922302
0.3027156591415405 -0.26280802488327026 -0.35741230845451355
-0.018256526440382004 -0.18072503805160522 0.2400079369544983
-0.40553349256515503 0.13510531187057495 -0.0673425942659378
-0.09815911948680878 0.23086866736412048 0.05358966812491417
0.2828834354877472 0.011104932054877281 -0.0719318687915802
-0.38177284598350525 0.17824432253837585 -0.06312184035778046
-0.36766716837882996 -0.19090543687343597 -0.06896483153104782
0.4136162996292114 0.21892385184764862 0.054713957011699677
0.25706589221954346 -0.1757635474205017 0.15621814131736755
-0.4205523729324341 0.23618263006210327 -0.03692362457513809
-0.500401496887207 0.2855270504951477 -0.05091487988829613
0.41643306612968445 -0.12688453495502472 -0.3187536299228668
-0.34175825119018555 -0.10563497245311737 0.05174154043197632
-0.397880494594574 -0.303997665643692 -0.05659269168972969
0.2993546724319458 -0.24285787343978882 -0.07912907004356384
-0.5652078986167908 0.11039231717586517 0.0029883531387895346
0.38830140233039856 -0.21682006120681763 0.05103098228573799
0.2232586145401001 -0.1916838437318802 0.18903662264347076
0.16343355178833008 0.310421347618103 -0.05086151510477066
0.41634875535964966 -0.1888330578804016 -0.3815835118293762
-0.4450380802154541 -0.30433228611946106 -0.07172191143035889
0.4054781198501587 0.18744753301143646 -0.39417386054992676
0.34921717643737793 -0.011185592040419579 0.12132039666175842
0.2951977252960205 -0.07429613173007965 -0.23188848793506622
0.11911781132221222 0.11155107617378235 0.3500393331050873
0.36122608184814453 0.19983209669589996 0.10905660688877106
0.300527960062027 -0.09637053310871124 -0.37649965286254883
-0.08242513984441757 0.30670037865638733 -0.05531105399131775
-0.3242366313934326 -0.3082695007324219 -0.07198156416416168
-0.05183441564440727 0.007589086890220642 -0.07219604402780533
0.2749141454696655 -0.3049579858779907 -0.06756880134344101
-0.2768522799015045 -0.30658912658691406 0.04006321728229523
-0.18965588510036469 -0.30920809507369995 -0.07227016985416412
0.27707338333129883 -0.019902154803276062 -0.07344941049814224
-0.18087206780910492 0.2970033288002014 -0.06499237567186356
-0.05822356790304184 -0.313284307718277 -0.0685734823346138
0.2780906856060028 -0.1547832190990448 0.18958783149719238
0.2173301726579666 -0.19390836358070374 0.25022515654563904
-0.453677237033844 -0.12463648617267609 0.049546144902706146
0.16125823557376862 0.290244460105896 -0.06523105502128601
0.30261704325675964 -0.3015606105327606 -0.21889828145503998
-0.2107851505279541 -0.3080669939517975 0.040093742311000824
0.41633519530296326 0.15523189306259155 -0.3884957730770111
-0.18788760900497437 -0.308834433555603 -0.07117807865142822
0.32803139090538025 -0.29266801476478577 0.048341624438762665
0.163641557097435 -0.29296281933784485 -0.07534227520227432
0.10704077780246735 -0.04501474276185036 0.14975006878376007
-0.3806114196777344 0.16244526207447052 -0.06422236561775208
-0.4194181561470032 -0.31313788890838623 -0.07005412876605988
0.09614748507738113 0.02767484448850155 0.3743962049484253
-0.034673769026994705 -0.2688674330711365 -0.07337362319231033
-0.5042243003845215 -0.02921263501048088 0.052770763635635376
0.012329788878560066 0.005168464034795761 0.44092655181884766
-0.42837515473365784 -0.12964417040348053 0.05299505218863487
-0.5059857964515686 -0.2506030201911926 0.05710061639547348
-0.3639296591281891 0.2974681258201599 -0.06454125791788101
0.03131141513586044 -0.29663267731666565 -0.07146474719047546
-0.4691717326641083 -0.31029757857322693 0.024064872413873672
0.40861374139785767 0.12928378582000732 -0.254367858171463
-0.31982505321502686 0.12422425299882889 0.05602964758872986
0.30087608098983765 0.30964395403862 -0.15000972151756287
0.012342697009444237 0.0019344035536050797 0.43638020753860474
-0.08123844861984253 -0.19613367319107056 0.05762787163257599
0.13983038067817688 0.31068623065948486 0.04056091234087944
-0.4449516534805298 -0.30867594480514526 0.04654058441519737
0.1967477947473526 0.3115662932395935 -0.059706732630729675
0.41222628951072693 -0.07086926698684692 -0.39525067806243896
0.2895146906375885 0.09721087664365768 0.0954308807849884
0.4093092679977417 -0.29990872740745544 0.018822401762008667
0.4197578430175781 -0.1263481080532074 -0.2102704644203186
-0.5541191101074219 0.06947853416204453 -0.062170084565877914
-0.5572502017021179 0.006829544901847839 0.055980134755373
0.18860381841659546 0.0841936469078064 0.27787595987319946
0.21801996231079102 0.3105597496032715 -0.016730718314647675
-0.5557864904403687 -0.21855831146240234 -0.053328242152929306
-0.5625345706939697 -0.029756834730505943 -0.05527714639902115
-0.48786383867263794 -0.13817520439624786 0.05068586766719818
-0.43222886323928833 0.1298445165157318 -0.02728705108165741
0.05244428664445877 0.12735764682292938 0.4118286669254303
0.2457757592201233 0.20011426508426666 0.1937132030725479
-0.4890121519565582 -0.23757386207580566 -0.06762447953224182
-0.35427531599998474 0.07710032910108566 0.06024884432554245
0.2911553680896759 -0.22984760999679565 -0.23603588342666626
0.32044756412506104 0.14819969236850739 0.13526996970176697
0.04322882741689682 0.028480732813477516 0.3143080770969391
0.30516815185546875 -0.17756801843643188 0.10788726061582565
0.1547975242137909 -0.19414818286895752 0.30691662430763245
-0.4916186034679413 0.29612287878990173 -0.06559823453426361
-0.23935306072235107 -0.16803094744682312 0.05177709460258484
-0.21873663365840912 0.04436177387833595 0.20707553625106812
0.26245540380477905 -0.3024992346763611 0.03687574341893196
0.29517295956611633 0.28989356756210327 -0.2183784693479538
-0.22782132029533386 -0.3081040680408478 0.05149981379508972
-0.27817031741142273 -0.15807247161865234 0.04964636266231537
-0.12832075357437134 0.21031123399734497 0.057725876569747925
-0.11060373485088348 -0.20144997537136078 -0.0719970166683197
0.24828559160232544 -0.1854173243045807 0.21851225197315216
-0.01323850266635418 -0.1272171139717102 -0.07703091204166412
-0.5666531920433044 0.13379207253456116 -0.05639364570379257
-0.3799677789211273 -0.03222395479679108 0.05370079725980759
0.4160209000110626 0.28210172057151794 -0.3040686249732971
0.2774483263492584 0.041496895253658295 0.19177213311195374
-0.2708922028541565 -0.3047589063644409 -0.05476027727127075
0.1712760627269745 0.1461949348449707 -0.07425064593553543
0.41906872391700745 -0.032790981233119965 -0.17988160252571106
-0.2973822355270386 -0.05552082881331444 -0.06903614103794098
-0.4890389144420624 0.1447318196296692 -0.052462898194789886
0.30006128549575806 -0.14911288022994995 -0.374320387840271
0.17644017934799194 -0.19530709087848663 0.2683563828468323
0.3150970935821533 0.313503623008728 -0.163491353392601
-0.39210420846939087 -0.22759434580802917 -0.06715431809425354
-0.21806511282920837 -0.0779024064540863 0.192846417427063
-0.36798232793807983 -0.038756921887397766 0.05505412817001343
-0.24900442361831665 -0.16621403396129608 0.05312761664390564
-0.3504822254180908 -0.1155768558382988 0.05519334226846695
0.41277560591697693 0.13639339804649353 -0.23337839543819427
0.29085272550582886 0.20306433737277985 -0.3890146315097809
0.287655770778656 0.2628692388534546 -0.30006349086761475
0.052551720291376114 0.3083084523677826 0.03338887542486191
-0.26155444979667664 -0.30098265409469604 0.053095050156116486
0.2963449954986572 0.29698696732521057 -0.1289997696876526
-0.160676047205925 0.00225163996219635 -0.07101961225271225
-0.3004991412162781 -0.3098064661026001 0.030689358711242676
0.07824479043483734 0.16350793838500977 0.3828388750553131
-0.4272884130477905 0.29113298654556274 -0.061482399702072144
0.015476211905479431 -0.03486219793558121 0.43220698833465576
-0.5070981979370117 0.2350553423166275 0.05888758599758148
0.15370935201644897 -0.20123739540576935 0.04704289138317108
0.29631349444389343 0.2076522260904312 -0.0794769674539566
-0.23196232318878174 -0.17539247870445251 0.053248196840286255
-0.2440398782491684 -0.3080303966999054 0.03114607185125351
0.029958054423332214 0.10219398140907288 0.4215041399002075
-0.2019202709197998 -0.30359283089637756 -0.06949256360530853
-0.4441108703613281 0.24730364978313446 -0.06672928482294083
-0.47213229537010193 0.2729893624782562 -0.061842866241931915
0.27753302454948425 0.004963912069797516 0.1909317523241043
-0.20870108902454376 -0.041860319674015045 0.21094034612178802
0.19419506192207336 -0.30122387409210205 0.049072716385126114
-0.30238527059555054 -0.3020280599594116 -0.07425776869058609
0.06562570482492447 -0.09976190328598022 -0.06997974216938019
0.210226908326149 -0.06325997412204742 0.26293548941612244
0.03991933539509773 0.12945298850536346 0.40402331948280334
0.17337758839130402 0.20478332042694092 0.05458100885152817
-0.45522692799568176 0.1122666448354721 -0.06467481702566147
-0.43698441982269287 -0.11663369834423065 0.054210562258958817
-0.46681907773017883 0.12227174639701843 -0.06622030586004257
0.42287352681159973 -0.2983889877796173 0.028720982372760773
-0.5536976456642151 0.0056318193674087524 -0.0640527606010437
-0.22113929688930511 -0.1955268681049347 0.0513080395758152
0.1798536330461502 -0.28859275579452515 0.049941789358854294
-0.1876390427350998 0.28883621096611023 0.056832242757081985
0.018028318881988525 -0.18601863086223602 0.24630579352378845
-0.02804057113826275 0.07541493326425552 -0.07010703533887863
0.11682386696338654 -0.30390244722366333 0.037680208683013916
0.18217043578624725 0.10041642189025879 0.28928524255752563
-0.09476076066493988 0.1820775270462036 0.156047061085701
0.334663450717926 -0.10454639792442322 0.135158970952034
0.28721076250076294 -0.16869765520095825 -0.08050672709941864
-0.34201017022132874 -0.10464060306549072 0.05161330848932266
0.2925983965396881 -0.2798091173171997 -0.08310575783252716
0.4178903102874756 -0.27049392461776733 -0.22840085625648499
0.1686224490404129 -0.09173043072223663 0.29792293906211853
-0.493354469537735 -0.30402871966362 0.04736623540520668
0.15051305294036865 -0.3095734417438507 -0.06658337265253067
-0.45793962478637695 -0.29691770672798157 -0.06624224036931992
-0.5023083090782166 0.14486005902290344 0.052340712398290634
-0.04272894561290741 0.20179632306098938 0.07743529975414276
-0.28996479511260986 0.3038906157016754 -0.06505892425775528
0.41987764835357666 -0.2924661636352539 -0.12497983872890472
0.41592586040496826 -0.13842105865478516 -0.22162583470344543
-0.18583521246910095 0.3059137761592865 -0.055470213294029236
0.4198206961154938 0.3000403642654419 -0.15355828404426575
-0.040436699986457825 -0.3119518756866455 -0.0694204568862915
-0.38563451170921326 -0.1730876863002777 -0.009942136704921722
0.27469784021377563 -0.2954155504703522 -0.08111245930194855
0.12473416328430176 0.29398250579833984 -0.0673154816031456
0.24767398834228516 -0.19460545480251312 0.08955726027488708
-0.3361679017543793 0.21260620653629303 0.058470599353313446
0.41887444257736206 0.29741382598876953 -0.2474348247051239
-0.09417932480573654 0.03702226281166077 -0.07044736295938492
-0.44526877999305725 0.11153626441955566 -0.06566775590181351
0.38933712244033813 0.1863376349210739 0.08099279552698135
-0.4808323085308075 -0.13871397078037262 0.05435715243220329
-0.42968782782554626 0.11476626247167587 -0.07025273144245148
-0.554904580116272 0.07038010656833649 -0.06484651565551758
-0.34185925126075745 -0.30923372507095337 0.038258422166109085
0.4220643937587738 -0.20003215968608856 0.02934657223522663
-0.39677876234054565 0.14242061972618103 -0.06664364784955978
-0.09622339904308319 0.306143194437027 0.035468876361846924
-0.5660111904144287 0.1020011231303215 0.04567588120698929
0.29110804200172424 0.10216360539197922 -0.07803026586771011
0.32945019006729126 -0.3024708926677704 -0.2668185830116272
0.03975892439484596 0.3054632544517517 -0.07078621536493301
0.03314383327960968 0.09474653750658035 0.42821353673934937
0.3037068545818329 0.13228058815002441 -0.3945586085319519
-0.04099782928824425 -0.20464634895324707 0.045914869755506516
-0.06025102734565735 -0.3114859163761139 -0.06922589242458344
0.41566160321235657 -0.04148958623409271 -0.39235877990722656
0.4226662516593933 -0.04752614349126816 -0.09683594852685928
0.13528144359588623 -0.30089858174324036 -0.07220277935266495
-0.5587791204452515 -0.15693381428718567 0.05342823266983032
-0.16459591686725616 0.27601057291030884 0.05878451094031334
0.4220096170902252 0.23228877782821655 0.028043612837791443
-0.12859609723091125 0.3103923797607422 0.04196171462535858
-0.41355952620506287 0.13153034448623657 -0.06765385717153549
-0.4388192892074585 -0.13061338663101196 -0.013433404266834259
0.20512257516384125 0.09362337738275528 0.26747584342956543
0.30051034688949585 0.1941302865743637 -0.0910789892077446
0.11949880421161652 -0.30505454540252686 -0.0634237602353096
-0.18651707470417023 -0.31175366044044495 0.04214099422097206
0.2164050042629242 0.1608872413635254 0.2552938461303711
0.4037364721298218 -0.20890672504901886 -0.392074316740036
0.11900006234645844 -0.299137145280838 -0.07474222779273987
0.2553035616874695 -0.29119378328323364 0.04939184710383415
0.33309730887413025 -0.024640284478664398 0.14048491418361664
-0.5061884522438049 -0.02177371084690094 0.055478326976299286
0.414082407951355 -0.26679328083992004 -0.33193957805633545
-0.3436736464500427 -0.3077754080295563 0.03816935420036316
-0.5206737518310547 0.2643616795539856 -0.05910873040556908
0.39402180910110474 0.3124982714653015 0.03993162885308266
-0.20271790027618408 -0.18100333213806152 0.05475132167339325
-0.4683036804199219 -0.2667282223701477 -0.07010655105113983
0.2966952621936798 -0.13845892250537872 -0.2192423939704895
0.29076141119003296 -0.3041442334651947 0.03248262405395508
-0.5671555399894714 0.1258176863193512 0.03470318764448166
0.09426018595695496 -0.037817858159542084 0.37894561886787415
0.021024176850914955 -0.1882881224155426 0.24851424992084503
-0.4677635431289673 0.07683110237121582 0.05228155478835106
0.08486074954271317 -0.29785051941871643 -0.07355739921331406
0.27977776527404785 0.2583942413330078 -0.07939468324184418
-0.2934218645095825 0.14451350271701813 0.05619954317808151
0.21942181885242462 0.3106936514377594 0.03475324064493179
-0.3571736812591553 0.07735361158847809 0.05733736604452133
0.2706010937690735 -0.18000060319900513 0.19977693259716034
0.26063913106918335 -0.02078622579574585 0.16629235446453094
0.2617482542991638 0.1932276338338852 0.20914924144744873
0.3013313114643097 0.3115461468696594 -0.2028045356273651
-0.4480530917644501 -0.307539165019989 -0.07307768613100052
-0.5001316666603088 -0.23844581842422485 0.055724967271089554
-0.09436407685279846 -0.3109031617641449 -0.06897809356451035
0.26124149560928345 0.1937364935874939 0.2046259045600891
-0.22172385454177856 0.1692892163991928 0.064717136323452
-0.03359803557395935 0.2579231560230255 0.05508748069405556
0.1040477305650711 -0.3096984922885895 -0.06949366629123688
-0.17701153457164764 -0.295529842376709 0.049958620220422745
-0.5644071698188782 0.1083497628569603 -0.05161985009908676
-0.25826165080070496 0.1859983503818512 0.055287688970565796
0.4005816578865051 0.2130778580904007 0.0540475957095623
-0.09290459007024765 0.04813317582011223 0.32885345816612244
0.2709266245365143 -0.28865113854408264 -0.07719159871339798
0.25315040349960327 0.3128279149532318 0.038228899240493774
-0.5245251059532166 0.21757186949253082 0.05647873878479004
0.4129364490509033 -0.07039905339479446 -0.39686575531959534
-0.01696612685918808 0.18159782886505127 0.22703152894973755
0.2956291139125824 0.20424197614192963 0.05418135225772858
0.20775945484638214 -0.3066004812717438 -0.010364938527345657
-0.41589438915252686 0.3089652955532074 0.04367108643054962
0.18680910766124725 0.2883850634098053 -0.07131250947713852
0.053796667605638504 -0.3115480840206146 -0.07173673063516617
0.02397850900888443 -0.07479754090309143 0.4248194992542267
0.35793301463127136 -0.29374590516090393 0.049386411905288696
0.27394047379493713 -0.27054595947265625 -0.07199372351169586
0.2508932650089264 0.31014707684516907 0.04043818637728691
-0.01068747416138649 -0.19713155925273895 0.06341903656721115
0.40266919136047363 0.31075677275657654 -0.30547791719436646
0.42264944314956665 0.2536865472793579 0.030984431505203247
0.04010403901338577 0.1137876957654953 0.4173945486545563
0.3349399268627167 0.1629990190267563 0.13140448927879333
-0.1008748859167099 -0.308942586183548 -0.07401800900697708
-0.403164267539978 0.22843210399150848 -0.022786401212215424
-0.5084829926490784 -0.19242097437381744 0.053119514137506485
0.22025516629219055 -0.3055889904499054 -0.06054933741688728
0.4217655062675476 -0.28929540514945984 -0.06995213776826859
-0.19579735398292542 -0.2979312837123871 0.050721146166324615
0.2956973612308502 0.304951936006546 -0.28972935676574707
0.41795605421066284 -0.1689724326133728 -0.3825535178184509
0.42181551456451416 -0.30687227845191956 -0.28934377431869507
-0.37244194746017456 0.19861704111099243 -0.07004503160715103
0.41258707642555237 -0.27709904313087463 -0.3187478482723236
0.413931280374527 -0.008174058049917221 -0.3964119255542755
0.21409986913204193 -0.2850615382194519 -0.08321178704500198
0.13494440913200378 -0.29721882939338684 -0.0740949809551239
0.4105929434299469 0.31628191471099854 -0.2298593670129776
-0.08825626224279404 0.12860232591629028 0.2724344730377197
-0.5562124252319336 -0.08882823586463928 -0.06354916840791702
-0.5617440938949585 0.10955430567264557 -0.051082830876111984
0.1631077378988266 -0.2530219852924347 -0.07340344786643982
-0.5656650066375732 0.08576186746358871 0.04451768472790718
-0.5513227581977844 0.23145604133605957 -0.022315293550491333
-0.4149990379810333 0.26778170466423035 -0.06390438973903656
0.16885139048099518 0.19723764061927795 0.24980196356773376
0.37968969345092773 0.3169097900390625 -0.19153258204460144
0.32892364263534546 -0.06512314081192017 0.13846586644649506
-0.45697885751724243 0.052930545061826706 -0.06478893011808395
-0.38274598121643066 0.21607092022895813 -0.06356809288263321
0.33722397685050964 0.13735580444335938 0.13291674852371216
0.3055919110774994 0.31441250443458557 0.04695499688386917
-0.5552141666412354 -0.21851076185703278 0.053944215178489685
0.4148743748664856 -0.2120237946510315 -0.3786470592021942
0.2807757258415222 0.18967470526695251 0.10108136385679245
-0.3378641605377197 0.1081804558634758 0.05554169416427612
-0.1416843831539154 0.30197829008102417 -0.06520289182662964
-0.3178454637527466 -0.297366738319397 -0.0695742815732956
0.12687557935714722 -0.12707336246967316 0.3447059094905853
0.1713334619998932 -0.08444362878799438 0.30082470178604126
-0.07444704324007034 0.1951027661561966 0.14446881413459778
-0.19181089103221893 0.3037849962711334 -0.06300485134124756
0.009538657031953335 0.3079705834388733 0.048966556787490845
0.4013109803199768 0.22224287688732147 0.05401290953159332
0.03647176921367645 0.22249048948287964 -0.06374666839838028
0.3029673397541046 -0.12798315286636353 -0.24677161872386932
0.33719709515571594 -0.3032645881175995 0.01572566106915474
0.010764893144369125 -0.09403359889984131 0.4002087116241455
0.33569735288619995 -0.043194543570280075 0.1316053718328476
-0.2505578100681305 0.16691017150878906 0.054802119731903076
0.30189087986946106 -0.1079518124461174 -0.08872084319591522
-0.20771539211273193 0.29814112186431885 -0.06615599989891052
-0.5073398351669312 0.15310294926166534 0.05578795447945595
-0.2311146855354309 -0.03485295549035072 0.19629010558128357
-0.0045168474316596985 0.3111601173877716 -0.055514488369226456
-0.24210746586322784 -0.3105164170265198 -0.06918293237686157
0.04063902050256729 0.09570090472698212 0.43204158544540405
-0.2258671224117279 0.16717134416103363 0.0736643522977829
-0.2525961995124817 -0.1758650690317154 0.048198044300079346
-0.04475032538175583 0.19877037405967712 0.05975670367479324
0.29477405548095703 0.12389044463634491 -0.3878592252731323
-0.3766452372074127 -0.008667431771755219 0.058120355010032654
0.06153354421257973 -0.30893805623054504 -0.0685361996293068
0.30610597133636475 0.16167153418064117 -0.39213496446609497
0.4179530143737793 -0.29562318325042725 -0.24047249555587769
0.01948085054755211 -0.12570463120937347 0.37922435998916626
0.2957592308521271 0.24903015792369843 -0.267323762178421
0.40812721848487854 0.31212663650512695 -0.21002690494060516
-0.3531970977783203 0.30321764945983887 -0.06350105255842209
-0.5545875430107117 0.09672995656728745 -0.06173074617981911
-0.404460072517395 -0.15164054930210114 -0.03366997838020325
0.3308451175689697 0.31445610523223877 -0.10054665803909302
-0.3693433403968811 0.058446645736694336 0.05265580117702484
-0.2473672479391098 0.2752162516117096 0.05563581734895706
0.1360551416873932 -0.206879660487175 0.04782327264547348
-0.4758981168270111 -0.10113365203142166 0.05603787302970886
-0.4295129179954529 -0.29779428243637085 -0.06579555571079254
0.29120194911956787 -0.08146243542432785 -0.26548653841018677
-0.3489131033420563 0.09776999801397324 0.05730894207954407
-0.025865428149700165 -0.3050760328769684 0.03899547457695007
-0.13515159487724304 0.31200405955314636 0.048516299575567245
-0.5265059471130371 -0.20631125569343567 -0.07188677042722702
0.15087921917438507 0.030476568266749382 0.1822555959224701
-0.5558614730834961 -0.1805323213338852 0.05488136410713196
-0.3324759602546692 0.3027755618095398 -0.05960812419652939
0.4202757775783539 0.21761493384838104 -0.34662124514579773
-0.42346158623695374 0.30194035172462463 -0.04696371406316757
0.07600574195384979 0.29367631673812866 -0.06915417313575745
0.2562619149684906 -0.16132307052612305 0.2162710726261139
-0.3851701021194458 -0.2150360643863678 -0.06880176812410355
-0.3936818838119507 -0.226352721452713 -0.025990523397922516
0.4223007559776306 -0.18823568522930145 -0.07943412661552429
0.4199242889881134 -0.14936673641204834 -0.21784375607967377
-0.07454430311918259 0.20023252069950104 0.0864650309085846
0.32827290892601013 0.31286856532096863 -0.002423647791147232
-0.45903921127319336 0.300021231174469 0.04847061261534691
-0.13143421709537506 0.31281691789627075 -0.04992745816707611
0.4075745940208435 -0.055556703358888626 -0.3964897692203522
-0.39649802446365356 -0.3148472309112549 -0.06901156902313232
0.3561569154262543 -0.18317784368991852 0.11676689982414246
-0.1556757092475891 -0.31136032938957214 -0.06844774633646011
-0.2690352201461792 -0.3073676824569702 -0.07520086318254471
-0.3136330544948578 0.3024344742298126 0.05256474390625954
0.06121291592717171 0.19534943997859955 0.28551235795021057
0.4215081036090851 0.2518816292285919 -0.2615717053413391
-0.36315619945526123 0.06275779753923416 0.05804242566227913
0.41931089758872986 0.17146389186382294 -0.38557693362236023
0.09967263042926788 0.179164320230484 0.3627627193927765
0.13676206767559052 0.29407545924186707 -0.07432980835437775
0.4148187041282654 0.2568005323410034 0.05454201623797417
-0.44395509362220764 0.30490973591804504 0.042983002960681915
-0.24630028009414673 -0.31312161684036255 -0.06762204319238663
0.09175404161214828 -0.17236752808094025 0.3554529547691345
0.010543737560510635 0.17803996801376343 -0.06746280193328857
0.012544982135295868 -0.02355872467160225 0.43364444375038147
0.10214637964963913 0.17940457165241241 0.36471807956695557
0.42267802357673645 -0.3031902611255646 -0.04223780333995819
0.39878496527671814 0.2964354455471039 -0.33644410967826843
-0.5621383190155029 0.004949791356921196 -0.06429514288902283
0.40433841943740845 -0.3030337393283844 -0.04595249518752098
-0.19288069009780884 -0.309276282787323 -0.07116993516683578
0.22551760077476501 -0.308260053396225 -0.07246473431587219
-0.40926986932754517 -0.11695990711450577 -0.0688050240278244
-0.4508141279220581 -0.24378688633441925 -0.06337832659482956
-0.35565364360809326 0.29407262802124023 -0.06723500788211823
-0.5433626174926758 -0.25050047039985657 0.015105769038200378
-0.41106000542640686 -0.14294564723968506 -0.06626757234334946
-0.3606431484222412 -0.06929181516170502 0.054995015263557434
-0.003380558919161558 -0.3040403723716736 0.03931703791022301
0.02578289806842804 -0.022238735109567642 0.44349491596221924
0.31355634331703186 0.20381277799606323 0.06286871433258057
-0.4810778498649597 0.30005910992622375 0.03872212767601013
-0.29064834117889404 -0.03623642027378082 0.1336822658777237
0.29597124457359314 0.142997145652771 -0.39284977316856384
-0.4967329800128937 0.14556078612804413 0.053267087787389755
-0.5624595880508423 -0.139255553483963 0.0423867367208004
-0.4579298198223114 -0.2501165270805359 0.05595520883798599
-0.2563643455505371 -0.3123602867126465 -0.05982290208339691
0.3342323899269104 -0.02048172615468502 -0.39498236775398254
0.4132709205150604 -0.2375766932964325 -0.3702387809753418
-0.5591452121734619 -0.06870761513710022 -0.05384571850299835
0.41448548436164856 -0.12221875786781311 -0.25050827860832214
-0.20198941230773926 -0.3089391589164734 -0.06800533831119537
-0.33882179856300354 -0.3022316098213196 0.051861174404621124
-0.18918445706367493 0.2980673015117645 -0.06921762973070145
0.2929988503456116 0.10292993485927582 -0.27621135115623474
-0.372548371553421 -0.04038706049323082 0.05662992224097252
-0.06574344635009766 0.29956817626953125 -0.06602523475885391
0.1657344251871109 -0.2985174059867859 -0.0726749375462532
-0.16349297761917114 -0.30562010407447815 0.03982948139309883
-0.42845603823661804 -0.1350894719362259 -0.028112594038248062
0.059379979968070984 -0.12708526849746704 0.41054388880729675
-0.2172345072031021 -0.30716314911842346 -0.04197179898619652
-0.17293453216552734 -0.31022098660469055 -0.06860368698835373
0.36418700218200684 0.31090739369392395 0.0295510645955801
0.1602001041173935 -0.3038769066333771 0.03881179541349411
0.40621837973594666 0.06817915290594101 -0.3934113383293152
-0.5379907488822937 0.08327581733465195 -0.06140619143843651
0.4184417128562927 -0.14245903491973877 -0.222783625125885
0.2984566390514374 0.06777775287628174 -0.390960156917572
0.30660948157310486 -0.3124292194843292 -0.12593990564346313
0.14636613428592682 -0.042530983686447144 -0.0766938328742981
-0.3071408271789551 -0.09964320808649063 -0.0712573230266571
0.2980595827102661 -0.17510055005550385 0.10400613397359848
0.07540542632341385 -0.3018142580986023 -0.07315114885568619
0.14783670008182526 0.0909934714436531 -0.07110869139432907
-0.5605038404464722 -0.16397275030612946 -0.05303014814853668
-0.1173628717660904 0.15210428833961487 0.21178469061851501
0.02086842805147171 -0.3041558265686035 -0.07103516161441803
-0.2922440469264984 -0.31161046028137207 -0.06878578662872314
-0.07216346263885498 0.30839255452156067 -0.06605100631713867
-0.30289503931999207 0.2957042157649994 -0.06297551840543747
-0.4908502697944641 -0.15906700491905212 -0.04263460263609886
-0.3218216300010681 -0.13622868061065674 0.05638793855905533
0.41744011640548706 -0.300383061170578 -0.13855041563510895
-0.5663795471191406 0.025364892557263374 0.035338569432497025
0.035332657396793365 -0.049072545021772385 0.44150012731552124
0.4190981388092041 0.15605834126472473 -0.21781393885612488
-0.14165805280208588 0.29846081137657166 -0.06696908175945282
-0.4240294396877289 -0.3132774531841278 0.037784088402986526
0.30674242973327637 -0.30142661929130554 -0.24221473932266235
-0.1268284171819687 -0.30897992849349976 -0.0718282088637352
-0.38523149490356445 -0.2190602421760559 0.04971509799361229
-0.21552109718322754 -0.19163459539413452 0.048031218349933624
-0.014057792723178864 -0.21398144960403442 -0.07315275818109512
-0.3831034302711487 -0.012492477893829346 0.05418352037668228
0.4176821708679199 0.2500014901161194 -0.25226840376853943
0.3315514028072357 0.15362511575222015 0.14007067680358887
0.06700043380260468 0.19274619221687317 0.27334973216056824
-0.2446187436580658 -0.2460900992155075 -0.07579255104064941
-0.5637028217315674 0.19956830143928528 0.043857138603925705
0.023605702444911003 -0.25229302048683167 -0.07711612433195114
0.32520580291748047 -0.30140531063079834 -0.1499907672405243
-0.019150251522660255 -0.19130933284759521 0.1474955677986145
-0.332866370677948 -0.31187117099761963 -0.06906469166278839
-0.25549185276031494 -0.18198822438716888 0.05232236534357071
-0.48078614473342896 0.1227671205997467 -0.06833669543266296
0.0324912965297699 0.009652170352637768 0.3114870488643646
0.4195999801158905 -0.26379820704460144 0.04003492742776871
-0.2552255392074585 0.3050021231174469 0.033442843705415726
-0.4914788603782654 0.2922762930393219 -0.05052904412150383
0.04913027957081795 0.31029361486434937 -0.05243362858891487
0.4104982018470764 -0.26165977120399475 0.05042596906423569
-0.21893690526485443 -0.30890581011772156 0.03672286868095398
-0.0021525025367736816 -0.30221667885780334 -0.07496946305036545
0.32641735672950745 0.19329167902469635 -0.3346415162086487
0.30796608328819275 0.2804461419582367 -0.3559677302837372
-0.14413921535015106 -0.298615962266922 0.05292883887887001
0.1473381519317627 0.30966854095458984 -0.06794236600399017
0.31181055307388306 -0.14774060249328613 -0.3937366306781769
-0.5572863221168518 0.07894504815340042 -0.06477133929729462
-0.005772262811660767 0.3060344457626343 0.04949025809764862
-0.550420343875885 -0.24719341099262238 0.04802238196134567
0.4219156503677368 0.2946704626083374 -0.09038122743368149
0.09742601215839386 -0.03689790144562721 0.37241044640541077
-0.33374497294425964 -0.262984961271286 -0.07310212403535843
-0.5561146140098572 -0.04516776651144028 0.054211705923080444
0.40851089358329773 0.1697363704442978 -0.39195647835731506
0.2969438433647156 -0.23016893863677979 -0.0807967483997345
-0.39802953600883484 0.3033473491668701 0.044365331530570984
-0.341100811958313 0.10338156670331955 0.057378463447093964
-0.5667065382003784 0.14414529502391815 0.04861358925700188
0.2950502038002014 -0.2039690613746643 0.049590110778808594
0.41665709018707275 -0.07899577915668488 -0.3821770250797272
0.4023725688457489 0.015782127156853676 -0.39429280161857605
-0.3612118661403656 -0.06779587268829346 0.05217193067073822
0.25514599680900574 0.1796160340309143 0.11297304928302765
0.1975245475769043 -0.19125595688819885 0.05832870304584503
0.007997961714863777 -0.1547403186559677 0.32080909609794617
-0.3300434350967407 -0.11493472754955292 0.050464630126953125
0.42023947834968567 -0.28932440280914307 0.0063088866882026196
-0.13511455059051514 0.3106977343559265 0.04578778147697449
0.2987925112247467 -0.17987851798534393 -0.37104034423828125
0.2730347216129303 0.13974769413471222 0.1980520337820053
0.4239645004272461 0.17779268324375153 0.03654175624251366
0.0129828080534935 0.04266795143485069 0.4316263794898987
-0.3273305296897888 0.17627586424350739 0.0563109889626503
-0.08915133029222488 -0.20172901451587677 0.048604145646095276
0.30313047766685486 -0.13223803043365479 -0.34972575306892395
-0.5672422051429749 0.16531983017921448 -0.023474451154470444
-0.09755927324295044 0.20830455422401428 0.05199234560132027
-0.566389262676239 0.13477887213230133 0.05055496096611023
-0.02576872706413269 -0.30600684881210327 -0.06906046718358994
-0.18058331310749054 0.295135498046875 -0.06506609171628952
-0.3478849530220032 -0.2701139748096466 0.05919407308101654
0.2346964180469513 -0.19086973369121552 0.17997004091739655
0.42146632075309753 0.21936441957950592 -0.18310177326202393
0.29375243186950684 0.1752394288778305 -0.3909934461116791
0.42015019059181213 -0.2932443916797638 -0.27486979961395264
-0.3873943090438843 -0.014123791828751564 0.05154019594192505
0.29864129424095154 0.043177105486392975 -0.3329727351665497
0.30121347308158875 0.12079720944166183 -0.12617745995521545
-0.5589330196380615 -0.006329743191599846 0.05547299608588219
0.1664692461490631 -0.30799293518066406 -0.06973057985305786
-0.5630167126655579 0.014454750344157219 -0.020632818341255188
0.29558977484703064 0.23990097641944885 -0.2251151204109192
-0.040351130068302155 -0.15090477466583252 -0.07142461091279984
0.3001094162464142 0.19023042917251587 -0.39038872718811035
0.24830392003059387 0.19401796162128448 0.2249801605939865
-0.5597850680351257 -0.09998400509357452 0.05133228749036789
0.12879793345928192 -0.20706520974636078 0.04894174635410309
0.3369201719760895 0.312878280878067 -0.16041095554828644
-0.5600420832633972 -0.08790236711502075 0.052539557218551636
0.3124653100967407 0.24411818385124207 -0.24992439150810242
-0.43732750415802 -0.26948824524879456 0.054908547550439835
-0.46850234270095825 -0.13729119300842285 0.05266512557864189
-0.5603885054588318 -0.04089165851473808 0.04998166486620903
-0.3083508610725403 -0.30736586451530457 -0.06737925857305527
0.4250636398792267 0.28229284286499023 0.026007117703557014
0.02016597054898739 0.02704186923801899 0.45406582951545715
0.17615626752376556 -0.2877208888530731 0.047724660485982895
-0.12083376944065094 -0.29505181312561035 0.05121636390686035
0.30124208331108093 -0.292554646730423 -0.11290653049945831
0.23745426535606384 0.19965937733650208 0.11429349333047867
-0.18820014595985413 -0.31097644567489624 -0.0681762844324112
-0.33750274777412415 0.10418717563152313 0.05645613372325897
-0.14716067910194397 -0.31046873331069946 -0.06945770978927612
-0.009701203554868698 -0.3094945251941681 -0.0749945193529129
-0.382025808095932 -0.3007931113243103 0.055469315499067307
-0.33406558632850647 0.10984192043542862 0.057096660137176514
0.13617224991321564 0.20307473838329315 0.06214587762951851
0.2806229293346405 0.08354136347770691 -0.07346083968877792
-0.24429841339588165 0.3036699891090393 0.04329266399145126
-0.3643701374530792 -0.040290717035532 0.056298352777957916
-0.09588438272476196 -0.30610284209251404 0.03781846538186073
0.04004397243261337 -0.19499462842941284 0.18392862379550934
-0.5258336663246155 -0.17706885933876038 -0.06866084784269333
-0.32252568006515503 -0.11988554894924164 0.05404725670814514
0.30455994606018066 0.30902111530303955 -0.17963005602359772
0.42557305097579956 -0.031510695815086365 -0.07426939904689789
-0.36945557594299316 0.025566738098859787 0.06181063875555992
-0.37991178035736084 -0.19806718826293945 -0.06873112916946411
0.399008184671402 -0.30273354053497314 -0.11320516467094421
-0.1186186894774437 0.3069462180137634 -0.06350524723529816
0.33921927213668823 0.31138578057289124 -0.12582233548164368
0.12804871797561646 0.1885882318019867 0.33306196331977844
0.2489018589258194 0.20019982755184174 0.2108837068080902
-0.5693573951721191 0.1428520530462265 0.025939296931028366
-0.43257421255111694 0.30497467517852783 -0.010089543648064137
0.23637616634368896 -0.2892815172672272 -0.07356048375368118
0.4153003394603729 -0.05263613909482956 -0.3870367407798767
-0.556346595287323 -0.15505066514015198 -0.06818876415491104
0.40267452597618103 0.24013912677764893 -0.38198620080947876
0.004007570445537567 0.19874027371406555 0.06887024641036987
-0.31690922379493713 0.30204224586486816 -0.06081128120422363
0.004579715430736542 -0.2065623551607132 0.045839328318834305
0.056909363716840744 -0.11506182700395584 0.4129663407802582
0.012895911931991577 -0.30376285314559937 -0.06993365287780762
0.134947270154953 0.10332030057907104 0.2975213825702667
0.023015320301055908 -0.19937585294246674 0.047790512442588806
-0.22347012162208557 0.012560475617647171 0.20742104947566986
-0.09403711557388306 0.3048851490020752 0.050715941935777664
-0.3612968921661377 0.2952045500278473 0.05766947194933891
0.272028386592865 -0.29363319277763367 0.052530329674482346
-0.28484243154525757 -0.15533173084259033 0.05290944129228592
-0.38578370213508606 0.23592199385166168 0.051742203533649445
0.42267534136772156 -0.29533594846725464 -0.015836596488952637
0.11153616011142731 -0.1825980246067047 0.3538223206996918
-0.025147520005702972 -0.2873151898384094 0.05167071148753166
0.422055721282959 -0.17573554813861847 0.05340922623872757
-0.22719183564186096 0.18100853264331818 0.05626366287469864
0.3693773150444031 0.1929437518119812 0.09666156768798828
0.4147281348705292 0.2969576418399811 -0.21403926610946655
0.3058536648750305 0.09690368175506592 -0.39896830916404724
-0.3308471739292145 -0.3094608783721924 0.038854941725730896
-0.3238127529621124 -0.3065587878227234 -0.056112129241228104
-0.5133523344993591 0.09334100782871246 -0.06859391182661057
-0.13912898302078247 -0.30222761631011963 -0.071019746363163
-0.328939825296402 0.2347291111946106 -0.0665755644440651
0.3404539227485657 -0.18162047863006592 0.11744209378957748
0.019813887774944305 0.20083406567573547 0.07387735694646835
-0.21030530333518982 0.17607977986335754 0.0663846880197525
0.019314028322696686 -0.3117828369140625 -0.07059274613857269
-0.37716037034988403 0.010116730816662312 0.05840466916561127
0.4132321774959564 -0.2280403971672058 -0.3618605434894562
-0.24872714281082153 0.16384097933769226 0.05607743561267853
0.3028677701950073 -0.18803156912326813 -0.3946459889411926
-0.20617884397506714 -0.306531697511673 -0.07021235674619675
0.42054858803749084 0.005688592791557312 0.035520367324352264
-0.42706623673439026 -0.3052525520324707 0.044418420642614365
-0.2106139212846756 0.3043377697467804 0.05306693911552429
0.4068600535392761 0.13701972365379333 -0.24435797333717346
0.3171195089817047 0.308413028717041 0.037439338862895966
0.06068798899650574 -0.19210483133792877 0.06127377599477768
0.3160727620124817 -0.08280229568481445 -0.3943091928958893
0.29827600717544556 -0.13191772997379303 -0.08299415558576584
0.40647903084754944 0.31255263090133667 -0.14832042157649994
-0.4474167823791504 -0.28968411684036255 -0.06928002089262009
0.06462644785642624 -0.3007986843585968 -0.07232882082462311
-0.20267048478126526 0.30256789922714233 -0.06318140029907227
0.02426912635564804 -0.31042513251304626 -0.06962860375642776
-0.09430352598428726 -0.30987098813056946 -0.06940598785877228
-0.15458615124225616 -0.03503131866455078 -0.07056151330471039
0.397821307182312 -0.3005969226360321 -0.23233149945735931
0.3015561103820801 0.23839649558067322 -0.09130042046308517
-0.07761730253696442 -0.19704996049404144 0.06946957111358643
0.23619946837425232 0.2067253589630127 0.07705496996641159
-0.5583977699279785 0.02373749576508999 0.03779008612036705
0.39345094561576843 -0.056810781359672546 0.07069817930459976
0.41417446732521057 0.21900664269924164 0.0540989525616169
0.11572280526161194 0.0713135153055191 0.34326937794685364
0.3627060353755951 0.3130790591239929 0.04033825546503067
0.41970813274383545 -0.23257321119308472 -0.23311161994934082
-0.1651037484407425 0.19745343923568726 0.054567571729421616
0.023010455071926117 0.2941296696662903 0.05511494353413582
-0.1440923511981964 -0.3106642961502075 -0.0670735239982605
0.23228289186954498 -0.3012734353542328 0.04957262799143791
-0.11541369557380676 0.30167099833488464 -0.06833045929670334
0.417182981967926 0.21463154256343842 0.040389448404312134
-0.22174781560897827 0.30822163820266724 0.03832525014877319
-0.41830408573150635 -0.1351686418056488 0.04830607771873474
0.3019164502620697 -0.1957918107509613 -0.11018997430801392
-0.3666232228279114 -0.06802121549844742 0.05387888848781586
-0.5175654888153076 -0.11574025452136993 0.052142977714538574
-0.4581269919872284 0.018832746893167496 0.053268782794475555
0.10432136058807373 -0.1821785718202591 0.34361398220062256
-0.48436272144317627 -0.001017291098833084 -0.06686598062515259
-0.17956209182739258 -0.18756400048732758 0.05330941081047058
0.29690614342689514 0.1270861178636551 -0.3945353031158447
-0.15518558025360107 -0.30983370542526245 -0.07109962403774261
-0.2952771484851837 -0.2972770929336548 -0.06933476775884628
0.39531028270721436 -0.18074820935726166 -0.39427831768989563
-0.08595145493745804 -0.30927181243896484 -0.07001492381095886
-0.036925673484802246 0.29914015531539917 -0.07003709673881531
0.3448672890663147 -0.1620967984199524 0.11996205151081085
0.40999525785446167 0.31409165263175964 -0.1574852466583252
-0.47969329357147217 0.23765017092227936 -0.04232187569141388
0.031150497496128082 -0.3012358248233795 -0.07308237999677658
-0.3220919370651245 -0.12330251932144165 0.051242053508758545
-0.012230321764945984 -0.3075683116912842 -0.011171497404575348
-0.058650773018598557 0.30745232105255127 0.0384933203458786
-0.030929112806916237 -0.3052891492843628 -0.0743081271648407
-0.41612207889556885 -0.14344045519828796 -0.05398847162723541
-0.16100731492042542 -0.1753799170255661 -0.06910169869661331
0.29578152298927307 0.28492188453674316 -0.35630637407302856
0.3953499495983124 0.23155023157596588 0.05538390949368477
-0.4197259247303009 0.12161773443222046 0.05542771518230438
-0.3638676106929779 0.1946697235107422 -0.06443063169717789
-0.5610569715499878 -0.15252935886383057 0.04331143945455551
-0.028923558071255684 0.2974661588668823 -0.070703886449337
-0.37718892097473145 -0.03463529795408249 0.058459099382162094
0.40262648463249207 -0.12313759326934814 -0.39654117822647095
-0.3468608558177948 -0.1255151629447937 0.05414365977048874
0.08121872693300247 -0.05411328747868538 0.13512851297855377
0.24805106222629547 0.15388688445091248 0.22553053498268127
0.3981785774230957 0.04561919718980789 0.07606244832277298
0.33665600419044495 -0.14548030495643616 0.13017040491104126
-0.38613516092300415 -0.3156832456588745 -0.06624731421470642
0.42041659355163574 0.24651369452476501 -0.34592151641845703
-0.4971095025539398 -0.06417668610811234 0.05151786655187607
-0.35443544387817383 0.06274323910474777 0.05846782401204109
-0.05498198792338371 0.3102927505970001 -0.015896648168563843
-0.42248252034187317 -0.24813272058963776 0.05206830054521561
0.4209847152233124 -0.2153577357530594 0.04641894996166229
-0.5571084022521973 0.15180307626724243 0.049532290548086166
0.27117547392845154 0.02219647914171219 0.19015349447727203
-0.2929021120071411 -0.1440790593624115 0.053680695593357086
-0.48237377405166626 -0.1328863501548767 -0.0649128407239914
0.30266815423965454 0.1761055588722229 -0.39260849356651306
-0.5068875551223755 -0.01497131772339344 -0.06676764786243439
0.21359184384346008 -0.30062592029571533 -0.07680921256542206
0.10999833047389984 -0.3011457920074463 -0.07608620822429657
-0.1972927451133728 0.18670469522476196 0.05690629780292511
0.4065931737422943 0.3145287334918976 -0.20384976267814636
-0.4114002287387848 0.3020707666873932 0.051399823278188705
0.062204957008361816 -0.3062846064567566 -0.07230415940284729
0.2589515149593353 0.18207524716854095 0.15111953020095825
-0.48207274079322815 -0.23688974976539612 0.058125630021095276
-0.04001597315073013 0.29738649725914 -0.06555907428264618
0.36782655119895935 -0.30055466294288635 0.023159407079219818
-0.07436782866716385 0.0012698173522949219 -0.06842339038848877
0.09236975759267807 -0.0019161924719810486 0.3792648911476135
-0.23192031681537628 0.19287097454071045 0.05651675909757614
-0.31762176752090454 -0.014908891171216965 0.1143224686384201
-0.2135813981294632 -0.30637913942337036 -0.07054935395717621
-0.38357478380203247 0.23953448235988617 0.05646033585071564
-0.38441339135169983 -0.30956950783729553 -0.017353136092424393
0.035809099674224854 0.201680526137352 0.07723578810691833
-0.1975383460521698 0.29309308528900146 0.05389918014407158
0.21459124982357025 0.0666414350271225 0.2601373493671417
0.40215858817100525 -0.09047894924879074 -0.3949904441833496
0.418362021446228 0.06445102393627167 0.05069158598780632
0.13760030269622803 -0.19527965784072876 0.3106808662414551
-0.28336167335510254 -0.3001355230808258 0.0505279041826725
-0.14444613456726074 0.2896249294281006 0.053062714636325836
0.2622714638710022 0.20148256421089172 0.18821118772029877
0.024221349507570267 0.20089849829673767 0.06845499575138092
-0.15561909973621368 0.2097811996936798 0.052805542945861816
-0.3752138018608093 -0.0006328942254185677 0.058198679238557816
0.3321702182292938 0.3147117495536804 -0.15362627804279327
-0.4570072889328003 -0.1203041672706604 0.05469797924160957
0.42312487959861755 0.034966275095939636 -0.028995629400014877
0.34997183084487915 -0.18321144580841064 0.11405465751886368
0.08029323816299438 0.20681048929691315 0.05261874943971634
0.16259926557540894 -0.1966218501329422 0.2990398705005646
