-0.04523041099309921 -0.4191921353340149 -0.20378990471363068
-0.09454979747533798 0.35545995831489563 0.12748414278030396
0.13037943840026855 0.15848907828330994 -0.06565576046705246
0.2022545486688614 -0.0068244002759456635 -0.11524724215269089
-0.14674901962280273 0.03294681757688522 -0.1788257360458374
-0.15917366743087769 -0.22194263339042664 0.18489523231983185
-0.2003060132265091 -0.169749453663826 0.022885361686348915
-0.07460219413042068 0.3838352859020233 0.11066402494907379
0.1305701583623886 0.4412125051021576 -0.04540535807609558
-0.20695360004901886 0.016061559319496155 -0.12574416399002075
-0.004949912428855896 -0.4124454855918884 -0.20397621393203735
0.1175866574048996 -0.4202967882156372 -0.1475181132555008
0.12731832265853882 0.4728909730911255 -0.06723757833242416
-0.1090211346745491 0.5418717265129089 -0.00025336816906929016
0.09907344728708267 0.5644142627716064 -0.012044966220855713
0.16802754998207092 -0.11298906803131104 0.16711434721946716
0.2237638235092163 -0.25405794382095337 -0.052554093301296234
0.031308434903621674 0.42265501618385315 0.13401052355766296
-0.04479376971721649 -0.1830524355173111 -0.16978603601455688
0.13327139616012573 0.10630575567483902 0.12698498368263245
0.07365163415670395 0.2147621363401413 -0.17231546342372894
-0.22308559715747833 -0.231491357088089 -0.11134012043476105
0.009074108675122261 0.11838255822658539 0.21263566613197327
-0.1139276921749115 -0.42616814374923706 -0.1596861332654953
0.19107496738433838 -0.3485804796218872 0.05662452429533005
-0.09310474991798401 -0.3270491361618042 0.23511989414691925
0.14470311999320984 -0.1519661396741867 -0.15997840464115143
0.1541866809129715 -0.4144430458545685 0.09243831783533096
0.08481936901807785 -0.41494137048721313 0.0262424498796463
-0.1795298457145691 -0.41771194338798523 0.024003369733691216
-0.041788581758737564 0.41989946365356445 -0.1681608259677887
-0.04419329762458801 0.33212903141975403 -0.17020170390605927
0.2230788767337799 -0.26085230708122253 -0.06575893610715866
0.19666516780853271 0.08386896550655365 -0.1391691118478775
0.029229309409856796 0.45436814427375793 0.09461288154125214
0.08350539207458496 -0.005748762283474207 0.2017781287431717
-0.17404717206954956 -0.18217632174491882 -0.1623115837574005
-0.16891071200370789 0.07406195998191833 -0.1801472008228302
-0.1992289423942566 0.06260278075933456 -0.06105181574821472
-0.16162508726119995 -0.011237438768148422 0.11495062708854675
-0.21562854945659637 -0.36061781644821167 -0.07441101968288422
0.08823322504758835 -0.41176873445510864 -0.1511336714029312
0.2062794417142868 -0.3296676278114319 -0.11036952584981918
0.051981545984745026 -0.2565327286720276 0.25743961334228516
-0.1863875389099121 -0.012287471443414688 0.001156180165708065
0.13504810631275177 0.3968907594680786 0.05548619106411934
-0.03692872077226639 0.29962387681007385 -0.17216050624847412
0.15062643587589264 -0.41400355100631714 0.09136717766523361
-0.14172330498695374 0.031101182103157043 -0.17866571247577667
-0.20788057148456573 -0.00884251482784748 -0.1496938318014145
-0.03425940126180649 0.4399343430995941 0.08569210022687912
-0.012047916650772095 0.3453643321990967 0.24662542343139648
-0.13284781575202942 -0.3122785985469818 0.2151026725769043
-0.026823291555047035 0.4087456166744232 0.1467236429452896
-0.04797559976577759 -0.1937667727470398 -0.1685684472322464
0.19406510889530182 0.09809435158967972 -0.12563160061836243
-0.18093685805797577 -0.008154161274433136 -0.17535103857517242
0.07629235088825226 -0.41324734687805176 -0.01211631391197443
0.12468000501394272 0.25862377882003784 -0.047128621488809586
-0.03129085153341293 0.41204947233200073 -0.16799789667129517
0.11842340975999832 -0.07011830806732178 0.20454178750514984
0.1133531779050827 0.2104233205318451 -0.14347031712532043
-0.07508083432912827 -0.056356512010097504 0.21339301764965057
0.06935794651508331 -0.0870484784245491 0.2304781675338745
0.04057640954852104 0.4546402096748352 -0.16774065792560577
-0.045671526342630386 0.42686018347740173 -0.16718874871730804
-0.11912436038255692 0.09914448112249374 0.11413852125406265
-0.013731874525547028 0.5671375393867493 -0.12929600477218628
-0.19958935678005219 -0.4094768464565277 -0.1835700273513794
-0.03237888216972351 -0.33891215920448303 0.24898120760917664
-0.02730017900466919 -0.4183664321899414 -0.20246152579784393
0.07494831085205078 -0.416629433631897 0.02471408247947693
-0.04593801870942116 -0.18815532326698303 -0.16867227852344513
-0.10336288064718246 0.41076794266700745 0.062408268451690674
-0.029293689876794815 0.013365641236305237 -0.18192656338214874
-0.10539030283689499 0.14643681049346924 0.14343899488449097
0.17713093757629395 -0.41939955949783325 -0.13906624913215637
-0.15943926572799683 0.11825302988290787 0.006079459562897682
0.20524998009204865 -0.32203295826911926 0.04414915293455124
-0.09102818369865417 -0.412000447511673 0.1639634072780609
0.011673818342387676 0.5664956569671631 -0.0731847882270813
0.0821666568517685 -0.41052955389022827 0.024278491735458374
0.11967666447162628 -0.41632014513015747 0.12918731570243835
0.09810194373130798 0.43629589676856995 0.05750279128551483
-0.10909152030944824 -0.04633767157793045 0.1914713829755783
-0.026456188410520554 -0.1937311589717865 -0.16942240297794342
0.20039628446102142 -0.40098798274993896 -0.00772726908326149
0.1340463012456894 0.016744544729590416 0.1666184961795807
0.13026124238967896 0.1478775590658188 -0.028597082942724228
0.18671587109565735 -0.16814182698726654 -0.1442129909992218
-0.12506942451000214 0.23070509731769562 0.09219267219305038
0.11874019354581833 -0.029753800481557846 0.19224506616592407
0.06993542611598969 0.1930876076221466 0.2529207170009613
0.07447244971990585 0.22553923726081848 0.24109813570976257
-0.07863044738769531 0.563332200050354 0.004385361447930336
0.011009357869625092 0.5669432878494263 -0.14844903349876404
-0.08129988610744476 0.4373796284198761 -0.16427235305309296
-0.0924735963344574 0.039454326033592224 -0.18203547596931458
0.04749797657132149 0.2766138017177582 0.22157715260982513
-0.044262103736400604 -0.19277378916740417 -0.16738538444042206
0.2023458182811737 0.09196248650550842 -0.10131551325321198
-0.1502056121826172 -0.05694206804037094 -0.17711570858955383
-0.15193481743335724 -0.15203604102134705 0.17713892459869385
0.04536212608218193 -0.42214587330818176 -0.18020999431610107
-0.022584743797779083 0.5641716718673706 -0.14194467663764954
-0.20099879801273346 -0.2448163479566574 -0.13656336069107056
0.12075619399547577 0.15488433837890625 0.13807177543640137
-0.03468678891658783 -0.4151652753353119 -0.14350828528404236
0.08654895424842834 0.5721527338027954 -0.08160907030105591
0.16457794606685638 0.0005983021110296249 0.13752466440200806
0.13571520149707794 0.3125036954879761 0.03646891191601753
-0.08905696868896484 0.5217446088790894 0.060837522149086
0.11013336479663849 0.3088335692882538 0.17589519917964935
0.13474270701408386 0.29139837622642517 7.990002632141113e-05
0.01817718893289566 0.43094566464424133 0.13724571466445923
-0.1824643462896347 -0.023660849779844284 0.06265069544315338
0.1830979883670807 -0.03222351893782616 0.09818002581596375
0.1417393833398819 -0.4008215367794037 0.15585704147815704
-0.12502823770046234 0.43665897846221924 0.02020178735256195
0.13575021922588348 0.28351759910583496 0.1023639664053917
-0.10989648848772049 -0.07308369874954224 0.1979188770055771
-0.04969165474176407 -0.22488979995250702 -0.1725139617919922
0.14661051332950592 -0.22234521806240082 -0.1414342224597931
-0.16946420073509216 0.07538275420665741 -0.1799822449684143
0.08311405777931213 -0.059736523777246475 0.22063010931015015
0.02035977691411972 0.42508742213249207 -0.1692863553762436
0.015343688428401947 0.5569443106651306 -0.15221835672855377
0.2213161140680313 -0.25685837864875793 0.016102749854326248
0.1753256618976593 -0.4166008532047272 -0.022350409999489784
0.20973098278045654 -0.3480852246284485 -0.051244623959064484
0.07513004541397095 0.49281322956085205 -0.1663500815629959
0.18755246698856354 0.05741143971681595 0.05139259621500969
0.21357284486293793 -0.2408047318458557 0.06430696696043015
-0.031814102083444595 0.41925865411758423 0.1150483563542366
0.006440386176109314 -0.05961127206683159 -0.17810796201229095
-0.10148631036281586 0.24469643831253052 0.20514042675495148
0.13188865780830383 0.2476087212562561 0.12817725539207458
-0.006023071706295013 -0.2691088616847992 -0.1843525767326355
-0.11171938478946686 -0.3068133592605591 -0.18820197880268097
-0.18844296038150787 0.14257240295410156 -0.12621170282363892
0.15635184943675995 -0.34760770201683044 -0.17959728837013245
0.10516871511936188 -0.4185718894004822 -0.12335366755723953
-0.11681206524372101 0.186349555850029 -0.13190965354442596
-0.12261630594730377 0.15671473741531372 -0.05251215398311615
-0.06895650923252106 0.2697489559650421 -0.17175337672233582
0.09256336092948914 -0.13022415339946747 0.23296840488910675
-0.21167469024658203 -0.3882638216018677 -0.04922560229897499
0.22265596687793732 -0.24837414920330048 -0.05138634890317917
0.12477384507656097 0.49645093083381653 0.01180214062333107
-0.02762880176305771 -0.20022451877593994 -0.16757753491401672
-0.12689141929149628 0.22022698819637299 0.15345998108386993
-0.19969475269317627 -0.05136868357658386 -0.03385980799794197
-0.12836436927318573 0.273822158575058 -0.0258772149682045
-0.1307755410671234 0.49249857664108276 -0.08352331817150116
0.025118444114923477 -0.39174559712409973 -0.20663589239120483
0.13129395246505737 0.26042085886001587 -0.0054756030440330505
0.1977924257516861 0.11004316061735153 -0.1244446337223053
0.07022367417812347 0.18775735795497894 0.2556685507297516
-0.06135193631052971 0.41533422470092773 -0.16716307401657104
0.15357211232185364 -0.4152156710624695 -0.002166254911571741
-0.15571239590644836 -0.018260259181261063 -0.17655058205127716
0.03516016900539398 -0.3881840705871582 0.2484486699104309
0.12421862035989761 0.23036044836044312 -0.10564912855625153
0.03889595717191696 0.333638995885849 0.2355579137802124
-0.2081516832113266 0.0012506265193223953 -0.10542959719896317
-0.21672095358371735 -0.39122676849365234 -0.08113265782594681
0.14119082689285278 -0.17033421993255615 -0.15746574103832245
0.16516225039958954 -0.3603763282299042 0.12514229118824005
0.1808299571275711 0.12521490454673767 -0.1328538954257965
0.10668975114822388 0.0664374828338623 0.1694258600473404
-0.010161422193050385 0.04921594634652138 0.19880615174770355
-0.15933240950107574 0.14028814435005188 -0.17655710875988007
-0.12642087042331696 0.42640581727027893 0.02609114535152912
0.07883360981941223 0.35600513219833374 0.14818072319030762
-0.12105567753314972 0.2537207305431366 -0.117253378033638
0.0217698123306036 0.29978352785110474 0.22354929149150848
0.14097940921783447 0.309347927570343 -0.0720318853855133
-0.13163281977176666 0.3551400899887085 -0.036590661853551865
0.06782251596450806 0.37779000401496887 -0.16864454746246338
0.21952645480632782 -0.27829408645629883 0.04419824481010437
-0.12035418301820755 0.18107806146144867 0.12666139006614685
0.05133587867021561 0.17378288507461548 0.2587301731109619
0.04110473394393921 0.37116074562072754 0.2203163057565689
0.20105485618114471 0.03847961127758026 -0.11104734241962433
-0.11767169833183289 0.17889194190502167 -0.14304111897945404
0.030084269121289253 0.5039703845977783 0.09745840728282928
0.0883684903383255 0.5421931743621826 -0.1605987399816513
-0.20915552973747253 -0.03013133630156517 -0.12594300508499146
-0.11573804914951324 0.09295779466629028 -0.1808253675699234
0.21481285989284515 -0.15364913642406464 -0.10367642343044281
0.22166533768177032 -0.28906193375587463 0.004125252366065979
-0.11586214601993561 0.16023172438144684 0.1128978356719017
0.13610674440860748 0.08151765912771225 0.1431165337562561
0.06411106884479523 0.12684175372123718 0.20420533418655396
0.2075493037700653 -0.05266808718442917 -0.07221334427595139
0.22082409262657166 -0.28805601596832275 0.026212530210614204
-0.2078346163034439 0.0064453016966581345 -0.1131993979215622
-0.13312683999538422 -0.21385201811790466 0.20862625539302826
-0.10257969796657562 0.31653204560279846 -0.1687443107366562
-0.18228188157081604 0.002969011664390564 0.015388701111078262
0.21226564049720764 -0.37897732853889465 -0.1344711035490036
0.0009411897044628859 0.39008471369743347 0.22322633862495422
0.17826561629772186 -0.11445707082748413 0.13545867800712585
-0.12417115271091461 -0.41354289650917053 0.10490723699331284
-0.08288513123989105 -0.16793256998062134 -0.17073847353458405
-0.022405747324228287 -0.18152213096618652 -0.16844746470451355
0.12779662013053894 0.23435203731060028 -0.06737613677978516
0.05949155613780022 0.3227503001689911 -0.16943205893039703
-0.1841457039117813 0.05536799877882004 0.024264492094516754
0.07364315539598465 0.573588490486145 -0.04466133192181587
0.13992443680763245 -0.08124438673257828 0.19251099228858948
0.08256299048662186 0.14966516196727753 0.22863830626010895
-0.09550637006759644 -0.20779062807559967 -0.16187721490859985
0.05733555555343628 -0.4123932123184204 0.020676476880908012
-0.09735993295907974 0.14069980382919312 0.17245599627494812
0.06890343129634857 -0.41679057478904724 0.033723123371601105
0.1533939242362976 0.3972019553184509 -0.09791747480630875
0.08420080691576004 -0.03783990442752838 0.20567402243614197
-0.20511680841445923 0.10549727827310562 -0.13024625182151794
0.12454046308994293 0.5116096138954163 -0.09365206956863403
-0.07807876169681549 0.3573448657989502 -0.1697525829076767
0.02741621620953083 -0.17009064555168152 0.2578269839286804
-0.08205684274435043 -0.06481606513261795 0.21271559596061707
0.0628734827041626 0.25168681144714355 0.2437114119529724
-0.19998455047607422 -0.17877092957496643 0.0699097290635109
0.22144795954227448 -0.2679564654827118 0.025044608861207962
0.09942055493593216 0.09501084685325623 -0.17502912878990173
-0.2129761427640915 -0.3346555531024933 -0.10238589346408844
-0.0500587597489357 -0.005499131977558136 -0.1825687289237976
0.061527032405138016 0.2029886394739151 0.2565312087535858
0.17826025187969208 0.0741766169667244 -0.16455750167369843
-0.06037833169102669 -0.07343022525310516 -0.17955060303211212
-0.11800167709589005 0.19009296596050262 -0.11729495972394943
-0.00359971821308136 -0.3272426724433899 0.2597719132900238
-0.07491496205329895 0.4386121928691864 -0.1662096083164215
-0.21615910530090332 -0.22294284403324127 0.05026445537805557
0.1434982717037201 -0.39304065704345703 0.1573575884103775
-0.09829837083816528 -0.11848881095647812 0.21736684441566467
0.08730076253414154 -0.201920285820961 0.251118540763855
-0.22744125127792358 -0.232916459441185 -0.03241799771785736
0.0991266518831253 0.5099758505821228 0.05956283211708069
0.18614564836025238 -0.07735268771648407 0.09453543275594711
0.00034253858029842377 0.5671156644821167 -0.024831607937812805
0.15318498015403748 0.2901228070259094 -0.11757300794124603
0.06952137500047684 -0.1584901213645935 0.2483375519514084
0.20185498893260956 -0.3192301392555237 0.08775269240140915
0.13861726224422455 -0.2819250226020813 -0.16268721222877502
0.13512009382247925 0.3028326630592346 0.04202394559979439
-0.1958150863647461 -0.016682729125022888 -0.024886298924684525
0.13363230228424072 0.4381675124168396 -0.01600182056427002
0.11564134061336517 -0.42345669865608215 -0.1075282096862793
0.08850407600402832 -0.14336596429347992 0.23899294435977936
-0.19636306166648865 -0.2055075317621231 -0.14963050186634064
0.08481471985578537 -0.41279107332229614 0.039499782025814056
-0.1832028031349182 -0.309785395860672 0.13988333940505981
0.14651945233345032 -0.3902871012687683 -0.1953916698694229
-0.21454577147960663 -0.20258067548274994 0.037226177752017975
0.06696408987045288 0.19391903281211853 0.25061580538749695
0.14737074077129364 0.1577959507703781 -0.1416711062192917
-0.2259826958179474 -0.2516580820083618 -0.013706251978874207
0.10433848947286606 -0.40792447328567505 -0.0011926675215363503
0.22289370000362396 -0.24422356486320496 0.0019071949645876884
0.038533490151166916 -0.42190900444984436 -0.1905536949634552
0.13806796073913574 -0.39292916655540466 -0.19684062898159027
0.15085376799106598 0.2856142520904541 -0.1318308711051941
-0.0645652562379837 0.37524962425231934 -0.16877183318138123
0.004222162067890167 -0.09733867645263672 -0.17761246860027313
-0.21655751764774323 -0.10478269308805466 -0.10763785988092422
-0.13289032876491547 -0.42115864157676697 -0.08564822375774384
0.08530344814062119 0.24870380759239197 -0.17017684876918793
0.1342146396636963 0.24225199222564697 0.1624760776758194
-0.1679542064666748 -0.2794874906539917 -0.1600845754146576
0.1355733722448349 0.2974921762943268 0.05209449678659439
-0.12873969972133636 0.26501789689064026 -0.07425060868263245
-0.12501825392246246 0.23191282153129578 0.12421644479036331
0.09514044225215912 -0.18281272053718567 0.2476220726966858
-0.00972716137766838 -0.24546056985855103 -0.18009363114833832
0.10522071272134781 -0.42609962821006775 -0.12069808691740036
-0.12244002521038055 0.09836851805448532 0.11432686448097229
0.18735721707344055 0.1386984884738922 -0.08414170891046524
-0.057022061198949814 0.5625593662261963 0.010741340927779675
-0.0916493758559227 0.057312265038490295 -0.18211734294891357
0.1142982468008995 0.16993984580039978 -0.16600055992603302
0.09907321631908417 0.12519685924053192 0.16230684518814087
-0.08067928999662399 0.5631839036941528 0.0040703266859054565
-0.18970419466495514 0.03555973246693611 -0.03784090653061867
0.1814466267824173 -0.38919001817703247 0.0706685483455658
0.14519701898097992 -0.1620311588048935 -0.15806296467781067
-0.01686801016330719 -0.3693128228187561 0.2534865140914917
-0.19033010303974152 -0.2773291766643524 0.12618273496627808
-0.20486028492450714 0.09725859016180038 -0.1409205198287964
-0.02880582958459854 0.41196516156196594 -0.16803622245788574
0.06995686888694763 -0.18381300568580627 0.25617507100105286
0.13901981711387634 -0.1754319816827774 -0.15466682612895966
-0.20441730320453644 0.09990397840738297 -0.10973967611789703
0.1985275149345398 0.1065979152917862 -0.12384621798992157
-0.013331703841686249 0.01837635040283203 -0.18105733394622803
0.12806838750839233 0.10265922546386719 0.13425476849079132
-0.11105642467737198 -0.13030244410037994 0.21101199090480804
-0.10851066559553146 0.3194359540939331 -0.1686057597398758
-0.12463046610355377 0.21739350259304047 0.11470218747854233
-0.15007764101028442 -0.03842815011739731 0.14679130911827087
0.05305570736527443 -0.05488279089331627 0.2246239334344864
0.09473663568496704 -0.4129103124141693 -0.07041192799806595
0.09406174719333649 -0.4088751971721649 0.045544497668743134
-0.053653784096241 -0.11684278398752213 0.23584884405136108
-0.22448205947875977 -0.23919996619224548 0.002132866531610489
0.11749489605426788 0.5239835381507874 0.022465094923973083
-0.22062605619430542 -0.3105592131614685 0.01988403871655464
0.18774418532848358 0.07129983603954315 0.053960636258125305
0.13391442596912384 -0.33903932571411133 -0.18283160030841827
0.10263384878635406 0.27493882179260254 -0.15946117043495178
-0.15614426136016846 -0.036930546164512634 0.13820943236351013
-0.009888634085655212 0.4060882031917572 0.17684607207775116
0.12979021668434143 0.26016661524772644 0.14867433905601501
0.22279512882232666 -0.2331169843673706 -0.0616530142724514
-0.007441144436597824 0.4895344078540802 0.08898873627185822
-0.19468188285827637 -0.23179131746292114 0.11799627542495728
0.13247458636760712 0.415576308965683 -0.06592398881912231
0.14593437314033508 -0.016705604270100594 0.16873334348201752
0.03975812345743179 -0.4187271296977997 -0.18488585948944092
0.1762322634458542 -0.41526949405670166 -0.03065907210111618
-0.07658100128173828 0.08262608200311661 0.1716231405735016
0.18137145042419434 -0.11538855731487274 0.11951093375682831
0.11147776246070862 0.4439549148082733 -0.16341058909893036
-0.05034114420413971 -0.41392263770103455 -0.153927743434906
0.08730149269104004 -0.4110412001609802 0.03084609843790531
-0.08469177782535553 -0.4194289445877075 -0.1955554038286209
-0.20599399507045746 -0.4050581753253937 -0.16398993134498596
-0.18610872328281403 -0.24149739742279053 -0.14476484060287476
-0.016723446547985077 0.16156722605228424 0.259556382894516
0.09562024474143982 0.5097911357879639 -0.16479097306728363
-0.12800240516662598 0.14810936152935028 -0.05369649827480316
-0.12713772058486938 0.2521461546421051 -0.025708183646202087
0.13372141122817993 -0.4198049306869507 -0.15179169178009033
0.08594095706939697 -0.40828782320022583 0.061093054711818695
0.1049753725528717 -0.22757473587989807 0.24742871522903442
-0.09120132774114609 0.4223630726337433 0.06566868722438812
-0.0060159750282764435 -0.18589507043361664 -0.1667567938566208
-0.17839030921459198 -0.35516372323036194 -0.18249210715293884
-0.12660449743270874 0.36044225096702576 0.005500543862581253
0.1310601532459259 0.31341710686683655 0.1211073249578476
-0.10685618966817856 -0.4167329967021942 -0.12260608375072479
-0.09264319390058517 0.3271081745624542 0.16527311503887177
0.07975389063358307 -0.03946113958954811 -0.17481160163879395
0.2023748755455017 0.019711682572960854 -0.11131181567907333
-0.1963258534669876 -0.4061681628227234 0.06089022755622864
0.11725014448165894 0.11836444586515427 0.12874843180179596
0.1336674839258194 0.45930448174476624 -0.03674875944852829
0.037470608949661255 0.04893707484006882 -0.17736607789993286
-0.17815141379833221 -0.1419413834810257 -0.16831345856189728
-0.09557613730430603 0.47398266196250916 0.053756386041641235
0.058651506900787354 -0.41374772787094116 0.1370677947998047
-0.0427866168320179 -0.41492000222206116 -0.203181192278862
0.10463078320026398 0.35915407538414 -0.16600455343723297
-0.11429306119680405 -0.16042299568653107 -0.1696852594614029
-0.07105700671672821 -0.06952393800020218 -0.17921634018421173
-0.07489791512489319 -0.4188586473464966 -0.11734318733215332
0.13420915603637695 -0.41963163018226624 -0.1467752903699875
-0.01964316889643669 -0.1820010095834732 -0.16807523369789124
-0.1273757666349411 0.3539559543132782 0.013032510876655579
-0.18593810498714447 0.04184303805232048 -0.17454828321933746
-0.05813829228281975 0.4149388074874878 -0.16750238835811615
0.0789935514330864 -0.41274699568748474 0.02153673768043518
0.08256121724843979 -0.4162786900997162 0.034780412912368774
-0.22573208808898926 -0.24127857387065887 -0.0193495973944664
-0.11689803004264832 0.18194012343883514 0.1796322613954544
-0.14093360304832458 -0.32227328419685364 0.20327939093112946
-0.11800520867109299 0.17187294363975525 0.12299033999443054
0.007270514965057373 0.08367664366960526 0.18957656621932983
-0.07771126925945282 0.39405980706214905 -0.1687142550945282
0.19674405455589294 -0.3196169137954712 -0.1278212070465088
-0.019007541239261627 0.04866686463356018 0.19769878685474396
-0.036160700023174286 0.34704849123954773 0.2393033355474472
0.13390664756298065 0.2704605758190155 0.04041558876633644
-0.12878696620464325 0.29238879680633545 0.13273602724075317
0.13054442405700684 0.4166293442249298 -0.03415566682815552
-0.028308846056461334 -0.4119134843349457 -0.20385479927062988
-0.005239848047494888 0.4092389643192291 -0.1689804643392563
0.1529856026172638 0.37732556462287903 -0.1222246065735817
0.10094936937093735 -0.22860944271087646 0.25065335631370544
0.08929392695426941 -0.17848022282123566 -0.1613977700471878
0.13599923253059387 0.28924301266670227 0.09438101202249527
-0.1242620050907135 -0.3608521819114685 0.19948722422122955
0.1230631023645401 0.4985998570919037 0.027284085750579834
0.11065734922885895 -0.4211277961730957 -0.11479397863149643
0.09050919115543365 0.2834949791431427 0.20355945825576782
0.15162090957164764 0.12837128341197968 0.008218375965952873
0.1536153256893158 0.052770502865314484 0.13662093877792358
-0.17789772152900696 -0.16109710931777954 0.11358468979597092
0.15278519690036774 0.11055952310562134 0.0851193368434906
-0.047347743064165115 0.3278440833091736 -0.17021192610263824
0.03207187354564667 0.3751019239425659 0.23212511837482452
0.04554693400859833 -0.41538503766059875 0.02391853928565979
0.2079206109046936 -0.3514844477176666 -0.1329716444015503
0.0027468614280223846 -0.4186636209487915 -0.1960105299949646
-0.06719493120908737 -0.21476584672927856 0.255064457654953
0.11203604936599731 -0.4213927090167999 -0.11979489028453827
0.2109721601009369 -0.3591766953468323 -0.13359901309013367
0.06542590260505676 -0.4133927524089813 0.08620886504650116
-0.13172376155853271 -0.3306114673614502 0.21051040291786194
0.10441352427005768 -0.412065714597702 -0.100298210978508
0.08255481719970703 -0.41851019859313965 0.036591678857803345
-0.22445885837078094 -0.2706843912601471 0.007218964397907257
-0.04009611904621124 -0.18165692687034607 0.2574476897716522
0.15323251485824585 0.30321183800697327 -0.13868394494056702
0.1863122135400772 0.009705763310194016 0.023821936920285225
0.1330121010541916 0.14089737832546234 0.015438603237271309
0.12997038662433624 0.48599255084991455 -0.011539708822965622
0.1702481061220169 0.01849173754453659 -0.1654156744480133
0.1374979317188263 -0.4099574387073517 -0.19838939607143402
-0.21938639879226685 -0.2251206487417221 -0.1174972653388977
-0.03950905799865723 0.42827215790748596 -0.1673963963985443
0.1862201988697052 0.016779093071818352 0.06331238895654678
-0.028402257710695267 0.47161954641342163 -0.16705353558063507
0.08507580310106277 -0.4100678563117981 0.025895867496728897
-0.05366908013820648 0.008024413138628006 -0.1832464635372162
-0.1510160267353058 0.34115251898765564 -0.09393035620450974
0.21904031932353973 -0.2781277298927307 0.04737130552530289
-0.03188391402363777 0.22627079486846924 0.24680738151073456
-0.021710658445954323 0.4161345958709717 0.14566919207572937
0.08931732922792435 0.3294183611869812 -0.16881689429283142
-0.07746891677379608 -0.12191249430179596 -0.17661152780056
-0.12896236777305603 0.47478368878364563 -0.07430295646190643
-0.05229733884334564 0.329169362783432 -0.16980265080928802
0.13126276433467865 0.4726594388484955 -0.0048039816319942474
0.07082339376211166 0.16395249962806702 -0.17304092645645142
0.0848897248506546 -0.4172145426273346 0.03150862455368042
-0.057017143815755844 -0.12738455832004547 0.23687806725502014
0.03966544196009636 0.39168038964271545 -0.16996824741363525
0.1053038239479065 -0.4059605598449707 0.0015597622841596603
0.11450561881065369 -0.38528871536254883 -0.19854708015918732
-0.1278706043958664 0.3486783504486084 -0.055610429495573044
-0.10138110816478729 0.055109623819589615 0.16896601021289825
-0.009226063266396523 0.4683729410171509 0.08288569748401642
0.15254659950733185 0.33759164810180664 -0.08575188368558884
0.033769965171813965 -0.19122281670570374 -0.16540022194385529
-0.004947181791067123 0.5661982893943787 -0.00852230191230774
0.11221367120742798 0.21880817413330078 -0.14730043709278107
0.13161319494247437 -0.07354506850242615 0.19719398021697998
-0.127780944108963 0.30634137988090515 -0.020784124732017517
0.07951783388853073 -0.3951350450515747 -0.20447587966918945
-0.007652614265680313 -0.1868419051170349 -0.16765286028385162
-0.07215066999197006 -0.1439223289489746 -0.17556749284267426
0.05553343892097473 -0.41843926906585693 -0.18276524543762207
-0.1994035691022873 -0.20449668169021606 -0.14830994606018066
0.1526183784008026 -0.4167463183403015 -0.06428158283233643
-0.1763356477022171 -0.06480394303798676 0.09840605407953262
-0.10651325434446335 -0.12355782091617584 0.21181048452854156
-0.19517898559570312 0.12293004989624023 -0.09198730438947678
0.2080773413181305 -0.3477596640586853 -0.12259561568498611
0.03763516992330551 -0.41458389163017273 0.11406426131725311
-0.0457424521446228 0.4476707875728607 0.055022601038217545
-0.22633686661720276 -0.259332537651062 -0.057477474212646484
-0.1108442023396492 0.5406680703163147 0.00019208714365959167
-0.08607520163059235 0.1014622375369072 0.14457543194293976
-0.2042335420846939 -0.40833142399787903 -0.17414547502994537
-0.09985591471195221 0.11911579966545105 -0.1782636195421219
0.11450248211622238 0.15275663137435913 0.16858190298080444
-0.19423416256904602 -0.3633725643157959 0.0867234319448471
-0.0026513002812862396 0.566796064376831 -0.010644670575857162
-0.13115957379341125 0.3352150321006775 -0.0255134254693985
-0.1286221444606781 -0.019574835896492004 0.1699879914522171
-0.1901177018880844 -0.11023770272731781 0.022488530725240707
0.1859927624464035 0.05840199440717697 0.019365770742297173
-0.05795636773109436 -0.18846574425697327 -0.16892744600772858
0.12518064677715302 0.4699344038963318 0.03505898639559746
0.13830822706222534 0.37971431016921997 0.046863555908203125
0.10952126979827881 0.3189772665500641 -0.16390767693519592
0.015494443476200104 -0.2923423647880554 -0.1898180991411209
0.010049279779195786 0.33410364389419556 -0.17069458961486816
-0.2154579907655716 -0.09296552836894989 -0.10407350212335587
-0.059699565172195435 0.4143555462360382 -0.16629865765571594
0.20103719830513 0.1019134670495987 -0.07758825272321701
-0.12617996335029602 0.47707802057266235 -0.02849525585770607
0.011096727102994919 0.17771005630493164 0.26326635479927063
0.18574801087379456 -0.05072176828980446 0.08286209404468536
0.059975169599056244 -0.4138387441635132 0.01818166673183441
-0.06628376245498657 -0.1229206919670105 -0.17704035341739655
-0.19413353502750397 -0.04888807609677315 -0.16933003067970276
-0.14289438724517822 -0.07228143513202667 -0.17666180431842804
-0.02823973447084427 -0.10257897526025772 -0.17714612185955048
-0.2256784737110138 -0.22690553963184357 -0.015047777444124222
0.10049674659967422 -0.42138832807540894 -0.11679017543792725
0.20652684569358826 -0.042099401354789734 -0.0738096684217453
0.06143246218562126 -0.08087103813886642 0.22993208467960358
-0.11567012220621109 0.19105874001979828 0.18766768276691437
0.18699316680431366 0.041797637939453125 0.0200335793197155
0.08285972476005554 -0.41972509026527405 0.036893025040626526
0.1354198157787323 0.2948550879955292 0.05126478523015976
-0.12113218009471893 0.17858634889125824 0.020845960825681686
0.20504452288150787 -0.04607301950454712 -0.10037100315093994
0.10689447075128555 -0.41859450936317444 -0.11620093882083893
-0.15787404775619507 0.1273399293422699 -0.021456416696310043
0.05624036490917206 -0.40903183817863464 0.22883488237857819
0.035084422677755356 -0.4183735251426697 -0.1862279772758484
0.08379922062158585 -0.16670584678649902 0.2436426877975464
-0.00179322250187397 0.556389331817627 0.07282956689596176
0.1856820285320282 -0.415216326713562 -0.1129598617553711
0.21935071051120758 -0.2808802127838135 0.0408947691321373
-0.1826137900352478 -0.20769177377223969 -0.15535743534564972
-0.015143655240535736 -0.32548487186431885 0.2593938708305359
0.08766531944274902 0.5492214560508728 0.03167789429426193
-0.14934098720550537 -0.14786025881767273 -0.16952160000801086
0.2176973968744278 -0.18409711122512817 -0.07030242681503296
0.08416934311389923 0.42942994832992554 0.06748025864362717
0.1190311461687088 0.1690187305212021 0.18085265159606934
-0.18642547726631165 -0.07217193394899368 0.03946978598833084
0.05610744655132294 0.08194596320390701 -0.17641156911849976
-0.21358495950698853 -0.3406108617782593 0.019140545278787613
0.024464022368192673 0.08746298402547836 0.18839092552661896
-0.0005338527262210846 0.5675565004348755 -0.1262514442205429
-0.046864669770002365 0.35993364453315735 0.20498627424240112
-0.10247543454170227 0.04753144085407257 0.1712437868118286
0.1561177670955658 -0.2077864706516266 -0.14584794640541077
0.07934136688709259 -0.41723060607910156 0.03220398351550102
0.13139747083187103 -0.35950222611427307 -0.19063551723957062
0.13243694603443146 0.2233993411064148 0.17868643999099731
0.03282751888036728 0.14503097534179688 0.24247001111507416
-0.20253190398216248 0.119447723031044 -0.14346110820770264
0.10840220004320145 -0.41508838534355164 -0.1191234439611435
0.18345224857330322 -0.413936585187912 -0.020370950922369957
-0.20550428330898285 0.03175164759159088 -0.08000095188617706
0.13978211581707 -0.20052537322044373 0.21411561965942383
-0.2218322902917862 -0.20667383074760437 -0.028910961002111435
-0.05300506576895714 -0.4148120880126953 -0.058416493237018585
0.1356177181005478 0.2971474528312683 0.05521473288536072
-0.12783347070217133 0.3598400354385376 0.02907160483300686
0.02525004744529724 0.29692158102989197 -0.17230768501758575
0.18476155400276184 -0.217927947640419 0.148845374584198
0.21588711440563202 -0.26578477025032043 0.05903471261262894
0.02131478302180767 -0.18894924223423004 -0.16505250334739685
-0.11573993414640427 -0.23854120075702667 -0.16394713521003723
-0.0573650561273098 0.4175146520137787 -0.16841253638267517
0.1507035791873932 0.1110469177365303 0.10002629458904266
-0.012936986982822418 -0.31468722224235535 0.2608017325401306
0.08792535960674286 -0.41257503628730774 -0.0812654197216034
0.2123638242483139 -0.3712589144706726 -0.13275648653507233
0.18339453637599945 0.10570225119590759 0.03492937982082367
0.01980646885931492 0.37698838114738464 0.23614878952503204
-0.0677320659160614 -0.15617287158966064 -0.17368528246879578
-0.007709834724664688 0.5679387450218201 -0.12617690861225128
0.2004922777414322 -0.33418798446655273 0.028497900813817978
-0.06311056017875671 0.15904544293880463 0.24409843981266022
-0.09367971867322922 0.3919913172721863 0.09348150342702866
0.13645344972610474 0.2985091209411621 0.11669318377971649
-0.04978051781654358 -0.18156877160072327 0.2553488612174988
-0.14281131327152252 -0.10904322564601898 0.17550557851791382
0.12269438803195953 -0.3291712701320648 -0.18266011774539948
0.13552795350551605 0.41405189037323 0.0034540072083473206
-0.02463117614388466 0.036749597638845444 0.19866007566452026
0.10768329352140427 0.3689621090888977 0.1197436973452568
0.22104787826538086 -0.20515072345733643 -0.0018515335395932198
0.0712997242808342 0.5709024667739868 -0.10450609028339386
-0.12923243641853333 0.35918599367141724 -0.031002327799797058
-0.22547848522663116 -0.22998735308647156 -0.09363177418708801
0.20550785958766937 -0.3526826500892639 -0.020132876932621002
0.2147001475095749 -0.35077086091041565 -0.10577955096960068
0.2227776199579239 -0.2650967240333557 0.01406974345445633
-0.22237692773342133 -0.25885769724845886 0.02660117670893669
0.11230316013097763 0.16889812052249908 0.21106821298599243
-0.15236645936965942 -0.38875555992126465 0.16684146225452423
-0.019102565944194794 -0.41271403431892395 0.009932445362210274
-0.17057713866233826 -0.15086573362350464 -0.16973154246807098
0.18665628135204315 -0.018474053591489792 0.05780888348817825
0.2208121418952942 -0.27386897802352905 0.04393347352743149
0.1262846142053604 0.19128194451332092 0.1611100137233734
-0.07470139116048813 -0.10141341388225555 -0.17705252766609192
-0.12305331230163574 -0.10921619832515717 -0.1747128665447235
0.03240972012281418 0.3171381950378418 0.2267003208398819
-0.2185186892747879 -0.20229484140872955 0.02372099831700325
0.14176055788993835 0.10305456817150116 0.1267549991607666
-0.03386595845222473 -0.18061190843582153 -0.17071712017059326
-0.080573171377182 -0.1090473011136055 -0.17732994258403778
0.06373912841081619 0.5534375309944153 0.05043533071875572
0.13525085151195526 0.2853209972381592 0.0010253265500068665
-0.040211036801338196 0.4291643500328064 -0.16702407598495483
0.16952098906040192 0.05986357480287552 0.10691685974597931
0.10189461708068848 -0.07070048898458481 0.2138669192790985
-0.11235282570123672 -0.024453412741422653 0.18289978802204132
0.15719088912010193 -0.3755277991294861 -0.1893509179353714
-0.13064445555210114 0.4749617576599121 -0.08995320647954941
-0.1334078162908554 0.1374523937702179 -0.03611281141638756
0.2005910873413086 0.0025838976725935936 -0.11784648895263672
0.08818255364894867 -0.4103616178035736 0.032656896859407425
-0.11278531700372696 -0.4254221022129059 -0.1590118408203125
-0.02730659395456314 0.052802734076976776 0.19452586770057678
-0.1251755803823471 0.22428621351718903 -0.03162716329097748
-0.13082341849803925 0.4243088364601135 -0.0657767504453659
-0.023574473336338997 0.39504513144493103 0.18507391214370728
-0.07680679857730865 -0.4241945147514343 -0.19139288365840912
-0.22559413313865662 -0.2558850049972534 0.0024859532713890076
-0.17310872673988342 -0.4174416661262512 0.05124344676733017
0.09890256077051163 -0.1734095960855484 -0.16058501601219177
-0.12549902498722076 0.5041065812110901 -0.07601039856672287
0.025331027805805206 -0.4153682589530945 0.22529694437980652
-0.08001621067523956 0.10566794127225876 0.15746688842773438
0.11192405968904495 0.16909821331501007 0.21361035108566284
0.16980430483818054 -0.21184197068214417 -0.14034846425056458
-0.20883087813854218 -0.12219635397195816 -0.1567050665616989
0.0657377690076828 0.0123252272605896 -0.17712225019931793
-0.00833059847354889 0.41083839535713196 0.16907644271850586
-0.2079201638698578 0.00820066500455141 -0.1316463202238083
0.13924038410186768 -0.40867310762405396 -0.197260782122612
0.1926465928554535 -0.20888732373714447 -0.1311100423336029
-0.02782081998884678 0.47822242975234985 -0.16719681024551392
0.20291440188884735 -0.35165488719940186 -0.1457287222146988
0.2044287919998169 -0.09640583395957947 -0.1269616186618805
0.013487935066223145 -0.3786594271659851 0.25162118673324585
0.20107778906822205 -0.399410605430603 -0.009999082423746586
-0.07001916319131851 -0.10185360908508301 -0.17898625135421753
-0.16635148227214813 -0.05222005397081375 0.12410865724086761
-0.1622794270515442 -0.41606301069259644 0.08845262974500656
0.017309369519352913 0.28360217809677124 -0.17239557206630707
0.19795237481594086 0.02159605547785759 -0.12444900721311569
0.0971904844045639 -0.41303810477256775 -0.11225438117980957
-0.02388349547982216 -0.2284911572933197 0.25744450092315674
-0.08494897186756134 0.10044214129447937 0.15667949616909027
-0.1495690941810608 0.10895875841379166 0.04684573784470558
0.13434730470180511 0.27201518416404724 0.03670400381088257
-0.129278764128685 -0.4166352152824402 -0.02624787762761116
-0.11226341128349304 -0.1257498860359192 -0.17300568521022797
-0.1890401393175125 -0.24419808387756348 -0.13930653035640717
-0.10688620805740356 0.41242969036102295 0.060076139867305756
-0.06253258138895035 -0.41640591621398926 -0.014313430525362492
0.17821940779685974 -0.4154808521270752 -0.033149655908346176
-0.1029147207736969 -0.10259072482585907 -0.1760396659374237
-0.03825201839208603 0.30541718006134033 -0.17265194654464722
0.12162039428949356 0.5402398705482483 -0.05064772814512253
-0.2162141352891922 -0.17517416179180145 -0.04770166799426079
0.011992501094937325 0.11071405559778214 0.20081014931201935
-0.21172702312469482 -0.3382304310798645 0.035851236432790756
0.12456005066633224 0.25380027294158936 -0.040766023099422455
-0.20775999128818512 0.03538079559803009 -0.10453362762928009
0.0930248349905014 -0.1708449274301529 0.24168221652507782
0.20202286541461945 -0.1979181468486786 0.09288801997900009
-0.06629153341054916 -0.4145316183567047 -0.07270053029060364
-0.191371351480484 -0.05564466863870621 -0.1698402762413025
-0.08683105558156967 0.07916726917028427 0.16781838238239288
0.08519721031188965 0.04256788268685341 0.18724864721298218
-0.05543720722198486 -0.016076277941465378 -0.1819959580898285
0.07638157904148102 0.2234598994255066 0.24141491949558258
-0.10889087617397308 0.2134239375591278 -0.14791974425315857
0.09249791502952576 -0.08707907050848007 0.22029487788677216
-0.0299903005361557 0.47991546988487244 -0.16720174252986908
0.09365297853946686 -0.1848018765449524 0.24892647564411163
-0.15939033031463623 -0.4205267131328583 -0.07601873576641083
-0.033282581716775894 0.00293906033039093 0.20959028601646423
0.12271846830844879 -0.38203945755958557 -0.19658006727695465
-0.07402119040489197 0.5479298233985901 0.05355038493871689
-0.12645532190799713 -0.22764253616333008 -0.16097423434257507
0.0674586072564125 -0.156743124127388 0.24827128648757935
-0.05087142437696457 0.5608580708503723 0.03753404691815376
-0.12373615056276321 0.22590495645999908 0.11254510283470154
-0.051363036036491394 0.24547037482261658 0.2306768298149109
0.10459741204977036 -0.4073672294616699 -0.013694871217012405
0.1343495100736618 0.31685739755630493 -0.025800935924053192
0.13522376120090485 0.4188763499259949 0.010467246174812317
-0.003552014008164406 0.30608370900154114 -0.172930508852005
0.1358666718006134 0.3167582154273987 0.032629288733005524
-0.2101210653781891 -0.39230141043663025 -0.0008236467838287354
0.11926008760929108 -0.17973874509334564 0.23331677913665771
0.15392467379570007 -0.3812471032142639 0.14580799639225006
-0.05491651967167854 0.2119782418012619 -0.17558854818344116
0.10409359633922577 -0.4179970324039459 -0.18078267574310303
-0.18932510912418365 -0.22714392840862274 -0.14793698489665985
-0.12391404807567596 0.34089091420173645 0.10889730602502823
0.039734166115522385 0.2876969277858734 -0.17155973613262177
0.16310405731201172 0.15124353766441345 -0.14252524077892303
-0.12534144520759583 0.309601753950119 -0.019152995198965073
0.1357124298810959 -0.3675423860549927 -0.19005949795246124
0.08177968114614487 0.12151911854743958 -0.17649511992931366
0.14737501740455627 -0.011631004512310028 0.16376318037509918
0.21075722575187683 -0.0963076800107956 -0.053003959357738495
-0.12189685553312302 0.25448206067085266 -0.11889059841632843
0.20886743068695068 -0.37828028202056885 -0.13652899861335754
0.1542016863822937 0.1090606302022934 0.09060582518577576
-0.00877462700009346 0.5679992437362671 -0.1370169073343277
-0.21513068675994873 -0.2559884488582611 0.06105855852365494
-0.06260538101196289 0.40294134616851807 -0.16743047535419464
0.12061899900436401 0.2007758468389511 0.21458840370178223
0.17673173546791077 -0.348811537027359 0.11440923810005188
0.18687354028224945 0.03801770508289337 0.041008539497852325
0.1625605821609497 -0.329362690448761 0.17254771292209625
-0.21791641414165497 -0.17414091527462006 -0.05451905354857445
-0.12839066982269287 -0.3343959450721741 -0.1938454657793045
0.18885760009288788 -0.1573973149061203 0.057703882455825806
-0.03963499143719673 0.4476856291294098 0.06352884322404861
-0.006536046043038368 -0.17435085773468018 0.25963902473449707
0.19934140145778656 0.013766972348093987 -0.11906518042087555
-0.0866909772157669 -0.4202495813369751 -0.20143339037895203
-0.19219397008419037 -0.4092292785644531 0.07163867354393005
-0.18408164381980896 -0.11826736479997635 0.02384311519563198
0.06259094178676605 0.025358200073242188 -0.1771339476108551
0.20247697830200195 -0.32684412598609924 0.050957679748535156
0.19543035328388214 -0.35611626505851746 0.02465847134590149
-0.06097497045993805 -0.4153764843940735 -0.029092982411384583
0.029702182859182358 -0.18034745752811432 -0.1670089215040207
0.20031329989433289 0.07758898288011551 -0.11892901360988617
-0.12971702218055725 0.3429180085659027 -0.027139682322740555
-0.09724730253219604 0.188096821308136 0.2265038937330246
-0.06967563927173615 -0.1493092179298401 -0.17471075057983398
0.15822896361351013 -0.3399191200733185 0.16554254293441772
-0.046344466507434845 -0.06293732672929764 -0.1796187162399292
-0.06580293923616409 0.365929514169693 0.13437579572200775
0.06769643723964691 -0.15316526591777802 -0.16770581901073456
0.054299257695674896 -0.1590985357761383 0.24916504323482513
-0.12904928624629974 -0.31188756227493286 0.21746425330638885
0.12598657608032227 -0.4197041988372803 -0.15256406366825104
-0.10712722688913345 0.5581722259521484 -0.13868509232997894
0.10366331040859222 -0.1815226525068283 0.23655454814434052
0.034753184765577316 0.37128230929374695 -0.1706405133008957
0.0957169458270073 -0.41517361998558044 -0.10311856120824814
0.18642090260982513 0.02467350661754608 0.0438186451792717
0.13193342089653015 0.46148836612701416 -0.03809695690870285
-0.12853309512138367 0.25828588008880615 -0.054470110684633255
0.13127951323986053 0.25418755412101746 0.17950765788555145
-0.18818262219429016 -0.145156130194664 0.03721844404935837
-0.08899372816085815 -0.1882665604352951 0.24063538014888763
-0.18104241788387299 -0.2592058777809143 0.14807003736495972
-0.06857770681381226 0.08041209727525711 0.17737774550914764
-0.2161281257867813 -0.0998019129037857 -0.10477380454540253
-0.18450669944286346 -0.003433285281062126 0.032377663999795914
-0.12450427561998367 0.22012829780578613 0.10016018152236938
0.20588958263397217 -0.38265717029571533 -0.13554513454437256
0.0887913927435875 -0.02911992184817791 0.20964808762073517
-0.11227752268314362 0.19490429759025574 -0.1471145749092102
-0.11524783819913864 0.5354610085487366 0.0023206546902656555
-0.11046051979064941 0.2260793149471283 0.20409706234931946
0.048454344272613525 0.3508019745349884 0.23603934049606323
-0.13360999524593353 0.2907327115535736 -0.041754353791475296
-0.11278964579105377 0.080384761095047 -0.1820034235715866
0.21201954782009125 -0.32339465618133545 -0.09671561419963837
0.20490770041942596 -0.015071338042616844 -0.09110663086175919
-0.08187802135944366 -0.3607574701309204 -0.20663686096668243
-0.0923403799533844 0.36922213435173035 0.11720646172761917
0.046802032738924026 0.0442025288939476 -0.17699144780635834
-0.10454123467206955 0.13981670141220093 0.14433184266090393
-0.12071562558412552 -0.20800526440143585 0.2212100327014923
-0.12697383761405945 -0.3306336998939514 -0.19261187314987183
-0.01906476356089115 0.12033406645059586 0.2125050574541092
-0.129081591963768 0.13899995386600494 -0.026934344321489334
0.13724827766418457 0.29358839988708496 0.12380947917699814
0.1626998484134674 0.12191987782716751 0.02479555457830429
-0.07024795562028885 -0.09189403802156448 -0.17837609350681305
0.13697244226932526 0.2944144606590271 0.10947813093662262
0.11765537410974503 -0.4093032777309418 -0.03235414996743202
0.10328834503889084 -0.14596766233444214 -0.16623641550540924
0.18960264325141907 -0.3923240602016449 -0.17579054832458496
0.025715766474604607 0.37022092938423157 0.242558091878891
0.18526604771614075 0.006924625486135483 0.020414475351572037
0.022256974130868912 -0.3554704487323761 0.25510579347610474
-0.12722961604595184 0.25983455777168274 0.04757208749651909
-0.13129891455173492 -0.3849130868911743 0.1867527961730957
-0.20128555595874786 -0.377406507730484 0.0610504224896431
-0.18478502333164215 -0.10012411326169968 -0.17064215242862701
0.12276942282915115 0.1788533329963684 0.1850185990333557
-0.2168000191450119 -0.1216200739145279 -0.06363767385482788
-0.07331238687038422 0.43322572112083435 -0.1673928052186966
0.1258024424314499 0.23765641450881958 -0.10081037878990173
-0.15724948048591614 -0.016016289591789246 -0.17645442485809326
-0.030808132141828537 0.4795032739639282 0.07759810239076614
0.22280913591384888 -0.23984423279762268 -0.05450042709708214
-0.1053304448723793 -0.30496618151664734 -0.1900361329317093
-0.12002512812614441 0.21893081068992615 0.17577609419822693
-0.12707480788230896 0.26913419365882874 0.078807033598423
-0.11528169363737106 -0.41226816177368164 -0.20629259943962097
-0.11768730729818344 0.2106436789035797 -0.11821465194225311
-0.1540045142173767 0.33637988567352295 -0.11471141874790192
-0.030052829533815384 0.032606273889541626 -0.1814776510000229
0.06812546402215958 -0.3925988972187042 -0.20614391565322876
0.1745491921901703 0.14725232124328613 -0.12236836552619934
0.04075092449784279 0.36177879571914673 0.2380756437778473
0.15534891188144684 -0.3399590849876404 0.1744854748249054
-0.09202942252159119 -0.13351525366306305 0.22613641619682312
-0.12974809110164642 0.3588235676288605 -0.020841069519519806
0.20207169651985168 0.07500823587179184 -0.11019204556941986
-0.09632521867752075 0.07925446331501007 0.1611267328262329
-0.016787858679890633 0.3352402150630951 -0.17094942927360535
0.10176609456539154 0.21672368049621582 -0.1611824482679367
-0.052760086953639984 -0.41616249084472656 -0.15620477497577667
-0.051280323415994644 0.5626651048660278 -0.03300491347908974
-0.12061624974012375 0.1931413859128952 0.14400579035282135
-0.151139035820961 -0.38355350494384766 0.17006489634513855
0.0675070658326149 -0.14668715000152588 0.2458074688911438
-0.0665801614522934 0.3987914025783539 -0.16765367984771729
0.1366940140724182 0.28085651993751526 -0.10772036015987396
