-0.206944078207016 0.0054639894515275955 -0.13168461620807648
-0.052241019904613495 -0.161461740732193 -0.1711302101612091
0.10287453234195709 0.1445053517818451 -0.1731707751750946
-0.10418587177991867 0.17546877264976501 0.19520249962806702
0.01259639486670494 -0.17720147967338562 -0.16507194936275482
0.12308036535978317 0.5178837180137634 0.017628271132707596
0.07641007751226425 -0.17451289296150208 -0.16071267426013947
-0.22271625697612762 -0.21093516051769257 -0.0950959324836731
0.21055403351783752 -0.09841380268335342 -0.057700544595718384
-0.0150953009724617 -0.15535441040992737 0.2589090168476105
0.1910432130098343 -0.024742241948843002 -0.15563446283340454
0.0199965201318264 -0.3275955617427826 0.2626166045665741
-0.20735101401805878 -0.3668844401836395 0.033037327229976654
0.09212315827608109 0.39100223779678345 0.10080920159816742
-0.08817790448665619 0.054315418004989624 0.18134930729866028
-0.10952597111463547 -0.3196731507778168 -0.19150307774543762
0.13143131136894226 0.25079166889190674 0.12682543694972992
0.2198466807603836 -0.19828647375106812 -0.060743093490600586
-0.2110312283039093 -0.15070679783821106 -0.1445900946855545
0.20890291035175323 -0.39572376012802124 -0.05219123885035515
-0.05572924762964249 -0.4144633412361145 0.03118329495191574
-0.12012601643800735 0.5293760895729065 -0.017178963869810104
0.021974952891469002 -0.28778523206710815 -0.18718014657497406
0.09257578104734421 -0.0939716100692749 0.22638362646102905
0.09261075407266617 -0.40919244289398193 -0.11012975871562958
0.1327442228794098 0.4214766025543213 -0.052096378058195114
0.18035827577114105 -0.4193686246871948 -0.038504622876644135
0.12846750020980835 0.2146947681903839 0.10122555494308472
0.14210213720798492 0.29037919640541077 -0.07292203605175018
-0.011117384769022465 0.4707527756690979 0.09044568240642548
-0.0578233003616333 0.4168870151042938 -0.1670638769865036
0.0072225481271743774 0.5668720006942749 -0.006307326257228851
0.14610129594802856 -0.36419734358787537 -0.19029133021831512
0.17603807151317596 -0.14513573050498962 0.1383940726518631
0.2032374143600464 -0.06146213412284851 -0.13150455057621002
0.07161659002304077 -0.002681773155927658 0.2068435698747635
0.017355293035507202 0.5409437417984009 -0.16312599182128906
0.08451879769563675 -0.02883676066994667 0.20936888456344604
0.09156318008899689 -0.2804796099662781 -0.17690841853618622
0.20979885756969452 -0.3414353132247925 -0.1156134158372879
-0.03172904998064041 0.4701465964317322 0.07691968977451324
0.05095267668366432 -0.30167126655578613 -0.19070354104042053
-0.03945478796958923 0.16499893367290497 -0.17817682027816772
-0.1460469663143158 0.04640820622444153 -0.1786307990550995
-0.026671569794416428 0.054376594722270966 -0.18115198612213135
-0.05706314742565155 0.49069857597351074 -0.16406592726707458
-0.06236756965517998 0.56649249792099 -0.09088705480098724
-0.029978953301906586 -0.18425042927265167 -0.16829140484333038
0.22180430591106415 -0.22889700531959534 -0.06375856697559357
-0.08403228968381882 0.5643932223320007 -0.0045837461948394775
0.14996092021465302 0.0377478152513504 0.1452459692955017
-0.061905305832624435 0.24095413088798523 0.23235374689102173
0.12441748380661011 0.21389883756637573 0.20218971371650696
0.18544241786003113 0.009518107399344444 0.015375827439129353
-0.11919799447059631 0.5246810913085938 0.0013786405324935913
-0.019883371889591217 0.564514696598053 -0.1312766671180725
-0.0804455429315567 0.4300382137298584 -0.16539591550827026
0.09900777041912079 -0.4089868366718292 0.04245093837380409
-0.05999186635017395 -0.4077551066875458 0.04012593999505043
0.07983912527561188 0.1505734920501709 0.23307542502880096
-0.025213994085788727 0.43128833174705505 -0.16910243034362793
0.032842013984918594 0.5681366324424744 -0.00901699811220169
-0.09664633870124817 0.47665518522262573 0.05387646704912186
0.18517427146434784 -0.03707871586084366 0.05833108723163605
-0.09007468819618225 -0.12842538952827454 0.2278030663728714
-0.1905975639820099 -0.07232499122619629 0.012114147655665874
0.12354114651679993 0.16521356999874115 0.10338642448186874
-0.1050778478384018 0.05737318843603134 -0.18106961250305176
-0.09561944752931595 -0.41230353713035583 -0.20556530356407166
0.14997312426567078 -0.20899181067943573 -0.14271625876426697
0.21319042146205902 -0.2093012034893036 0.07365711033344269
0.09813008457422256 0.28106632828712463 -0.16504347324371338
0.10459911823272705 -0.414169579744339 -0.11803150922060013
0.19899848103523254 -0.402980774641037 -0.17001168429851532
0.040428370237350464 0.5447982549667358 0.08091700077056885
-0.13495241105556488 0.10233841836452484 0.1036001518368721
0.1390671283006668 -0.3350587785243988 0.20996646583080292
-0.21714481711387634 -0.38846689462661743 -0.06851213425397873
0.032270219177007675 0.3820531368255615 0.20394760370254517
0.21096980571746826 -0.27706125378608704 0.07678241282701492
-0.06659610569477081 -0.42193490266799927 -0.20119015872478485
-0.12223277986049652 0.5267328023910522 -0.024371039122343063
0.03922949731349945 -0.38711386919021606 -0.20519322156906128
0.04496940225362778 -0.4161835312843323 -0.08072943985462189
-0.11847682297229767 -0.4220307469367981 -0.1872294545173645
-0.18484841287136078 -0.394377201795578 -0.17870879173278809
0.1370665431022644 -0.41736069321632385 -0.0917043685913086
-0.22502808272838593 -0.2260623276233673 -0.07756339013576508
-0.11001250892877579 -0.3052784502506256 -0.18841612339019775
0.0892251580953598 0.21789489686489105 0.24173787236213684
0.08981678634881973 0.2190006673336029 0.24067112803459167
-0.009359892457723618 0.10812437534332275 0.19337348639965057
-0.08497059345245361 -0.1781882345676422 0.24367335438728333
-0.18378238379955292 0.07105575501918793 0.01776907593011856
-0.02144531160593033 0.4951324760913849 -0.1662272810935974
0.21225491166114807 -0.3392612934112549 -0.1241154670715332
0.17773108184337616 0.04776913672685623 0.09210147708654404
-0.089643694460392 0.10174816846847534 0.14104428887367249
0.01885329931974411 -0.17764976620674133 -0.16528989374637604
-0.018790237605571747 0.5257843732833862 -0.16392222046852112
0.2042895406484604 -0.20183148980140686 0.08547511696815491
-0.09765900671482086 -0.4222792088985443 -0.1623826026916504
0.15939749777317047 0.04733915254473686 -0.16958341002464294
0.13298550248146057 0.05080325901508331 0.15837359428405762
0.014467954635620117 -0.4150017201900482 0.21665295958518982
-0.18427371978759766 -0.006011385470628738 0.02138376235961914
-0.12656137347221375 -0.1865600049495697 0.21848535537719727
0.21354271471500397 -0.12908878922462463 -0.058064788579940796
-0.122660331428051 0.47101911902427673 0.010304037481546402
0.04519987478852272 0.3795967698097229 0.16675928235054016
0.08309464156627655 -0.41444531083106995 0.03598703444004059
-0.1020432636141777 -0.18620482087135315 0.2368757575750351
0.20592953264713287 -0.4050029218196869 -0.010598628781735897
0.15920224785804749 -0.21089059114456177 -0.14072974026203156
-0.12217287719249725 0.21414393186569214 -0.03608664125204086
0.1592385172843933 -0.4163627028465271 -0.071473628282547
-0.11867756396532059 -0.18439750373363495 -0.16409361362457275
-0.012766838073730469 -0.4114159643650055 0.14633697271347046
0.08009644597768784 -0.41602879762649536 0.033862240612506866
-0.13923974335193634 0.33707401156425476 -0.07197292149066925
0.1729242205619812 -0.36323103308677673 0.10614939779043198
0.09661409258842468 -0.08644652366638184 0.22152277827262878
0.13172383606433868 0.25020837783813477 0.14452189207077026
0.13358119130134583 0.12475321441888809 0.06086818128824234
0.197297602891922 -0.41276147961616516 -0.09952101111412048
-0.09629103541374207 0.12344646453857422 -0.18026508390903473
0.21739235520362854 -0.33684152364730835 -0.08905940502882004
-0.11825325340032578 0.19643014669418335 0.16784721612930298
0.13674350082874298 0.11537057161331177 0.07020630687475204
0.11890999972820282 0.5508800745010376 -0.010640561580657959
0.14463558793067932 0.4756987690925598 -0.13249720633029938
0.13347190618515015 0.07466796785593033 0.1491718739271164
0.10017553716897964 0.34470808506011963 -0.16601194441318512
-0.19073031842708588 -0.42229440808296204 -0.06372225284576416
0.11684779822826385 -0.4156162738800049 -0.18330512940883636
-0.0914655402302742 -0.4108330011367798 0.04603581875562668
-0.011491842567920685 -0.32798126339912415 -0.19755208492279053
0.07423970848321915 0.12329098582267761 0.19549667835235596
0.01689434051513672 0.5675703883171082 -0.011656902730464935
-0.12676027417182922 0.3227204382419586 0.03893601521849632
-0.09177757054567337 -0.35743796825408936 0.2237129658460617
0.2024105042219162 0.04555351287126541 -0.11384986340999603
-0.061052143573760986 -0.15790978074073792 -0.17137622833251953
-0.1627398431301117 -0.4141569137573242 0.08869948983192444
0.10330142080783844 -0.412436842918396 -0.05926380306482315
-0.12559515237808228 0.3185592293739319 -0.04795694351196289
-0.18524068593978882 -0.02711872011423111 0.06391649693250656
-0.07214982062578201 -0.2089272439479828 0.2581200897693634
0.11137668043375015 -0.40650486946105957 0.055432211607694626
-0.1851501613855362 -0.0015301387757062912 0.034764572978019714
-0.05601520463824272 -0.16402694582939148 -0.17068886756896973
-0.07184433192014694 0.2171417772769928 0.2404940128326416
-0.014952292665839195 0.5652448534965515 -0.012979261577129364
0.08250162750482559 -0.09395737946033478 0.22975444793701172
0.18408489227294922 -0.0008380413055419922 0.025483373552560806
-0.04905650019645691 -0.30781275033950806 0.2525976896286011
0.07786864042282104 -0.4184128940105438 0.03168538957834244
0.09934354573488235 -0.4086029529571533 0.023530911654233932
-0.1336802840232849 -0.23122617602348328 0.21339111030101776
0.02518017217516899 -0.33708059787750244 0.2612036466598511
0.0905533879995346 -0.024763677269220352 -0.17447349429130554
0.01793612912297249 -0.1156361848115921 0.2441265881061554
-0.1269570291042328 0.31412485241889954 0.046378616243600845
0.19599372148513794 -0.41635894775390625 -0.029702357947826385
0.1298261284828186 -0.33643800020217896 -0.1858539581298828
0.07208406180143356 -0.4165700078010559 -0.15813805162906647
-0.17101261019706726 -0.20674706995487213 0.1752765029668808
-0.12958750128746033 0.35982754826545715 -0.017586421221494675
0.18417096138000488 -0.043990977108478546 0.04571669176220894
0.2220366895198822 -0.23110687732696533 -0.06316550076007843
-0.22244152426719666 -0.23843589425086975 0.01707959547638893
-0.07060708850622177 0.02663104236125946 -0.1818385273218155
0.11817216873168945 -0.05101800337433815 0.20107486844062805
0.21551500260829926 -0.39212432503700256 -0.1129324808716774
0.13482213020324707 0.14205649495124817 -0.031232617795467377
0.20646150410175323 -0.22282813489437103 0.09547953307628632
-0.1273036152124405 0.42387139797210693 -0.02520662546157837
-0.2019786238670349 0.12774688005447388 -0.13172030448913574
0.030355453491210938 0.37652087211608887 -0.16913405060768127
0.13275320827960968 0.25035345554351807 -0.006789151579141617
-0.11057676374912262 0.0958143025636673 -0.18006755411624908
-0.18704499304294586 0.06876595318317413 -0.1747930943965912
0.16463753581047058 0.14095982909202576 -0.04082070663571358
-0.18693263828754425 0.09855777025222778 -0.17534366250038147
-0.22035963833332062 -0.2672072947025299 0.02726162225008011
-0.12813428044319153 -0.41995570063591003 -0.09729602932929993
-0.06030666455626488 -0.3944316804409027 -0.2058091014623642
0.06832528114318848 -0.1740056574344635 0.25842297077178955
0.0753350555896759 -0.415973037481308 0.031005673110485077
-0.12578509747982025 0.25473424792289734 0.12762880325317383
-0.1876116394996643 -0.1239994615316391 0.046376585960388184
-0.20579493045806885 -0.39362865686416626 0.0030340421944856644
0.15784543752670288 0.14969629049301147 -0.09056591987609863
0.03496468439698219 -0.413891077041626 0.06772772967815399
-0.0711214691400528 -0.19426023960113525 0.25483399629592896
0.07929696887731552 -0.413665235042572 0.027959369122982025
-0.19020278751850128 -0.30221524834632874 -0.14510680735111237
-0.027335572987794876 -0.3746855854988098 -0.20643170177936554
0.06513573229312897 -0.03264050558209419 0.21857237815856934
0.14446814358234406 -0.1502452790737152 0.21194815635681152
-0.03590455651283264 0.5360482335090637 -0.16086022555828094
-0.18379953503608704 -0.11970667541027069 0.08780709654092789
-0.037047192454338074 0.37969937920570374 0.15755900740623474
0.1473972648382187 -0.05430153012275696 -0.1656482070684433
-0.1498231291770935 -0.17331691086292267 0.195381760597229
0.12339815497398376 -0.3777817487716675 -0.19667939841747284
0.15129396319389343 0.2965003252029419 -0.11577897518873215
0.03435077518224716 -0.3138011395931244 -0.19402676820755005
0.14400209486484528 -0.15953518450260162 -0.15706999599933624
-0.10369081795215607 0.5520268678665161 -0.14795206487178802
-0.2007283717393875 0.06086813658475876 -0.06297339498996735
0.0858539268374443 -0.41468292474746704 0.15216727554798126
0.08892280608415604 0.16808095574378967 0.23748286068439484
0.1513027846813202 0.43590542674064636 -0.1230086162686348
0.10441713035106659 0.22764843702316284 -0.1592595875263214
0.13607104122638702 0.35094165802001953 0.03751024231314659
-0.13997018337249756 -0.4116506278514862 0.16077779233455658
0.10770197212696075 -0.4094848036766052 -0.11965887248516083
-0.1475583165884018 -0.3821345269680023 0.17416425049304962
-0.2153947353363037 -0.36788827180862427 -0.041197437793016434
0.11798908561468124 0.1554393321275711 0.17160123586654663
-0.06287994980812073 -0.42201852798461914 -0.19983506202697754
-0.11995142698287964 0.09133295714855194 -0.17958518862724304
-0.12066569924354553 0.48854005336761475 0.027082860469818115
0.13164269924163818 0.4176444411277771 0.054356202483177185
0.13100649416446686 0.14789770543575287 0.00769401341676712
0.2129862904548645 -0.12883135676383972 -0.05134979262948036
-0.012715666554868221 0.41415154933929443 0.15385738015174866
0.201065793633461 0.09156529605388641 -0.111316978931427
-0.062106069177389145 -0.12294753640890121 -0.17611438035964966
-0.12126148492097855 0.4708501100540161 0.022449128329753876
0.21086324751377106 -0.31260204315185547 0.029661552980542183
0.1255682110786438 0.16622211039066315 0.030766014009714127
0.03721495345234871 0.5466277003288269 0.0778178870677948
0.0047077275812625885 0.3908354938030243 -0.1698511689901352
-0.15530651807785034 -0.28074610233306885 0.18786755204200745
-0.07671788334846497 0.43901297450065613 -0.16585198044776917
-0.17434218525886536 -0.38540777564048767 -0.18570993840694427
0.09027896076440811 0.38449960947036743 0.11164974421262741
-0.03944403678178787 0.4262773096561432 -0.16907259821891785
-0.039659883826971054 -0.18745315074920654 -0.1671891063451767
-0.1284576654434204 0.3585226237773895 -0.016714919358491898
-0.04582686722278595 -0.4070276618003845 -0.207065150141716
0.09343916177749634 0.2785569727420807 0.2058308720588684
-0.05459010601043701 0.01838170737028122 -0.1817549765110016
0.07464052736759186 -0.4148346185684204 0.029218442738056183
0.07477393746376038 -0.18707510828971863 0.25710436701774597
-0.20296229422092438 0.059350620955228806 -0.16328337788581848
0.19948427379131317 0.07929036021232605 -0.05149628967046738
0.20928989350795746 -0.07795034348964691 -0.057973653078079224
-0.12657850980758667 0.2898266017436981 -0.021631408482789993
-0.20580008625984192 -0.0019437335431575775 -0.09582305699586868
0.17595051229000092 -0.15063266456127167 0.13766606152057648
0.21040473878383636 -0.38906556367874146 -0.04290080815553665
0.12903335690498352 0.2284882813692093 0.14238443970680237
0.019027411937713623 -0.41389375925064087 0.133217453956604
-0.12730233371257782 0.4267388880252838 -0.0016613118350505829
0.09011431783437729 -0.3271515369415283 0.24148328602313995
-0.1732974797487259 0.13816547393798828 -0.07934838533401489
0.06923143565654755 0.1921899914741516 0.253365159034729
-0.00897958129644394 -0.2920133173465729 0.2638378143310547
0.12318221479654312 -0.37854811549186707 -0.19690078496932983
0.2132726013660431 -0.33683082461357117 -0.10469911992549896
0.21664771437644958 -0.38351550698280334 -0.12866389751434326
0.13429731130599976 -0.24661289155483246 -0.1509370505809784
-0.16962838172912598 -0.14598983526229858 0.14362207055091858
-0.058230090886354446 -0.17469143867492676 -0.16821502149105072
-0.2219543606042862 -0.18061137199401855 -0.06563455611467361
-0.18236279487609863 -0.0002557113766670227 -0.1764606237411499
0.15722759068012238 -0.34682610630989075 -0.17995008826255798
-0.15624015033245087 -0.0817190632224083 0.15852725505828857
-0.06314590573310852 -0.1589825451374054 -0.17250272631645203
-0.17171984910964966 -0.015472669154405594 -0.1756904423236847
-0.043356746435165405 -0.41564011573791504 0.20562395453453064
-0.09375210106372833 -0.41718602180480957 -0.05242672562599182
0.00808628648519516 -0.03993842378258705 -0.17830027639865875
0.0920100063085556 -0.01797400414943695 0.2022283673286438
0.2096242606639862 -0.21036940813064575 0.07794516533613205
0.21001873910427094 -0.27229294180870056 0.07887344062328339
0.1761380285024643 0.13629217445850372 -0.04289362207055092
-0.12013453245162964 0.2986448109149933 0.15025806427001953
-0.08823047578334808 0.5518962740898132 0.036100827157497406
0.12400224059820175 0.1283196359872818 0.09128563106060028
0.2014361023902893 -0.30382242798805237 0.09163039922714233
0.19414465129375458 0.025520864874124527 -0.12749919295310974
-0.01460053026676178 0.47890615463256836 0.08703449368476868
-0.09049537032842636 0.07188859581947327 0.17470404505729675
0.05862484872341156 -0.0005775317549705505 0.20819151401519775
0.017278224229812622 0.05314852297306061 -0.17791368067264557
0.13339926302433014 -0.08254356682300568 0.19697998464107513
0.19766965508460999 -0.38321325182914734 0.03962716460227966
0.06515970081090927 0.5239096283912659 0.07685677707195282
0.22206275165081024 -0.24968725442886353 -0.05432294309139252
-0.051471251994371414 0.563211977481842 0.015971194952726364
0.025643611326813698 -0.3301317095756531 -0.19700446724891663
-0.11352317035198212 -0.053809262812137604 0.19469104707241058
-0.09158992022275925 0.5546289682388306 0.02407098188996315
0.14022421836853027 0.41463568806648254 -0.16148486733436584
-0.17928029596805573 -0.4173058569431305 -0.1788635551929474
0.1476345807313919 0.3549104332923889 -0.0787610188126564
0.07524623721837997 -0.0803065374493599 0.22985659539699554
0.1333402395248413 0.10585249960422516 0.13010528683662415
0.0877029299736023 -0.41243571043014526 0.029594115912914276
0.18531639873981476 -0.06643915921449661 0.08730959892272949
0.15102554857730865 -0.374991774559021 -0.1931448131799698
-0.12325047701597214 0.23938268423080444 0.12918318808078766
0.10398861765861511 -0.4169813394546509 -0.15910190343856812
-0.11857172101736069 0.1735733300447464 0.01070847362279892
-0.003655962646007538 0.5531653165817261 0.08140416443347931
0.024150434881448746 -0.41924113035202026 -0.1830848753452301
0.09197399765253067 0.25156155228614807 0.22581180930137634
-0.0690130889415741 -0.16763511300086975 -0.17118234932422638
0.02056695893406868 0.4319160580635071 -0.16828729212284088
0.12964366376399994 0.23519359529018402 -0.038272809237241745
-0.026737600564956665 -0.18456366658210754 -0.16748978197574615
-0.21479091048240662 -0.0861801952123642 -0.05461764335632324
-0.18665087223052979 -0.13781389594078064 0.06572535634040833
0.0918867290019989 0.1346263289451599 0.19978325068950653
-0.20927059650421143 -0.3576984405517578 0.014332491904497147
-0.17255376279354095 -0.009786475449800491 -0.1761530041694641
0.2221146821975708 -0.2831561267375946 -0.0002543199807405472
0.08702012896537781 -0.4162016808986664 0.034261301159858704
-0.1766723394393921 -0.41564467549324036 -0.17956700921058655
0.13317237794399261 0.44553351402282715 -0.03530115634202957
-0.12402606010437012 -0.41766077280044556 -0.19702520966529846
0.08351893723011017 -0.4124435484409332 0.19367951154708862
-0.03169765695929527 0.4333949685096741 -0.16829630732536316
-0.08445142954587936 0.5574259757995605 0.02456442080438137
-0.03262503445148468 -0.22565191984176636 -0.17122133076190948
-0.15628471970558167 -0.24414651095867157 -0.15385028719902039
0.2219199389219284 -0.28461283445358276 -0.011305120773613453
-0.2062453180551529 -0.0980239138007164 -0.1571733057498932
-0.06909925490617752 -0.11325012892484665 -0.17742806673049927
-0.03427889570593834 0.43254709243774414 -0.16792568564414978
0.1754988729953766 0.1314133256673813 -0.032660797238349915
0.072008416056633 0.21619530022144318 0.24851800501346588
-0.020402777940034866 -0.28434619307518005 -0.1875772625207901
0.04120172560214996 -0.38863757252693176 -0.20585861802101135
0.1918143779039383 -0.3483670651912689 0.053343068808317184
0.11360397934913635 0.06293656677007675 -0.1742309182882309
-0.04476207122206688 0.313472718000412 0.2210654318332672
0.1482367217540741 0.29680001735687256 -0.0949566438794136
0.14343513548374176 -0.367638498544693 -0.1918799877166748
-0.12104295939207077 0.19911928474903107 -0.016871564090251923
0.08326713740825653 -0.16006334125995636 0.24560695886611938
-0.1844179332256317 -0.4163026809692383 -0.17946602404117584
0.12750589847564697 0.19615496695041656 -0.016795068979263306
-0.08430124819278717 -0.07504288107156754 -0.17818905413150787
-0.10168243944644928 0.12852026522159576 0.12990085780620575
0.21935322880744934 -0.2738436162471771 0.04059799388051033
0.08690041303634644 0.26079612970352173 -0.17000621557235718
0.18076050281524658 -0.0056181736290454865 0.09477359056472778
0.10594768077135086 -0.4142577052116394 0.03456079587340355
0.1108393669128418 0.18238462507724762 0.2191515564918518
-0.09809837490320206 0.12061913311481476 -0.17949257791042328
0.09430056065320969 -0.4117138683795929 -0.11622806638479233
0.17617174983024597 0.1196095198392868 0.02718040719628334
0.19408386945724487 -0.3759833872318268 0.04446059465408325
0.12638548016548157 -0.021131599321961403 0.18359050154685974
-0.20366038382053375 -0.0895145982503891 -0.014458751305937767
0.10996773838996887 0.4293132722377777 0.06266476213932037
0.2107204794883728 -0.2881482243537903 0.0672585666179657
0.11641986668109894 -0.42264774441719055 -0.1229756772518158
0.03590530529618263 0.09652125090360641 0.18934239447116852
0.20609460771083832 -0.06901499629020691 -0.09265755861997604
0.21285779774188995 -0.33871710300445557 -0.10244789719581604
0.17895859479904175 -0.4005284607410431 0.06764642894268036
-0.1202268898487091 0.1862114667892456 -0.10806594789028168
0.09356436133384705 -0.4133393466472626 -0.11014488339424133
-0.22205974161624908 -0.2529827654361725 0.021850280463695526
0.16889894008636475 0.13095548748970032 -0.010457048192620277
0.07734163850545883 0.5203410387039185 -0.16340099275112152
0.2022688388824463 -0.3760383129119873 0.009880343452095985
0.009651197120547295 0.5668438673019409 -0.012368440628051758
-0.041572220623493195 -0.17979378998279572 -0.1683417409658432
0.16010701656341553 0.1493252068758011 -0.09266917407512665
0.07878032326698303 -0.418347030878067 0.03747514635324478
0.1304178684949875 0.26548224687576294 0.1510912925004959
0.1242905855178833 -0.07673607021570206 0.20629385113716125
-0.021948320791125298 0.14517366886138916 -0.1779129058122635
0.03730817884206772 0.35894250869750977 0.24903516471385956
0.018951497972011566 0.37897273898124695 0.24017122387886047
0.1561276912689209 0.11278983950614929 0.07595229148864746
-0.016922900453209877 0.2374742180109024 0.2447792887687683
-0.08724485337734222 -0.4215107858181 -0.19948777556419373
0.010168083012104034 0.01775120198726654 -0.17974728345870972
0.001325957477092743 0.5659064650535583 0.03614858165383339
0.08872929960489273 -0.12730111181735992 0.23797595500946045
0.11202150583267212 0.5626695156097412 -0.09306482970714569
-0.05067664384841919 -0.03613319993019104 -0.18081051111221313
-0.060523077845573425 0.5632955431938171 -0.00797688215970993
0.0648600235581398 0.502054750919342 0.08353715389966965
0.15175139904022217 0.2961112856864929 -0.11612388491630554
-0.2145061194896698 -0.10144179314374924 -0.07412154972553253
0.13476338982582092 0.3953743875026703 -0.00651945173740387
0.1146111860871315 -0.41406378149986267 -0.1174282431602478
0.07741261273622513 -0.12672974169254303 -0.1689518690109253
0.011769614182412624 0.3849042057991028 0.23827975988388062
-0.07727565616369247 -0.4016474783420563 -0.2024746537208557
-0.1853177398443222 -0.20610588788986206 -0.1523551195859909
-0.19180256128311157 -0.4099413752555847 -0.17774111032485962
0.0906592532992363 -0.4100101888179779 0.03616058826446533
0.1326597034931183 0.27413681149482727 -0.012681655585765839
0.19705337285995483 -0.38305073976516724 0.026496540755033493
0.20243148505687714 -0.010879777371883392 -0.1121705025434494
0.18211065232753754 -0.09033791720867157 0.11114189773797989
-0.09635137021541595 -0.2900085151195526 -0.1852356344461441
-0.20964576303958893 -0.20659877359867096 0.07023942470550537
0.0033410117030143738 0.019655972719192505 -0.18043255805969238
-0.12537351250648499 0.23596493899822235 -0.03294844925403595
-0.002706448081880808 0.5648444890975952 -0.06578849256038666
-0.02863886207342148 -0.11696586012840271 -0.17477373778820038
-0.0977618396282196 -0.10782952606678009 0.21955996751785278
0.11591854691505432 -0.0877675861120224 0.21235470473766327
0.10108710080385208 0.2721780240535736 0.20492717623710632
0.07204174250364304 -0.4170209467411041 0.03381209820508957
0.1527136266231537 0.14936093986034393 -0.07305358350276947
-0.018331434577703476 -0.1811904013156891 -0.16784414649009705
0.21472162008285522 -0.14447715878486633 -0.08674042671918869
-0.12683001160621643 -0.28517571091651917 -0.1743074655532837
0.05068657547235489 -0.16839511692523956 0.2606949508190155
0.017944276332855225 0.08451806008815765 0.19052182137966156
-0.10374395549297333 0.12742583453655243 0.12219929695129395
-0.045209478586912155 0.20276150107383728 0.25537461042404175
0.1315520852804184 0.4965466856956482 -0.10241734981536865
0.2028011679649353 -0.011648090556263924 -0.10152770578861237
0.21068152785301208 -0.30048227310180664 0.0631762444972992
0.22063441574573517 -0.26902803778648376 0.02598857507109642
-0.07956783473491669 -0.33206239342689514 0.23856467008590698
-0.11783433705568314 0.35838350653648376 -0.1579969823360443
0.10052362084388733 -0.41107726097106934 -0.04894782230257988
-0.05664622038602829 0.5645517706871033 -0.0019016936421394348
-0.08931247889995575 0.14857640862464905 0.19752740859985352
0.21561838686466217 -0.30200710892677307 0.035445310175418854
-0.03048267401754856 0.4324701428413391 -0.16742195188999176
-0.13919328153133392 -0.018543943762779236 0.16201022267341614
-0.07735197246074677 0.07105447351932526 0.18238843977451324
0.07836826145648956 0.3556351065635681 0.14497415721416473
-0.05783713981509209 0.42133861780166626 -0.16553737223148346
-0.14335717260837555 0.07613908499479294 0.12147319316864014
-0.04602164030075073 -0.027364475652575493 0.21877731382846832
0.1626366376876831 0.15914428234100342 -0.12469066679477692
0.20296141505241394 0.03686888515949249 -0.07854527235031128
-0.0581224262714386 -0.42162805795669556 -0.17214608192443848
0.14825060963630676 0.34064701199531555 -0.07384646683931351
-0.08375537395477295 0.08530287444591522 0.1722889542579651
-0.008997760713100433 -0.40363407135009766 0.23958344757556915
0.14368702471256256 -0.3605167269706726 -0.19064179062843323
0.13821107149124146 -0.004958949983119965 0.16948722302913666
-0.20711269974708557 -0.002276327461004257 -0.1554262340068817
-0.12765644490718842 0.30990156531333923 0.050272196531295776
0.07618768513202667 -0.4125276803970337 0.027998529374599457
-0.03297261521220207 -0.41834163665771484 -0.20078042149543762
0.1953374147415161 -0.4162907302379608 -0.024564141407608986
0.030211828649044037 -0.4170987010002136 -0.12960806488990784
-0.11340351402759552 -0.10102637112140656 -0.17464299499988556
0.1269499659538269 0.19046244025230408 0.0856703668832779
0.1279582381248474 0.2016269713640213 0.09582936763763428
0.07011297345161438 0.04932486265897751 0.18746636807918549
-0.2038358449935913 -0.03080804832279682 -0.16097931563854218
-0.12325388193130493 0.20865382254123688 0.06730900704860687
-0.17148026823997498 -0.1643432229757309 0.15601982176303864
0.0686618983745575 0.5682334303855896 -0.07418675720691681
0.2013692706823349 -0.009261475875973701 -0.11669862270355225
0.02093769982457161 0.3153482675552368 -0.17292939126491547
0.09019330888986588 -0.08549512177705765 0.22523878514766693
-0.13810935616493225 0.2790220379829407 -0.09230613708496094
-0.02954547107219696 -0.002572000026702881 -0.18167716264724731
0.21638691425323486 -0.17377883195877075 -0.04442713037133217
0.06074208766222 0.10348504781723022 0.1853484809398651
-0.17062021791934967 -0.03821875900030136 0.10489469766616821
0.035021282732486725 -0.15806379914283752 0.25733861327171326
0.027150645852088928 0.2660480737686157 0.23390381038188934
0.031953997910022736 -0.40878504514694214 -0.01810811273753643
-0.0466180220246315 0.5636484026908875 -0.005738552659749985
-0.18413083255290985 -0.14441829919815063 0.07015059888362885
-0.12180738151073456 0.1877513825893402 -0.11043334007263184
-0.19155670702457428 -0.41427674889564514 -0.17242074012756348
0.10807547718286514 -0.1720975935459137 0.24300682544708252
0.20220498740673065 0.06611720472574234 -0.07621756196022034
0.013601910322904587 -0.17712873220443726 -0.16623231768608093
-0.04453379660844803 -0.005755335092544556 0.21395641565322876
-0.20022934675216675 -0.046391889452934265 -0.043273843824863434
0.06726398319005966 -0.1636810302734375 0.25316599011421204
0.0007811393588781357 -0.18656764924526215 -0.16509275138378143
0.20321577787399292 0.022999415174126625 -0.05785693973302841
0.18413573503494263 0.008727062493562698 0.005476172082126141
-0.16027657687664032 -0.34407785534858704 0.17225418984889984
-0.12498887628316879 0.42278310656547546 0.03289024904370308
-0.11499045789241791 -0.2922919988632202 -0.18135862052440643
-0.2063111513853073 0.0018771886825561523 -0.1526689976453781
0.06341243535280228 -0.09441368281841278 0.23405815660953522
-0.03450495004653931 -0.4124903678894043 -0.037151217460632324
0.05532827228307724 -0.38975709676742554 0.2484326958656311
0.0843908041715622 0.5480464100837708 0.03940940648317337
0.040487222373485565 -0.41627565026283264 -0.08818681538105011
0.13028693199157715 0.43046557903289795 -0.03532249480485916
-0.1379491090774536 -0.3855704665184021 -0.19982434809207916
0.08446147292852402 0.5675978064537048 -0.012683529406785965
0.1851925402879715 -0.2276993989944458 0.1522950977087021
0.005171544849872589 0.16798685491085052 0.26139819622039795
-0.12690314650535583 0.2457675337791443 -0.029594138264656067
0.08425171673297882 -0.4113486707210541 0.035633571445941925
0.18932367861270905 -0.41016480326652527 -0.023175880312919617
-0.16180595755577087 0.1157752051949501 0.023359857499599457
0.13292662799358368 -0.4172760844230652 0.06920862197875977
0.1868566870689392 0.08974059671163559 0.02416864037513733
-0.1894504725933075 -0.16134127974510193 0.05189916491508484
-0.05760529637336731 -0.173244908452034 -0.16826492547988892
0.20925207436084747 -0.3071194291114807 -0.10346482694149017
0.22093680500984192 -0.2050291895866394 -0.053631484508514404
-0.20701858401298523 -0.007574920076876879 -0.0767446756362915
-0.16899551451206207 -0.012663066387176514 -0.17593985795974731
0.2022395133972168 0.038743726909160614 -0.07265332341194153
0.07579904049634933 -0.4149472117424011 0.03906695917248726
0.1343134343624115 0.4560490548610687 0.0006588548421859741
-0.20674866437911987 -0.21942077577114105 -0.13243144750595093
-0.09811867773532867 0.42514532804489136 -0.1589212566614151
-0.15291398763656616 0.3894496560096741 -0.10956898331642151
0.08116435259580612 -0.4083021879196167 0.08602061867713928
0.22361591458320618 -0.2604143023490906 -0.019535006955266
0.14304213225841522 -0.01876010373234749 -0.16789424419403076
0.16779527068138123 -0.33594995737075806 0.14708878099918365
-0.1570098102092743 -0.13768932223320007 0.1718076914548874
0.20261389017105103 0.05342930555343628 -0.14073871076107025
-0.0037051960825920105 -0.4086674749851227 -0.026156185194849968
0.11380888521671295 0.5626409649848938 -0.10317866504192352
-0.11525966227054596 0.09106537699699402 -0.17942209541797638
0.10550367832183838 -0.15546229481697083 0.2388729751110077
-0.038481906056404114 0.4288596212863922 -0.16851764917373657
0.10876701772212982 -0.4172762334346771 -0.11387912929058075
0.10761557519435883 0.23414652049541473 -0.15127234160900116
-0.00565566448494792 0.3990389108657837 0.19286935031414032
-0.013808798044919968 0.23238804936408997 0.2502290606498718
-0.0848834440112114 -0.4127296209335327 -0.2037431299686432
-0.20247863233089447 -0.34467101097106934 0.06256858259439468
-0.004758216440677643 -0.4067481756210327 0.23402491211891174
0.1472412645816803 -0.4145832657814026 0.08455154299736023
-0.165863037109375 -0.18035805225372314 -0.16138064861297607
-0.21086111664772034 -0.197980135679245 0.05080448463559151
0.13417115807533264 0.4402707815170288 0.025694742798805237
0.17008814215660095 0.14355573058128357 -0.07645724713802338
0.12400698661804199 -0.18735483288764954 0.23456436395645142
0.21597306430339813 -0.3751046061515808 -0.12963388860225677
-0.05327669531106949 0.4400728940963745 -0.16593503952026367
0.1848069727420807 -0.08436685055494308 0.10123036801815033
0.21008209884166718 -0.11513283103704453 -0.09264029562473297
0.1771705150604248 -0.004364490509033203 0.1057819128036499
-0.008506916463375092 -0.4117090702056885 -0.050587281584739685
0.2133222222328186 -0.2527584731578827 0.07078476995229721
-0.031849123537540436 0.19067823886871338 0.2587251365184784
-0.0573628768324852 0.43762603402137756 -0.16622990369796753
-0.05911317467689514 0.5646675825119019 -0.025543853640556335
0.08122089505195618 -0.005342302843928337 0.20622244477272034
0.21146714687347412 -0.3394637405872345 -0.11911758780479431
0.13093002140522003 -0.4160230755805969 -0.16355332732200623
0.12925457954406738 0.19513638317584991 -0.1306692659854889
-0.14886990189552307 -0.37526872754096985 -0.1954459547996521
-0.009474162012338638 -0.2705814838409424 0.2623285949230194
-0.0801418274641037 0.35241881012916565 0.14181755483150482
0.1902683526277542 0.08540262281894684 0.034376151859760284
0.22139231860637665 -0.2513207495212555 0.012643402442336082
0.17992612719535828 -0.07955864071846008 0.11089007556438446
-0.05426163971424103 -0.16571319103240967 -0.17166094481945038
0.09791841357946396 0.5687037110328674 -0.08323310315608978
0.1638033539056778 0.002839507535099983 0.13865813612937927
0.0877247229218483 -0.41478589177131653 0.0360657200217247
0.18539613485336304 -0.37096837162971497 0.07127374410629272
0.17813441157341003 -0.41548413038253784 0.0369659923017025
0.14239968359470367 0.42669159173965454 -0.1574067324399948
0.20095452666282654 0.08595603704452515 -0.09956712275743484
0.03261177986860275 0.36538439989089966 0.24607020616531372
0.047528162598609924 -0.41189396381378174 0.08085177093744278
-0.014121517539024353 -0.39999955892562866 0.24055737257003784
0.21455326676368713 -0.29476073384284973 0.04828174412250519
0.09789511561393738 0.533553421497345 0.043761398643255234
-0.0870211198925972 -0.40557655692100525 0.06037281081080437
0.09617777913808823 -0.015143764205276966 0.2015007883310318
0.13042961061000824 0.2430446296930313 0.08948098123073578
-0.0468100942671299 0.5622092485427856 0.03133933246135712
-0.012355063110589981 0.5344987511634827 -0.16351677477359772
0.13269586861133575 0.4135179817676544 -0.046794336289167404
-0.04807407408952713 -0.04102202504873276 -0.18053895235061646
0.07226737588644028 -0.1520390510559082 0.2521916627883911
0.12638571858406067 0.17756287753582 -0.031841032207012177
-0.016286954283714294 0.44685840606689453 0.09658346325159073
-0.104588583111763 -0.18706737458705902 0.23597218096256256
-0.11004241555929184 0.07165376096963882 0.16037313640117645
0.22345386445522308 -0.24367429316043854 -0.03462621942162514
0.10644614696502686 -0.41975584626197815 -0.12131085246801376
0.22121617197990417 -0.279327929019928 0.0016818735748529434
0.12039493769407272 0.1150890365242958 0.12420367449522018
0.1751411110162735 -0.4135502576828003 -0.027825206518173218
-0.009355828166007996 0.3567807972431183 0.24679841101169586
0.09387700259685516 -0.4131467640399933 -0.10732267051935196
0.10314648598432541 0.0882740393280983 0.16644497215747833
0.07207553833723068 -0.15115907788276672 0.25274091958999634
-0.11923536658287048 0.19512851536273956 0.14559605717658997
-0.21537503600120544 -0.2168588936328888 0.054723110049963
0.13034003973007202 -0.381991982460022 0.1853407621383667
0.004579126834869385 -0.40399983525276184 -0.2075212150812149
-0.16765184700489044 -0.4026830494403839 0.13266712427139282
-0.08452319353818893 0.40843141078948975 0.07969289273023605
0.04320918768644333 0.5342358946800232 0.08647211641073227
-0.10564658790826797 0.06691651046276093 -0.18145252764225006
-0.02898108959197998 -0.30920132994651794 0.2603577971458435
0.00273885577917099 0.028301745653152466 -0.17920050024986267
-0.14048661291599274 0.2810288965702057 -0.08932991325855255
0.1019400805234909 -0.4114032983779907 0.022146955132484436
0.21378418803215027 -0.3552314341068268 -0.12264285236597061
-0.19437193870544434 -0.12599337100982666 -0.16379867494106293
0.14796796441078186 0.11181359738111496 0.07883965224027634
0.11006411910057068 -0.41424164175987244 -0.11948034912347794
0.1530023068189621 0.09292042255401611 0.12389246374368668
-0.1258726865053177 0.24290233850479126 -0.017664894461631775
0.07863707095384598 -0.41466081142425537 0.04043310880661011
-0.17488250136375427 -0.4210556447505951 -0.0820579007267952
-0.10161472111940384 -0.4043295979499817 -0.2037244290113449
0.22067099809646606 -0.28214460611343384 -0.05027896910905838
0.14651678502559662 0.2942797839641571 -0.0915941670536995
-0.03870879113674164 -0.16933506727218628 0.25921958684921265
0.03898289427161217 0.11352454125881195 0.19380450248718262
0.18541692197322845 -0.06782461702823639 0.09112843871116638
0.17747612297534943 -0.09457210451364517 0.1318315863609314
-0.017523780465126038 0.18136829137802124 0.2600191831588745
0.03267885372042656 0.3987674117088318 0.17684361338615417
-0.12841853499412537 0.4051324129104614 -0.01591561734676361
0.07462316751480103 0.1894044578075409 0.2533241808414459
-0.061356015503406525 0.5480366945266724 0.06514476984739304
0.16417235136032104 -0.4150141477584839 -0.036982178688049316
0.08122310042381287 -0.4139213263988495 0.032189689576625824
0.07721535861492157 0.1365363448858261 0.21121914684772491
0.07223237305879593 0.01779281347990036 0.20105567574501038
-0.014728084206581116 -0.3523847460746765 -0.2035142481327057
0.05099472403526306 0.25879359245300293 0.2305700182914734
-0.023618830367922783 0.5574573874473572 0.0695108026266098
0.026981860399246216 0.374769389629364 0.23924705386161804
0.1231934055685997 0.17760400474071503 0.12746262550354004
-0.18620359897613525 -0.13862033188343048 0.0632980465888977
0.21558670699596405 -0.15880773961544037 -0.07847966998815536
0.08041451871395111 0.5401094555854797 -0.1592293381690979
0.046906713396310806 0.29728028178215027 -0.17111147940158844
-0.01422366313636303 0.561089038848877 0.06104319542646408
0.17152529954910278 -0.419018030166626 -0.16583512723445892
-0.10278823971748352 0.0200505331158638 0.18042564392089844
0.13635149598121643 0.3488287031650543 0.05163366347551346
0.14852899312973022 -0.01523597165942192 0.16307547688484192
-0.06700695306062698 0.4461720585823059 -0.16499073803424835
-0.19527274370193481 -0.4201268255710602 -0.13200931251049042
0.11141236871480942 -0.4199259281158447 -0.11460955440998077
0.034805044531822205 -0.39951807260513306 0.2448086142539978
-0.0352436788380146 -0.198350727558136 -0.16700783371925354
-0.07585474103689194 0.004247533157467842 0.20258845388889313
-0.18354830145835876 -0.12854322791099548 0.08808772265911102
0.0996808260679245 -0.04256122559309006 0.2100732922554016
0.03621482476592064 -0.34617695212364197 0.2637925148010254
0.030559731647372246 0.39080601930618286 0.1993679404258728
-0.15508416295051575 0.11941051483154297 0.01828218251466751
0.07571229338645935 -0.41897323727607727 0.03430696576833725
-0.09492785483598709 0.5629416108131409 -0.04618912190198898
0.04979201406240463 0.41044560074806213 -0.1675650030374527
-0.1235201358795166 -0.4106443524360657 0.12394532561302185
0.12662959098815918 0.17398476600646973 0.06685739010572433
-0.1853821724653244 -0.26509296894073486 0.1427866816520691
0.0682118833065033 0.5432630181312561 -0.16310200095176697
0.15216058492660522 -0.0018819831311702728 0.15678167343139648
0.09237068891525269 -0.02624456211924553 0.2100040465593338
0.04220130294561386 -0.41254496574401855 0.23645208775997162
0.1337444931268692 0.41472524404525757 0.04980148375034332
0.039253342896699905 0.23302100598812103 0.253980815410614
-0.1517782360315323 0.10491380095481873 0.06399362534284592
0.01439298689365387 0.5432931780815125 0.08963212370872498
0.22132350504398346 -0.24836692214012146 -0.07531390339136124
0.07678548246622086 -0.41982501745224 0.0369526669383049
-0.21127110719680786 -0.28709298372268677 0.06826672703027725
0.0783730000257492 -0.41413813829421997 0.0411900170147419
0.0833691880106926 0.5101191997528076 -0.1636745035648346
0.2155657261610031 -0.29125943779945374 -0.07760359346866608
0.0024394765496253967 -0.10700974613428116 -0.17467406392097473
-0.08275465667247772 0.08680461347103119 0.17266176640987396
0.17273643612861633 0.15661893784999847 -0.14330697059631348
0.16714024543762207 -0.2937007546424866 0.1796761006116867
0.1494339257478714 0.34053105115890503 -0.07651577889919281
0.08168206363916397 -0.11134250462055206 0.2348615676164627
0.09278292953968048 0.27508506178855896 0.20597152411937714
0.10965320467948914 -0.09169267117977142 -0.17014193534851074
0.13380585610866547 0.359015554189682 -0.02110563963651657
0.05195048823952675 0.1695854812860489 0.2580825090408325
0.05348138138651848 0.2820979058742523 -0.17141716182231903
-0.01969671994447708 0.2962895333766937 -0.17422227561473846
0.1561063826084137 0.30427196621894836 -0.10833603888750076
-0.022292882204055786 0.0866309106349945 0.19209697842597961
-0.20616686344146729 -0.003295190166682005 -0.08522828668355942
-0.09355199337005615 0.09981567412614822 0.1528475433588028
0.215101957321167 -0.24945145845413208 0.06267566978931427
-0.1478479951620102 -0.415554404258728 0.12070368975400925
0.056827664375305176 0.35495316982269287 0.18553459644317627
-0.11692645400762558 0.5299133062362671 0.0052344910800457
0.02843046933412552 -0.4089237153530121 -0.008226754143834114
-0.12734094262123108 0.4089292585849762 -0.0015339367091655731
-0.00380684994161129 0.529090404510498 0.09631635248661041
-0.025314413011074066 -0.247872993350029 -0.17770874500274658
0.11750352382659912 0.3767024278640747 0.10240523517131805
0.17904794216156006 -0.04339130222797394 0.10832385718822479
-0.05558260530233383 0.14602182805538177 0.22970479726791382
-0.18726548552513123 -0.3240029215812683 0.12863191962242126
0.21363306045532227 -0.3453628420829773 -0.12760525941848755
-0.21182534098625183 -0.06240711733698845 -0.14038173854351044
0.14919082820415497 0.1493721604347229 -0.07223773747682571
0.11171209812164307 0.554251492023468 0.001441027969121933
0.028949545696377754 0.1301111876964569 -0.17557114362716675
0.037194158881902695 -0.421528160572052 -0.18675678968429565
0.14695027470588684 -0.20637699961662292 0.21950417757034302
0.07104945927858353 0.23483280837535858 0.2443726360797882
-0.04460078477859497 -0.1904492974281311 -0.1673620492219925
-0.008272937498986721 0.26745834946632385 0.23155474662780762
0.08099667727947235 -0.10959649085998535 -0.1716350018978119
0.18610432744026184 0.03065040521323681 0.011034807190299034
-0.039313480257987976 0.11695525050163269 -0.17866723239421844
-0.21417570114135742 -0.10518187284469604 -0.06803038716316223
0.14694061875343323 -0.39843428134918213 0.15487101674079895
-0.22574663162231445 -0.22330482304096222 -0.046899426728487015
0.08906368911266327 -0.41159796714782715 0.03263415768742561
-0.1580216884613037 0.1337100714445114 -0.04277581721544266
0.17963916063308716 -0.41556283831596375 -0.022135475650429726
-0.07914034277200699 0.4387935400009155 -0.16383561491966248
0.21169178187847137 -0.3376251459121704 -0.09893374890089035
0.15231069922447205 -0.3756565451622009 0.1536846160888672
0.004961177706718445 0.030385829508304596 -0.17910826206207275
-0.060674507170915604 -0.12352372705936432 0.2401527315378189
0.18328842520713806 0.038461290299892426 0.07446461170911789
-0.06529616564512253 0.01782580465078354 -0.18127913773059845
0.02536659687757492 0.04141688346862793 -0.1781603991985321
-0.03864679113030434 0.3097785413265228 0.22173160314559937
0.18291303515434265 -0.38582175970077515 0.08366674184799194
0.13495372235774994 0.1450868546962738 0.019273921847343445
0.09538194537162781 -0.12553656101226807 0.23600630462169647
0.07046785950660706 -0.40881824493408203 0.0560627281665802
0.1595996469259262 -0.20972596108913422 -0.14103373885154724
-0.21927155554294586 -0.1458379030227661 -0.07386545836925507
-0.023569326847791672 0.46731966733932495 0.0870731920003891
0.05691138654947281 0.5168209075927734 0.08427996188402176
0.10855257511138916 0.42196857929229736 -0.16510619223117828
0.05393911525607109 0.18494287133216858 0.25667402148246765
-0.12221500277519226 0.524369478225708 -0.028171543031930923
0.004630148410797119 0.5593165755271912 0.0648307055234909
0.21281126141548157 -0.3387141525745392 -0.1197357252240181
0.1376684159040451 0.35673007369041443 0.02489956095814705
-0.19511596858501434 0.09195804595947266 -0.051237910985946655
0.11503692716360092 -0.41640451550483704 -0.11865925043821335
-0.12452315539121628 -0.3515672981739044 -0.1979052573442459
-0.06182269752025604 0.08331001549959183 -0.1820322573184967
0.15406310558319092 0.3634602129459381 -0.09737693518400192
-0.14458417892456055 -0.17065289616584778 0.19631344079971313
0.06969457119703293 0.196100115776062 0.25234583020210266
-0.20283593237400055 -0.24206571280956268 0.1038205549120903
0.18580564856529236 -0.020157508552074432 0.03812827169895172
-0.0579962432384491 -0.03498450294137001 -0.18105095624923706
0.12753528356552124 0.21522194147109985 0.14316317439079285
-0.11840714514255524 0.1814192533493042 0.11147460341453552
-0.1302574872970581 0.4173600971698761 -0.052921928465366364
0.1026015430688858 -0.4150059223175049 -0.11235034465789795
0.19738012552261353 -0.3183612823486328 0.0952262133359909
-0.14819255471229553 -0.414667546749115 0.11912699043750763
-0.12008671462535858 0.18332521617412567 0.025163721293210983
-0.12425141036510468 0.212602436542511 0.039200346916913986
-0.10098980367183685 0.08157192915678024 0.16358304023742676
0.12952685356140137 -0.3923066258430481 -0.2009865641593933
-0.18416403234004974 0.041155293583869934 -0.003333255648612976
-0.017445148900151253 0.5639131665229797 0.044359058141708374
0.13495589792728424 -0.3825960159301758 -0.19710537791252136
0.20659108459949493 -0.07184925675392151 -0.10368625819683075
-0.0743219181895256 0.47244709730148315 -0.16260281205177307
0.11908461153507233 0.1134386658668518 0.13590563833713531
0.007037896662950516 0.12285812944173813 0.21582354605197906
0.0429423525929451 -0.34953543543815613 0.26428836584091187
-0.15061715245246887 0.3548111021518707 -0.13552075624465942
-0.16096128523349762 -0.15775294601917267 -0.16491322219371796
-0.08981721103191376 0.05270153284072876 0.18063600361347198
-0.11104032397270203 -0.4153542220592499 -0.19952373206615448
0.053642597049474716 0.5675883293151855 -0.012068439275026321
0.10482862591743469 0.01619737036526203 0.187566876411438
0.12579719722270966 0.1673148274421692 0.08177632838487625
-0.1772238165140152 -0.2580735683441162 -0.14379531145095825
0.044847674667835236 -0.057807981967926025 -0.17545978724956512
-0.1820337474346161 -0.12476205825805664 0.09546322375535965
0.08242356777191162 -0.41554054617881775 0.03886033222079277
