-0.1250830441713333 0.389267235994339 -0.020480994135141373
0.06799400597810745 -0.13796363770961761 0.25043511390686035
0.13601505756378174 0.33183425664901733 0.02833845466375351
-0.15636183321475983 0.3393149673938751 -0.1395130306482315
0.11678636819124222 0.3324265778064728 -0.1612285077571869
0.16566339135169983 -0.34580135345458984 0.1665779948234558
-0.008646814152598381 0.4688098728656769 0.08733552694320679
0.05973675474524498 -0.40884289145469666 0.07129473984241486
0.17722174525260925 0.12533943355083466 -0.000939173623919487
-0.0012382231652736664 0.12314590066671371 0.21929191052913666
0.18618419766426086 0.03542131930589676 0.06933297961950302
0.19135311245918274 -0.4058229327201843 0.03195155784487724
0.15506084263324738 -0.22597090899944305 -0.13770802319049835
0.05065995082259178 0.10216893255710602 0.18467646837234497
-0.07380584627389908 0.011065386235713959 0.19737666845321655
-0.11600872874259949 -0.08913018554449081 -0.17314475774765015
-0.07904459536075592 0.21122048795223236 0.2336302399635315
0.13542436063289642 -0.14918741583824158 -0.15950872004032135
0.21063178777694702 -0.3562898635864258 -0.03135820850729942
0.14732109010219574 -0.2354346513748169 0.22889983654022217
0.10703082382678986 -0.4063214659690857 0.005867272615432739
0.11300917714834213 0.4501040577888489 0.05467481538653374
0.12307073920965195 0.48876988887786865 -0.15724363923072815
0.018991924822330475 -0.4178456664085388 -0.1170053482055664
0.05405313894152641 0.46931344270706177 -0.16600695252418518
0.21823547780513763 -0.24842987954616547 0.07111147046089172
-0.06717920303344727 -0.20751407742500305 0.25407305359840393
-0.11582940071821213 -0.012806989252567291 0.17685887217521667
-0.10248351842164993 -0.0837835967540741 -0.17537900805473328
-0.02102409489452839 0.5055705904960632 0.0957208126783371
-0.15786971151828766 0.06210777536034584 -0.17850162088871002
-0.18331022560596466 0.03293769806623459 -0.014988791197538376
0.1645050346851349 -0.06450799852609634 0.16282865405082703
0.044192712754011154 0.5687961578369141 -0.1440097987651825
0.07410316169261932 0.5703904628753662 -0.08574607968330383
-0.14113852381706238 -0.41604524850845337 -0.06700368225574493
-0.1879054754972458 0.005239585414528847 -0.17426477372646332
-0.15195421874523163 -0.1935577094554901 0.1877233237028122
-0.18099191784858704 0.003974463790655136 -0.17531396448612213
0.19745299220085144 -0.4137168526649475 -0.020308686420321465
0.1761646866798401 -0.021772829815745354 0.11631525307893753
-0.09925684332847595 0.10663822293281555 -0.17904309928417206
0.208294078707695 -0.32047778367996216 0.05538976937532425
0.011099353432655334 -0.32762348651885986 -0.19662122428417206
-0.006218485534191132 0.4517485499382019 -0.16716566681861877
-0.21093614399433136 -0.3753829598426819 -0.007979806512594223
0.19076961278915405 0.02846558950841427 -0.004974460229277611
-0.06591155380010605 0.5660564303398132 0.007771690376102924
0.11909480392932892 -0.4049362242221832 -0.1985514611005783
-0.21442963182926178 -0.3691376745700836 -0.08863601833581924
0.19922544062137604 0.0868404358625412 -0.14727526903152466
0.13484394550323486 0.28596031665802 0.09964720904827118
-0.0349947027862072 0.2910374701023102 -0.1731133908033371
-0.12208341807126999 0.4856574237346649 0.0219753235578537
0.14948272705078125 -0.15902301669120789 -0.15503302216529846
-0.007225785404443741 -0.41339215636253357 0.010464129969477654
-0.12355110794305801 0.21298085153102875 0.08751311898231506
-0.02679590880870819 0.5173848867416382 0.09663542360067368
-0.14789490401744843 0.08183550089597702 0.10553771257400513
0.18591763079166412 0.09469553083181381 -0.02369619905948639
0.2080974578857422 -0.07213490456342697 -0.09216731041669846
0.12907391786575317 0.1958574801683426 -0.02690420299768448
-0.038174644112586975 0.36672893166542053 0.1601562201976776
0.05300021171569824 -0.1420995444059372 0.2508617341518402
0.1222963035106659 -0.2295568287372589 -0.14891508221626282
0.16531629860401154 0.027381276711821556 0.12950682640075684
-0.139967143535614 -0.41969290375709534 -0.1614244282245636
0.009987857192754745 0.41500595211982727 -0.16737136244773865
0.027729295194149017 0.4212855100631714 0.1537458896636963
0.0687011182308197 0.03134654462337494 -0.17657464742660522
-0.12849295139312744 0.2989639639854431 0.04076337069272995
0.12274637073278427 0.15824559330940247 0.11830291897058487
0.04230063408613205 -0.41267791390419006 0.2381398230791092
0.10078448802232742 0.01407492533326149 0.19225968420505524
0.0023160651326179504 0.20397353172302246 -0.1750612109899521
0.05090276896953583 0.32724529504776 0.23187801241874695
0.13025689125061035 -0.41362306475639343 0.12062257528305054
0.0856977105140686 0.4108082056045532 0.08679857105016708
0.13022980093955994 0.4922997057437897 -0.15278315544128418
-0.1204250305891037 -0.4132023751735687 0.17679116129875183
-0.10634100437164307 0.47659820318222046 -0.15630090236663818
-0.07050451636314392 0.5513808131217957 0.05043839290738106
0.09772798418998718 0.5685017704963684 -0.06558707356452942
-0.183413565158844 0.005670525133609772 0.016860663890838623
0.15758509933948517 -0.4212684631347656 -0.0910128727555275
-0.17173556983470917 -0.40997350215911865 0.09099333733320236
-0.10311484336853027 0.5471803545951843 0.009071532636880875
0.10524692386388779 -0.15420740842819214 -0.1619037389755249
-0.15810520946979523 -0.3835746645927429 0.15508413314819336
0.2042722851037979 -0.3262178599834442 0.05816131457686424
0.09174246340990067 -0.4136417806148529 -0.11524619162082672
-0.12850064039230347 0.30637574195861816 0.035228945314884186
0.1304369866847992 -0.41016092896461487 -0.1004783883690834
-0.12254904955625534 -0.19684052467346191 0.21664592623710632
-0.12444645911455154 0.26243266463279724 -0.051661401987075806
0.12355463951826096 0.2048938274383545 0.20902937650680542
-0.04985456168651581 0.2782132923603058 -0.1730739176273346
-0.21380899846553802 -0.1454140692949295 -0.04090112820267677
-0.038705356419086456 -0.1807880699634552 -0.16845986247062683
-0.0163455568253994 0.0434686616063118 0.19901606440544128
0.02850695326924324 0.03353676199913025 0.20258530974388123
0.06678508222103119 0.5719864368438721 -0.01631304621696472
0.1983276903629303 0.10939294844865799 -0.11888423562049866
0.07775669544935226 -0.40873193740844727 -0.015801720321178436
-0.09720564633607864 0.35817471146583557 0.11888132244348526
-0.0262867733836174 -0.4056328237056732 0.23106518387794495
-0.21643851697444916 -0.12604008615016937 -0.11532583832740784
0.09938512742519379 0.4595322906970978 0.057621899992227554
-0.12514278292655945 0.15774551033973694 -0.07571816444396973
0.050809819251298904 -0.14100030064582825 0.2504676878452301
0.11531804502010345 0.5441395044326782 -0.07953329384326935
0.0938122421503067 0.5079036951065063 0.06670039147138596
0.015156302601099014 -0.060033299028873444 0.23027251660823822
-0.19591160118579865 -0.36566752195358276 -0.1601681262254715
-0.20299117267131805 0.021363617852330208 -0.06815829873085022
-0.1471276432275772 0.3166389465332031 -0.0851132795214653
0.22377684712409973 -0.2562004625797272 -0.05106143653392792
-0.03737889602780342 0.3988041579723358 -0.1677500307559967
-0.07046008110046387 0.45297813415527344 -0.164817214012146
0.016309216618537903 -0.2797216773033142 0.26519086956977844
-0.20802679657936096 -0.01054173894226551 -0.11216336488723755
0.16167646646499634 -0.39407819509506226 -0.1921883523464203
0.13074950873851776 0.48950403928756714 -0.010241366922855377
0.12260301411151886 0.534214198589325 -0.058219943195581436
-0.10636468231678009 0.5490683913230896 0.009628266096115112
0.17329080402851105 -0.13497231900691986 0.16246891021728516
0.2157958447933197 -0.34726428985595703 -0.11014562845230103
0.02734362706542015 0.023795779794454575 0.20600180327892303
-0.19890163838863373 -0.41382551193237305 -0.1180124431848526
-0.14337514340877533 -0.12325417250394821 0.18054711818695068
-0.007052215281873941 0.5679444670677185 -0.023365750908851624
0.11934888362884521 -0.4087611734867096 0.0104159414768219
0.15722806751728058 -0.1471148133277893 -0.1561237871646881
0.07567758858203888 0.5458794236183167 -0.15828447043895721
-0.12242948263883591 0.1044786274433136 0.10582976043224335
-0.12853871285915375 0.3293592929840088 0.018225178122520447
0.2192830592393875 -0.18605758249759674 -0.06923094391822815
0.018734456971287727 -0.32859280705451965 -0.1960821896791458
-0.15645886957645416 0.07718395441770554 0.09345687925815582
-0.09414330869913101 0.5658011436462402 -0.07149802148342133
0.021537398919463158 -0.16285128891468048 0.2573665678501129
0.08791869133710861 0.006869673728942871 0.19976915419101715
0.06459904462099075 -0.409816175699234 -0.014245249330997467
0.12676824629306793 0.16334015130996704 0.07587023079395294
0.06048715487122536 0.5234766006469727 0.08114437013864517
0.05032845586538315 0.3624483048915863 -0.16802041232585907
0.10506860911846161 -0.05375064164400101 0.2120223343372345
-0.019556451588869095 -0.41470760107040405 0.11723337322473526
0.11231684684753418 0.5514859557151794 0.013979986310005188
0.14938747882843018 0.11050182580947876 0.0995900109410286
-0.22239987552165985 -0.18157967925071716 -0.07815690338611603
0.1854606419801712 0.006349062547087669 0.022348245605826378
0.17435824871063232 -0.12708139419555664 0.16126777231693268
0.15191110968589783 -0.36810699105262756 -0.19054819643497467
0.09288493543863297 -0.19941852986812592 -0.15619534254074097
0.03417571634054184 0.3996886909008026 -0.16746589541435242
0.049355100840330124 0.4500265121459961 0.08395129442214966
-0.12134774774312973 -0.38572046160697937 0.19722697138786316
0.10372480005025864 -0.41354137659072876 -0.13304761052131653
0.04026519134640694 0.36348915100097656 0.2477690875530243
-0.018534742295742035 -0.3764442205429077 -0.20552247762680054
-0.12092851847410202 0.5123258233070374 -0.13145482540130615
0.15804989635944366 -0.14989960193634033 0.20003347098827362
0.019888870418071747 -0.4130297005176544 -0.040636446326971054
-0.07151256501674652 0.5625980496406555 -0.1482529491186142
-0.09283120930194855 0.10162479430437088 -0.1795525848865509
-0.11347910016775131 0.05038759112358093 -0.1795479655265808
-0.15821537375450134 -0.1349535882472992 -0.16932502388954163
0.18664608895778656 -0.06521230936050415 0.06290922313928604
-0.04360213130712509 -0.40934163331985474 -0.04742097109556198
0.12945570051670074 0.20314128696918488 0.051104068756103516
0.10650191456079483 0.12104079127311707 0.15662619471549988
0.17122331261634827 -0.10951684415340424 0.16102875769138336
0.13728314638137817 0.4736432433128357 -0.05519038438796997
-0.08985757827758789 0.4588027000427246 -0.16425970196723938
0.2179838865995407 -0.3504614531993866 -0.11415549367666245
0.03174993395805359 0.4551466703414917 -0.1678822636604309
-0.07464559376239777 -0.006230548024177551 -0.17895910143852234
-0.15617428719997406 -0.41423463821411133 -0.045268669724464417
-0.03422875702381134 0.392422616481781 -0.16750958561897278
-0.2266143560409546 -0.2399904727935791 -0.08916739374399185
-0.11823049932718277 0.03845639526844025 -0.17866946756839752
0.04995513707399368 0.19025485217571259 0.2556077241897583
-0.12243040651082993 0.43514469265937805 -0.16036933660507202
-0.11054565757513046 -0.30955517292022705 0.23334987461566925
0.03241490572690964 -0.4075261056423187 0.028038036078214645
0.0035011619329452515 -0.3102767765522003 -0.1926775574684143
-0.019971519708633423 0.041696734726428986 -0.18150849640369415
-0.20184443891048431 -0.18317604064941406 -0.1495315283536911
0.14002473652362823 -0.4095870852470398 0.1540016233921051
-0.21284671127796173 -0.38089483976364136 -0.032783813774585724
0.21370923519134521 -0.2477630376815796 0.08921712636947632
-0.11390133202075958 0.13828888535499573 0.08423271775245667
0.11323527991771698 -0.41148674488067627 0.02984834834933281
-0.05541504919528961 0.049329973757267 -0.18078075349330902
0.17072483897209167 -0.41054683923721313 -0.03258823975920677
0.1795295774936676 0.0518110990524292 0.08959023654460907
-0.16130661964416504 -0.1425667107105255 -0.168036550283432
-0.01383030042052269 0.46491461992263794 0.08644948899745941
0.17130522429943085 0.023129045963287354 -0.16665895283222198
-0.10288930684328079 0.1152762621641159 0.11435937881469727
-0.09242016077041626 0.10200898349285126 0.15208253264427185
-0.06143135577440262 0.5675238370895386 0.0014207325875759125
0.012075072154402733 0.3960886001586914 0.2114141434431076
-0.011503266170620918 0.389065682888031 0.21451710164546967
-0.03611498326063156 0.25313153862953186 0.22801776230335236
0.10884465277194977 0.32595330476760864 0.17724356055259705
-0.10838456451892853 -0.20929847657680511 -0.15934570133686066
0.12479531764984131 -0.1995001882314682 0.23550426959991455
-0.02282210811972618 0.4750552475452423 0.07422689348459244
-0.06582963466644287 0.5648664832115173 0.0094144893810153
-0.22135119140148163 -0.16166789829730988 -0.06310780346393585
0.17913353443145752 -0.32727980613708496 0.13797615468502045
-0.2252591997385025 -0.23573030531406403 -0.07564099133014679
0.07351881265640259 0.031064322218298912 0.198325514793396
-0.2208683341741562 -0.27211111783981323 0.01387200877070427
-0.12041386216878891 0.14653974771499634 -0.02805732935667038
-0.21018807590007782 -0.03144243359565735 -0.15447407960891724
-0.07847467809915543 0.47461020946502686 -0.16455408930778503
0.08671791851520538 -0.2549847960472107 -0.16979219019412994
0.21176686882972717 -0.15138274431228638 0.0036040768027305603
0.16302858293056488 0.05257080867886543 0.12742732465267181
0.11313700675964355 -0.3401496708393097 -0.1911131739616394
0.03820660710334778 0.5243390202522278 0.0913597121834755
0.033553335815668106 -0.3952045142650604 0.25183603167533875
-0.07861001789569855 -0.4171282649040222 -0.08425373584032059
-0.1490735560655594 0.3997142016887665 -0.10648702085018158
-0.06231537088751793 0.2215784192085266 -0.1750440001487732
-0.12199939787387848 0.4796154797077179 0.02682569995522499
-0.030780334025621414 0.15692038834095 0.24775446951389313
-0.1159195527434349 0.12356279790401459 0.061579957604408264
0.013368338346481323 -0.40063726902008057 -0.20562021434307098
0.08625464886426926 0.49684077501296997 -0.1644701063632965
0.14358939230442047 -0.1714143604040146 -0.15382006764411926
0.131106436252594 -0.40031698346138 0.01516018807888031
-0.12604953348636627 0.17365947365760803 -0.11873672157526016
0.11295537650585175 -0.4108447730541229 -0.11649112403392792
-0.17630334198474884 -0.09712473303079605 -0.17125751078128815
0.11672939360141754 -0.2515113353729248 0.2408006191253662
0.20155750215053558 -0.3780253827571869 0.028380632400512695
0.1499897837638855 0.4284651577472687 -0.10689318180084229
-0.07576489448547363 0.08326640725135803 -0.18091385066509247
-0.20057183504104614 -0.1713213175535202 -0.026834137737751007
-0.07537820190191269 0.5635392665863037 0.0017204396426677704
-0.16601315140724182 -0.2522243559360504 -0.14962799847126007
0.2143283486366272 -0.3488306701183319 -0.11643415689468384
0.1224081739783287 0.2594846785068512 -0.12667176127433777
-0.13626083731651306 0.16226410865783691 -0.12399076670408249
-0.086016945540905 -0.12472807615995407 0.22800064086914062
-0.11786630749702454 -0.23056749999523163 -0.16008390486240387
0.0753704160451889 -0.3630026578903198 -0.19871138036251068
-0.18960586190223694 -0.22787486016750336 0.1274951994419098
0.17299094796180725 -0.4175838232040405 -0.14451918005943298
0.08870924264192581 -0.4112713634967804 0.059403225779533386
0.0058364346623420715 -0.4184962511062622 -0.18859612941741943
0.18159683048725128 0.06434592604637146 0.0773245319724083
0.05805891007184982 0.06334026157855988 0.18781493604183197
-0.1401049792766571 -0.08223141729831696 0.17243029177188873
-0.20880362391471863 -0.026082465425133705 -0.09759858250617981
0.10190755128860474 -0.28370457887649536 0.24575379490852356
-0.06489749997854233 0.4334818720817566 -0.16493679583072662
-0.12541413307189941 0.2657977044582367 -0.05442345514893532
0.13760121166706085 0.35224562883377075 0.07594002783298492
-0.17121683061122894 -0.15795612335205078 0.13514575362205505
0.17264585196971893 -0.020377084612846375 0.125198096036911
0.10168126225471497 -0.10182766616344452 0.22626738250255585
0.21442784368991852 -0.33648261427879333 -0.08877693861722946
-0.10340364277362823 0.058850616216659546 -0.18023476004600525
-0.09107705950737 0.47335514426231384 -0.160512775182724
-0.1369587928056717 -0.11725009977817535 0.18574540317058563
0.09523765742778778 0.2295600026845932 0.23362775146961212
0.21414074301719666 -0.1368289738893509 -0.06042914837598801
-0.037343479692935944 0.5676564574241638 -0.016809266060590744
0.014161903411149979 0.17923012375831604 0.2610238492488861
0.2071194350719452 -0.04309895262122154 -0.060496967285871506
0.05118400603532791 0.05062251538038254 0.1938313990831375
0.1045624390244484 -0.4108964800834656 -0.111190564930439
-0.042360540479421616 0.3845163881778717 0.1275465190410614
-0.15320244431495667 -0.17471419274806976 0.17588457465171814
0.1873461902141571 0.04615223407745361 0.022790806367993355
-0.09248284995555878 0.12909013032913208 -0.17826394736766815
0.18430429697036743 -0.0592796728014946 0.10126311331987381
-0.10355640202760696 -0.39690738916397095 -0.20687159895896912
-0.04902966320514679 -0.40594878792762756 0.04530028626322746
0.07445307075977325 -0.02950792759656906 -0.17373622953891754
0.13733802735805511 0.04579848051071167 0.1595292091369629
-0.2094441056251526 -0.15848198533058167 -0.14635705947875977
0.2133769690990448 -0.1280081570148468 -0.04788073152303696
-0.017853999510407448 0.23514704406261444 0.24945807456970215
0.21613840758800507 -0.34328603744506836 -0.09491793811321259
0.13172490894794464 0.11418568342924118 0.11411183327436447
-0.21750561892986298 -0.12674382328987122 -0.08685700595378876
0.035541851073503494 -0.41138434410095215 0.23864960670471191
-0.004728883504867554 -0.08691556006669998 -0.17655161023139954
0.18068605661392212 -0.21131253242492676 0.16848774254322052
-0.20537365972995758 -0.38209253549575806 0.02874397486448288
0.16358798742294312 -0.14567570388317108 0.19269855320453644
-0.04583375155925751 -0.4145991802215576 -0.004855727776885033
0.1880040317773819 -0.026353444904088974 0.0666424036026001
-0.2135578840970993 -0.09377729892730713 -0.0863049179315567
0.08116460591554642 -0.15198469161987305 0.24874794483184814
0.21429823338985443 -0.343642920255661 -0.06508900970220566
0.047341346740722656 -0.028051696717739105 0.21675075590610504
0.12289842963218689 -0.41194602847099304 -0.19297997653484344
0.09324358403682709 -0.40920737385749817 -0.13543394207954407
0.2029537707567215 -0.31810060143470764 0.08310643583536148
0.1497986614704132 -0.4160245954990387 -0.1677742749452591
-0.009307362139225006 -0.23844650387763977 -0.1751970499753952
0.09140574187040329 0.03527339920401573 0.1899128556251526
-0.012592025101184845 -0.18741928040981293 -0.16714517772197723
0.12453202903270721 -0.41514816880226135 -0.0954972505569458
0.1274130493402481 0.17531052231788635 0.07128062099218369
0.1741519570350647 -0.12579837441444397 0.1606411635875702
0.03737882152199745 -0.3027024567127228 -0.18942558765411377
0.11272893846035004 -0.41147032380104065 0.02796279266476631
-0.11837898939847946 -0.13236108422279358 0.20744723081588745
-0.22634181380271912 -0.2526516914367676 -0.06316029280424118
0.15792633593082428 -0.0708291083574295 0.17311769723892212
0.04704780504107475 0.4622611403465271 -0.16621164977550507
0.10001134872436523 0.23994854092597961 -0.1634916514158249
0.07599357515573502 -0.4110243320465088 0.07231207937002182
-0.12418049573898315 -0.04699372872710228 0.17816880345344543
0.20647260546684265 -0.0891454815864563 -0.01500077173113823
0.08048076182603836 0.5219780802726746 -0.16088564693927765
0.09691117703914642 -0.050361067056655884 0.2128678858280182
0.0688379555940628 0.5367045402526855 0.06786581873893738
-0.07831975817680359 -0.2133997529745102 -0.16285401582717896
-0.07367204874753952 0.1288774013519287 -0.17743755877017975
0.20541979372501373 -0.33342209458351135 -0.12846910953521729
-0.1703130602836609 -0.2591240108013153 -0.1482764333486557
0.09013388305902481 -0.41248685121536255 0.03240412473678589
-0.1661745011806488 -0.23165464401245117 -0.15035521984100342
-0.03338545188307762 0.40290701389312744 -0.16741414368152618
-0.12074445188045502 0.3452804386615753 -0.16673555970191956
-0.10053756833076477 0.11254383623600006 0.1220339983701706
0.1721160113811493 -0.1621445119380951 0.163116917014122
-0.18652591109275818 0.11889375001192093 -0.053531546145677567
0.12689898908138275 0.1913047730922699 -0.035786863416433334
-0.020776791498064995 0.5660747289657593 -0.015540685504674911
0.1461147516965866 -0.35252028703689575 -0.1878771185874939
0.11959315836429596 0.5394949913024902 0.0038356035947799683
0.09292863309383392 -0.4129963517189026 -0.1337035596370697
0.10595667362213135 -0.231273353099823 0.25004372000694275
0.10901307314634323 -0.3558902442455292 0.22874921560287476
-0.035216230899095535 -0.41059786081314087 0.14821259677410126
0.06475722789764404 -0.24357692897319794 -0.17076115310192108
0.11910414695739746 -0.4058241546154022 0.012434400618076324
0.1362406462430954 0.09864380955696106 0.13874012231826782
-0.04319782182574272 0.0036192014813423157 -0.1794820874929428
0.20086118578910828 0.0974527969956398 -0.09605499356985092
0.1852535754442215 -0.002383716404438019 0.08192753046751022
-0.06942272931337357 -0.14356732368469238 -0.17011980712413788
-0.1807127147912979 0.054899752140045166 0.041587814688682556
0.07873091101646423 0.14866766333580017 0.22689063847064972
-0.002371417358517647 0.47010356187820435 0.08244401216506958
0.16304096579551697 0.11148108541965485 0.08911986649036407
0.03855578601360321 0.5702796578407288 0.01776116155087948
-0.12805452942848206 0.3536459803581238 -0.0038905292749404907
-0.04424469918012619 0.4143511652946472 -0.16774891316890717
0.21745716035366058 -0.3733021914958954 -0.12626011669635773
0.2102084904909134 -0.08416782319545746 -0.09687033295631409
0.08714829385280609 0.5020816326141357 -0.16381657123565674
0.13242705166339874 0.4618475139141083 0.01526002585887909
-0.18297260999679565 -0.4165465533733368 -0.17652888596057892
-0.10063831508159637 0.4109264016151428 0.06916658580303192
-0.10862576216459274 0.10767253488302231 0.1177370548248291
-0.059067994356155396 -0.1722579300403595 0.2516077160835266
-0.13004854321479797 0.13747212290763855 -0.015547782182693481
0.09976927936077118 0.42879197001457214 -0.1656133234500885
-0.09311963617801666 0.5679385662078857 -0.11600074917078018
-0.06366224586963654 0.005364827811717987 -0.17921869456768036
0.212843656539917 -0.13702762126922607 -0.0359467975795269
0.038183920085430145 -0.15248346328735352 0.2579292058944702
0.12793993949890137 0.5075341463088989 0.007776573300361633
0.18715925514698029 -0.011876001954078674 0.05722159892320633
0.025698795914649963 -0.4068337678909302 0.04856390133500099
-0.12551948428153992 0.2401733100414276 0.0886818915605545
0.12182312458753586 0.5018627047538757 0.035351045429706573
0.1310347020626068 0.1679791510105133 -0.08203472197055817
-0.12274347990751266 0.11408893764019012 -0.17938263714313507
0.17301981151103973 -0.012699173763394356 0.12385229766368866
0.11526844650506973 0.305682510137558 0.18237178027629852
0.09110210090875626 -0.17836913466453552 0.25297093391418457
-0.1106342077255249 0.03923340141773224 -0.17883208394050598
0.20144088566303253 0.017796052619814873 -0.11179647594690323
-0.12951837480068207 0.30137768387794495 -0.038613561540842056
0.20960792899131775 -0.38030827045440674 -0.14697867631912231
0.2195149064064026 -0.29239389300346375 0.00827241875231266
0.22282685339450836 -0.22835928201675415 -0.057980917394161224
0.2018052637577057 0.09072443842887878 -0.1066707968711853
-0.16811339557170868 -0.4118744730949402 -0.01644136756658554
0.1353033483028412 -0.4069223403930664 -0.07613849639892578
0.13809813559055328 -0.4134029150009155 -0.18908223509788513
0.045877180993556976 0.566826343536377 -0.1497972011566162
0.06739503145217896 0.0519595742225647 -0.17571018636226654
-0.21004922688007355 -0.0591251477599144 -0.1041235476732254
-0.06981424242258072 0.2538416385650635 0.2209421545267105
-0.18352675437927246 0.00141204334795475 0.03676852583885193
0.20682844519615173 -0.06269922852516174 -0.02312389388680458
0.12268348038196564 0.1036280170083046 0.14490565657615662
-0.18672390282154083 -0.3804524838924408 -0.18042099475860596
0.14018085598945618 -0.3453710675239563 0.19521041214466095
0.1159878745675087 -0.17027033865451813 0.24249716103076935
0.1275090128183365 0.22273531556129456 -0.08485153317451477
0.02349764108657837 -0.38222187757492065 0.25634169578552246
0.07262646406888962 0.3704560697078705 0.13735949993133545
0.001438699895516038 0.5677842497825623 -0.01708277314901352
0.002736107911914587 0.5680512189865112 -0.024581607431173325
-0.2034996896982193 0.09232176095247269 -0.14355124533176422
0.004168663173913956 0.46085265278816223 0.10043347626924515
-0.09348691999912262 0.18589168787002563 0.22204819321632385
-0.03129742294549942 0.4375995397567749 0.08319458365440369
0.1350843608379364 -0.3917381763458252 -0.19762493669986725
0.17214247584342957 0.1256035417318344 0.017403986304998398
-0.03259505331516266 -0.36613234877586365 -0.2039746195077896
-0.14693599939346313 0.28541865944862366 -0.11045065522193909
0.12166726589202881 -0.21157023310661316 0.22996042668819427
-0.05305933207273483 -0.35732346773147583 -0.2030872106552124
0.06862901896238327 0.38300034403800964 0.12604555487632751
0.1314130425453186 0.1144179180264473 0.11811748147010803
-0.1114286482334137 -0.41496843099594116 -0.029123455286026
0.17814947664737701 -0.0554458349943161 0.12377925217151642
0.16779713332653046 0.11157410591840744 0.06855947524309158
0.04781631752848625 0.46813878417015076 0.06693480908870697
-0.03194597363471985 -0.18743696808815002 -0.16748511791229248
0.08021785318851471 -0.41100022196769714 -0.03019404597580433
0.19316606223583221 -0.03450557589530945 0.014737577177584171
-0.07685233652591705 -0.13309836387634277 -0.1710543930530548
-0.15584029257297516 -0.03579903766512871 0.13640204071998596
0.1642734259366989 -0.4076913893222809 -0.19173935055732727
0.157071053981781 -0.19512571394443512 0.2044026404619217
-0.2024095356464386 -0.2271171361207962 0.09343460202217102
-0.20766228437423706 -0.008252778090536594 -0.08262509107589722
0.13097135722637177 0.49326175451278687 -0.01621267944574356
0.0396394357085228 0.4127129018306732 -0.1682668924331665
-0.18504613637924194 -0.21571549773216248 0.13272078335285187
-0.06687410175800323 0.5568498969078064 0.04647553339600563
-0.005525186657905579 0.5148546099662781 -0.16221816837787628
0.2130841612815857 -0.12664631009101868 -0.06381848454475403
0.010836092755198479 0.42166513204574585 0.15331746637821198
-0.14831700921058655 -0.27966243028640747 0.19251501560211182
0.21558836102485657 -0.35280370712280273 -0.060692910104990005
-0.20369954407215118 -0.3278159201145172 -0.13375748693943024
0.12942299246788025 0.16421033442020416 -0.026112549006938934
-0.11724207550287247 0.1724444478750229 0.09766478091478348
-0.20909817516803741 -0.37884682416915894 -0.1387481838464737
-0.12080902606248856 0.07855290919542313 -0.1783726066350937
0.07502758502960205 -0.0027948804199695587 0.2055223435163498
-0.05124169588088989 0.01118885725736618 -0.17976363003253937
-0.0847541093826294 0.49532097578048706 0.06987213343381882
-0.22131194174289703 -0.21134904026985168 -0.002578308805823326
0.040398579090833664 -0.4168880879878998 -0.18410944938659668
-0.01051345095038414 -0.3160996437072754 -0.1951453536748886
-0.12058833241462708 -0.28274935483932495 0.22272616624832153
0.18060001730918884 -0.1550152599811554 0.1309375762939453
0.1229885146021843 0.25794196128845215 0.1889542043209076
0.12733426690101624 -0.19815245270729065 0.23813307285308838
-0.12154857814311981 0.37757259607315063 -0.020027484744787216
-0.0756317600607872 -0.41087478399276733 -0.1612709015607834
-0.07346725463867188 0.04690953344106674 0.18861441314220428
-0.19186708331108093 0.010217804461717606 -0.17193704843521118
-0.014406977221369743 0.1853594332933426 0.25857967138290405
0.10434035211801529 -0.40528959035873413 0.049103498458862305
-0.06782882660627365 -0.22335109114646912 -0.1654047667980194
0.03339870646595955 -0.18926642835140228 -0.16353629529476166
0.01487966999411583 -0.048229169100522995 0.22710278630256653
0.22056332230567932 -0.18561063706874847 -0.03550609201192856
0.014179371297359467 -0.0536886565387249 -0.1777493953704834
0.14626945555210114 0.4521724581718445 -0.1409376561641693
-0.18471524119377136 -0.1923907995223999 0.13299144804477692
-0.14165861904621124 -0.41244006156921387 0.15594449639320374
0.20043833553791046 0.09948591887950897 -0.1159706637263298
0.10109677910804749 -0.41176119446754456 -0.055140528827905655
-0.1861165165901184 -0.08287685364484787 0.037824857980012894
-0.03411500155925751 -0.2346869707107544 -0.17500527203083038
0.13536415994167328 0.4059112071990967 -0.160101518034935
0.010518878698348999 0.4140182435512543 0.1700979769229889
-0.19989436864852905 -0.23184674978256226 -0.13624712824821472
-0.1329997479915619 0.15389864146709442 -0.0912633165717125
0.17808708548545837 0.11971941590309143 0.01755843497812748
0.05304495245218277 0.2616431415081024 0.24149703979492188
0.1566200852394104 -0.4165400266647339 0.03869307413697243
-0.036248575896024704 -0.20121166110038757 0.2613116502761841
0.13748303055763245 0.36650851368904114 0.03309474140405655
-0.09519720822572708 -0.4163137972354889 -0.07602738589048386
-0.03640465438365936 0.3841792941093445 0.13214464485645294
0.10161734372377396 0.25989270210266113 -0.165086567401886
-0.05324186384677887 0.5667368769645691 0.0005866102874279022
-0.18763363361358643 0.06876452267169952 -0.16978251934051514
-0.2188146412372589 -0.1760987788438797 -0.12088315188884735
0.09173491597175598 0.24962496757507324 -0.16924360394477844
0.13132436573505402 0.23200823366641998 0.00990428775548935
-0.12104367464780807 0.41333192586898804 -0.018198203295469284
0.1895136684179306 -0.2578829228878021 -0.11409907042980194
0.16789619624614716 -0.12580060958862305 0.17703622579574585
-0.13138799369335175 0.29798346757888794 -0.05619460716843605
-0.020783863961696625 0.1524415910243988 0.2464800477027893
0.17603832483291626 -0.27770718932151794 -0.13618730008602142
0.03951457887887955 -0.22233746945858002 -0.16750644147396088
0.11964325606822968 -0.4202423095703125 -0.11445610970258713
-0.1351986974477768 0.361421138048172 -0.07272833585739136
-0.1316942423582077 0.1471043974161148 -0.07099378108978271
0.1949073225259781 -0.27032509446144104 -0.110691137611866
0.15708783268928528 0.15948030352592468 -0.1426464319229126
0.20327599346637726 0.012774720788002014 -0.14638859033584595
-0.03455064445734024 0.5613888502120972 0.045653775334358215
-0.0023644231259822845 -0.2847077250480652 0.26293012499809265
0.08578447997570038 0.004962977021932602 0.20097531378269196
-0.19621890783309937 -0.3199317157268524 -0.15321530401706696
-0.14234787225723267 0.43814989924430847 -0.09815545380115509
-0.12866364419460297 0.3604055643081665 0.00295044481754303
0.08056250214576721 0.2269434630870819 0.24342800676822662
-0.16644996404647827 -0.41752341389656067 0.01462932676076889
-0.0981377512216568 0.2858879268169403 -0.16693049669265747
0.13990873098373413 -0.41897493600845337 -0.13955506682395935
0.02459273487329483 0.5692513585090637 -0.0007911082357168198
0.12687277793884277 -0.18235599994659424 0.2383469045162201
-0.11787796020507812 -0.19391554594039917 0.21904945373535156
0.06618988513946533 -0.14598365128040314 0.2552995979785919
0.09731943905353546 0.05380360782146454 0.18122729659080505
-0.16787178814411163 0.1106225997209549 0.04027903825044632
0.222981795668602 -0.23611405491828918 -0.05810791254043579
0.012379970401525497 0.3948109745979309 -0.16854217648506165
0.0284903421998024 0.3209812045097351 -0.17212308943271637
-0.02988347038626671 0.37108954787254333 0.20886975526809692
0.18586508929729462 -0.24016299843788147 -0.11938769370317459
-0.2044798582792282 0.02373560331761837 -0.1494024395942688
0.13531887531280518 0.43976688385009766 -0.15990899503231049
-0.2099665403366089 -0.034417200833559036 -0.14562344551086426
-0.08321480453014374 -0.4184350371360779 -0.18691693246364594
-0.0949169248342514 0.13348707556724548 -0.1789296418428421
0.1610955446958542 -0.19015589356422424 -0.14651255309581757
0.08213397860527039 -0.40976816415786743 0.2120632529258728
-0.20165075361728668 0.07778830826282501 -0.08298152685165405
-0.09967122226953506 0.5506691336631775 0.021906880661845207
-0.008801983669400215 0.3972451984882355 0.204196035861969
-0.12998738884925842 0.12222067266702652 0.03885074704885483
-0.0461726188659668 0.5353692770004272 0.07628663629293442
0.08038477599620819 -0.41515564918518066 -0.1493605524301529
-0.02080407924950123 0.3129141330718994 -0.1723368763923645
0.13288374245166779 0.4272838830947876 -0.1615932285785675
0.06787236779928207 -0.12747281789779663 0.24492888152599335
0.12649190425872803 0.11861849576234818 0.11155369877815247
0.11012360453605652 0.5588387846946716 -0.10902898758649826
0.13708265125751495 0.4423364996910095 -0.15755923092365265
-0.20282533764839172 0.045464836061000824 -0.11480561643838882
0.21652761101722717 -0.16208674013614655 -0.03710402920842171
0.07337112724781036 -0.4108588993549347 0.22141550481319427
-0.21449357271194458 -0.18974696099758148 0.011821739375591278
0.1468973308801651 -0.40183642506599426 0.1542237401008606
0.12747995555400848 0.1729377955198288 -0.0551830418407917
-0.04533352330327034 0.03459925949573517 -0.18088200688362122
0.1417551338672638 0.3242763876914978 -0.05809507146477699
0.02802564948797226 0.3520333766937256 -0.17042195796966553
0.13325439393520355 0.47231972217559814 -0.0047556012868881226
0.11954100430011749 -0.41154685616493225 -0.03567599132657051
-0.12295671552419662 -0.4139265716075897 0.030574128031730652
-0.12017548829317093 0.16865448653697968 -0.040296126157045364
0.151502326130867 0.39869898557662964 -0.12914855778217316
0.07666493952274323 0.5695529580116272 0.008298663422465324
0.1873224377632141 0.12750791013240814 -0.03472216799855232
-0.1959143877029419 0.01877477578818798 -0.035995952785015106
0.13651956617832184 -0.2316913604736328 -0.1458180844783783
0.14096273481845856 -0.18854503333568573 -0.14971520006656647
-0.017421158030629158 0.4767102897167206 0.0777093842625618
0.0576292984187603 0.3258257806301117 0.22938193380832672
0.2084953635931015 -0.3123301565647125 0.07770589739084244
-0.2131907045841217 -0.18128591775894165 -0.03947592154145241
-0.21286654472351074 -0.2527792155742645 0.061488550156354904
0.21653355658054352 -0.30560749769210815 0.050413720309734344
0.049140606075525284 0.37365564703941345 -0.16858212649822235
-0.06276902556419373 0.42173105478286743 -0.16503122448921204
0.15221953392028809 -0.41214028000831604 -0.049358636140823364
-0.019302446395158768 -0.4078473448753357 -0.0017157793045043945
-0.12652339041233063 0.24943344295024872 -0.024488788098096848
-0.18347200751304626 -0.3062966763973236 0.14002560079097748
0.13321027159690857 -0.36089789867401123 -0.19183477759361267
-0.06352145969867706 0.5614153146743774 0.01956809312105179
-0.2050010710954666 -0.12377165257930756 -0.15780486166477203
0.011149793863296509 -0.41155707836151123 0.15939833223819733
-0.08982342481613159 0.5661459565162659 -0.07683172821998596
-0.12433243542909622 0.4399028420448303 -0.06823963671922684
0.13519614934921265 -0.014384277164936066 0.17958122491836548
0.1106572076678276 0.5513889193534851 0.01526794582605362
0.015378810465335846 0.382328063249588 -0.16881147027015686
-0.10646691173315048 0.11485835164785385 0.10874849557876587
-0.13773930072784424 0.2957010567188263 -0.06718817353248596
-0.19432507455348969 0.057000622153282166 -0.04602862894535065
0.13577936589717865 0.32306191325187683 0.03479449078440666
0.1234145537018776 -0.4119458496570587 0.042882196605205536
-0.09145848453044891 0.1447557508945465 -0.1774776130914688
0.046120211482048035 -0.40220212936401367 0.2508692145347595
-0.12137548625469208 0.22425392270088196 0.14354676008224487
-0.16254130005836487 -0.4111544191837311 0.11851038038730621
-0.12289749830961227 0.03804217278957367 0.15843535959720612
0.1967453807592392 -0.3289225399494171 0.08055444061756134
-0.10116960853338242 0.12417967617511749 0.12189523130655289
0.11136537790298462 -0.4107794761657715 -0.03637223690748215
0.15072324872016907 0.3230597972869873 -0.09686598181724548
-0.1168859601020813 0.19200806319713593 0.15522518754005432
0.04310980439186096 0.20247121155261993 0.2586793303489685
-0.000957021489739418 -0.20085828006267548 -0.16683630645275116
0.19602200388908386 -0.2808012068271637 -0.10975374281406403
0.1540839821100235 0.40197375416755676 -0.10108451545238495
-0.06572213023900986 0.024717122316360474 -0.18060116469860077
0.04100693017244339 0.3771923780441284 0.2292570173740387
0.12978096306324005 0.1975829005241394 -0.01786680519580841
-0.0825372189283371 0.038513630628585815 0.18620941042900085
-0.03896213695406914 0.03367781639099121 -0.18056659400463104
0.13377302885055542 0.11326724290847778 0.10235432535409927
0.13193771243095398 0.22981590032577515 -0.014027725905179977
-0.17026497423648834 -0.152971550822258 0.13483057916164398
0.18709848821163177 -0.06850673258304596 0.07249736785888672
0.2226332426071167 -0.278876394033432 0.02502424456179142
-0.16140389442443848 -0.3075055181980133 -0.1691412627696991
0.009554125368595123 -0.33849114179611206 0.25963205099105835
0.0760074108839035 0.019452540203928947 0.19935160875320435
0.09244020283222198 0.26335787773132324 -0.16890636086463928
0.21794746816158295 -0.3636421859264374 -0.1208825409412384
0.09802716970443726 0.017932426184415817 0.19106431305408478
0.037718143314123154 0.14102135598659515 0.23310792446136475
-0.17710331082344055 -0.17872759699821472 0.1471848487854004
-0.19153980910778046 -0.4149925112724304 -0.16883249580860138
-0.09032583981752396 0.11688067764043808 -0.17902939021587372
0.17701981961727142 0.12408678233623505 0.004642247222363949
-0.1909627914428711 -0.2654079496860504 0.12060154974460602
-0.1104598417878151 0.49936148524284363 0.03909696266055107
0.2164287269115448 -0.341157466173172 -0.10766705870628357
0.1477801501750946 -0.4149981737136841 -0.18082493543624878
-0.0740983858704567 0.036891013383865356 -0.18007998168468475
-0.12457272410392761 -0.06678485870361328 -0.174787238240242
-0.0548836812376976 0.07556433975696564 0.18317362666130066
-0.0576460026204586 -0.10516366362571716 -0.175514355301857
0.17110158503055573 -0.40898987650871277 0.05919419229030609
-0.07711289077997208 -0.3799375593662262 0.2278953194618225
0.12505881488323212 0.199462890625 -0.11974771320819855
0.14013536274433136 0.27964842319488525 -0.10808761417865753
0.019971605390310287 -0.1808120310306549 -0.16570855677127838
-0.12146741151809692 0.006279844790697098 0.16728146374225616
0.035040147602558136 -0.21099939942359924 -0.16432487964630127
0.1104707419872284 -0.41519662737846375 -0.0883651152253151
0.09774534404277802 0.33347755670547485 0.18881909549236298
0.009788893163204193 0.47513502836227417 -0.16737724840641022
0.12949103116989136 -0.20228609442710876 0.23709145188331604
-0.05528825893998146 0.399703711271286 -0.16635073721408844
0.18604421615600586 -0.1295599490404129 0.0805855393409729
-0.12012121826410294 0.5315842628479004 -0.1299438774585724
-0.03020888939499855 0.34727710485458374 0.23782965540885925
-0.04636441916227341 -0.1491381824016571 -0.17186427116394043
-0.11857721954584122 -0.4192042648792267 -0.15911449491977692
-0.053273968398571014 0.3252527415752411 0.22752554714679718
-0.053676992654800415 0.4338945746421814 -0.16669861972332
-0.0637328177690506 0.17416705191135406 0.24131833016872406
0.09578873217105865 0.5013834834098816 0.06958258152008057
0.14632922410964966 -0.08086277544498444 0.18712060153484344
-0.13543705642223358 0.035089652985334396 -0.17927797138690948
0.020203450694680214 -0.3278687000274658 -0.195468008518219
0.046929169446229935 0.5709911584854126 -0.11446402966976166
0.1705983579158783 -0.3920030891895294 -0.18962320685386658
0.13915851712226868 -0.41150131821632385 0.13642188906669617
0.018050242215394974 0.5677741169929504 -0.06616231054067612
-0.016459323465824127 -0.14981281757354736 -0.17156939208507538
0.13802888989448547 0.349277526140213 0.034885115921497345
0.04131186008453369 0.04835321754217148 -0.17809422314167023
0.11083099246025085 0.5576632022857666 -0.11081948131322861
0.2039928138256073 0.05958153307437897 -0.115200936794281
-0.14463841915130615 0.28421151638031006 -0.10106073319911957
0.03080674633383751 -0.417171835899353 -0.1898805797100067
-0.20975233614444733 -0.37707051634788513 0.016234062612056732
0.18700559437274933 -0.07024064660072327 0.0694315955042839
0.1112634539604187 -0.40794041752815247 0.04883936047554016
-0.21212327480316162 -0.07970651239156723 -0.08929755538702011
-0.13142092525959015 0.49556660652160645 -0.10095382481813431
-0.12704546749591827 0.16034846007823944 -0.08740813285112381
-0.18048539757728577 0.04160434380173683 0.04537238925695419
0.18328183889389038 -0.4148637056350708 -0.17160212993621826
-0.1851433962583542 -0.03377651050686836 0.012061592191457748
-0.12315405905246735 -0.4165652394294739 0.01114804856479168
-0.18224671483039856 0.04152924567461014 0.019234564155340195
0.12857002019882202 0.13448548316955566 0.07497166097164154
0.15359444916248322 -0.4144526720046997 -0.18265333771705627
-0.08130767941474915 0.558355987071991 0.018484294414520264
-0.18561285734176636 -0.3307008147239685 -0.16743148863315582
0.2158631980419159 -0.14656886458396912 -0.07000946998596191
0.2114320695400238 -0.11656137555837631 -0.0594688355922699
0.06391818076372147 -0.41449353098869324 0.09892739355564117
0.18736164271831512 -0.02232472598552704 0.02824319899082184
0.16262933611869812 0.10618961602449417 0.0997820720076561
-0.12368504703044891 0.3486327826976776 -0.019191786646842957
0.1628953367471695 -0.42041635513305664 -0.08277907222509384
0.03032606653869152 -0.16544321179389954 0.2612590789794922
0.030766185373067856 0.4028826057910919 0.18626199662685394
0.21531206369400024 -0.22829294204711914 -0.09368380159139633
-0.027336254715919495 -0.2857505679130554 0.26332148909568787
0.08737637102603912 -0.41089311242103577 -0.012405596673488617
0.1857042759656906 0.027774592861533165 0.017769958823919296
0.090523362159729 0.25906243920326233 -0.1685096174478531
0.12822629511356354 0.2269873023033142 -0.08257710933685303
-0.05908305197954178 -0.416961669921875 -0.1948554366827011
0.20764519274234772 -0.06793970614671707 -0.09574558585882187
0.12756967544555664 -0.23036634922027588 -0.14753857254981995
-0.002109963446855545 -0.4107416868209839 -0.056723304092884064
0.11833652853965759 -0.41742703318595886 -0.10512560606002808
0.1143282875418663 0.1181785836815834 0.14564503729343414
-0.10876590758562088 0.26752519607543945 0.18678589165210724
-0.15999208390712738 -0.4129848778247833 0.04241552948951721
-0.13083434104919434 0.46891576051712036 -0.08051668852567673
0.13293862342834473 0.236351877450943 0.17856644093990326
-0.06598999351263046 -0.008431881666183472 -0.1786942332983017
-0.035262640565633774 -0.4125778377056122 0.21027810871601105
0.18502715229988098 -0.04703626036643982 0.08646653592586517
-0.1929236650466919 0.03177452087402344 -0.03125104308128357
-0.1169857457280159 0.18452851474285126 0.13773614168167114
-0.22073084115982056 -0.21704910695552826 0.0034019891172647476
-0.20843882858753204 -0.020640134811401367 -0.1289316564798355
-0.01680181920528412 0.5059443116188049 0.09655391424894333
0.15081852674484253 0.3823268413543701 -0.09230395406484604
-0.1242351084947586 0.020561765879392624 0.1627035140991211
0.12284285575151443 -0.41168683767318726 0.007495466619729996
-0.10602986812591553 0.5593344569206238 -0.007090084254741669
-0.2074316143989563 -0.23635439574718475 0.0829152911901474
-0.07145330309867859 -0.41698217391967773 -0.19655640423297882
0.16915522515773773 -0.3410539925098419 -0.17478716373443604
0.09490639716386795 0.2772616147994995 0.20444807410240173
-0.07678751647472382 0.5533027648925781 0.03679357096552849
0.2246236503124237 -0.23913946747779846 0.001691821962594986
0.1519993394613266 -0.3988818824291229 0.15199792385101318
-0.20315107703208923 0.0714675784111023 -0.13258856534957886
0.06639686226844788 0.3548608124256134 0.19336560368537903
-0.20009596645832062 0.028433091938495636 -0.05978839471936226
0.115882508456707 -0.4153829514980316 -0.10563147068023682
0.060028016567230225 0.34466561675071716 0.22733864188194275
0.17241767048835754 0.14452394843101501 -0.08412967622280121
-0.011020950973033905 0.46364662051200867 0.09529661387205124
-0.17596109211444855 -0.3646082878112793 -0.18421520292758942
0.12596291303634644 -0.41207897663116455 0.003029666841030121
0.08943242579698563 -0.35701075196266174 -0.19655589759349823
0.042162805795669556 0.5665563344955444 0.032064102590084076
0.11675536632537842 -0.4103084206581116 0.0402088463306427
0.07090993970632553 -0.1957428753376007 -0.15889564156532288
-0.02182885631918907 0.4626424014568329 0.0849381610751152
-0.01791943982243538 0.4351810812950134 0.12083646655082703
0.0785413607954979 0.055476099252700806 0.18435469269752502
-0.17102128267288208 -0.16483166813850403 0.13399657607078552
-0.12863659858703613 0.08325833082199097 -0.1795722395181656
-0.14822505414485931 -0.4144567847251892 -0.025387989357113838
0.214097261428833 -0.3072839677333832 0.007526439148932695
-0.08737567067146301 0.16193532943725586 -0.17675457894802094
0.11006017029285431 -0.16274505853652954 0.23764681816101074
0.20772668719291687 -0.06997050344944 -0.12711620330810547
-0.12071993947029114 -0.41298675537109375 0.16719681024551392
0.18742336332798004 -0.030969228595495224 0.05938197299838066
0.06343541294336319 0.2504740059375763 -0.17064887285232544
0.12635333836078644 0.1774735152721405 -0.10564850270748138
-0.17094285786151886 -0.41492795944213867 0.03902855142951012
0.02784377709031105 -0.4063498377799988 0.04400455206632614
-0.1768389791250229 0.10965719819068909 -0.005210837349295616
0.12798301875591278 -0.36015042662620544 -0.19150783121585846
0.10281135141849518 -0.06826545298099518 0.2173013538122177
0.1863437294960022 0.08901756256818771 0.04231226444244385
0.20512865483760834 -0.02220504730939865 -0.07898487895727158
-0.22395187616348267 -0.30834922194480896 0.003180145286023617
0.0938439592719078 0.06011692062020302 0.17946358025074005
-0.13242602348327637 -0.1792823225259781 -0.16455039381980896
-0.19383621215820312 -0.41593241691589355 -0.07604461908340454
0.2257377952337265 -0.267402708530426 -0.010723169893026352
-0.05707482248544693 -0.41441860795021057 -0.006246157921850681
0.18768303096294403 -0.05795621499419212 0.08081112802028656
0.13108746707439423 0.019149726256728172 0.17217551171779633
0.04301128908991814 -0.16330528259277344 0.26121941208839417
-0.06725680083036423 0.536601185798645 0.06417292356491089
0.12759916484355927 0.21372947096824646 -0.08873552083969116
0.022282849997282028 -0.342288613319397 0.26459789276123047
-0.036282043904066086 -0.35205942392349243 -0.2034078687429428
0.19112834334373474 -0.4170405864715576 -0.023954767733812332
0.1869095116853714 -0.25215691328048706 -0.11818473041057587
0.21362759172916412 -0.2893477976322174 0.0756455585360527
-0.1089433953166008 0.5610493421554565 -0.04116838425397873
0.035127438604831696 0.5715209245681763 -0.12555758655071259
0.19075170159339905 0.05459797754883766 -0.019032400101423264
0.12813812494277954 0.2129838764667511 -0.0472315177321434
0.01106957159936428 0.4086458384990692 0.18248037993907928
-0.18814080953598022 -0.18083243072032928 0.10939068347215652
0.04384239390492439 0.3339827358722687 0.2358868420124054
-0.013060569763183594 -0.2923109829425812 -0.18875882029533386
0.1355019360780716 0.33838072419166565 0.023047752678394318
0.1681608110666275 0.012188831344246864 0.12859763205051422
0.1502319574356079 -0.41209736466407776 -0.053229574114084244
