0.16046810150146484 0.13681429624557495 -0.038419097661972046
0.20117129385471344 0.06391330063343048 -0.09782787412405014
0.01731761172413826 -0.001383952796459198 0.21523980796337128
-0.18545961380004883 -0.14293642342090607 0.056538619101047516
0.04741381108760834 0.16087426245212555 0.2583234906196594
-0.023782476782798767 -0.1876399666070938 -0.16677860915660858
0.12583155930042267 0.41265133023262024 0.06800814718008041
0.15420328080654144 -0.4102659523487091 0.07371744513511658
0.18523523211479187 -0.38994988799095154 -0.17780457437038422
-0.11163841187953949 0.16583889722824097 0.15645886957645416
-0.2241576761007309 -0.2084772288799286 -0.08168090134859085
0.1520669311285019 0.12229087203741074 0.03124549612402916
-0.09692505747079849 0.15687082707881927 0.19525779783725739
-0.06544041633605957 -0.15032030642032623 0.24350306391716003
-0.07569827139377594 0.14864729344844818 0.2246989905834198
-0.10804608464241028 0.16853952407836914 0.1877141147851944
0.15395063161849976 -0.4090830683708191 0.09076303988695145
-0.09616366028785706 0.029938634485006332 0.18222607672214508
0.18428842723369598 0.0002650674432516098 0.07253621518611908
-0.16517360508441925 0.04314352199435234 -0.17733673751354218
-0.08474884927272797 -0.2745673358440399 -0.17996495962142944
0.16937091946601868 0.005355203524231911 0.12549808621406555
-0.22163349390029907 -0.1887141764163971 -0.09824824333190918
0.1718411147594452 -0.0389644131064415 0.1283372938632965
0.14705005288124084 0.03217803314328194 0.15340442955493927
-0.01748855784535408 0.4172173738479614 0.14807522296905518
-0.035539980977773666 0.3490975797176361 -0.16926150023937225
0.1579340100288391 0.11542458832263947 0.05253346636891365
-0.20685027539730072 -0.0011013182811439037 -0.14281970262527466
0.10333236306905746 0.14661917090415955 0.19493381679058075
0.21392761170864105 -0.37929823994636536 -0.06443019211292267
0.13759170472621918 0.39768537878990173 0.016040407121181488
0.07516021281480789 -0.4187430143356323 -0.17279979586601257
0.06346398591995239 0.5128599405288696 0.08020591735839844
-0.22312285006046295 -0.20045794546604156 -0.09259871393442154
-0.17347507178783417 0.14917542040348053 -0.11693501472473145
0.2207663357257843 -0.37154844403266907 -0.10390018671751022
0.21702519059181213 -0.37975332140922546 -0.08411851525306702
-0.18104605376720428 -0.1149318590760231 -0.16874995827674866
0.12539692223072052 -0.40799516439437866 0.17496052384376526
-0.12262716144323349 0.20083820819854736 -0.0022705309092998505
-0.05578302964568138 -0.24751266837120056 -0.17269566655158997
-0.12528331577777863 0.10834097862243652 0.0898178219795227
0.03535417467355728 -0.3777982294559479 0.25401633977890015
0.16835978627204895 -0.38326457142829895 -0.18654386699199677
0.13506270945072174 0.28676390647888184 0.0650101751089096
-0.16507527232170105 -0.140691339969635 -0.16858617961406708
0.04964033141732216 0.15094617009162903 0.25034379959106445
-0.0024933458771556616 0.43814587593078613 0.12054017931222916
-0.09052088856697083 0.5506151914596558 0.011498289182782173
0.13450849056243896 0.27580490708351135 0.0779028981924057
0.18551090359687805 0.02090182714164257 0.0585520900785923
0.21865075826644897 -0.35956573486328125 -0.09665369987487793
0.04697149619460106 0.15250158309936523 0.2512572407722473
-0.21158455312252045 -0.052258267998695374 -0.13184939324855804
-0.12530016899108887 0.48357945680618286 0.02010961063206196
0.11837165802717209 0.16486260294914246 0.17996326088905334
-0.12763887643814087 0.3162168264389038 0.06933887302875519
-0.12597620487213135 0.23810535669326782 0.09978295862674713
-0.12745429575443268 0.3046191334724426 0.07719209790229797
0.08670154958963394 0.1844760775566101 0.24643369019031525
0.13464327156543732 0.2662835419178009 0.11734866350889206
-0.13593530654907227 0.10907489061355591 0.062320709228515625
-0.0013444628566503525 0.5673298835754395 -0.004872603341937065
0.12032980471849442 0.21298760175704956 0.21836067736148834
-0.12343276292085648 0.20646587014198303 0.0020662210881710052
0.1812908947467804 -0.3476755917072296 0.08864647895097733
-0.11767712980508804 -0.3479744493961334 -0.19835487008094788
-0.14285175502300262 0.12672212719917297 0.0007703527808189392
0.02929345704615116 -0.25026747584342957 -0.17501948773860931
-0.16894671320915222 -0.13093772530555725 0.14732207357883453
-0.03580944612622261 0.4867086410522461 0.07939431071281433
-0.09648184478282928 0.15467697381973267 0.19551177322864532
-0.12893609702587128 0.29571911692619324 0.006712101399898529
-0.12774372100830078 0.27714085578918457 0.06672629714012146
0.17762768268585205 -0.40864303708076477 0.0021356530487537384
-0.06924282014369965 -0.06896473467350006 0.22225885093212128
-0.08533920347690582 -0.23923182487487793 -0.1683889776468277
0.01632218062877655 0.42130640149116516 0.14861255884170532
-0.090985007584095 0.14803649485111237 0.19725480675697327
0.13706164062023163 -0.1444403976202011 0.2142561823129654
0.18715135753154755 -0.34478044509887695 0.07465562224388123
0.22066324949264526 -0.29643961787223816 -0.04888976737856865
0.21203948557376862 -0.22957704961299896 0.07623111456632614
-0.20057371258735657 -0.006627585738897324 -0.1633891761302948
-0.0016007721424102783 0.567458987236023 -0.001126699149608612
-0.09818267822265625 -0.28171369433403015 0.2430792599916458
-0.09466738253831863 -0.41703659296035767 -0.15449568629264832
-0.1863725334405899 -0.4192315340042114 -0.10759265720844269
-0.18439091742038727 -0.10265247523784637 0.027893461287021637
0.017682135105133057 0.49086153507232666 -0.16547881066799164
0.13388726115226746 0.271463006734848 0.0672156810760498
0.1389206349849701 0.3336479663848877 0.047835443168878555
0.13483810424804688 0.4431634545326233 0.00981905311346054
0.13048259913921356 0.22148576378822327 0.14870169758796692
-0.05576615780591965 -0.10923586785793304 0.23699265718460083
0.2013084441423416 0.05381328612565994 -0.09797971695661545
0.12825673818588257 0.2077588438987732 0.12389211356639862
0.08022943884134293 0.08164115250110626 0.18354439735412598
-0.15238846838474274 0.0028838180005550385 0.1351081281900406
-0.1560608595609665 -0.4092054069042206 -0.1948348730802536
-0.10181131958961487 -0.1900985985994339 -0.16234347224235535
0.1309281587600708 0.2285316437482834 0.1005803793668747
0.13682204484939575 -0.011633843183517456 0.17727191746234894
0.17477034032344818 0.07983995974063873 0.08691098541021347
-0.22670139372348785 -0.21536536514759064 -0.04876808077096939
-0.1280757337808609 0.26525095105171204 0.002970794215798378
0.033667467534542084 0.568597137928009 -0.02719387784600258
-0.15831077098846436 0.004305325448513031 -0.17612867057323456
-0.09954279661178589 0.06767536699771881 0.16757702827453613
0.18218569457530975 -0.08641317486763 -0.15278998017311096
-0.08836041390895844 0.14123684167861938 0.19655676186084747
0.11975181102752686 0.0065094660967588425 0.18648013472557068
-0.06271277368068695 0.09010360389947891 0.17756566405296326
-0.0693788081407547 -0.371133416891098 0.23298028111457825
-0.12574128806591034 0.23590990900993347 0.1010407879948616
-0.03198350593447685 0.0008673593401908875 -0.18110018968582153
-0.013381339609622955 0.23948317766189575 -0.17271728813648224
-0.09528647363185883 -0.412860631942749 0.19030015170574188
-0.07558382302522659 0.4056966304779053 0.0869436040520668
0.21948808431625366 -0.30607926845550537 -0.07077574729919434
0.21491706371307373 -0.29665592312812805 0.03636310622096062
-0.07094194740056992 0.14096546173095703 0.2177554816007614
0.11184467375278473 0.19538821280002594 -0.16240665316581726
-0.026609033346176147 -0.19535714387893677 -0.16585654020309448
-0.12659946084022522 0.38713860511779785 0.014927145093679428
0.17404316365718842 0.08062363415956497 0.08919204026460648
0.1783709079027176 -0.12007376551628113 0.13159483671188354
-0.227803036570549 -0.28615784645080566 -0.011042315512895584
-0.149701327085495 -0.3401985168457031 0.18397487699985504
0.1384350210428238 0.41321808099746704 0.030237466096878052
-0.0810089036822319 0.12753862142562866 0.18717581033706665
-0.1437608301639557 0.12142661213874817 0.019043438136577606
-0.056308064609766006 0.03892491012811661 0.1996791660785675
-0.019384026527404785 0.3917452394962311 0.19045637547969818
0.2189483791589737 -0.2675672173500061 0.04722895473241806
-0.20588403940200806 0.0005099987611174583 -0.1497507244348526
-0.15017539262771606 0.148380845785141 -0.09655597805976868
-0.07505057007074356 -0.02820340171456337 -0.17785103619098663
-0.12009062618017197 0.16740211844444275 0.02747136726975441
0.14602196216583252 0.13218463957309723 0.0032820068299770355
0.13380123674869537 0.25776407122612 0.11907096207141876
0.10717574506998062 0.261234313249588 0.21164575219154358
0.17960050702095032 -0.08818380534648895 0.11536417156457901
-0.18641221523284912 -0.11513442546129227 0.0743415504693985
0.0587356872856617 0.15205153822898865 0.24903073906898499
0.13572798669338226 -0.41386905312538147 -0.09598052501678467
-0.22089436650276184 -0.2160191684961319 -0.11334768682718277
-0.020875202491879463 0.5665314197540283 -0.0016335966065526009
-0.10439223051071167 -0.40412020683288574 0.20310448110103607
0.09153352677822113 0.14101655781269073 0.19573812186717987
-0.1815257966518402 -0.10401702672243118 0.09581046551465988
-0.09539578855037689 0.15579727292060852 0.19808384776115417
-0.09146358072757721 -0.10868148505687714 -0.17405784130096436
0.05318310111761093 -0.31321167945861816 0.2563440799713135
0.12727884948253632 0.19552385807037354 0.13306757807731628
0.20086616277694702 0.08440403640270233 -0.07326344400644302
0.07420302927494049 -0.3467448353767395 -0.19584660232067108
-0.05278202146291733 0.402510404586792 0.09831985831260681
-0.03695153072476387 -0.14735275506973267 0.25140196084976196
0.03530748188495636 0.482536643743515 -0.16525691747665405
-0.20459218323230743 0.018818968906998634 -0.07856360077857971
-0.18076680600643158 -0.00466705858707428 0.06342465430498123
0.13356156647205353 0.257729709148407 0.0655391588807106
0.13548439741134644 0.2917143404483795 0.05603655427694321
0.18653133511543274 -0.23344863951206207 -0.12016948312520981
0.10642143338918686 0.20478218793869019 -0.16433577239513397
-0.131925567984581 -0.4119763970375061 0.1499585509300232
0.18186378479003906 -0.36714473366737366 0.07911695539951324
0.08226779848337173 0.1600724458694458 0.24320700764656067
0.013500077649950981 0.3921344578266144 0.22256839275360107
0.12728267908096313 0.18967638909816742 0.03418080508708954
-0.15510684251785278 -0.0008143074810504913 -0.17608270049095154
0.13229656219482422 0.26151251792907715 -0.0372471809387207
-0.04234083369374275 0.07931756228208542 0.18794657289981842
-0.0661223828792572 -0.1273133009672165 0.23825518786907196
-0.08097773790359497 -0.19495421648025513 -0.16314001381397247
-0.10766449570655823 0.16671201586723328 0.1805993616580963
0.05383683741092682 -0.3283083438873291 0.2560913860797882
-0.12034972012042999 0.196873277425766 0.14289149641990662
0.1135948896408081 0.03455359488725662 0.17819900810718536
-0.08853305131196976 -0.29275795817375183 0.2446059137582779
0.19601182639598846 -0.41255849599838257 -0.07482042163610458
-0.13915741443634033 0.10742715001106262 0.06604474782943726
0.21971355378627777 -0.28562912344932556 0.04072791337966919
0.19061562418937683 -0.3431153893470764 -0.1585582047700882
0.1328432261943817 0.26010751724243164 0.02153458446264267
-0.1075109913945198 -0.4127427637577057 0.1810227483510971
-0.218971386551857 -0.3119361102581024 0.038425251841545105
0.1302228420972824 0.46462157368659973 0.03485691547393799
-0.12044939398765564 0.48167505860328674 0.029835622757673264
-0.09706242382526398 0.3337593972682953 0.1516515612602234
0.1298331469297409 0.2172117382287979 0.010582942515611649
-0.20146268606185913 -0.19746705889701843 0.08242759108543396
0.12132146954536438 0.22447586059570312 -0.13510091602802277
-0.19274716079235077 -0.13963785767555237 -0.16056083142757416
0.2192402333021164 -0.2825552821159363 0.03637930750846863
0.13512225449085236 0.30174633860588074 0.06349019706249237
-0.13775305449962616 -0.10209289193153381 -0.17226314544677734
-0.09801051020622253 -0.35425955057144165 -0.20202407240867615
0.2049609124660492 -0.03103308565914631 -0.05153306573629379
-0.18121123313903809 0.023118693381547928 -0.010239913128316402
-0.09387466311454773 -0.009728938341140747 -0.1782541275024414
0.028424706310033798 0.3986927568912506 0.201498344540596
-0.1257246434688568 0.23746013641357422 0.1404304802417755
0.006567612290382385 0.5075146555900574 0.09870857000350952
-0.006786506623029709 -0.23647722601890564 -0.17447158694267273
0.19171234965324402 -0.3419000506401062 0.0561518669128418
-0.1565323919057846 0.13960811495780945 -0.06359052658081055
0.03634294122457504 -0.0029624663293361664 0.21522651612758636
-0.17692895233631134 0.08878645300865173 -0.1764589548110962
0.11674784123897552 0.3817807137966156 0.10689889639616013
-0.11150704324245453 0.07039991021156311 0.15822306275367737
0.1442679911851883 0.08609309792518616 0.13381803035736084
0.1207248866558075 0.45826050639152527 0.05444949120283127
-0.11844338476657867 0.16427376866340637 0.012244164943695068
0.1537986844778061 0.09658539295196533 0.11869045346975327
-0.12538568675518036 0.24082060158252716 0.10228759050369263
0.15082533657550812 -0.4192174971103668 -0.11972949653863907
0.16711579263210297 -0.4159660339355469 -0.055119313299655914
0.18642114102840424 -0.04630670323967934 0.07274674624204636
0.20278403162956238 -0.0012591695412993431 -0.077466681599617
0.17472150921821594 -0.12178722769021988 0.1466691941022873
-0.1217116266489029 0.20520523190498352 0.13352017104625702
-0.12771432101726532 0.3680555820465088 0.04723094031214714
-0.12378320097923279 0.2159324437379837 -0.03045731410384178
-0.1150565892457962 0.18214955925941467 -0.15975752472877502
-0.16766922175884247 -0.010440368205308914 -0.17542697489261627
-0.10324853658676147 0.1421055942773819 0.14803272485733032
-0.08311229944229126 0.1866932064294815 0.239400714635849
0.21174603700637817 -0.1292361468076706 -0.06914880126714706
0.011470232158899307 0.0745309591293335 -0.17759943008422852
0.1698387861251831 -0.36346468329429626 -0.18245206773281097
0.10240183025598526 -0.4103832244873047 0.030340269207954407
-0.03198709338903427 0.41418302059173584 0.11523491144180298
0.11103510856628418 -0.4025454819202423 0.0534961111843586
0.17588311433792114 -0.4075700342655182 0.0367722287774086
-0.11711478233337402 0.006354380398988724 0.17353233695030212
0.12769998610019684 0.19964711368083954 0.19606903195381165
-0.21153229475021362 -0.36964869499206543 0.003913216292858124
0.13691113889217377 0.2984415888786316 0.07516076415777206
-0.18898406624794006 -0.02846163511276245 -0.17080627381801605
0.03728172183036804 0.5697314739227295 -0.011178437620401382
-0.21184541285037994 -0.06349574029445648 -0.09817135334014893
-0.06607863306999207 -0.4190024435520172 -0.11514075100421906
0.016181867569684982 0.39136025309562683 -0.16875267028808594
0.20244644582271576 -0.01190865132957697 -0.11481034010648727
0.15127481520175934 -0.42080122232437134 -0.08721869438886642
-0.11268595606088638 0.1419651210308075 0.09635572135448456
-0.155490443110466 -0.3956839144229889 0.16047243773937225
-0.08615991473197937 0.32055625319480896 0.19652768969535828
0.1959083378314972 -0.40605825185775757 -0.0029873677995055914
0.12693333625793457 0.17634056508541107 -0.024550367146730423
-0.1320973038673401 0.09949948638677597 0.1171717718243599
0.20043842494487762 0.10871943831443787 -0.13130086660385132
0.04310125857591629 0.36371201276779175 0.23819756507873535
-0.05921905115246773 0.5664019584655762 -0.13538949191570282
-0.2034282386302948 -0.33848702907562256 0.06650711596012115
-0.16656775772571564 -0.008182333782315254 -0.17589105665683746
0.07642433047294617 0.5032591223716736 0.07887166738510132
0.09779177606105804 -0.23596477508544922 -0.15461750328540802
0.07672512531280518 -0.19669035077095032 0.2552065849304199
0.12161500006914139 -0.20107071101665497 -0.14907142519950867
0.03819738328456879 0.13183628022670746 0.23437701165676117
-0.10565219819545746 -0.39429911971092224 -0.2037273645401001
-0.11402834951877594 0.15855048596858978 0.12980492413043976
0.1407470852136612 0.3488132059574127 -0.15679413080215454
0.12051237374544144 -0.21967191994190216 0.23445934057235718
0.05552035570144653 0.06857498735189438 -0.17474758625030518
0.13285554945468903 0.1242566928267479 0.06351730972528458
-0.03798253834247589 0.4320144057273865 -0.1665307581424713
-0.10335417091846466 0.3091770112514496 -0.166232630610466
0.06055876612663269 -0.2298337072134018 -0.16435274481773376
0.1655472069978714 -0.3509027361869812 0.13303089141845703
0.12625940144062042 0.13916195929050446 0.08296983689069748
-0.21523945033550262 -0.36291950941085815 -0.1063377633690834
0.17643141746520996 -0.13109436631202698 -0.15029360353946686
0.21730302274227142 -0.25478023290634155 0.056684378534555435
0.17179395258426666 -0.14112257957458496 0.1637313961982727
0.0244967732578516 0.4239957332611084 0.14470243453979492
-0.010453179478645325 -0.18695992231369019 -0.16415612399578094
-0.0052703432738780975 -0.29372966289520264 0.2620249390602112
-0.0760464072227478 0.042386990040540695 0.1897255927324295
0.18513518571853638 0.0096949003636837 0.017541659995913506
0.09577219188213348 -0.40624183416366577 0.013185977935791016
0.19597171247005463 0.12281753867864609 -0.06493715196847916
-0.08530812710523605 -0.07038070261478424 -0.17666743695735931
-0.21520587801933289 -0.38274943828582764 -0.12736764550209045
0.18160587549209595 -0.40816983580589294 0.05408892780542374
-0.1125088781118393 -0.2904190719127655 0.2306745946407318
-0.1462000459432602 0.049820926040410995 0.12613502144813538
-0.0102535430341959 0.37810251116752625 0.23402313888072968
0.054382238537073135 -0.1475171148777008 -0.16638508439064026
-0.22510647773742676 -0.24292707443237305 -0.0243058018386364
-0.09720905125141144 -0.19232021272182465 0.2387428730726242
0.12767744064331055 -0.03876973316073418 0.1939975768327713
0.02054954692721367 0.3524568974971771 -0.1697307527065277
0.13681988418102264 0.3335905373096466 -0.01639942079782486
-0.05325912684202194 -0.16988055408000946 -0.16812656819820404
-0.1817551851272583 -0.2188934087753296 0.14150206744670868
-0.11799304932355881 0.5394285321235657 -0.10144299268722534
0.14060728251934052 -0.16330432891845703 -0.15695568919181824
-0.03644086793065071 -0.34460633993148804 -0.19983482360839844
0.13476300239562988 -0.37828344106674194 0.18311651051044464
-0.1883622705936432 -0.1625705063343048 0.06151306629180908
0.16069234907627106 -0.007964011281728745 -0.16532987356185913
-0.03613029792904854 0.22807778418064117 0.24850326776504517
0.10019909590482712 0.15041999518871307 0.21293556690216064
0.06027257442474365 -0.20446838438510895 -0.1563750058412552
-0.06587520986795425 0.20384611189365387 -0.1740850955247879
-0.18807049095630646 -0.08741916716098785 -0.0012919842265546322
-0.03080495446920395 0.14915505051612854 0.24698221683502197
0.15538078546524048 -0.37427204847335815 -0.18876801431179047
0.0790562629699707 -0.38513901829719543 0.22522205114364624
0.1307544708251953 0.4130347669124603 -0.015023991465568542
0.0667300820350647 0.2243422269821167 0.2467285692691803
0.1265982687473297 0.20032532513141632 -0.03312855586409569
0.15571166574954987 -0.1566447913646698 -0.1530672162771225
0.18561385571956635 -0.11607833206653595 0.061666298657655716
0.09267103672027588 -0.20043405890464783 0.2521504759788513
0.01552516222000122 -0.4115073084831238 0.14745190739631653
0.08858802914619446 -0.40658995509147644 0.05300755798816681
-0.04217427968978882 0.16937118768692017 0.2558109164237976
0.08648493885993958 0.3833531439304352 0.11877560615539551
-0.11974827945232391 -0.10907219350337982 -0.1717740148305893
-0.11782921105623245 0.40049245953559875 -0.16326406598091125
-0.20723368227481842 -0.4038076400756836 0.02355271950364113
0.148530051112175 -0.4202267527580261 -0.13784672319889069
-0.054503634572029114 0.4217120409011841 -0.1662091463804245
0.0611775666475296 -0.017602063715457916 -0.1747858077287674
-0.14429162442684174 0.1363140344619751 -0.039312493056058884
-0.019380245357751846 -0.4098823666572571 -0.04178037866950035
-0.062234632670879364 0.08107712864875793 0.1816837340593338
0.16425025463104248 0.11077530682086945 0.07596702873706818
-0.05776926502585411 -0.18312042951583862 -0.1672210991382599
0.10694007575511932 -0.15684451162815094 0.2388819009065628
0.04434710368514061 0.16692206263542175 -0.1727888286113739
0.1364309936761856 0.419081449508667 0.02168438583612442
0.012586899101734161 0.2708349823951721 0.23034928739070892
-0.044197238981723785 0.40928682684898376 -0.16658398509025574
0.184963196516037 -0.012890912592411041 0.02367164008319378
0.0708007887005806 0.2702195346355438 0.22042858600616455
0.2198227196931839 -0.21896061301231384 -0.07626160234212875
-0.229399174451828 -0.29298660159111023 -0.015001651830971241
-0.06444928050041199 0.14038453996181488 -0.17797589302062988
0.13375446200370789 -0.4121754467487335 0.13480302691459656
-0.12419677525758743 0.42577555775642395 -0.017165955156087875
0.12248372286558151 0.5346554517745972 -0.008965671062469482
-0.011350251734256744 -0.36581477522850037 -0.20471251010894775
-0.0886726826429367 -0.13664764165878296 -0.17137117683887482
0.14446976780891418 -0.412293940782547 -0.052370984107255936
0.19361768662929535 0.03255201131105423 -0.15468747913837433
-0.1979988068342209 -0.1840689778327942 0.05551913380622864
-0.0630551129579544 0.4134886860847473 -0.16450032591819763
-0.16156384348869324 -0.030561167746782303 0.12670612335205078
-0.1981460005044937 0.07420280575752258 -0.06041134148836136
0.18470868468284607 0.015012471005320549 0.02358434721827507
0.09324722737073898 -0.4117856025695801 0.043229807168245316
-0.0600324422121048 -0.04994439333677292 -0.17707261443138123
-0.07089107483625412 0.16942548751831055 -0.17629502713680267
0.027502870187163353 -0.3294951617717743 0.26266220211982727
-0.2237013727426529 -0.25953415036201477 -0.08723810315132141
0.19965170323848724 0.0855696052312851 -0.1435166597366333
0.1986401081085205 0.10637589544057846 -0.1038498729467392
-0.21928444504737854 -0.2695225477218628 -0.10008382052183151
-0.17771583795547485 0.0944463387131691 0.02530241571366787
-0.09498272836208344 0.06833002716302872 -0.1796349734067917
0.2236642837524414 -0.2354760766029358 -0.034092869609594345
-0.03966724872589111 0.37813451886177063 0.14228077232837677
-0.16661646962165833 -0.03701411187648773 0.1175614669919014
0.09909069538116455 -0.4126780331134796 -0.11371099948883057
0.13927380740642548 0.0593029260635376 0.15161952376365662
0.045285724103450775 0.17768965661525726 0.2607748210430145
-0.09427036345005035 0.556257426738739 -0.1483915150165558
-0.1236138865351677 0.2018953114748001 0.056157905608415604
0.2173357903957367 -0.380032479763031 -0.12776006758213043
0.21364416182041168 -0.3482702076435089 -0.11231986433267593
-0.06575609743595123 -0.1649867594242096 -0.17030251026153564
0.013331476598978043 0.4488557279109955 -0.16694486141204834
-0.12503290176391602 0.04941708594560623 -0.17851410806179047
-0.07009363174438477 0.2326769381761551 0.23376081883907318
0.13354265689849854 0.4535817503929138 -0.050436608493328094
0.18946026265621185 0.0555853545665741 -0.021478204056620598
0.172807514667511 -0.41224172711372375 -0.011197512969374657
-0.10726174712181091 0.1003027856349945 0.13604675233364105
-0.08313755691051483 0.563687264919281 -0.044929198920726776
0.18573366105556488 -0.11674568057060242 0.06171228364109993
-0.08414159715175629 -0.32469773292541504 0.24147342145442963
-0.09465939551591873 0.5456408858299255 0.034143391996622086
-0.09159700572490692 0.5373902320861816 -0.15703539550304413
0.10707378387451172 0.4366797208786011 -0.163883239030838
-0.2178286612033844 -0.1885957270860672 -0.04464295879006386
-0.12784695625305176 0.17047353088855743 -0.14752817153930664
0.03266692906618118 -0.1942039430141449 -0.1606256365776062
0.12858575582504272 -0.416901558637619 -0.08812201768159866
-0.09984800219535828 0.5476673245429993 0.02273084968328476
-0.026616115123033524 0.38840484619140625 0.17938829958438873
-0.19512687623500824 -0.25012853741645813 0.11914963275194168
0.027269791811704636 -0.2061828225851059 -0.16103507578372955
0.007071446627378464 0.52842116355896 -0.16386990249156952
-0.05371883511543274 0.27651190757751465 -0.17065124213695526
-0.025047611445188522 -0.40840664505958557 0.041202425956726074
0.18804264068603516 -0.40981829166412354 -0.003991793841123581
0.05271250009536743 -0.4141031801700592 -0.16757366061210632
-0.09501229226589203 -0.27173739671707153 -0.1776624172925949
-0.06776418536901474 0.3676966726779938 0.13433516025543213
0.07939177751541138 0.5689015984535217 -0.0042006634175777435
0.08414416760206223 0.5685532093048096 -0.012065332382917404
-0.08331118524074554 0.03889097273349762 -0.18057173490524292
-0.04551076889038086 0.5621328353881836 0.0008112341165542603
-0.03041580319404602 0.568139374256134 -0.1088269054889679
0.12169910222291946 -0.18829110264778137 0.2363300323486328
-0.05019259452819824 0.4093814790248871 -0.1670076698064804
0.1908932477235794 0.13787506520748138 -0.10165101289749146
-0.10180175304412842 -0.28249019384384155 -0.18010281026363373
-0.0758282020688057 0.3729442059993744 0.12315751612186432
-0.12252538651227951 0.4996574819087982 0.0027743130922317505
0.14821699261665344 -0.4198242723941803 -0.14186066389083862
-0.06749604642391205 0.04881231486797333 0.19299238920211792
-0.21510474383831024 -0.31511691212654114 -0.09691409766674042
0.13489389419555664 0.45490115880966187 -0.01933063566684723
-0.11388789862394333 0.32002466917037964 0.1441483199596405
-0.17157989740371704 -0.17666587233543396 0.1591271609067917
0.08804498612880707 -0.41423889994621277 0.043625280261039734
-0.005717787891626358 0.15600305795669556 0.25822535157203674
-0.01109042763710022 -0.16173307597637177 0.2548503577709198
-0.12867620587348938 0.30553868412971497 0.050846923142671585
-0.05574769526720047 0.3772191107273102 -0.16776806116104126
-0.10211910307407379 -0.22319260239601135 -0.16151539981365204
-0.1834089308977127 -0.26874420046806335 -0.14109808206558228
-0.11701732873916626 0.5215332508087158 -0.0999787300825119
0.18516488373279572 0.081153504550457 0.05484719201922417
0.1601572334766388 0.16061972081661224 -0.13932187855243683
-0.13467460870742798 -0.06927414238452911 -0.17523451149463654
0.21217995882034302 -0.26094111800193787 0.07845301181077957
-0.22281233966350555 -0.1837230622768402 -0.06403087079524994
0.12792617082595825 -0.40747764706611633 0.04674230143427849
-0.026736203581094742 -0.11734257638454437 0.2437339723110199
-0.1710951179265976 -0.1135854721069336 -0.17082537710666656
-0.13681574165821075 -0.4153093695640564 -0.09503969550132751
-0.13808149099349976 0.33024781942367554 -0.15848754346370697
-0.19626687467098236 0.11846127361059189 -0.09909296035766602
-0.023890037089586258 -0.29260697960853577 0.2605689764022827
0.1568567156791687 0.3442190885543823 -0.0915832594037056
0.10434482991695404 0.27943912148475647 0.20739513635635376
0.14917969703674316 0.424580454826355 -0.13889369368553162
0.2169361114501953 -0.3550809919834137 -0.11912292242050171
-0.02012944221496582 -0.11267270147800446 0.24273289740085602
0.08836961537599564 -0.41107040643692017 0.03961341083049774
0.1780950427055359 -0.13996808230876923 0.13156020641326904
-0.19720780849456787 -0.3882247507572174 0.06912240386009216
0.0834549069404602 -0.4061800539493561 0.016041487455368042
0.08405259251594543 -0.41959452629089355 -0.15743158757686615
-0.11846471577882767 0.543773889541626 -0.05000833794474602
0.04848024249076843 -0.37398338317871094 -0.20171038806438446
0.140456423163414 0.37906450033187866 0.0518324188888073
0.14150112867355347 0.46303245425224304 -0.14787814021110535
0.13671191036701202 0.4652104079723358 -0.08638423681259155
0.10102657228708267 0.563967764377594 -0.02672194316983223
-0.044738419353961945 -0.25628820061683655 0.26090383529663086
0.08002939820289612 0.047343865036964417 0.18868525326251984
-0.2044667750597 0.03771951422095299 -0.08188949525356293
-0.12955452501773834 -0.4169430434703827 -0.07471613585948944
-0.0029586702585220337 -0.17913630604743958 -0.16644495725631714
-0.20281076431274414 -0.24749276041984558 -0.13025614619255066
0.04399528354406357 0.39178431034088135 0.16677728295326233
0.020721644163131714 0.4213227927684784 0.15495383739471436
-0.12077335268259048 0.20004405081272125 -0.0963466688990593
-0.22190889716148376 -0.2422686666250229 0.008533164858818054
-0.19035197794437408 0.13180220127105713 -0.0920146033167839
0.09603215754032135 -0.4089231789112091 0.04106539487838745
0.03960832208395004 0.11955345422029495 -0.17471756041049957
-0.057370252907276154 0.08487467467784882 -0.18087036907672882
0.09948386996984482 -0.4033176302909851 -0.036862507462501526
-0.043744802474975586 0.21806590259075165 0.25599655508995056
0.10439479351043701 -0.4155832529067993 -0.09925563633441925
-0.08582459390163422 0.5475218892097473 -0.15365688502788544
-0.18403765559196472 -0.21530431509017944 0.13855253159999847
0.11101903021335602 -0.40435752272605896 0.02654169127345085
-0.1518707424402237 -0.013378642499446869 0.14252117276191711
0.1818697601556778 -0.40849363803863525 0.027735929936170578
-0.0624760203063488 0.16000550985336304 0.24310877919197083
0.20167362689971924 0.029194513335824013 -0.049054209142923355
0.1075122281908989 -0.412743479013443 0.12333507835865021
-0.21801486611366272 -0.11375980079174042 -0.12439659982919693
0.03843986615538597 -0.18524612486362457 -0.16059528291225433
-0.0843043252825737 -0.07724975794553757 -0.17550553381443024
-0.21403270959854126 -0.20472097396850586 0.043644387274980545
-0.21943813562393188 -0.15508446097373962 -0.10201503336429596
0.21918019652366638 -0.27890071272850037 0.04991466924548149
-0.18839649856090546 -0.27773526310920715 0.13369043171405792
-0.12036571651697159 0.20566362142562866 -0.13714957237243652
0.18568818271160126 -0.06195193529129028 0.04480742663145065
0.09221392869949341 -0.40376153588294983 0.06511955708265305
-0.07660359144210815 -0.18156835436820984 0.24557112157344818
0.11769990622997284 -0.20415934920310974 0.23764458298683167
0.11487647891044617 -0.42235928773880005 -0.10902130603790283
0.22324983775615692 -0.2705928683280945 0.0027251727879047394
-0.1403697431087494 -0.41549167037010193 -0.08885420858860016
0.09036433696746826 0.036136917769908905 0.1926056295633316
-0.13148413598537445 0.15815243124961853 -0.09290099143981934
0.12122463434934616 -0.41213658452033997 0.12271670997142792
-0.029459618031978607 0.442768931388855 -0.16655291616916656
0.08981411159038544 0.18757566809654236 -0.1683296412229538
-0.09704090654850006 0.5561038851737976 -0.14757628738880157
0.13069698214530945 -0.04866832494735718 0.19477537274360657
0.14471317827701569 -0.4134100079536438 -0.1868358701467514
-0.08930249512195587 0.041158124804496765 -0.1804991066455841
0.2000780999660492 0.10690496861934662 -0.11222229897975922
-0.18253092467784882 -0.0036857808008790016 0.04534725472331047
0.09076930582523346 -0.4112411439418793 0.045259542763233185
0.14550670981407166 0.29755353927612305 -0.13321630656719208
-0.18809804320335388 0.13737007975578308 -0.1442275494337082
0.1291402280330658 0.5053839683532715 -0.0006544962525367737
-0.026606284081935883 0.3932974934577942 0.1727035790681839
0.0226739551872015 -0.17229518294334412 0.26346251368522644
-0.17287085950374603 -0.3945954740047455 -0.19118249416351318
-0.2182791829109192 -0.14116999506950378 -0.11806704849004745
-0.05841561406850815 0.564038872718811 -0.015284225344657898
-0.13810671865940094 0.2897113561630249 -0.1367442011833191
-0.0673515796661377 0.024341486394405365 -0.1812860369682312
0.173894464969635 -0.3517433702945709 -0.17662039399147034
-0.1279364675283432 0.3400972783565521 0.05058261752128601
0.2027292251586914 0.004289919510483742 -0.09602274745702744
-0.04426489770412445 0.03644830733537674 -0.18144309520721436
0.2034650593996048 -0.01420300081372261 -0.049720317125320435
-0.12451919168233871 0.44926783442497253 0.027439523488283157
-0.04963568598031998 -0.4188370704650879 -0.1820528656244278
-0.22555820643901825 -0.24144285917282104 -0.08757583796977997
0.14585568010807037 -0.17706024646759033 0.2148171067237854
0.11317627131938934 -0.4092460572719574 0.06234206631779671
0.08173595368862152 0.42513737082481384 0.07346916943788528
0.10828937590122223 -0.2695952355861664 -0.1684032380580902
-0.2214508056640625 -0.2609277665615082 0.016917366534471512
0.012322738766670227 0.34205761551856995 0.2429017275571823
-0.1454937756061554 -0.4172588288784027 -0.03375736624002457
0.10641837120056152 -0.41895759105682373 -0.10877405852079391
0.13399970531463623 -0.23386281728744507 -0.14433085918426514
-0.12630265951156616 0.4061156213283539 -0.016800008714199066
-0.16539640724658966 0.12332410365343094 -0.006835661828517914
-0.06988584995269775 -0.4030230939388275 0.22466152906417847
-0.1768827736377716 -0.22773540019989014 0.15713812410831451
0.12998172640800476 0.1152256578207016 0.09977112710475922
-0.033789657056331635 0.5073851346969604 0.09294234961271286
-0.1358714997768402 -0.07082187384366989 -0.17484284937381744
-0.19687888026237488 -0.04753123223781586 -0.16616396605968475
-0.18955880403518677 -0.22691267728805542 0.12791971862316132
-0.011257775127887726 0.05064741522073746 0.19994324445724487
0.060305073857307434 -0.0067142583429813385 0.20890942215919495
-0.04956397786736488 -0.05788291245698929 -0.17796330153942108
-0.028711657971143723 0.1450827717781067 -0.176890030503273
0.08922075480222702 0.5677337050437927 -0.010564394295215607
0.1299818456172943 0.2373792678117752 -0.03783043101429939
0.153835728764534 0.08284077793359756 0.12650856375694275
0.12720975279808044 0.215635746717453 -0.05447738617658615
-0.19584664702415466 -0.29365256428718567 -0.13497374951839447
0.13928917050361633 0.13683928549289703 0.028230251744389534
-0.18423549830913544 -0.12960286438465118 0.0426078699529171
0.08461715281009674 -0.4109445810317993 0.04448371380567551
-0.11080243438482285 0.13830189406871796 0.10373079776763916
-0.16152627766132355 -0.40887272357940674 0.13828404247760773
-0.045974377542734146 -0.07110217213630676 -0.17752154171466827
0.0480889230966568 -0.17149651050567627 0.26219525933265686
0.13661006093025208 0.35855427384376526 0.050893016159534454
0.18264895677566528 -0.3275511860847473 0.12638768553733826
0.18427853286266327 0.09164869785308838 0.05804438143968582
-0.1531129777431488 0.11387012153863907 0.027637463063001633
0.2025231570005417 -0.010780416429042816 -0.08819431066513062
0.13385803997516632 -0.2442215085029602 0.22364121675491333
0.011196229606866837 0.559874415397644 0.06962867826223373
0.1138974130153656 -0.4205073118209839 -0.10834161192178726
0.09068319201469421 0.397212952375412 0.09990449249744415
-0.13690641522407532 -0.048490069806575775 -0.17569319903850555
-0.06386855244636536 0.019391819834709167 -0.17956775426864624
-0.03393785282969475 0.5484068989753723 -0.15825998783111572
-0.2132517397403717 -0.36444124579429626 -0.0017345696687698364
0.10826452076435089 -0.4053064286708832 -0.017416253685951233
-0.06426407396793365 0.5498683452606201 -0.15688322484493256
0.20603914558887482 -0.13370083272457123 -0.12211813777685165
-0.11994659155607224 -0.3362135887145996 0.22127734124660492
0.06525212526321411 -0.41628941893577576 -0.12107844650745392
-0.2122005969285965 -0.2482278048992157 -0.11989021301269531
-0.21192719042301178 -0.3743310272693634 -0.004936132580041885
0.042104631662368774 0.3476838767528534 0.23550236225128174
0.21922606229782104 -0.3441723585128784 -0.1063733845949173
0.12202996015548706 0.5208428502082825 -0.12309782952070236
-0.19292649626731873 -0.3721858263015747 0.08701121807098389
0.11549727618694305 0.1198200136423111 0.13246572017669678
0.12922245264053345 0.21960365772247314 0.04343482851982117
0.13625545799732208 0.416720986366272 0.053260549902915955
-0.11995644122362137 0.3290606141090393 0.12651537358760834
-0.22398759424686432 -0.30589115619659424 -0.011884186416864395
-0.08503676950931549 0.4030548632144928 -0.16601625084877014
0.13848824799060822 0.3291153311729431 0.07815290987491608
-0.07620714604854584 0.40228164196014404 -0.16642217338085175
-0.05868469178676605 0.016718752682209015 -0.1804875284433365
-0.22770820558071136 -0.3012060225009918 -0.0098635945469141
0.13545887172222137 -0.21208982169628143 -0.14296138286590576
-0.018385473638772964 -0.4109566807746887 0.11765438318252563
0.19621138274669647 0.035682160407304764 -0.14767007529735565
0.06151566654443741 -0.4111664593219757 0.08344712853431702
0.224183589220047 -0.23453840613365173 -0.006742354482412338
0.14643318951129913 -0.37678778171539307 0.15322156250476837
0.1270025372505188 0.517139196395874 -0.12586049735546112
-0.12917113304138184 0.30926766991615295 -0.0204777792096138
-0.016830967739224434 0.5436753630638123 0.08484818786382675
0.08241619914770126 0.19530758261680603 0.24779711663722992
0.13368506729602814 0.42024344205856323 0.056658919900655746
0.12377870082855225 0.18204884231090546 -0.14926165342330933
0.21391823887825012 -0.15614522993564606 -0.049920856952667236
-0.12716242671012878 0.32121795415878296 -0.034091342240571976
0.12474001944065094 0.4721938371658325 -0.16125065088272095
-0.08200617879629135 -0.207999587059021 0.25008976459503174
-0.14891526103019714 0.3852488696575165 -0.10459660738706589
0.06809423863887787 -0.4106071889400482 0.026413409039378166
0.12825748324394226 -0.009957044385373592 0.1819067746400833
0.017908059060573578 -0.16410532593727112 0.26007890701293945
-0.1264314204454422 0.24302585422992706 0.013073774985969067
-0.21309474110603333 -0.3354726731777191 0.03974622115492821
0.1354510337114334 0.29884129762649536 0.019596319645643234
-0.10905102640390396 0.5514135956764221 -0.008739475160837173
-0.018595848232507706 -0.025376174598932266 0.219523087143898
0.10104557871818542 -0.14059263467788696 -0.16448701918125153
-0.08781497925519943 0.5381701588630676 -0.15507471561431885
-0.18796461820602417 -0.0074777547270059586 -0.1723376214504242
-0.06445053219795227 -0.2956663966178894 -0.1897224485874176
0.022252386435866356 0.12787921726703644 0.23272916674613953
-0.14276953041553497 -0.18395863473415375 -0.16079318523406982
-0.0730455219745636 -0.16524259746074677 -0.16913428902626038
0.18293523788452148 -0.1829972118139267 0.14414289593696594
-0.06428204476833344 0.5609053373336792 0.024838346987962723
0.11138977110385895 -0.40537118911743164 0.03212191164493561
-0.03955986723303795 -0.4116772413253784 -0.20469777286052704
-0.12926383316516876 -0.4186326563358307 -0.04671197012066841
0.13761402666568756 0.46567246317863464 -0.09113958477973938
-0.12675833702087402 0.294264554977417 -0.016690101474523544
0.10939677059650421 -0.07627895474433899 0.2164892852306366
0.03062557429075241 -0.16967421770095825 0.26305708289146423
-0.1149439737200737 -0.02425314299762249 0.18500415980815887
-0.12372582405805588 0.24568384885787964 0.1680629700422287
0.04767927899956703 0.3866316080093384 -0.1680869460105896
0.08193553239107132 0.2847754955291748 0.2088935822248459
-0.12711502611637115 0.05824313312768936 -0.17898139357566833
0.059534233063459396 0.10479934513568878 0.18744811415672302
-0.12935979664325714 -0.418788880109787 -0.046136535704135895
-0.20040255784988403 -0.39947977662086487 0.06089846044778824
-0.1239011287689209 0.22156736254692078 0.1170564666390419
-0.12210360914468765 0.20110562443733215 0.11717580258846283
-0.10728823393583298 -0.282440185546875 -0.1793530136346817
0.19572798907756805 -0.1736520230770111 0.101471446454525
-0.07696680724620819 0.25102341175079346 0.2220853567123413
0.021425431594252586 -0.19724173843860626 0.2629210352897644
0.10340269654989243 0.5436837077140808 0.027302008122205734
-0.02973751351237297 -0.20562949776649475 -0.16577506065368652
0.10918920487165451 -0.4188832640647888 -0.11004380881786346
-0.0947844535112381 -0.41751381754875183 -0.0463203564286232
0.051622748374938965 0.04159178584814072 0.19767260551452637
-0.08349867910146713 0.09634460508823395 0.16460639238357544
-0.12777386605739594 0.49800360202789307 -0.08096184581518173
0.1004166454076767 -0.028318483382463455 0.20681139826774597
-0.19504350423812866 0.09667987376451492 -0.064907006919384
0.18560661375522614 -0.07328981906175613 0.04949302598834038
-0.021669160574674606 -0.20552128553390503 0.26075929403305054
-0.2031506896018982 -0.06934573501348495 -0.16245892643928528
0.09849732369184494 -0.40261295437812805 0.06983737647533417
-0.19881482422351837 -0.0462036058306694 -0.1656394600868225
-0.21880322694778442 -0.1481279879808426 -0.07480438798666
-0.07170315086841583 0.5615348219871521 0.0012673400342464447
-0.096882164478302 -0.4035338759422302 0.07447537779808044
0.028054002672433853 -0.20373603701591492 -0.16072969138622284
0.029289796948432922 0.1880345642566681 -0.17254945635795593
-0.008894896134734154 0.5653796792030334 0.042151860892772675
-0.12651407718658447 0.3158174455165863 -0.03108440712094307
-0.02994341403245926 0.4040376543998718 0.14142364263534546
0.028286907821893692 -0.37848636507987976 0.25353488326072693
0.21182143688201904 -0.2752889394760132 -0.08623933792114258
-0.12124700844287872 0.25574055314064026 -0.08383353799581528
-0.1708981990814209 -0.4139184355735779 0.06451676785945892
0.04002177715301514 0.13791675865650177 -0.17444045841693878
0.08865863084793091 -0.09475064277648926 0.22792397439479828
0.13270892202854156 0.4760013222694397 -0.07178251445293427
0.13666081428527832 0.3511957824230194 0.009930722415447235
0.008513964712619781 -0.10848993062973022 -0.1749078780412674
-0.03773222118616104 -0.4131145179271698 -0.15652161836624146
0.06848537921905518 -0.009553365409374237 -0.17455816268920898
0.10648323595523834 -0.16039417684078217 0.24009406566619873
0.11315321177244186 0.17649556696414948 0.2177826464176178
0.20521610975265503 -0.3883838355541229 -0.004488196223974228
0.1331087201833725 0.26964664459228516 -0.026706315577030182
-0.13040903210639954 0.2964141070842743 -0.027078721672296524
0.16082914173603058 -0.16793830692768097 0.1921822428703308
-0.196013942360878 -0.2729465067386627 0.11399935185909271
-0.05223874747753143 0.0480085089802742 -0.18121205270290375
-0.017398379743099213 0.1226152777671814 0.21832284331321716
0.20173947513103485 -0.0009098630398511887 -0.061117593199014664
-0.06527270376682281 -0.2478340119123459 0.2571910619735718
-0.05548243224620819 0.4001707136631012 -0.16660048067569733
-0.01564115285873413 -0.4177883267402649 -0.19718235731124878
0.12203981727361679 -0.17794829607009888 0.2371256947517395
0.18418647348880768 0.030779238790273666 0.07146923989057541
-0.1698039472103119 -0.2725265622138977 -0.15475989878177643
-0.21319931745529175 -0.23681460320949554 0.06658443808555603
-0.16155995428562164 -0.027251947671175003 0.1246480941772461
0.12055911123752594 -0.41582638025283813 -0.12265349924564362
-0.10961801558732986 0.09779401123523712 0.14278735220432281
0.13401232659816742 0.2581290602684021 0.12421903014183044
0.010591946542263031 0.515399158000946 0.09901156276464462
-0.05347774922847748 -0.41483619809150696 -0.1409670114517212
0.1033373475074768 -0.4186997711658478 -0.14650428295135498
-0.037466779351234436 -0.4088127613067627 -0.04994363337755203
0.2068743258714676 -0.07950007170438766 -0.10189788043498993
0.13735239207744598 0.296120822429657 -0.08865325152873993
0.13725435733795166 0.37887299060821533 0.033474329859018326
0.1055256575345993 -0.033197514712810516 0.20657998323440552
0.13934001326560974 -0.2285173535346985 -0.14214162528514862
-0.1286325305700302 0.3553994596004486 0.04041626676917076
-0.09709291905164719 -0.4081433415412903 -0.0856003686785698
0.14357802271842957 -0.09699562191963196 0.19542625546455383
0.21015243232250214 -0.12721195816993713 -0.03683321177959442
0.03162059187889099 0.38931190967559814 0.2163190245628357
-0.09258531779050827 -0.22651727497577667 -0.16334028542041779
-0.03973296284675598 0.45269811153411865 0.06071370095014572
-0.10118366032838821 0.5533479452133179 -0.14306403696537018
0.12687692046165466 0.1757965087890625 -0.0242985300719738
0.08211195468902588 0.2664191424846649 -0.16806185245513916
-0.12224127352237701 0.49696171283721924 0.008536741137504578
-0.04735574498772621 -0.015064150094985962 -0.1794828474521637
-0.06360574066638947 0.026864230632781982 -0.18101997673511505
0.19729852676391602 -0.29264217615127563 0.11591445654630661
0.1505439281463623 0.30634111166000366 -0.07635915279388428
-0.16809168457984924 -0.19609473645687103 0.166893869638443
0.15410418808460236 0.3532131612300873 -0.11927367746829987
-0.22511988878250122 -0.2519586980342865 -0.020473407581448555
0.1987483948469162 -0.005321067292243242 -0.1431485265493393
-0.09249646216630936 -0.4140661060810089 0.0022967644035816193
-0.20520810782909393 0.04195408895611763 -0.09258266538381577
0.09362846612930298 0.515626847743988 -0.15959405899047852
0.19547881186008453 -0.16684849560260773 0.0983363464474678
-0.026753850281238556 0.4663409888744354 0.07644292712211609
0.05450990051031113 0.03292078152298927 0.2021716684103012
-0.18641845881938934 -0.1263556033372879 -0.16687659919261932
0.18278327584266663 -0.11645016074180603 0.10730495303869247
0.1067819595336914 -0.03355520963668823 0.20666012167930603
0.1283838152885437 -0.4059271216392517 0.03851674497127533
-0.12153467535972595 0.2693558931350708 -0.03684353083372116
-0.06335269659757614 -0.14846473932266235 -0.1724512279033661
0.20591790974140167 -0.18983832001686096 0.0972490906715393
-0.052545737475156784 -0.01608504354953766 -0.17929863929748535
0.1923396736383438 -0.3776355981826782 0.05194063112139702
-0.21821732819080353 -0.12598812580108643 -0.12225395441055298
0.013868477195501328 0.24676993489265442 0.24627389013767242
0.06898629665374756 -0.2890964448451996 -0.18159061670303345
-0.1264244019985199 0.23884189128875732 0.06133990362286568
-0.050632037222385406 0.11708155274391174 0.20153869688510895
0.1235370934009552 0.09970127046108246 0.14086201786994934
-0.17389273643493652 -0.17613250017166138 0.15469156205654144
-0.08623559772968292 -0.019774679094552994 0.20221903920173645
-0.08693796396255493 0.10380354523658752 0.15511010587215424
-0.07974626123905182 0.4445452094078064 -0.16259372234344482
0.13756366074085236 0.39314791560173035 0.028540149331092834
0.043347399681806564 0.5702060461044312 -0.007021155208349228
0.1307937204837799 0.22976140677928925 -0.03882971033453941
0.13958191871643066 -0.3378067910671234 0.2043701708316803
-0.0032948143780231476 0.4320761263370514 -0.16692957282066345
-0.12694695591926575 0.32759740948677063 -0.03271202743053436
-0.2240932583808899 -0.2096102237701416 -0.08315199613571167
-0.053195007145404816 -0.07887809723615646 -0.1774720996618271
0.17852193117141724 -0.4125998318195343 -0.014970372430980206
0.20292042195796967 -0.40607818961143494 0.0008787037804722786
0.09111550450325012 -0.4113874137401581 0.04381950944662094
-0.07654139399528503 0.562709629535675 0.016685277223587036
0.18087561428546906 0.09319830685853958 -0.018700093030929565
-0.016696903854608536 -0.40705451369285583 0.04823688417673111
0.1780160665512085 -0.4122316837310791 -0.016476115211844444
0.2200903445482254 -0.3770914673805237 -0.10804066061973572
0.08986444026231766 -0.4225730895996094 -0.1218353882431984
-0.0080176442861557 -0.4097170829772949 0.04900871962308884
-0.11406251043081284 -0.28735148906707764 -0.17818181216716766
-0.18399621546268463 -0.1404094249010086 0.08988216519355774
0.13140374422073364 0.24156975746154785 0.0019541047513484955
-0.06226061284542084 0.5337017178535461 0.07223977148532867
0.21049709618091583 -0.3427261710166931 -0.05687091872096062
0.18245954811573029 -0.23215742409229279 0.15528686344623566
-0.1937352567911148 -0.25603702664375305 0.12069907784461975
0.20222964882850647 -0.015784908086061478 -0.08591616898775101
0.1766878068447113 -0.4123519957065582 -0.029347892850637436
0.03413063660264015 0.3232191801071167 -0.17119455337524414
