-0.22518420219421387 -0.30166786909103394 0.034986525774002075
-0.06731206178665161 -0.36080706119537354 0.23463407158851624
-0.04384109005331993 -0.18612021207809448 -0.16884420812129974
0.18746550381183624 -0.40859246253967285 -0.0041331397369503975
-0.09177500009536743 -0.07449019700288773 -0.17778420448303223
-0.22731328010559082 -0.2410009354352951 -0.09130531549453735
0.21330073475837708 -0.33688706159591675 -0.114968441426754
0.05414920300245285 -0.1416982114315033 0.2513667047023773
-0.10936044156551361 -0.15423163771629333 -0.16953736543655396
0.13583028316497803 0.32471585273742676 0.07582597434520721
0.13672016561031342 0.32584765553474426 0.028163105249404907
-0.0722571387887001 0.24632637202739716 0.22519844770431519
-0.19158078730106354 -0.3416557013988495 -0.15800949931144714
-0.16518455743789673 0.07306990772485733 0.07571816444396973
-0.07665764540433884 -0.10694791376590729 -0.17512120306491852
0.1353960931301117 0.2692241966724396 0.0437563955783844
0.026017313823103905 0.22436130046844482 -0.1746489703655243
0.16575440764427185 -0.025408415123820305 0.1443624645471573
0.14267393946647644 -0.4114311635494232 0.12553468346595764
-0.06399733573198318 0.3554328680038452 -0.16867849230766296
0.12846888601779938 0.17456823587417603 -0.03367818892002106
-0.14071686565876007 0.10412903130054474 0.08045171946287155
0.15656720101833344 0.08241097629070282 0.12245532870292664
0.20504726469516754 -0.04918394982814789 -0.05919652432203293
-0.10092303156852722 0.557728111743927 -0.0008124075829982758
-0.0021973121911287308 0.30442729592323303 -0.17214742302894592
-0.11413656175136566 -0.2893519103527069 -0.1786845475435257
0.16510605812072754 -0.36992207169532776 0.12036074697971344
0.1350783258676529 -0.1258954256772995 0.20872272551059723
-0.026886681094765663 -0.189020037651062 -0.16810330748558044
0.22097648680210114 -0.22240623831748962 -0.071317657828331
0.03726086765527725 -0.18562297523021698 -0.16357740759849548
-0.05086442828178406 -0.01905141770839691 -0.1815439611673355
-0.16766396164894104 -0.11671431362628937 0.1396380215883255
0.09677519649267197 0.4375489354133606 -0.16394127905368805
0.1310826987028122 0.399761438369751 -0.03284682333469391
0.19877438247203827 -0.05333802103996277 -0.0047805760987102985
0.1292792707681656 0.2264748513698578 0.14791466295719147
0.12063460052013397 0.22115953266620636 -0.12462937831878662
0.01746717095375061 0.39540690183639526 -0.16775377094745636
-0.15379022061824799 0.021794838830828667 0.12132653594017029
0.12812547385692596 0.18755823373794556 -0.03018110617995262
0.1796535700559616 -0.40574464201927185 0.03163444995880127
0.15192395448684692 -0.36865881085395813 -0.18826761841773987
0.05298004671931267 -0.4111786484718323 0.2288961559534073
0.15074431896209717 -0.35806912183761597 -0.1865929663181305
-0.025242673233151436 0.476786345243454 0.08242229372262955
-0.12239255011081696 -0.12022300064563751 -0.17128820717334747
-0.12243334949016571 0.2047446072101593 0.08942534029483795
-0.12301219999790192 0.4407307207584381 -0.04939538240432739
0.09191331267356873 0.06740419566631317 -0.1744881123304367
0.03656895086169243 -0.027788765728473663 -0.17699047923088074
0.1146237850189209 -0.41380301117897034 0.07726466655731201
-0.01575442962348461 0.34192967414855957 0.24117891490459442
0.02950279228389263 0.1775544136762619 0.2556625008583069
0.17186281085014343 -0.21649394929409027 -0.13705384731292725
0.06330414861440659 0.36763420701026917 0.1448974311351776
0.20458342134952545 -0.19617792963981628 0.08723576366901398
-0.043963946402072906 0.07737070322036743 -0.1808248907327652
0.06719586253166199 0.023846633732318878 0.19890263676643372
-0.026580311357975006 0.3532436788082123 -0.1697748899459839
0.1298528015613556 0.4182012975215912 -0.04180724173784256
0.010992217808961868 0.08117259293794632 0.19064609706401825
-0.13238170742988586 0.05974193662405014 -0.1782451868057251
-0.016235964372754097 0.39059174060821533 0.2003454715013504
-0.00263986736536026 -0.4147387742996216 -0.1178119033575058
-0.0775311142206192 -0.1752193570137024 0.24055363237857819
-0.08646846562623978 0.45295125246047974 -0.16364610195159912
0.015096098184585571 -0.17470473051071167 -0.16750957071781158
-0.03632749989628792 -0.4085063338279724 0.08122466504573822
0.21386729180812836 -0.3524295687675476 -0.06940928101539612
-0.06269033998250961 0.33603784441947937 0.21486744284629822
-0.18848060071468353 -0.36704930663108826 0.09361118823289871
0.18039284646511078 -0.06959976255893707 0.10879918932914734
-0.014711206778883934 0.17472530901432037 0.26134800910949707
0.08018480241298676 0.5457951426506042 -0.15906406939029694
0.12915664911270142 0.2506915032863617 -0.07080680131912231
0.20836961269378662 -0.3018777072429657 0.0754905715584755
0.12764626741409302 0.4311719834804535 -0.16709445416927338
-0.12939251959323883 0.4833531081676483 -0.038072701543569565
0.1357799917459488 0.32168206572532654 0.07955686748027802
-0.07818207144737244 -0.13291242718696594 -0.17508620023727417
0.13615413010120392 -0.2805255055427551 -0.16206081211566925
0.12691134214401245 -0.18570975959300995 0.22888442873954773
-0.03858354315161705 0.17459550499916077 0.2529650032520294
0.13574549555778503 0.2731010913848877 0.032755523920059204
-0.039148617535829544 0.34413984417915344 0.23559410870075226
-0.07092481851577759 -0.14683203399181366 -0.1741795837879181
-0.07040247321128845 -0.11379298567771912 -0.17720259726047516
-0.1262063980102539 0.14105479419231415 -0.01084696501493454
-0.11157090216875076 0.18376684188842773 0.1900251805782318
0.030497999861836433 -0.18015512824058533 0.26315242052078247
0.18739546835422516 -0.06604842841625214 0.07369379699230194
0.19844065606594086 0.07071398943662643 -0.12289835512638092
-0.12359260022640228 0.20785921812057495 0.04073593020439148
-0.002896275371313095 0.01737375371158123 0.2058166265487671
-0.125371053814888 -0.1600247025489807 -0.16623792052268982
-0.06879206001758575 0.24739614129066467 0.22785818576812744
-0.1974364072084427 -0.38702937960624695 0.06484876573085785
0.10132479667663574 -0.13606375455856323 0.23412388563156128
-0.20067808032035828 -0.16483967006206512 -0.15168066322803497
0.04689210280776024 -0.41248366236686707 0.23197141289710999
0.09759211540222168 -0.4141416549682617 -0.11875373125076294
-0.20743471384048462 -0.04709305986762047 -0.04357152432203293
-0.11317148059606552 0.5021150708198547 0.03900822252035141
-0.016323771327733994 0.41747620701789856 -0.1677679866552353
-0.13062283396720886 -0.1640462726354599 -0.1650266945362091
0.12362546473741531 -0.2782573699951172 -0.1634863317012787
0.1858218014240265 -0.0178879052400589 0.06532734632492065
-0.18758481740951538 -0.17655274271965027 0.12286049127578735
-0.12053023278713226 0.49433207511901855 0.002396676689386368
0.1102844700217247 -0.16529470682144165 0.23698607087135315
-0.0007050484418869019 0.13117165863513947 0.22499509155750275
0.08013051748275757 -0.42894598841667175 -0.15346378087997437
0.08948857337236404 -0.40957111120224 0.022742226719856262
0.15828992426395416 -0.15881460905075073 0.19677872955799103
-0.04853333905339241 -0.40221211314201355 0.04629983752965927
-0.2196093648672104 -0.23123645782470703 0.021499481052160263
-0.1762077659368515 -0.41605639457702637 0.028628043830394745
0.13182610273361206 -0.1628691405057907 0.2252683788537979
0.08761078864336014 0.4964783191680908 -0.16498138010501862
-0.028540652245283127 -0.29445552825927734 -0.1891394406557083
0.20139703154563904 -0.04570702463388443 -0.013813885860145092
-0.12482485175132751 0.38952234387397766 0.03311245143413544
-0.185068279504776 0.1312863528728485 -0.07455924153327942
-0.11666911840438843 0.3139255940914154 -0.16676297783851624
0.1304762363433838 0.47209247946739197 -0.026990585029125214
0.21114692091941833 -0.31040653586387634 0.062123917043209076
0.09845619648694992 -0.4181016981601715 -0.1593277007341385
-0.18377751111984253 -0.0495770201086998 0.017222700640559196
0.10364629328250885 -0.4060426652431488 0.06155964359641075
0.04989471286535263 -0.16217628121376038 0.2565527558326721
-0.010237159207463264 0.5425644516944885 0.09091541171073914
-0.12860681116580963 0.2780470848083496 0.04708929359912872
0.12860192358493805 -0.36368873715400696 -0.19118602573871613
-0.04038582742214203 0.5629139542579651 -0.010524746030569077
-0.12990520894527435 0.28718599677085876 -0.026968292891979218
0.13660401105880737 0.39769861102104187 0.003742605447769165
-0.19393014907836914 -0.3899053931236267 0.07336461544036865
0.02609720081090927 -0.15530218183994293 0.2583262622356415
0.07796434313058853 -0.09299671649932861 0.22708876430988312
-0.0004738820716738701 0.4027680456638336 0.1867142915725708
0.2150878757238388 -0.2710697650909424 -0.07875220477581024
-0.07063719630241394 -0.4123084247112274 -0.16102127730846405
-0.01136716827750206 -0.4028073847293854 0.048774354159832
0.11763280630111694 0.13569630682468414 0.13979953527450562
-0.209246426820755 -0.38346701860427856 0.017569884657859802
-0.21671973168849945 -0.12329363077878952 -0.0653403103351593
0.18099729716777802 0.09072893112897873 0.021442582830786705
-0.20808497071266174 -0.008383680135011673 -0.11339259892702103
-0.18371030688285828 0.05678601562976837 0.003458429127931595
-0.10708952695131302 -0.1482437551021576 0.21829558908939362
-0.15071794390678406 -0.4132211208343506 0.10234494507312775
-0.21436867117881775 -0.29273998737335205 0.06158965826034546
-0.17463418841362 0.08711613714694977 -0.17827828228473663
0.07654853165149689 0.06995382905006409 -0.17449238896369934
0.07996213436126709 0.017094455659389496 0.1978626251220703
0.17892485857009888 -0.41583725810050964 -0.024960387498140335
-0.09352652728557587 0.37160608172416687 0.11183344572782516
0.10393459349870682 0.16148161888122559 0.22244158387184143
0.1505095213651657 0.29844793677330017 -0.11578350514173508
0.014717947691679 0.037302691489458084 0.2006443738937378
0.20616763830184937 -0.3490358293056488 -0.12939400970935822
0.17963606119155884 -0.40765032172203064 0.02166159078478813
-0.07425880432128906 -0.01406823843717575 -0.18137352168560028
0.16056223213672638 0.1041998416185379 0.09623654186725616
0.10125885158777237 -0.40989378094673157 -0.026969579979777336
0.20316191017627716 -0.05418211221694946 -0.09460681676864624
-0.22267666459083557 -0.1823936253786087 -0.06517505645751953
-0.027280189096927643 -0.40977942943573 0.03641900420188904
0.056657906621694565 0.14246472716331482 0.22532956302165985
-0.09028587490320206 0.550979495048523 0.03634333983063698
-0.16348278522491455 -0.05187959969043732 -0.176578551530838
0.18514086306095123 -0.010357946157455444 0.022511091083288193
-0.07598479092121124 -0.16640101373195648 -0.17053818702697754
0.11117073893547058 -0.4206269681453705 -0.1395118236541748
-0.008425725623965263 0.21360260248184204 0.2567753493785858
-0.11903750896453857 0.20312559604644775 0.17859795689582825
0.1677815318107605 -0.33818385004997253 -0.16887375712394714
-0.07693077623844147 -0.4182381331920624 -0.08668278157711029
0.1250554323196411 0.48347073793411255 -0.06155002862215042
0.06624709069728851 0.13873858749866486 0.22080330550670624
-0.020535442978143692 0.5619844198226929 -0.14742091298103333
-0.04950351640582085 -0.4179394543170929 -0.17659318447113037
-0.06070418283343315 0.23209844529628754 -0.17390076816082
-0.19733372330665588 -0.26593825221061707 0.11036671698093414
-0.12786146998405457 0.26273113489151 -0.020509127527475357
-0.11950402706861496 -0.20124590396881104 0.2290055751800537
0.18243789672851562 -0.4146498739719391 -0.010456690564751625
0.21075789630413055 -0.3059232532978058 0.06469301134347916
-0.21510259807109833 -0.10043615102767944 -0.07400154322385788
0.11365462839603424 0.5550898909568787 -0.081239253282547
0.07585377991199493 -0.41074854135513306 -0.03250277042388916
0.005105998367071152 0.3831510841846466 0.2371782660484314
0.18245920538902283 0.06257954239845276 -0.0020909253507852554
-0.21423174440860748 -0.3525863289833069 -0.062029629945755005
-0.04212057963013649 0.5645753741264343 -0.061253421008586884
0.1038220077753067 -0.16313806176185608 0.2364175170660019
0.1953258216381073 -0.32280397415161133 -0.13752223551273346
0.12884581089019775 0.16539978981018066 -0.025627929717302322
-0.1451795995235443 0.15826544165611267 -0.12940973043441772
0.11768579483032227 -0.41435500979423523 -0.12590041756629944
0.13498391211032867 0.38608187437057495 -0.16571030020713806
0.03495316952466965 0.11418414115905762 0.19359669089317322
-0.031139742583036423 0.29882678389549255 -0.17235343158245087
-0.09531917423009872 -0.11137930303812027 0.2171732783317566
0.13249903917312622 0.2772253751754761 0.12762412428855896
-0.18744981288909912 -0.2583753764629364 -0.1326904147863388
0.20835773646831512 -0.36252763867378235 -0.023671146482229233
-0.06273503601551056 -0.10486485064029694 -0.17824780941009521
-0.014318827539682388 0.5656530261039734 -0.00011034030467271805
-0.12969020009040833 -0.11509594321250916 -0.171856090426445
0.2014891505241394 0.06941970437765121 -0.11187823116779327
-0.170573428273201 -0.2824557423591614 -0.15189328789710999
-0.1571938544511795 -0.41423752903938293 0.06649257987737656
-0.1850278377532959 -0.09182694554328918 -0.1710343062877655
-0.08771636337041855 0.3175218403339386 0.19195351004600525
0.12511935830116272 -0.1575901061296463 -0.16070666909217834
0.1336701512336731 0.25142940878868103 0.07686007767915726
0.15884320437908173 0.07671979069709778 0.12159828841686249
0.02346988394856453 0.35909557342529297 -0.17030584812164307
-0.16570967435836792 -0.13730007410049438 -0.1690715104341507
0.1393144130706787 -0.4146088659763336 -0.06822602450847626
0.11593888700008392 -0.06927937269210815 0.20701012015342712
-0.16293394565582275 -0.08249235153198242 0.1445794254541397
0.0739840716123581 0.5268723964691162 0.07226385921239853
0.13524091243743896 0.06968535482883453 0.14852312207221985
0.10999058187007904 -0.41328564286231995 -0.057722508907318115
0.1345061957836151 0.2997727394104004 0.10241121798753738
0.18688008189201355 -0.022571157664060593 0.05130913108587265
-0.07130283117294312 0.5637574195861816 -0.016170620918273926
0.1082068681716919 -0.013030888512730598 0.1935458779335022
-0.09746133536100388 -0.32376694679260254 -0.19501793384552002
0.13631537556648254 0.4153172969818115 0.020195767283439636
-0.11729615181684494 0.17741787433624268 0.1394277662038803
-0.11974501609802246 0.5191084146499634 -0.140274316072464
-0.1354711353778839 -0.08727480471134186 -0.1740349680185318
-0.10503468662500381 0.02135750837624073 0.17546416819095612
0.038796622306108475 0.3206275701522827 0.22914361953735352
-0.12203875929117203 0.20096880197525024 -0.016041375696659088
-0.07090407609939575 0.42714259028434753 -0.16493360698223114
-0.18411609530448914 -0.06157885491847992 0.0591655932366848
-0.20778053998947144 -0.019095586612820625 -0.14621809124946594
-0.05681450292468071 0.32095813751220703 0.22813214361667633
0.18595483899116516 -0.04503406956791878 0.05255760997533798
-0.20761005580425262 -0.06663026660680771 -0.03831484168767929
0.07806901633739471 0.017525553703308105 0.19879113137722015
-0.21219180524349213 -0.2084084004163742 0.0527338869869709
-0.0010748878121376038 -0.32324039936065674 0.26006612181663513
-0.025292541831731796 -0.40248608589172363 -0.20552285015583038
0.16822953522205353 -0.07470826059579849 0.15204934775829315
0.0725473165512085 0.047730136662721634 0.1934436857700348
0.16427671909332275 -0.4178459942340851 -0.16070693731307983
-0.025993872433900833 0.4128212630748749 -0.16686700284481049
0.18816639482975006 0.04321587458252907 0.04742494970560074
0.17483225464820862 -0.25424593687057495 0.17146271467208862
-0.08004734665155411 0.41301867365837097 0.07562267780303955
-0.03359195590019226 -0.1652933955192566 0.2604789733886719
-0.21314124763011932 -0.35488370060920715 -0.09037702530622482
0.2143591344356537 -0.1557501256465912 -0.044726110994815826
-0.22368520498275757 -0.17343628406524658 -0.0729769915342331
-0.06399774551391602 0.009751684963703156 -0.18169593811035156
0.04947797954082489 0.5682408809661865 -0.08738258481025696
-0.02253756672143936 -0.3937448263168335 -0.20606525242328644
0.13030557334423065 0.10959115624427795 0.1311708390712738
0.09501086175441742 0.004152363166213036 0.19615013897418976
0.011937256902456284 -0.17925916612148285 -0.1660642921924591
-0.028635773807764053 0.5082566142082214 0.09495232999324799
2.9578804969787598e-06 0.5230352282524109 0.10498589277267456
0.21482548117637634 -0.15486067533493042 -0.03005211241543293
-0.11890701949596405 0.20387569069862366 0.17722295224666595
0.2092810571193695 -0.3966212272644043 -0.06743685901165009
0.09979156404733658 -0.40596282482147217 0.07298585772514343
0.12381839752197266 0.4720294177532196 0.041575945913791656
0.01761215552687645 0.4767248332500458 0.08015196025371552
0.013601705431938171 0.11569833010435104 0.2048749327659607
0.11674665659666061 0.230332612991333 0.21068155765533447
0.07278675585985184 0.3960871994495392 0.1150791272521019
0.02723809704184532 -0.41362348198890686 0.23153798282146454
-0.22802430391311646 -0.2419319450855255 -0.08648858219385147
0.19186773896217346 0.12090162932872772 -0.12159298360347748
-0.15662124752998352 -0.2081066370010376 0.18694141507148743
0.10656364262104034 0.3176652789115906 -0.15955737233161926
-0.09550728648900986 0.5609479546546936 -0.0161941796541214
0.03489479422569275 -0.1637844443321228 -0.16775265336036682
0.11589351296424866 -0.18233709037303925 -0.15589164197444916
-0.18246471881866455 -0.003376852720975876 0.04249778389930725
0.22278384864330292 -0.25107285380363464 0.011383438482880592
-0.019336864352226257 0.3784056007862091 0.22128178179264069
-0.005237314850091934 -0.24814625084400177 -0.17725327610969543
0.16555804014205933 -0.21815122663974762 -0.13640715181827545
0.13635991513729095 0.3288462460041046 0.09868030995130539
-0.04768231883645058 -0.17265520989894867 0.25322195887565613
0.10280516743659973 -0.1884579360485077 0.24943998456001282
0.12603026628494263 -0.02121753990650177 0.18422271311283112
-0.06299746036529541 -0.044833049178123474 0.21405577659606934
0.035253167152404785 -0.05270611494779587 0.22688131034374237
0.024647388607263565 0.4021381139755249 0.17436526715755463
0.1693040430545807 0.06466848403215408 0.10482920706272125
0.1380712240934372 0.27881211042404175 -0.09831816703081131
0.184182271361351 -0.043857067823410034 0.0869654044508934
-0.14940859377384186 0.3645612895488739 -0.0958070456981659
-0.008888475596904755 0.03274478763341904 -0.17977067828178406
0.1811162680387497 -0.36007365584373474 0.0842580795288086
0.15460394322872162 -0.4208090901374817 -0.07655344903469086
0.16985297203063965 -0.12292402237653732 0.16338783502578735
-0.11742173880338669 0.48270612955093384 0.031383197754621506
0.06451916694641113 0.3567011058330536 0.1626596599817276
-0.07711079716682434 -0.41376379132270813 0.012311473488807678
-0.09581455588340759 -0.1872648298740387 0.23311938345432281
-0.0754261165857315 0.45795026421546936 -0.16420209407806396
0.009034276008605957 0.4394237995147705 -0.1671673059463501
-0.08853182941675186 0.5605412125587463 -0.004532653838396072
0.04795854911208153 -0.38482528924942017 0.25044354796409607
0.07950714230537415 0.5564149618148804 0.02566513791680336
0.13525909185409546 0.33018311858177185 -0.03371357172727585
0.03459291532635689 -0.3709116578102112 0.25915297865867615
0.21490062773227692 -0.3382255733013153 -0.10008455067873001
-0.03941112011671066 -0.4197276532649994 -0.19257989525794983
0.22351299226284027 -0.2243146151304245 -0.019922245293855667
0.0237831212580204 0.36675718426704407 0.2410835325717926
-0.15433543920516968 0.36330512166023254 -0.110979363322258
-0.03152347356081009 0.006723541766405106 0.20820118486881256
-0.05575032904744148 -0.12713345885276794 -0.17590714991092682
0.20393288135528564 -0.1990203559398651 0.0984850823879242
-0.2080891728401184 -0.01783859170973301 -0.14913251996040344
0.10252439230680466 -0.05876971036195755 0.211589515209198
-0.20878076553344727 -0.214357390999794 -0.1318044513463974
-0.1434674859046936 -0.02449369803071022 0.1521359384059906
-0.122939333319664 0.46725618839263916 0.011859998106956482
-0.07516209781169891 -0.4031945466995239 0.06617330014705658
0.04689614847302437 0.5693439841270447 -0.08054634183645248
-0.226370707154274 -0.23238851130008698 -0.08141880482435226
0.15232151746749878 0.31434160470962524 -0.12049445509910583
0.18195481598377228 0.10571667551994324 0.04482254758477211
-0.1378844976425171 -0.42037105560302734 -0.13251212239265442
0.13615235686302185 -0.41613689064979553 -0.07118573039770126
-0.1204221323132515 0.2080754190683365 0.15635041892528534
-0.01252797432243824 0.1767795830965042 0.2629777491092682
0.08400876820087433 -0.4067486822605133 0.07559560984373093
0.2212885171175003 -0.24236911535263062 0.03736833110451698
-0.09305480122566223 -0.27235764265060425 -0.17866651713848114
-0.17905093729496002 -0.4088178873062134 0.08381824195384979
-0.215154230594635 -0.09514021128416061 -0.05665192753076553
-0.18104147911071777 0.030382679775357246 0.05046374350786209
0.07423924654722214 -0.41380488872528076 0.0389033742249012
-0.13003502786159515 0.4309345483779907 -0.04265204071998596
-0.18747200071811676 -0.2586466073989868 -0.13355006277561188
0.10890114307403564 0.231431245803833 -0.1527881622314453
-0.0004867948591709137 0.053827546536922455 0.19531720876693726
-0.18298985064029694 0.13472218811511993 -0.0743301659822464
-0.07883448898792267 0.3759916126728058 -0.16687175631523132
0.14397363364696503 -0.41155752539634705 0.0797891616821289
3.0338764190673828e-05 0.04406275972723961 0.19786226749420166
0.14966152608394623 0.40275928378105164 -0.14675861597061157
0.1820324808359146 0.07957802712917328 0.01689971797168255
0.1283528357744217 0.5083587169647217 -0.019185729324817657
-0.09995917975902557 -0.3739769756793976 -0.20210334658622742
0.1938868761062622 -0.20783326029777527 0.12302033603191376
0.2047184258699417 -0.04373675957322121 -0.06463206559419632
-0.19930210709571838 -0.09131498634815216 -0.1626831442117691
-0.10063893347978592 0.1904275119304657 0.2179373800754547
-0.009419679641723633 0.4057644307613373 0.17545084655284882
-0.04704532027244568 0.20691756904125214 0.2503529489040375
0.042169954627752304 0.19541123509407043 -0.17262566089630127
0.21908380091190338 -0.3709852695465088 -0.10536542534828186
-0.019331680610775948 0.36367326974868774 0.24186336994171143
-0.10379898548126221 0.5486931204795837 -0.15321888029575348
0.03853078931570053 0.36154866218566895 0.23424407839775085
-0.062299661338329315 0.56476229429245 -0.0841522365808487
-0.2239409238100052 -0.22207431495189667 -0.08749241381883621
0.02243829518556595 0.40519019961357117 -0.16777823865413666
-0.11696907877922058 -0.4134879410266876 0.005820464342832565
0.06601046770811081 -0.1698589026927948 -0.1641385555267334
0.2010996788740158 0.09634675830602646 -0.11389803886413574
0.12903541326522827 0.19882860779762268 0.039321169257164
0.20900189876556396 -0.13293395936489105 -0.01096113957464695
-0.09755577892065048 0.4661538898944855 0.050326187163591385
-0.11969318985939026 0.20996470749378204 0.17218196392059326
0.007058285176753998 -0.35944727063179016 0.2595330476760864
0.10421058535575867 0.35781800746917725 0.1307690143585205
-0.030472617596387863 -0.19521555304527283 -0.1665329784154892
-0.12551425397396088 0.38295668363571167 0.03440248221158981
0.02660159394145012 0.45256155729293823 0.09776775538921356
-0.09349729120731354 0.5462632775306702 0.03989361599087715
-0.1935570240020752 -0.41141995787620544 0.06418817490339279
-0.11945685744285583 -0.4120868742465973 -0.04355422407388687
0.1279146373271942 0.3002939224243164 -0.019898008555173874
-0.03764829784631729 -0.39399290084838867 0.23523546755313873
-0.11013753712177277 0.13312022387981415 0.10905693471431732
-0.22734124958515167 -0.282223641872406 -0.050881277769804
0.15359337627887726 0.40138915181159973 -0.12734226882457733
-0.1445508748292923 0.10722032934427261 0.07069748640060425
0.18633818626403809 0.05596071481704712 0.05779382959008217
0.11710049211978912 -0.14384444057941437 -0.164594829082489
0.17715919017791748 0.0491776242852211 0.09171600639820099
0.21419478952884674 -0.38790270686149597 -0.09457477927207947
0.1544228494167328 -0.20096337795257568 -0.14679089188575745
-0.12040765583515167 0.18087555468082428 -0.009989630430936813
0.20551720261573792 -0.05998345464468002 -0.08256617188453674
0.1685243844985962 0.1432456374168396 -0.14174909889698029
0.22121018171310425 -0.2368623912334442 0.025062933564186096
0.09459757059812546 -0.42517760396003723 -0.1333637237548828
0.22044110298156738 -0.19554919004440308 -0.040388740599155426
-0.11467637121677399 0.19083714485168457 -0.13643823564052582
-0.2209703028202057 -0.18275336921215057 -0.05197567865252495
-0.026441145688295364 -0.4148367941379547 -0.12780526280403137
0.1492580622434616 0.33875158429145813 -0.15185585618019104
0.18696144223213196 -0.41487187147140503 -0.10671508312225342
-0.0380948930978775 -0.06371915340423584 0.22598084807395935
0.11176715046167374 0.17023257911205292 0.21796508133411407
-0.08366857469081879 0.04025457054376602 0.18314063549041748
0.04489781707525253 0.17195799946784973 0.25865796208381653
0.21782110631465912 -0.23413889110088348 -0.0828263983130455
0.16995838284492493 -0.3065304458141327 -0.1528811901807785
0.10523827373981476 -0.1629602015018463 0.23888275027275085
0.18309560418128967 -0.036579351872205734 -0.14821451902389526
0.17596203088760376 -0.4081212282180786 0.03285885229706764
-0.0417003259062767 -0.4153003990650177 -0.03405506908893585
-0.18033653497695923 0.14691998064517975 -0.12680253386497498
-0.12157527357339859 0.27092596888542175 0.16915394365787506
0.20588620007038116 -0.34288257360458374 -0.013460913673043251
-0.11043240875005722 0.14645671844482422 0.12585020065307617
-0.1615007519721985 -0.4153904914855957 -0.04915134981274605
0.07284814864397049 0.1689678430557251 0.24784600734710693
-0.06999020278453827 0.12085270881652832 -0.17924566566944122
-0.21673409640789032 -0.11350122094154358 -0.13798706233501434
-0.2243637889623642 -0.27888041734695435 -0.07541292160749435
0.2112257480621338 -0.22464437782764435 0.08133205026388168
0.20915211737155914 -0.09324470907449722 -0.030113548040390015
-0.039449069648981094 0.39053478837013245 0.1243051216006279
0.12740083038806915 0.25489768385887146 0.16620318591594696
-0.1023009866476059 0.1108209639787674 -0.1796150654554367
0.1949998438358307 -0.33221137523651123 0.06828626990318298
0.195351243019104 0.07694927603006363 -0.15253213047981262
0.12943725287914276 0.2663155198097229 0.15914446115493774
0.16487857699394226 0.1513780802488327 -0.13062229752540588
0.13535353541374207 0.14262092113494873 -0.028358690440654755
0.05188659206032753 -0.0573599711060524 0.22669032216072083
0.05237166956067085 -0.4070899486541748 0.0706738531589508
-0.13002409040927887 0.3252030611038208 0.02128860354423523
-0.06874425709247589 -0.40873491764068604 0.04075141251087189
0.01153014600276947 -0.011036820709705353 -0.1791839748620987
0.22242361307144165 -0.23971469700336456 -0.04045628756284714
0.22094181180000305 -0.2706494927406311 0.03678854927420616
0.09564957022666931 -0.40447014570236206 0.007617682218551636
0.044420428574085236 0.2892155051231384 -0.17188383638858795
-0.016323961317539215 -0.4110178053379059 -0.01661745086312294
0.12564022839069366 0.255811870098114 0.17223228514194489
0.06230133771896362 0.35138294100761414 0.17296633124351501
0.21589131653308868 -0.3706514835357666 -0.12385275959968567
-0.18436339497566223 -0.07626892626285553 0.05722266435623169
-0.06564794480800629 0.13964994251728058 -0.17803679406642914
-0.18998609483242035 -0.2689131200313568 -0.13463237881660461
-0.2164383828639984 -0.30807363986968994 0.0589100606739521
-0.046092379838228226 0.010275587439537048 -0.18222153186798096
-0.12895244359970093 0.4630865156650543 -0.0721779614686966
0.2183682769536972 -0.2393980771303177 0.06150641292333603
-0.09300894290208817 0.36230865120887756 0.12201498448848724
0.10885888338088989 -0.3716086447238922 -0.19597558677196503
-0.03028198331594467 -0.4127767086029053 -0.017526891082525253
0.11902357637882233 -0.41924169659614563 -0.14607924222946167
0.08337777107954025 0.06713082641363144 0.18412676453590393
0.13682083785533905 0.4729093909263611 -0.1575794368982315
0.13238279521465302 0.23803699016571045 0.01183709129691124
-0.036656592041254044 -0.16271212697029114 0.2604491114616394
-0.014008581638336182 -0.41460293531417847 -0.03508732467889786
0.11889486759901047 -0.07003726810216904 0.2044241577386856
0.009648680686950684 -0.4158000946044922 -0.08751903474330902
0.04964720457792282 0.3347477912902832 0.22966821491718292
0.12282498925924301 -0.4129379391670227 -0.08012626320123672
0.11633627861738205 -0.4069605767726898 -0.021075017750263214
0.2088451236486435 -0.35670334100723267 -0.1296115219593048
0.1085992157459259 -0.3524315655231476 0.23260952532291412
-0.12278282642364502 0.48622432351112366 -0.15236476063728333
-0.16899269819259644 -0.4133128523826599 0.09541899710893631
-0.0239864531904459 -0.18742823600769043 -0.1666937619447708
-0.09084650874137878 0.06495101749897003 0.17119960486888885
0.16324403882026672 -0.4192652702331543 -0.09245344996452332
-0.21851977705955505 -0.1453913152217865 -0.05117984861135483
0.09663381427526474 -0.4054890275001526 0.013451550155878067
0.02539869211614132 0.567314863204956 -0.06368698179721832
-0.12036792933940887 -0.27517402172088623 0.22213774919509888
-0.012292739935219288 0.47166281938552856 0.084662526845932
-0.13369551301002502 0.12702277302742004 0.02659333497285843
0.1809079945087433 -0.16413277387619019 0.1244649589061737
0.024719595909118652 0.350482314825058 0.2455306500196457
-0.05685991421341896 0.41380754113197327 0.08835114538669586
-0.10621859133243561 0.11977744102478027 0.11990554630756378
0.044000834226608276 0.04542246460914612 0.19640865921974182
0.05663430318236351 -0.21824383735656738 0.25871941447257996
-0.2005944848060608 0.12882781028747559 -0.1512502133846283
-0.14525045454502106 -0.06986929476261139 -0.17608308792114258
-0.2181600034236908 -0.13888418674468994 -0.11456768214702606
-0.0432240255177021 -0.1785365343093872 -0.17042632400989532
0.19773469865322113 0.10988052189350128 -0.11982245743274689
-0.1265154927968979 0.039299316704273224 0.15254998207092285
-0.18943960964679718 -0.19204989075660706 0.1271211951971054
-0.07565312087535858 0.562416672706604 -0.003417128697037697
-0.17574012279510498 -0.2940211296081543 0.14959435164928436
0.2026795893907547 0.06427561491727829 -0.07788479328155518
-0.0962524265050888 0.37762030959129333 -0.16608543694019318
0.05781058967113495 0.1389317810535431 0.22384949028491974
0.15668974816799164 -0.17077948153018951 -0.15158721804618835
-0.08715373277664185 0.3749063014984131 0.11313772201538086
0.011479437351226807 -0.04288795217871666 0.22531574964523315
-0.20164678990840912 0.06908275932073593 -0.08035717159509659
0.05082538351416588 0.5527482628822327 0.06052938848733902
0.035378292202949524 -0.16460129618644714 -0.16777431964874268
-0.028852805495262146 0.22374755144119263 0.25193852186203003
0.07837136834859848 0.2034163475036621 0.24963055551052094
0.08890222012996674 -0.21865445375442505 0.25292477011680603
-0.1856013834476471 -0.42092323303222656 -0.07723036408424377
-0.014577463269233704 0.5485072135925293 -0.16154953837394714
0.0022071897983551025 -0.41014477610588074 -0.04800424724817276
-0.07104295492172241 0.34802794456481934 -0.1689436435699463
0.03389391303062439 0.5671528577804565 -0.01258515752851963
0.008156069554388523 0.3309788703918457 0.23637768626213074
-0.07114813476800919 0.03290920332074165 0.19127877056598663
0.08136170357465744 0.3411993980407715 0.1782502830028534
0.09130498766899109 -0.017270749434828758 0.20303671061992645
-0.09236164391040802 0.5652879476547241 -0.1343066394329071
0.04308000206947327 -0.39062297344207764 0.2511909306049347
-0.11967992782592773 0.2008306384086609 0.15581873059272766
-0.10959479957818985 0.28337618708610535 0.17427393794059753
0.2040523737668991 -0.03025912307202816 -0.04959287494421005
-0.16248716413974762 -0.41940104961395264 0.0006725713610649109
0.02257760614156723 -0.06795359402894974 -0.17693538963794708
0.21334442496299744 -0.24236559867858887 -0.08742622286081314
-0.2071802020072937 -0.27608737349510193 -0.11075613647699356
0.032925669103860855 0.24518463015556335 -0.1726025491952896
0.1839216947555542 0.08935554325580597 0.028053801506757736
0.024594269692897797 -0.1789630949497223 -0.16537046432495117
-0.16877120733261108 -0.21312479674816132 0.16893033683300018
0.14641723036766052 0.28689831495285034 -0.11218604445457458
-0.03397485241293907 -0.30516308546066284 0.2581222355365753
0.07713672518730164 0.1816454827785492 0.24904920160770416
-0.03429320454597473 0.4671477675437927 0.07206224650144577
0.09257569164037704 -0.005955656990408897 0.20042449235916138
-0.2265864908695221 -0.2665047347545624 -0.08330655843019485
0.11657406389713287 -0.0670868307352066 0.20537088811397552
0.11956267058849335 0.14327651262283325 0.12626123428344727
0.11118091642856598 -0.021306529641151428 -0.17226316034793854
-0.21588240563869476 -0.09222137928009033 -0.13721616566181183
-0.18899916112422943 -0.1322280615568161 -0.1643829494714737
0.1341477483510971 0.36980482935905457 -0.04483841732144356
-0.011160004884004593 -0.1755012422800064 0.257454514503479
-0.009449005126953125 0.15681731700897217 0.25468742847442627
-0.07196255773305893 -0.41784268617630005 -0.19487766921520233
0.1022827997803688 0.007238410413265228 0.19165530800819397
0.07353661954402924 -0.16200438141822815 0.24629971385002136
-0.202294260263443 -0.06059738248586655 -0.024312034249305725
0.09378038346767426 0.18928439915180206 -0.16999708116054535
0.17622816562652588 -0.08798260241746902 0.13505356013774872
-0.11090704798698425 0.1281723529100418 0.09267039597034454
-0.0030898936092853546 -0.27127698063850403 0.2590641379356384
-0.010278098285198212 0.4900723695755005 0.09070289134979248
0.15591809153556824 0.15063904225826263 -0.09434833377599716
0.08393544703722 -0.009845927357673645 -0.17494893074035645
-0.10474193841218948 -0.41160428524017334 0.0054513863287866116
-0.011264927685260773 0.464060515165329 -0.16868261992931366
-0.07009243965148926 0.2112150490283966 -0.1743154078722
-0.07972326874732971 -0.41743332147598267 -0.19624760746955872
-0.1075623407959938 -0.2984251081943512 0.22902977466583252
0.21035467088222504 -0.1508413702249527 -0.11546111106872559
-0.05419498682022095 -0.4126751124858856 -0.020559389144182205
-0.09956274926662445 0.06653710454702377 -0.18128952383995056
-0.12936224043369293 -0.08346164226531982 -0.1737833470106125
0.21400250494480133 -0.2949950098991394 0.049033187329769135
0.12974366545677185 -0.4088635742664337 -0.1942555457353592
-0.12584254145622253 0.5009600520133972 -0.0867840051651001
-0.08812446892261505 0.16295498609542847 0.21388909220695496
-0.07791493833065033 0.38844624161720276 -0.166167750954628
0.20963764190673828 -0.39607667922973633 -0.027687296271324158
-0.09911009669303894 0.009653033688664436 0.18338358402252197
0.2209838181734085 -0.2638632655143738 0.02055482007563114
-0.057212263345718384 -0.1765318214893341 -0.16947539150714874
-0.12933412194252014 0.3358975946903229 -0.03364714980125427
0.18613648414611816 -0.4119082987308502 -0.044640179723501205
0.10258540511131287 -0.18849217891693115 0.24945756793022156
0.011517299339175224 0.5671058893203735 -0.02271444723010063
-0.10219866037368774 -0.4188603162765503 -0.06293591856956482
0.20314714312553406 -0.31663304567337036 -0.10432858020067215
0.12869636714458466 0.19216391444206238 0.05980302765965462
-0.12277446687221527 -0.3238372206687927 -0.18805596232414246
-0.04367001727223396 -0.18660765886306763 -0.16873793303966522
-0.12326192855834961 -0.07153153419494629 0.18690192699432373
0.20344316959381104 -0.38490891456604004 -0.14677366614341736
-0.06763636320829391 0.36567291617393494 0.13745856285095215
0.2199469357728958 -0.25934141874313354 0.04332484304904938
0.0968189612030983 -0.41359367966651917 -0.05462443456053734
0.17853912711143494 -0.4172140955924988 -0.10524697601795197
-0.18646980822086334 -0.4180092215538025 0.05517994984984398
0.13161726295948029 0.4699288308620453 -0.06951309740543365
0.18145783245563507 -0.2849716246128082 -0.13124248385429382
-0.03777424991130829 0.4037717878818512 -0.1677396148443222
0.04639079421758652 0.15562804043293 0.24720437824726105
-0.10952027887105942 -0.4076647460460663 -0.04642540216445923
0.18653184175491333 -0.04996703565120697 0.0657072588801384
-0.0856366828083992 0.34522512555122375 -0.1685352921485901
0.09718059748411179 -0.4244401454925537 -0.11933765560388565
0.04119951277971268 -0.17551782727241516 -0.1650887280702591
-0.020103804767131805 -0.4090808629989624 0.21996529400348663
0.03750252723693848 -0.3753282129764557 -0.20280681550502777
0.09021950513124466 -0.4183286726474762 -0.1338529735803604
0.005791671574115753 -0.09995241463184357 -0.1754290610551834
-0.048035960644483566 -0.41754940152168274 -0.08666616678237915
0.13185423612594604 0.3051493763923645 -0.012963749468326569
0.10710377246141434 0.13783691823482513 0.16494415700435638
-0.08709312975406647 0.448923796415329 -0.16227447986602783
-0.10871845483779907 0.12807250022888184 0.12066565454006195
0.12717288732528687 0.15972042083740234 0.02497810125350952
0.17368566989898682 -0.41270911693573 -0.015387507155537605
0.07116954028606415 0.10363905131816864 -0.17538206279277802
-0.10801880061626434 0.099955253303051 0.14090658724308014
-0.11847881227731705 -0.20487385988235474 0.22828543186187744
-0.05219148471951485 0.07367756217718124 0.18418370187282562
-0.11703382432460785 0.5379729866981506 -0.04317639395594597
0.13111519813537598 0.2564964294433594 -0.038092754781246185
-0.21418702602386475 -0.3715302348136902 -0.040841784328222275
0.211770698428154 -0.29507145285606384 0.0714060440659523
-0.17061936855316162 -0.0879499688744545 0.12664814293384552
-0.19936341047286987 0.06145533174276352 -0.059415966272354126
0.2073516845703125 -0.21325784921646118 -0.10482240468263626
0.15272898972034454 -0.1804652065038681 -0.15231738984584808
-0.1187812089920044 0.18718641996383667 0.13957571983337402
0.12765084207057953 0.23059116303920746 -0.0781509131193161
-0.05454409122467041 0.008567072451114655 0.20359943807125092
-0.22407598793506622 -0.21348658204078674 -0.07843980193138123
-0.15392981469631195 0.39578598737716675 -0.11769974231719971
0.050769004970788956 -0.1408836990594864 0.2504230737686157
0.016106847673654556 -0.35225409269332886 -0.20144905149936676
-0.039899326860904694 -0.18331347405910492 -0.16832411289215088
0.13191963732242584 0.24408166110515594 0.10667445510625839
-0.0772356241941452 0.33171308040618896 0.18776407837867737
0.1373230665922165 -0.4171234965324402 -0.06900423020124435
-0.09443525224924088 0.1453404426574707 0.18524736166000366
-0.15288369357585907 -0.04475276172161102 -0.1759735494852066
0.09132463485002518 -0.41964420676231384 -0.13673317432403564
0.13127709925174713 0.22934839129447937 0.08739218860864639
-0.21265198290348053 -0.24122343957424164 0.06890111416578293
-0.041229236871004105 -0.008056987076997757 0.2097555249929428
0.10983636975288391 -0.4056778848171234 -0.00545169971883297
0.13157513737678528 0.2705712914466858 0.13929815590381622
0.014760345220565796 0.46397483348846436 -0.16743266582489014
0.08201884478330612 0.19844844937324524 -0.16972202062606812
0.0061125680804252625 0.05666796490550041 0.19661763310432434
-0.06401639431715012 -0.1834549605846405 0.2509230077266693
-0.20635610818862915 -0.16907718777656555 -0.14674828946590424
-0.12010796368122101 -0.08550888299942017 0.1920374035835266
-0.03210482746362686 -0.41437235474586487 0.01924090087413788
-0.03451356291770935 0.07928760349750519 -0.1805879771709442
-0.04773787036538124 0.33214274048805237 -0.16995199024677277
0.15336957573890686 -0.3357473611831665 -0.17696630954742432
0.06344115734100342 -0.0702245905995369 0.22600217163562775
0.06314755976200104 0.07731769233942032 -0.1753937005996704
-0.1761733442544937 0.1241491287946701 -0.02934679388999939
-0.10143937170505524 -0.4032968580722809 0.06115676835179329
0.13727547228336334 -0.41266337037086487 -0.18923331797122955
-0.038872722536325455 0.4127512574195862 0.10036683827638626
0.09664113819599152 -0.40571436285972595 0.07194869220256805
0.164138525724411 0.11061430722475052 0.08057375252246857
0.073314368724823 0.22318193316459656 0.24530425667762756
-0.19572147727012634 -0.41951361298561096 -0.11741696298122406
0.21332146227359772 -0.33365827798843384 -0.0771586000919342
-0.13639996945858002 -0.364426851272583 -0.1962539702653885
0.1375233381986618 0.35750991106033325 0.016327381134033203
0.19695836305618286 -0.39019080996513367 0.01602981425821781
-0.07196985185146332 -0.15974506735801697 -0.17143979668617249
-0.03261587768793106 -0.20129680633544922 -0.16553664207458496
0.08799576759338379 0.44763368368148804 -0.16452811658382416
-0.12264496833086014 -0.08570694923400879 0.19019277393817902
-0.05136549472808838 -0.19237370789051056 -0.16526275873184204
0.14822475612163544 0.4479790925979614 -0.14473864436149597
0.10781857371330261 -0.40998369455337524 0.04287722706794739
0.21999491751194 -0.3068166971206665 -0.06190338358283043
-0.12247990816831589 -0.4174250066280365 -0.10623285174369812
-0.1372116059064865 -0.10259337723255157 -0.1719924509525299
0.2059486359357834 -0.1361047774553299 0.0018185703083872795
-0.002426084131002426 0.5578421354293823 0.07791948318481445
0.06773830950260162 -0.41203707456588745 0.09125246852636337
0.048092376440763474 0.15136629343032837 0.2417365461587906
0.21363453567028046 -0.2979695200920105 0.05277968943119049
-0.07374752312898636 -0.1594371199607849 -0.1739165186882019
-0.18170374631881714 0.1378566324710846 -0.08475084602832794
0.07182338833808899 0.05116350203752518 0.19020868837833405
-0.18018367886543274 0.04671113193035126 0.03836454078555107
0.1825120449066162 -0.27091482281684875 0.15418453514575958
0.14613868296146393 -0.4159301221370697 -0.056537169963121414
0.16591352224349976 0.05241033807396889 0.11752038449048996
-0.06863649934530258 0.17565041780471802 -0.1770293116569519
-0.09671103209257126 0.28664737939834595 -0.16807124018669128
0.1811612844467163 -0.405748575925827 0.03165022283792496
0.19213034212589264 -0.33982259035110474 0.04926631972193718
0.16891835629940033 -0.2941473722457886 -0.14812399446964264
0.11792432516813278 0.11681879311800003 0.12851637601852417
0.20588001608848572 -0.1949940323829651 0.08479532599449158
0.15227676928043365 0.3793598413467407 -0.11226844787597656
-0.07880444824695587 -0.12911465764045715 -0.17433132231235504
0.12810614705085754 -0.06332263350486755 0.1965482085943222
-0.07911666482686996 0.5612558126449585 -0.14809347689151764
-0.11258748918771744 0.5414420962333679 -0.00043664872646331787
-0.04819578677415848 -0.14301809668540955 -0.17394328117370605
0.1513078212738037 0.35108935832977295 -0.09819404035806656
-0.18626299500465393 -0.017115846276283264 -0.005730056203901768
-0.1220996230840683 -0.1765488088130951 0.21741339564323425
0.021407879889011383 -0.4121555685997009 0.15408456325531006
-0.016393005847930908 -0.3849342167377472 -0.2071584016084671
0.14812007546424866 0.42237693071365356 -0.15192975103855133
0.04089917987585068 -0.1934584379196167 -0.16212067008018494
0.05662114918231964 0.04343025013804436 0.19286562502384186
0.17853574454784393 -0.3743303120136261 0.08412440866231918
-0.10778181999921799 0.1295568197965622 0.12585175037384033
-0.15236206352710724 0.372224360704422 -0.14707966148853302
0.16040489077568054 -0.0009871423244476318 0.14522713422775269
-0.10935792326927185 0.5517422556877136 -0.01371549442410469
0.13648466765880585 0.34196293354034424 0.051973406225442886
-0.20147691667079926 -0.311502069234848 -0.13261666893959045
-0.08769286423921585 -0.16856831312179565 0.2365960031747818
-0.2083524912595749 -0.36189430952072144 0.013047609478235245
-0.07844732701778412 0.1713113784790039 -0.17658403515815735
0.15704944729804993 0.3254919648170471 -0.09688836336135864
0.1367611438035965 0.052647486329078674 0.15474186837673187
-0.060345184057950974 -0.17536163330078125 -0.16992463171482086
0.005017813295125961 0.564956545829773 -0.004208190366625786
0.11722716689109802 -0.21770194172859192 0.22668394446372986
-0.20066946744918823 -0.19092057645320892 0.0931735560297966
-0.0012481287121772766 -0.41330158710479736 -0.029377756640315056
-0.09106868505477905 -0.1694830358028412 0.2338809221982956
-0.1115606427192688 0.5447450876235962 -0.004096783697605133
-0.1892412006855011 -0.3998166620731354 0.08545447140932083
0.11827915906906128 -0.04034695029258728 0.19770197570323944
-0.12392492592334747 0.45164573192596436 -0.04751133918762207
-0.1292853057384491 -0.4202456772327423 -0.16687951982021332
-0.05819151550531387 0.25036385655403137 -0.17189748585224152
-0.1271832287311554 0.24638588726520538 -0.011829353868961334
-0.12541627883911133 0.21568824350833893 0.036086201667785645
0.21554291248321533 -0.20768946409225464 0.054955579340457916
-0.20752324163913727 -0.0050591714680194855 -0.10615529119968414
-0.19649484753608704 0.0760454535484314 -0.05421437323093414
-0.04906260594725609 -0.17089799046516418 -0.171528160572052
0.000481974333524704 0.05406925082206726 -0.1793358325958252
-0.1799621284008026 0.1422407478094101 -0.0997304692864418
0.009037788957357407 0.5689634680747986 -0.12032786756753922
-0.10786797106266022 0.43500110507011414 -0.1630231738090515
0.03108842298388481 0.4086771607398987 -0.16758978366851807
-0.137739360332489 -0.15030518174171448 -0.16837435960769653
-0.1128108948469162 -0.4043245017528534 -0.2056414932012558
-0.20239107310771942 0.047105349600315094 -0.06930926442146301
-0.021135471761226654 -0.4126317799091339 -0.010441933758556843
0.18856176733970642 -0.3816715180873871 0.057455744594335556
-0.012641646899282932 0.5653389096260071 -0.007209867238998413
0.06419309973716736 -0.15333576500415802 0.25172680616378784
0.058894794434309006 -0.41004276275634766 0.2308397740125656
-0.21606524288654327 -0.2617969810962677 -0.1058894544839859
0.17951710522174835 0.0609816275537014 -0.16492854058742523
-0.03746507689356804 -0.42133408784866333 -0.15646255016326904
0.1250496208667755 0.1507207453250885 0.08167698979377747
0.1116822138428688 0.1742587685585022 0.2187061905860901
0.010025452822446823 -0.35407590866088867 -0.20147450268268585
-0.1201808974146843 0.19157396256923676 0.11118002235889435
-0.12625594437122345 0.2570812404155731 0.06705740839242935
0.11303362250328064 -0.409179151058197 -0.022819671779870987
-0.13525153696537018 0.3728126585483551 -0.06242453306913376
0.1082819253206253 -0.4176361858844757 -0.12644389271736145
0.06424102187156677 -0.17479991912841797 0.25835397839546204
-0.1659005582332611 -0.41617438197135925 0.09175759553909302
-0.11662884801626205 -0.4208611249923706 -0.16554802656173706
0.1163153275847435 0.2302669882774353 -0.13631227612495422
0.10877545922994614 -0.411923348903656 0.09795680642127991
0.03143947198987007 0.3774998188018799 0.21921882033348083
0.2221159040927887 -0.24063825607299805 -0.0472000390291214
-0.11640617251396179 0.19648981094360352 0.18832434713840485
0.02946704626083374 0.472418874502182 0.07743767648935318
-0.19336764514446259 -0.22912323474884033 0.12612609565258026
-0.05564308166503906 0.018529511988162994 -0.18210062384605408
-0.06906644999980927 0.430978000164032 -0.1642470806837082
0.08649101108312607 -0.4071207046508789 0.03833312541246414
0.13745282590389252 0.05297248438000679 -0.1720121204853058
-0.15606027841567993 -0.3791770935058594 0.16072610020637512
0.03357430547475815 0.06624182313680649 0.19214794039726257
0.0878322497010231 0.4338802099227905 0.0611877366900444
-0.17445722222328186 -0.005249908193945885 0.08852919936180115
-0.20563632249832153 0.018838809803128242 -0.14946269989013672
-0.176504984498024 0.14681071043014526 -0.12081676721572876
0.10326441377401352 -0.41026827692985535 -0.05619633570313454
0.05707158148288727 -0.17176905274391174 0.25896844267845154
