-0.09361547231674194 -0.401303768157959 -0.20925530791282654
-0.015860382467508316 -0.2861447334289551 0.25530320405960083
-0.1483612060546875 0.029637791216373444 -0.17802967131137848
-0.11618814617395401 0.07690005004405975 -0.18112707138061523
-0.1295935958623886 0.4190624952316284 -0.060513656586408615
-0.1685396432876587 0.12348602712154388 -0.03924029320478439
0.11768819391727448 0.15213818848133087 0.15850499272346497
-0.21606335043907166 -0.2163703888654709 0.04958869516849518
-0.0292644202709198 0.5624681115150452 -0.05168445408344269
0.049310214817523956 -0.41706526279449463 0.21394741535186768
0.125935897231102 0.1580088585615158 0.0581282377243042
0.020321659743785858 -0.41011396050453186 -0.017177442088723183
0.07540147006511688 0.40341705083847046 0.08801073580980301
0.08236504346132278 0.4326796531677246 0.05876095965504646
-0.12814639508724213 0.3139961361885071 0.024667397141456604
-0.07333329319953918 -0.21432936191558838 0.24596160650253296
-0.04862050339579582 -0.056959368288517 0.22011439502239227
-0.2275017499923706 -0.21974964439868927 -0.06117791309952736
-0.20179089903831482 -0.06387394666671753 -0.16911016404628754
0.059795819222927094 -0.19270575046539307 0.2560146749019623
0.06139128655195236 -0.16013392806053162 0.24967244267463684
0.1378800868988037 0.3037351667881012 0.09594471007585526
0.011293154209852219 0.08629946410655975 0.19034531712532043
0.048772964626550674 0.5012509822845459 0.09084886312484741
-0.15268276631832123 -0.3238805830478668 -0.18151067197322845
0.09480559825897217 0.03943447396159172 0.18323734402656555
-0.2257077842950821 -0.24015824496746063 -0.09367617219686508
0.015429053455591202 0.363786518573761 0.2359122931957245
0.21953240036964417 -0.24562011659145355 -0.07935754954814911
-0.05489885434508324 0.433786004781723 0.06451651453971863
-0.08825264871120453 0.12792328000068665 -0.17815634608268738
-0.1619318425655365 0.14260520040988922 -0.16882242262363434
0.19331048429012299 -0.24998001754283905 0.13614977896213531
0.011781185865402222 0.5556055307388306 -0.15215478837490082
-0.10398987680673599 -0.053839512169361115 0.1951364427804947
-0.020206572487950325 0.5642038583755493 0.014383784495294094
0.008313629776239395 -0.18259455263614655 -0.16547797620296478
0.12202657759189606 -0.039348769932985306 0.19305214285850525
-0.11087918281555176 0.14941278100013733 0.137505441904068
-0.20089411735534668 0.07295713573694229 -0.1657363772392273
-0.12840986251831055 0.28126099705696106 0.14172673225402832
-0.1269225925207138 0.2687798738479614 0.04670565575361252
-0.2177112102508545 -0.22401587665081024 0.042510367929935455
0.18109141290187836 -0.23944222927093506 -0.12417498230934143
0.10454104840755463 -0.16044020652770996 0.22856393456459045
-0.12647229433059692 0.23805278539657593 0.0560811385512352
-0.19981089234352112 -0.17293410003185272 0.01538013480603695
-0.1340368539094925 0.43368804454803467 -0.08991451561450958
-0.2009379267692566 0.06801246106624603 -0.1659555435180664
-0.14252465963363647 -0.07362419366836548 -0.17716507613658905
0.21096651256084442 -0.370710164308548 -0.13108403980731964
0.20983454585075378 -0.38691064715385437 -0.04623488709330559
0.0035379305481910706 0.5647613406181335 -0.01953240856528282
0.06668729335069656 0.17236904799938202 0.2554161548614502
-0.11738763004541397 0.5486929416656494 -0.09130492806434631
0.1336912363767624 0.2383233904838562 0.1705847680568695
-0.1992798149585724 -0.3000723421573639 -0.1263807713985443
-0.11108587682247162 0.42356565594673157 -0.16434790194034576
0.13684864342212677 0.3224846422672272 0.040689870715141296
-0.14926216006278992 -0.3225770890712738 -0.18264514207839966
0.04789251089096069 0.31856289505958557 0.22900983691215515
-0.05873040482401848 -0.1870681643486023 0.2472221851348877
-0.12801577150821686 0.09569010138511658 0.10041061788797379
0.1965835839509964 -0.41261550784111023 -0.023057222366333008
-0.04576320946216583 0.42188310623168945 -0.1672009974718094
-0.15770182013511658 0.30376461148262024 -0.13641521334648132
-0.06825439631938934 -0.20049802958965302 0.2444985955953598
-0.016921740025281906 0.4399816393852234 -0.16758494079113007
0.052791304886341095 -0.4159381687641144 0.18623456358909607
0.09395897388458252 0.07323800027370453 0.17328158020973206
0.059238042682409286 -0.06962594389915466 0.22295363247394562
0.14308452606201172 -0.199912428855896 0.21373659372329712
0.131132572889328 0.2270774394273758 -0.004231162369251251
0.031561799347400665 0.3947503864765167 0.17146451771259308
-0.06106323376297951 0.4115091562271118 -0.1676330268383026
-0.04717189446091652 0.5594676733016968 0.012998383492231369
0.19567643105983734 -0.09370233118534088 0.021438244730234146
-0.19856612384319305 -0.4064671993255615 0.022071518003940582
-0.0307889636605978 0.12933248281478882 -0.17794187366962433
0.21772663295269012 -0.2704204320907593 0.06195095181465149
0.135339617729187 0.23727315664291382 0.17224864661693573
0.20196588337421417 0.09594634175300598 -0.11639460176229477
-0.06667367368936539 0.1324312686920166 -0.17808836698532104
-0.08738509565591812 0.09391306340694427 0.15128906071186066
-0.05126120150089264 0.556877613067627 0.03807079792022705
0.038231149315834045 -0.2929716110229492 -0.19020801782608032
0.08015013486146927 -0.181331604719162 0.24833175539970398
-0.1107192412018776 0.17971372604370117 0.2003481686115265
0.18583956360816956 0.04684152454137802 0.04572973772883415
0.05654927343130112 0.3074348270893097 0.22320786118507385
0.026504848152399063 0.566428542137146 -0.008352378383278847
-0.11733616143465042 0.1898917257785797 -0.13324660062789917
-0.06389981508255005 -0.1045147255063057 -0.17669789493083954
-0.024681217968463898 0.4390454590320587 -0.16918186843395233
0.15626700222492218 -0.39891958236694336 0.12965430319309235
0.04912808537483215 -0.1711014360189438 0.2496621161699295
-0.012752840295433998 0.5641676187515259 -0.016610730439424515
-0.2189694494009018 -0.20287804305553436 -0.02901892550289631
-0.1802918165922165 -0.3484838902950287 0.12148527801036835
0.10857690125703812 0.11530226469039917 0.15345391631126404
-0.11360485851764679 0.4498647451400757 0.026111098006367683
-0.1802775114774704 -0.0743844211101532 0.08661951124668121
-0.1587616503238678 -0.23468826711177826 0.1814066618680954
-0.1896531879901886 -0.42172878980636597 -0.04691922664642334
-0.17642450332641602 -0.23200809955596924 -0.15092207491397858
0.17122754454612732 -0.262134313583374 -0.13499225676059723
0.2195659726858139 -0.2549695372581482 0.05458666384220123
-0.08870726823806763 0.10163754969835281 0.15105579793453217
-0.21690145134925842 -0.18604792654514313 -0.05308060348033905
-0.06645798683166504 0.4423222243785858 0.05419236049056053
0.05402551591396332 0.3921380639076233 0.12023033201694489
-0.04698401317000389 0.10956496000289917 -0.1792352795600891
-0.1272665411233902 0.11224702000617981 0.07324783504009247
-0.21573969721794128 -0.10823608934879303 -0.07524657994508743
0.14222323894500732 -0.3834586441516876 0.15995435416698456
0.13283498585224152 0.3438122272491455 0.1001039445400238
-0.12700115144252777 0.32869789004325867 0.07362167537212372
-0.19119206070899963 0.02759954333305359 -0.03449156507849693
-0.09576266258955002 -0.41897931694984436 -0.057864073663949966
-0.06512367725372314 -0.14432889223098755 -0.1740749329328537
-0.1284840703010559 0.3238576650619507 -0.014847241342067719
-0.21391861140727997 -0.0966508686542511 -0.10305154323577881
-0.019606754183769226 0.0648113265633583 -0.17995457351207733
0.20397798717021942 0.013830265030264854 -0.06346368789672852
0.21196800470352173 -0.34730854630470276 -0.12563177943229675
0.18381132185459137 0.0918077602982521 0.03639070689678192
0.0147828608751297 0.12344679236412048 0.2253371775150299
0.19936829805374146 -0.40992701053619385 -0.01772751286625862
0.0180654376745224 0.5641615390777588 -0.03866250440478325
0.035749249160289764 0.3675791621208191 0.22785751521587372
0.03556973859667778 0.1990763247013092 0.2546735405921936
-0.12542372941970825 0.04761664569377899 0.147345170378685
-0.09328731894493103 -0.415397047996521 0.1503283679485321
-0.12918096780776978 0.30890101194381714 0.01904907636344433
-0.12920717895030975 0.4831710755825043 -0.05100938677787781
-0.11813858151435852 -0.09161292016506195 -0.1757633537054062
-0.017979450523853302 0.5630254745483398 -0.016951408237218857
0.04834656044840813 0.36315059661865234 0.19891253113746643
0.07392652332782745 0.24477754533290863 -0.1697206199169159
0.07305624336004257 -0.15946650505065918 0.2461548149585724
0.12921617925167084 0.2030414640903473 0.0998307541012764
0.1783072054386139 -0.1772356629371643 0.13302113115787506
-0.12462130934000015 -0.41576915979385376 0.13339199125766754
-0.1626245230436325 -0.4154919981956482 0.08818396925926208
-0.1378156691789627 0.041498295962810516 0.135959193110466
-0.016967106610536575 -0.3446793258190155 -0.20433270931243896
-0.07262547314167023 -0.228974848985672 0.24737335741519928
0.026024136692285538 -0.33362144231796265 0.2560080885887146
-0.002100624144077301 0.4300670623779297 -0.1680665910243988
-0.20692256093025208 -0.3547120690345764 0.013897638767957687
0.13645684719085693 0.2933065593242645 0.07035885751247406
0.03331721946597099 -0.0576101690530777 0.22333739697933197
0.1356225460767746 -0.38282299041748047 0.17499321699142456
0.09499432146549225 -0.19946248829364777 -0.15771378576755524
-0.12906530499458313 0.4169345200061798 -0.013845637440681458
-0.13465021550655365 -0.38358962535858154 -0.204672172665596
-0.1296316683292389 0.4083045721054077 -0.041581958532333374
-0.1550801694393158 -0.1282816380262375 -0.17246444523334503
-0.1780814230442047 -0.2452555149793625 -0.14425653219223022
-0.03019552305340767 -0.41807788610458374 0.18194502592086792
0.10576263070106506 -0.4118618071079254 -0.04232196882367134
0.1024874895811081 0.4448034465312958 -0.1643505096435547
0.22145308554172516 -0.19829759001731873 -0.06462373584508896
0.09798933565616608 0.04582906886935234 0.18029634654521942
-0.12318657338619232 0.4998822808265686 -0.011001575738191605
-0.10909661650657654 -0.41631317138671875 0.14464761316776276
-0.013245813548564911 0.3686455488204956 0.22981494665145874
-0.08669329434633255 -0.41790592670440674 -0.08205193281173706
0.08087360113859177 -0.4180930554866791 0.026275217533111572
0.18304865062236786 -0.4069873094558716 0.026135873049497604
-0.08558260649442673 0.48416459560394287 -0.16249820590019226
-0.12463656067848206 0.2263043224811554 0.08220008760690689
-0.09491529315710068 -0.40287747979164124 -0.2094181776046753
0.02688068151473999 -0.41926804184913635 -0.14494195580482483
-0.11026041954755783 -0.34076711535453796 0.21820583939552307
-0.10865671932697296 -0.11297386884689331 -0.17347893118858337
0.15822380781173706 0.30787336826324463 -0.11335695534944534
0.22344988584518433 -0.26243582367897034 0.03709270805120468
-0.09753573685884476 -0.41898632049560547 -0.20547883212566376
-0.04011952131986618 0.5610833764076233 -0.03702689707279205
-0.042630068957805634 0.493807852268219 0.08474395424127579
-0.07835729420185089 -0.4163362383842468 0.1476995050907135
0.20071610808372498 0.022010870277881622 -0.11888359487056732
0.206513911485672 -0.032575830817222595 -0.06741006672382355
0.04613720253109932 -0.13650496304035187 0.24534755945205688
-0.16018134355545044 -0.423988938331604 -0.17392049729824066
-0.026255354285240173 0.03959907591342926 0.19799397885799408
0.1590157002210617 -0.41553011536598206 -0.046289343386888504
0.13258671760559082 0.26976579427719116 0.037790387868881226
0.18663948774337769 -0.3882710635662079 0.06239359825849533
0.19871638715267181 -0.1997421532869339 0.10491728782653809
0.17282143235206604 -0.3635095953941345 -0.18320979177951813
-0.08208031207323074 0.008878426626324654 0.19138464331626892
-0.015433330088853836 -0.41372978687286377 0.1148429661989212
0.21625801920890808 -0.22084325551986694 -0.09628656506538391
0.08401656150817871 0.2522227168083191 0.2296774983406067
0.08491688966751099 -0.1684715747833252 0.23881268501281738
0.14510464668273926 0.2784090042114258 -0.0887535810470581
-0.0331256203353405 -0.42032286524772644 -0.20353659987449646
0.22160866856575012 -0.300182580947876 0.015064068138599396
0.1042083278298378 -0.04921860247850418 0.20706579089164734
-0.1688452661037445 0.05500338226556778 0.07007244229316711
-0.11821766942739487 0.4322792887687683 -0.05097600072622299
-0.029102884232997894 0.42025718092918396 -0.16793063282966614
-0.026897381991147995 0.18632903695106506 0.254109263420105
-0.17484523355960846 0.14832037687301636 -0.13310606777668
-0.08856752514839172 0.13744930922985077 -0.17811435461044312
0.19916671514511108 -0.3388899862766266 0.04229085519909859
-0.13140368461608887 0.3619159162044525 -0.02814328670501709
-0.12194366753101349 0.50923752784729 -0.0026978105306625366
0.1385927051305771 0.30572545528411865 0.0029940009117126465
-0.1223776713013649 0.21283471584320068 0.11236812174320221
-0.0029676537960767746 0.21277981996536255 -0.1744527518749237
-0.1400182843208313 -0.4187140464782715 0.033191416412591934
0.1437990516424179 -0.41889193654060364 -0.16835054755210876
0.1375398337841034 0.3574555516242981 -0.0650399774312973
-0.14628681540489197 0.13269449770450592 -0.046797048300504684
0.1863446831703186 -0.020652085542678833 0.021305646747350693
-0.20702102780342102 -0.004246870055794716 -0.12258370220661163
0.1764449179172516 -0.06321817636489868 -0.15902601182460785
0.13141846656799316 0.2313448190689087 0.09562041610479355
-0.19750064611434937 -0.06192666292190552 -0.026283353567123413
-0.0038885660469532013 -0.40930625796318054 0.009599003940820694
-0.06267741322517395 0.29406243562698364 -0.17197665572166443
-0.026925623416900635 -0.1842871904373169 -0.16841623187065125
0.12793397903442383 0.22456766664981842 -0.060877468436956406
0.13993197679519653 -0.01737147383391857 0.17118528485298157
0.17634360492229462 0.10643702745437622 0.024633966386318207
0.0781264454126358 0.19033309817314148 -0.1694764345884323
-0.1849214881658554 -0.4089092016220093 0.0675160139799118
0.09364037215709686 0.22478097677230835 -0.1651209443807602
-0.11863882094621658 -0.08719852566719055 -0.1744677871465683
-0.10471595078706741 0.037070825695991516 -0.18133439123630524
-0.11497668921947479 0.1513204425573349 0.10231643170118332
0.12118680030107498 0.2199297547340393 -0.09834901988506317
0.13007551431655884 0.27216410636901855 0.003684133291244507
0.13549160957336426 0.24527838826179504 0.16102415323257446
-0.001898195594549179 0.5649183392524719 -0.026191387325525284
-0.206331267952919 0.004779784008860588 -0.12870483100414276
0.1290913224220276 -0.4135458171367645 -0.08010241389274597
-0.08094201236963272 0.45839038491249084 -0.16438156366348267
-0.2191000133752823 -0.15676215291023254 -0.10769431293010712
0.13508914411067963 0.42935407161712646 -0.011692963540554047
-0.14834322035312653 0.279563844203949 -0.1279078722000122
0.10896196961402893 -0.19926469027996063 0.23917020857334137
0.08643655478954315 -0.17122966051101685 0.24151313304901123
0.20688538253307343 -0.4009731411933899 -0.05893026292324066
0.13011905550956726 -0.37970080971717834 0.17691569030284882
-0.01709226332604885 0.38797464966773987 0.19356083869934082
0.19446606934070587 -0.40574318170547485 -0.003982355818152428
0.11531674861907959 -0.056693606078624725 0.20301774144172668
-0.11056637763977051 -0.416496604681015 -0.08500161021947861
-0.2069431096315384 -0.15941429138183594 -0.15292508900165558
0.05361159145832062 -0.42410874366760254 -0.1850980520248413
0.11791864782571793 -0.4107268452644348 0.024539019912481308
-0.041391193866729736 0.3635430335998535 0.16843841969966888
0.12549598515033722 -0.224095419049263 -0.14800547063350677
0.13437649607658386 0.4853430390357971 -0.10826462507247925
0.10318566858768463 0.35988783836364746 0.12624946236610413
-0.132094606757164 -0.10019484907388687 0.18412113189697266
-0.10743562132120132 0.5574567317962646 -0.14203375577926636
0.11187964677810669 -0.16061800718307495 -0.1625111699104309
0.2094038724899292 -0.35408133268356323 -0.13284353911876678
-0.20326875150203705 0.09056999534368515 -0.14632335305213928
0.010505395010113716 0.39107319712638855 0.20416955649852753
0.2117006927728653 -0.356672078371048 -0.12310754507780075
-0.16296881437301636 0.10896532237529755 0.01407394278794527
-0.14880402386188507 0.4428955614566803 -0.12404047697782516
0.20313727855682373 -0.021967558190226555 -0.03423495590686798
-0.11981463432312012 0.3450319170951843 -0.16570180654525757
-0.09110064804553986 -0.3776763677597046 -0.2099008709192276
0.202311709523201 -0.016138730570673943 -0.047536700963974
0.0090813422575593 0.371484637260437 0.23593153059482574
-0.12349974364042282 0.20481586456298828 -0.031126372516155243
-0.2032996267080307 0.09364442527294159 -0.15151479840278625
-0.20380769670009613 0.012380722910165787 -0.06535990536212921
0.16984347999095917 0.11195556819438934 0.03557829558849335
0.15060977637767792 -0.3255828320980072 -0.17665815353393555
-0.09734649211168289 0.061956100165843964 -0.1808120310306549
-0.1823807656764984 -0.3319779336452484 0.1287558376789093
-0.1958770751953125 -0.40221795439720154 0.056568823754787445
-0.11294011026620865 0.1810072660446167 0.19636809825897217
-0.18481171131134033 -0.011247824877500534 -0.17518454790115356
0.12206559628248215 -0.4138985872268677 0.06171689182519913
-0.18026646971702576 -0.07411833107471466 0.08651699125766754
-0.0011717472225427628 0.23165766894817352 0.25112852454185486
0.0037509799003601074 -0.3757244646549225 0.24918729066848755
0.09092608094215393 -0.10827483981847763 0.2278655767440796
0.18014228343963623 0.0884324386715889 0.05135359242558479
0.09488831460475922 -0.4253484606742859 -0.1322365701198578
0.15769973397254944 0.0699557214975357 0.12420208752155304
-0.14888635277748108 -0.05715238302946091 -0.1755073517560959
0.11890038102865219 -0.20525410771369934 0.2332482486963272
-0.18626411259174347 -0.14488248527050018 0.031037084758281708
0.10444574058055878 -0.3726416826248169 0.21219755709171295
0.2124643474817276 -0.37329134345054626 -0.12763532996177673
-0.12466785311698914 0.22718724608421326 0.06412020325660706
0.09399208426475525 0.37344545125961304 0.11711513996124268
-0.2055177092552185 -0.3249521255493164 0.0724879577755928
-0.06691301614046097 0.5604525804519653 -0.029558449983596802
-0.12329776585102081 0.5276033282279968 -0.05886966362595558
0.15262319147586823 -0.4133681654930115 0.09636768698692322
0.12263286113739014 -0.36231353878974915 -0.19913184642791748
0.1832464337348938 0.04006560891866684 0.07555154711008072
-0.0467534102499485 0.2934996485710144 -0.17307984828948975
-0.19482538104057312 -0.2498445361852646 -0.13708463311195374
-0.19898846745491028 -0.3131096363067627 -0.1378391534090042
-0.18783998489379883 -0.03231390565633774 -0.0072702681645751
0.13312199711799622 0.2735721468925476 0.04206656292080879
-0.04247748851776123 0.19338127970695496 0.2516655921936035
0.06624191999435425 0.018129706382751465 -0.17611727118492126
0.11341676115989685 0.4802418053150177 0.04564435034990311
0.015108954161405563 -0.4137475788593292 0.002072572708129883
0.12661610543727875 0.15617430210113525 -0.05621524155139923
0.20583699643611908 -0.021550476551055908 -0.046712376177310944
0.12285283952951431 -0.24525803327560425 -0.15502718091011047
0.1768912374973297 -0.14182926714420319 0.14250071346759796
-0.09009505808353424 0.38201719522476196 0.10247044265270233
0.04017646610736847 0.10517313331365585 0.19519349932670593
-0.12099386006593704 0.5234420299530029 -0.0007912348955869675
0.11396150290966034 -0.4157114624977112 -0.1367802917957306
0.030212802812457085 0.4390726089477539 0.10196887701749802
0.13778169453144073 0.44039154052734375 -0.1567942351102829
-0.2052573412656784 -0.04920222610235214 -0.05167514085769653
0.17970864474773407 0.09070318937301636 0.01378723606467247
0.07163431495428085 0.17525900900363922 0.2536352574825287
-0.14628808200359344 -0.06077282130718231 -0.1764562577009201
-0.07692626863718033 0.32674360275268555 0.1901204138994217
-0.1364612728357315 -0.4129383862018585 0.15887145698070526
0.09723710268735886 -0.03522558510303497 0.20749647915363312
-0.07360781729221344 0.15290722250938416 -0.17748792469501495
-0.18713293969631195 -0.14440493285655975 0.06416235864162445
0.03451370447874069 0.36153966188430786 0.23723644018173218
0.09957033395767212 -0.4069661796092987 0.05025187134742737
0.09028796851634979 -0.41852283477783203 0.02001810073852539
-0.1797659695148468 -0.1054503321647644 -0.17267709970474243
-0.12622953951358795 0.2556267976760864 0.10607326030731201
-0.08570542931556702 0.3966779410839081 0.09238192439079285
-0.12248946726322174 0.23934221267700195 -0.11376935988664627
-0.16476941108703613 -0.013389753177762032 0.1077418401837349
-0.12357253581285477 0.21008846163749695 0.08679284155368805
-0.14919927716255188 -0.424346387386322 -0.009253012016415596
0.1773167848587036 -0.35913145542144775 0.09264155477285385
-0.04206741601228714 0.033350080251693726 0.19761300086975098
0.06955480575561523 -0.4098924398422241 0.05658222734928131
0.14124584197998047 -0.046056054532527924 0.17942361533641815
0.1085330992937088 0.1635739654302597 0.22901475429534912
0.08972141891717911 -0.022244282066822052 0.20261120796203613
-0.1214383989572525 -0.36941400170326233 0.19416272640228271
-0.12142641097307205 0.5225127935409546 0.000788375735282898
-0.12576191127300262 0.2416469156742096 0.060346562415361404
-0.1754390299320221 -0.4240149259567261 -0.01749432645738125
-0.06306398659944534 -0.4152843654155731 -0.20715712010860443
0.16965898871421814 -0.4177316129207611 -0.11127402633428574
0.22363749146461487 -0.22816872596740723 -0.030370259657502174
0.21671836078166962 -0.357744038105011 -0.08123686164617538
-0.20825552940368652 -0.018592244014143944 -0.1123359352350235
0.03894086927175522 -0.36415794491767883 0.252874493598938
-0.05549522489309311 0.41123291850090027 -0.16857367753982544
-0.024920228868722916 -0.4175136387348175 0.19861143827438354
0.15454526245594025 -0.005227470770478249 0.15160603821277618
0.10674133896827698 -0.15229502320289612 -0.16446153819561005
-0.04326323792338371 0.010769322514533997 -0.18195123970508575
-0.1829463690519333 0.05972021818161011 0.010667908936738968
0.05296047031879425 -0.3816705346107483 -0.20722942054271698
0.012045906856656075 0.360826700925827 0.23874056339263916
-0.06596314907073975 -0.07879141718149185 -0.1785583645105362
-0.027539171278476715 -0.179807648062706 -0.16879911720752716
0.02874954417347908 -0.20951735973358154 -0.1678214818239212
-0.12518903613090515 0.22744588553905487 -0.05235973000526428
-0.09683748334646225 0.3975773751735687 0.08245027810335159
0.21341565251350403 -0.39200451970100403 -0.07260236889123917
-0.005130568519234657 0.2987581193447113 -0.17160217463970184
0.2075406163930893 -0.36819857358932495 -0.13594108819961548
-0.01909850724041462 0.5627931356430054 -0.022645533084869385
0.1868322342634201 -0.018096040934324265 0.014847539365291595
-0.08418519049882889 0.09408021718263626 0.15330393612384796
0.008957291021943092 0.40073803067207336 0.185049369931221
-0.08021853864192963 0.4935721158981323 0.0755680724978447
-0.18498119711875916 -0.0676015093922615 0.04579197242856026
0.18529871106147766 -0.05241011455655098 0.06142335385084152
0.12600286304950714 0.1640349179506302 0.01708988845348358
0.1344446837902069 0.04358938708901405 0.15686753392219543
-0.05364927276968956 -0.21099670231342316 -0.16701823472976685
0.06797502934932709 0.16291086375713348 0.25448209047317505
0.19747194647789001 -0.23374521732330322 0.11810779571533203
-0.1265353560447693 0.27825927734375 -0.05462966859340668
-0.16786076128482819 0.04303640499711037 0.08174476027488708
0.13535574078559875 0.4111432731151581 -0.06957483291625977
-0.16638833284378052 -0.1937190294265747 0.1625816375017166
0.030368143692612648 0.43088576197624207 0.11096454411745071
0.14834941923618317 -0.4199674725532532 -0.16397777199745178
0.20296569168567657 -0.2971563935279846 0.10243742913007736
-0.043233953416347504 0.0911235585808754 -0.17963550984859467
-0.010803891345858574 0.37287819385528564 0.22996127605438232
0.09061506390571594 0.5549898743629456 -0.14766426384449005
-0.07258400321006775 -0.19145087897777557 0.24058954417705536
0.1283223032951355 0.4828379154205322 0.007968220859766006
-0.09621372818946838 0.5337713360786438 0.04465513676404953
0.13769349455833435 0.34433233737945557 0.05848740041255951
0.13722917437553406 0.26806288957595825 0.1302151083946228
0.13265644013881683 0.4756861925125122 -0.09303396195173264
0.08546251803636551 0.20754610002040863 -0.16863913834095
0.032879602164030075 -0.3721441328525543 0.24804706871509552
0.20216841995716095 0.043186724185943604 -0.10527351498603821
-0.12843085825443268 0.312489777803421 0.03974873945116997
0.1595783531665802 0.03781627491116524 0.13059067726135254
-0.06426025182008743 -0.08965175598859787 -0.17767558991909027
-0.10310886800289154 -0.3091842532157898 -0.1908532977104187
0.11129937320947647 -0.1785387098789215 0.23361539840698242
0.10140464454889297 -0.41049724817276 0.015789706259965897
0.1755506992340088 -0.4187712073326111 -0.10749741643667221
-0.22591079771518707 -0.24061065912246704 -0.0737084299325943
0.023568274453282356 0.10307635366916656 0.19669637084007263
0.08252563327550888 -0.4139832556247711 0.0321132056415081
0.2013530731201172 0.1002884954214096 -0.09162874519824982
-0.12233488261699677 0.2078104019165039 -0.04905504733324051
0.0961848571896553 -0.10882927477359772 0.22544220089912415
0.16552095115184784 -0.3636886775493622 -0.18574032187461853
0.14268989861011505 -0.4129217267036438 -0.021876858547329903
-0.022141018882393837 0.4447266757488251 0.09123289585113525
-0.01691913604736328 0.33709537982940674 0.23955824971199036
-0.022410886362195015 0.3851398825645447 0.18246233463287354
0.14031356573104858 0.3255905210971832 0.10628870129585266
-0.1569913625717163 -0.424589067697525 -0.11958557367324829
0.19605158269405365 -0.1842956244945526 0.11009112745523453
4.8374757170677185e-05 0.23007723689079285 0.2515571117401123
-0.1961623728275299 -0.41332459449768066 -0.10485454648733139
0.11401025950908661 -0.42216652631759644 -0.10699653625488281
0.2012428492307663 0.02440941147506237 -0.14284378290176392
0.2146093100309372 -0.35015302896499634 -0.07377133518457413
-0.07592801749706268 0.5589869022369385 0.0039571961387991905
-0.09810905903577805 0.10808385163545609 0.13559553027153015
-0.06069384142756462 0.39126017689704895 -0.16905102133750916
-0.18054230511188507 0.08141962438821793 0.006071589887142181
0.11621855199337006 0.2402675449848175 0.2078607678413391
-0.0462300181388855 0.22411420941352844 0.24540962278842926
0.11702890694141388 -0.40938177704811096 -0.031239092350006104
-0.1172718033194542 0.2586553394794464 -0.14643968641757965
0.2161475569009781 -0.24733279645442963 0.06488009542226791
-0.021573025733232498 0.43470466136932373 0.10483349114656448
0.0831679105758667 -0.41447168588638306 -0.011038386262953281
0.003077044151723385 0.23880913853645325 -0.17355655133724213
0.21681825816631317 -0.2490207701921463 0.06126083806157112
0.19547390937805176 -0.41336339712142944 -0.13709382712841034
-0.013315849006175995 -0.4191308319568634 0.10126032680273056
0.18373960256576538 -0.10448402166366577 0.09966893494129181
-0.16423429548740387 -0.12731243669986725 -0.1727326661348343
-0.11794672161340714 -0.08460313081741333 0.1919461488723755
0.09535443037748337 -0.10760906338691711 0.22531923651695251
-0.1237410455942154 -0.42069098353385925 -0.11110252141952515
0.07152748107910156 0.22041067481040955 0.2415313422679901
-0.20099382102489471 -0.2003442943096161 -0.14754624664783478
0.027170497924089432 0.3600488603115082 0.23586127161979675
0.21176321804523468 -0.102176733314991 -0.05921679362654686
0.04035647213459015 0.312358021736145 0.226655974984169
0.22028544545173645 -0.26931923627853394 0.05404406785964966
0.1580188274383545 -0.07973174005746841 0.17130020260810852
-0.2157004177570343 -0.31196755170822144 -0.09120075404644012
0.1288607120513916 0.2355736941099167 -0.034520912915468216
0.10112156718969345 -0.41579073667526245 -0.11772246658802032
0.11046717315912247 -0.41191133856773376 0.06013604253530502
0.044873617589473724 0.16131243109703064 0.26026397943496704
0.13498646020889282 0.41619279980659485 -0.0060264915227890015
-0.14052119851112366 -0.42089205980300903 -0.19031696021556854
0.18811798095703125 -0.03033670410513878 -0.15963584184646606
0.18546831607818604 -0.01493450254201889 0.016293596476316452
-0.12595537304878235 -0.42137500643730164 -0.19465795159339905
0.1396656185388565 -0.4110570251941681 0.03725867345929146
-0.18014056980609894 -0.0017089308239519596 0.057560648769140244
0.21502141654491425 -0.3783104419708252 -0.11654680222272873
-0.00022880733013153076 -0.4191140830516815 -0.17931494116783142
-0.013467135839164257 0.46299970149993896 0.0834541991353035
-0.015608709305524826 -0.27431488037109375 -0.18761776387691498
0.05449548363685608 0.21904094517230988 -0.1710616648197174
-0.10462470352649689 -0.41477110981941223 0.14848767220973969
0.20774045586585999 -0.30885079503059387 0.0769188404083252
0.06092652678489685 0.09642493724822998 -0.1756744086742401
-0.009264429099857807 0.3872513473033905 0.20689250528812408
-0.055141009390354156 0.2952542304992676 -0.1726800799369812
0.12315180897712708 0.17356517910957336 0.1524685025215149
0.041669607162475586 -0.16955576837062836 0.252779096364975
0.15072043240070343 0.1056566834449768 0.09790820628404617
-0.13075393438339233 0.4646376371383667 -0.05123491212725639
-0.12872585654258728 0.3081880211830139 -0.005031639710068703
0.1771017163991928 -0.4168566167354584 -0.04373093694448471
-0.17945903539657593 -0.137090265750885 0.11536888778209686
-0.14066606760025024 0.14467425644397736 -0.17111317813396454
-0.06701947748661041 -0.08386196196079254 -0.17809246480464935
0.06476861983537674 -0.4204317033290863 -0.16531242430210114
0.19897669553756714 -0.2542996108531952 0.12205406278371811
0.1915661096572876 -0.10466793179512024 -0.14721865952014923
0.13900069892406464 0.011668669991195202 0.1616349071264267
0.13732075691223145 0.3941686153411865 0.05220819264650345
0.15830810368061066 -0.36819779872894287 0.13200049102306366
0.12312700599431992 -0.41982218623161316 -0.14731881022453308
-0.0295247919857502 -0.19463303685188293 -0.16793455183506012
-0.1635170727968216 -0.15663738548755646 -0.168491393327713
-0.2055997997522354 -0.06280544400215149 -0.16740365326404572
0.1861460953950882 0.041732653975486755 0.016733095049858093
0.1059064269065857 -0.41752001643180847 -0.11804021894931793
0.12512002885341644 0.22942285239696503 -0.091123566031456
-0.0815308466553688 0.06368239969015121 0.17511889338493347
0.04528863728046417 -0.3945060074329376 0.24284252524375916
0.04241769388318062 0.016471408307552338 -0.17762097716331482
0.1553945392370224 0.3021183907985687 -0.105110302567482
0.1493828445672989 -0.16376549005508423 0.2052033245563507
-0.17856495082378387 -0.4206548035144806 -0.17138051986694336
0.13222499191761017 0.32708606123924255 -0.16080786287784576
-0.039131470024585724 0.2954152822494507 -0.17298127710819244
-0.17256571352481842 -0.3063217103481293 -0.16301430761814117
0.0819680243730545 -0.2629877030849457 -0.17550218105316162
0.18329265713691711 -0.3852582275867462 0.07321928441524506
0.014427049085497856 0.21961480379104614 0.25473594665527344
-0.04494776204228401 0.43675944209098816 0.06446049362421036
0.0647202804684639 0.01066144835203886 0.20109915733337402
0.1178130954504013 -0.06808944046497345 0.20440509915351868
0.13726893067359924 0.30558788776397705 0.06112721562385559
0.19227378070354462 -0.3829689621925354 0.0410061813890934
-0.02824307233095169 -0.4226508140563965 -0.19983650743961334
0.10256047546863556 0.15674586594104767 0.23026427626609802
-0.01908520609140396 0.5673907399177551 -0.11689366400241852
0.2048657387495041 -0.039735086262226105 -0.09100339561700821
-0.07818540930747986 0.558252215385437 -0.14886651933193207
0.12174247950315475 0.17303204536437988 0.1925099492073059
0.08418288826942444 -0.41127878427505493 0.047463856637477875
-0.04147380590438843 0.13455772399902344 0.2270798236131668
0.20184724032878876 -0.04764225333929062 -0.12255548685789108
-0.07342281192541122 -0.15095287561416626 -0.1726316511631012
0.18719790875911713 0.03772922605276108 0.03188253939151764
0.0882982462644577 0.565139651298523 -0.09124438464641571
0.013935452327132225 0.2985265552997589 0.22232572734355927
0.1611693650484085 -0.18834812939167023 0.18984758853912354
0.13126330077648163 0.22918838262557983 0.08309097588062286
-0.1666116863489151 -0.3487529456615448 0.14790529012680054
0.13237513601779938 0.12623336911201477 0.059843696653842926
-0.049743108451366425 -0.004297628998756409 -0.18106240034103394
0.17299669981002808 0.13242504000663757 -0.038613129407167435
0.09015599638223648 -0.08846015483140945 0.22213143110275269
0.21586371958255768 -0.32164308428764343 -0.06421829015016556
0.1347760111093521 0.28640520572662354 0.02850337326526642
-0.056680772453546524 0.5630571842193604 -0.13124951720237732
0.20054002106189728 -0.40672698616981506 -0.15513750910758972
-0.1865692436695099 -0.03369796276092529 0.04095606505870819
-0.058836594223976135 -0.17465615272521973 -0.1706225872039795
-0.07208295166492462 0.4098956882953644 -0.16757354140281677
0.14096425473690033 -0.4037412703037262 -0.20062650740146637
-0.1921771615743637 -0.30375996232032776 -0.14529208838939667
0.11440547555685043 0.5483168959617615 -0.012734036892652512
0.17842496931552887 -0.1565878987312317 0.13358885049819946
0.1260349601507187 0.1783638745546341 -0.005308501422405243
-0.07751856744289398 0.2308466136455536 -0.1704021394252777
-0.027934398502111435 0.4356275796890259 -0.1683693826198578
0.09266522526741028 -0.41503337025642395 0.035929255187511444
0.22074097394943237 -0.2672799825668335 0.03958788514137268
-0.18326625227928162 -0.4195947051048279 -0.05169159173965454
0.13644886016845703 -0.41441836953163147 -0.031126799061894417
0.10907764732837677 0.08116861432790756 0.16329652070999146
-0.20877933502197266 -0.02558986097574234 -0.06890615820884705
0.12993623316287994 0.22163444757461548 0.01407516747713089
0.12379662692546844 0.16079497337341309 0.09546596556901932
-0.1819860339164734 0.07146145403385162 0.02296976000070572
-0.14204025268554688 -0.4147176742553711 0.08569377660751343
0.04454423859715462 0.289394348859787 -0.16993111371994019
0.06392974406480789 0.32468366622924805 -0.16863317787647247
0.17747807502746582 0.09827502816915512 0.019601894542574883
0.08231008052825928 -0.02154676616191864 0.20338740944862366
0.1282253861427307 0.2168031632900238 -0.04778822138905525
0.09434002637863159 -0.4156673550605774 -0.10348346084356308
0.1501029133796692 0.1471240520477295 -0.09643760323524475
0.12042126059532166 -0.022797606885433197 0.1883896440267563
-0.0281020887196064 -0.401748925447464 -0.2107303887605667
-0.12286524474620819 -0.30261433124542236 0.21791835129261017
0.13101378083229065 -0.12471479177474976 -0.16374313831329346
0.13549473881721497 -0.37577706575393677 0.17962513864040375
-0.14937902987003326 -0.08548439294099808 0.16175976395606995
0.14118032157421112 0.10678372532129288 0.11199881136417389
-0.18621748685836792 -0.023720311000943184 0.026922788470983505
0.18856805562973022 -0.40759822726249695 0.015980824828147888
-0.15432552993297577 -0.28527793288230896 -0.16242942214012146
-0.12682309746742249 0.35558176040649414 0.06678807735443115
0.10106804966926575 -0.40167540311813354 0.04666430130600929
0.1277589499950409 -0.180869922041893 0.2230163961648941
-0.19875521957874298 -0.3010239601135254 -0.12902125716209412
0.20877492427825928 -0.0716879665851593 -0.06985576450824738
-0.1534140408039093 0.1399862915277481 -0.1751451939344406
-0.05042973905801773 0.016240805387496948 -0.1816132664680481
-0.20376625657081604 0.08824458718299866 -0.1483253687620163
0.10043409466743469 0.5554361939430237 -0.11420846730470657
-0.11616771668195724 0.5215978026390076 -0.14891952276229858
-0.1706487238407135 0.05805813521146774 0.06384586542844772
0.2069188803434372 -0.08100041002035141 -0.09407396614551544
-0.2044629156589508 0.07164586335420609 -0.1394856721162796
-0.16072286665439606 0.029683321714401245 -0.17747074365615845
-0.02818458527326584 -0.3694339096546173 -0.20976626873016357
0.11958406865596771 -0.4124552309513092 -0.0888306200504303
-0.02145558036863804 0.2581845819950104 -0.17371992766857147
-0.11866869777441025 0.16400881111621857 0.07735645771026611
-0.18554046750068665 -0.25836920738220215 -0.14706255495548248
0.12200810760259628 0.5094525814056396 0.024405861273407936
0.20237889885902405 0.04318840801715851 -0.08407899737358093
0.09921777248382568 -0.41959133744239807 -0.13110244274139404
-0.18416641652584076 -0.13742974400520325 0.09740430116653442
0.04724933207035065 0.0607868991792202 0.19147102534770966
0.1359228789806366 0.3101065158843994 0.05260093882679939
0.10922819375991821 -0.41222476959228516 -0.12832805514335632
-0.1267501413822174 0.27197176218032837 0.049852579832077026
0.1579713523387909 0.08438435941934586 0.11962607502937317
0.16746088862419128 -0.07747696340084076 0.15155409276485443
-0.037349212914705276 -0.0692516565322876 0.22563815116882324
0.21318599581718445 -0.3454563021659851 -0.12028355151414871
-0.07561496645212173 0.43768560886383057 -0.16546154022216797
0.2065669596195221 -0.08605252951383591 -0.11928951740264893
0.1059192419052124 -0.4188835918903351 -0.10842889547348022
0.20751655101776123 -0.21884441375732422 0.08891980350017548
0.14838938415050507 -0.41844484210014343 -0.07609102874994278
-0.11496464908123016 0.17386607825756073 0.18324488401412964
0.18591351807117462 -0.0636369064450264 0.04185252636671066
0.1631012260913849 -0.3692670464515686 -0.190690279006958
-0.03159400448203087 0.13814722001552582 0.2377396523952484
-0.2006738930940628 0.11119852215051651 -0.14382323622703552
-0.06886851042509079 -0.10653495788574219 -0.17768271267414093
-0.21813352406024933 -0.14372611045837402 -0.10801007598638535
-0.20379501581192017 -0.24131359159946442 0.09770286083221436
-0.005583237856626511 -0.26211756467819214 -0.1838725358247757
0.0739629864692688 -0.1977452039718628 0.25095951557159424
0.18751908838748932 -0.03150108456611633 0.022090598940849304
0.20556986331939697 -0.04392421990633011 -0.08262016624212265
-0.0517086461186409 -0.16959621012210846 -0.17109960317611694
-0.12223491072654724 0.12539850175380707 0.04937869682908058
0.13192661106586456 0.14825299382209778 -0.0578574538230896
0.08862300962209702 -0.4118702709674835 0.02371886372566223
-0.21729199588298798 -0.3351525664329529 -0.04871852695941925
-0.047863639891147614 0.14081774652004242 0.23713797330856323
-0.12718500196933746 0.3727799355983734 0.026081135496497154
-0.18459618091583252 -0.02182261273264885 0.04944975674152374
0.010706331580877304 -0.1834574192762375 -0.16725032031536102
0.13704824447631836 -0.4151981770992279 -0.022405460476875305
-0.18603083491325378 -0.41064319014549255 -0.18882176280021667
-0.11534728109836578 0.53042072057724 0.006539049558341503
-0.2028612345457077 -0.3175205588340759 -0.12772472202777863
0.22063614428043365 -0.28001514077186584 0.046770818531513214
-0.07247371226549149 -0.08629243075847626 -0.17736424505710602
-0.11152805387973785 -0.4165443778038025 0.12534400820732117
-0.1508750468492508 0.3574177026748657 -0.1005002111196518
0.02992074377834797 0.38814854621887207 0.18292677402496338
0.1920141577720642 -0.16441300511360168 -0.14016170799732208
-0.18962863087654114 -0.22278709709644318 0.11706715822219849
0.0837455689907074 0.004924485459923744 0.1987258493900299
-0.06816132366657257 0.1642482429742813 0.24346649646759033
-0.18180590867996216 -0.15248745679855347 0.09936058521270752
0.213521808385849 -0.34840095043182373 -0.11530673503875732
-0.13774485886096954 -0.1363903433084488 0.18750450015068054
0.025305725634098053 0.28493228554725647 -0.17036905884742737
-0.10293972492218018 -0.4177846908569336 -0.20939791202545166
-0.19206543266773224 -0.03725648298859596 -0.17200276255607605
-0.12472324073314667 0.4999338686466217 -0.07719887048006058
0.1354621946811676 0.2882414162158966 0.020402926951646805
-0.06078833341598511 -0.42383140325546265 -0.13033214211463928
-0.04121670126914978 0.5605916380882263 -0.02427385374903679
0.09103518724441528 -0.41114598512649536 -0.13387681543827057
0.14620116353034973 -0.4165169894695282 0.040086761116981506
-0.08133457601070404 0.5490908622741699 -0.15598028898239136
0.03791679069399834 0.2955622971057892 -0.17048875987529755
0.09049082547426224 0.012816624715924263 0.1918826401233673
0.13561616837978363 0.3045814037322998 0.03560304269194603
-0.005501102656126022 0.2826337218284607 -0.17200899124145508
0.1974555104970932 -0.41311150789260864 -0.144476979970932
-0.11443160474300385 -0.05646960437297821 0.18791240453720093
-0.04716327786445618 -0.18071095645427704 -0.16884490847587585
0.02134459838271141 0.24287699162960052 -0.17173781991004944
0.015259072184562683 -0.42308250069618225 -0.1926274597644806
0.07784650474786758 0.18115796148777008 0.25263190269470215
0.18598976731300354 -0.02759500965476036 0.03633702173829079
-0.10767614096403122 0.43465864658355713 -0.16398672759532928
-0.1614665985107422 -0.4179765284061432 -0.05316930264234543
0.14260992407798767 0.2873408794403076 -0.09113665670156479
0.02617746777832508 0.3530663549900055 0.23997700214385986
-0.18348538875579834 -0.41409817337989807 0.052817441523075104
-0.16646721959114075 -0.006665033288300037 0.10212744772434235
-0.08211254328489304 0.09900829195976257 -0.17957057058811188
-0.02222193032503128 0.12538063526153564 -0.17832912504673004
0.09668124467134476 -0.4065537452697754 0.06319396197795868
-0.027183394879102707 0.40521255135536194 0.13485707342624664
-0.19734634459018707 -0.30162471532821655 -0.1327301412820816
0.1418217271566391 0.33307114243507385 0.0913563147187233
-0.024489406496286392 -0.2415582686662674 -0.1788015216588974
-0.21516069769859314 -0.1097603440284729 -0.11061485856771469
0.18250557780265808 -0.15500685572624207 0.10736619681119919
0.09171774983406067 -0.41397225856781006 0.018285155296325684
0.046220310032367706 0.04804746061563492 0.19513453543186188
-0.15409983694553375 -0.03458027169108391 -0.17565353214740753
-0.015197206288576126 0.4061001241207123 -0.16801103949546814
-0.07858433574438095 0.526238203048706 0.06414402276277542
-0.11481041461229324 -0.4263925552368164 -0.16787375509738922
0.19423715770244598 -0.4079122245311737 -0.014094195328652859
0.08886288851499557 -0.41418224573135376 0.027064569294452667
-0.18084049224853516 -0.07878293097019196 0.08612823486328125
-0.01723194122314453 -0.10624495148658752 -0.1762075275182724
-0.008866231888532639 0.5648292303085327 -0.023293204605579376
0.1060880720615387 -0.27510663866996765 -0.17410908639431
0.12588046491146088 0.17423763871192932 0.07677523791790009
-0.19299395382404327 -0.25698110461235046 -0.13711875677108765
0.1118546575307846 0.0848195031285286 0.1605679839849472
0.09675519168376923 -0.4192904233932495 -0.12712106108665466
0.03373263031244278 0.25890377163887024 0.23545891046524048
-0.050845250487327576 0.43744075298309326 0.06198100000619888
0.1180914044380188 -0.41618892550468445 0.10624755173921585
-0.18030515313148499 0.13571830093860626 -0.09602535516023636
0.011699080467224121 -0.4169308841228485 0.20582446455955505
0.12215912342071533 0.21242135763168335 -0.10241763293743134
0.1321338415145874 -0.3870078921318054 0.17320150136947632
0.17857833206653595 -0.1670771986246109 0.13640980422496796
0.023684661835432053 0.29055821895599365 0.22374874353408813
0.20522943139076233 -0.3604218661785126 -0.13454538583755493
-0.03638993948698044 0.461530864238739 0.0656956285238266
-0.12600624561309814 -0.09822456538677216 -0.17431941628456116
0.21379342675209045 -0.13103146851062775 -0.06999348104000092
0.18467362225055695 0.08348032832145691 0.017340153455734253
-0.034036193042993546 0.07102899253368378 -0.18016085028648376
0.09304003417491913 -0.41366979479789734 0.028827302157878876
-0.20354856550693512 -0.3344837427139282 -0.13818785548210144
-0.1258421242237091 0.25042077898979187 -0.10449976474046707
0.048360131680965424 0.5630229711532593 -0.13808774948120117
-0.05690659582614899 -0.41624727845191956 -0.032968804240226746
0.12426731735467911 0.48186028003692627 0.03375609964132309
0.06663933396339417 -0.20019735395908356 -0.159964457154274
-0.07116938382387161 -0.18897074460983276 0.24133528769016266
-0.10418538749217987 0.5408980846405029 0.007220091298222542
0.17414891719818115 -0.06380364298820496 0.129737988114357
-0.05513923615217209 0.4074558913707733 -0.16901817917823792
0.1389864981174469 0.27230995893478394 0.12329040467739105
0.22397996485233307 -0.2597123086452484 0.035798780620098114
0.0633465126156807 0.5283939242362976 0.07152712345123291
0.18694239854812622 0.030716508626937866 0.04280136153101921
-0.15146203339099884 0.3629760146141052 -0.10937388241291046
-0.11624522507190704 0.47072333097457886 0.027824141085147858
0.1863248348236084 -0.10285121202468872 0.06976369768381119
0.09156713634729385 -0.4178508520126343 -0.10744266211986542
-0.06664182245731354 0.5606741905212402 -0.025930315256118774
0.12778787314891815 0.19556137919425964 -0.008314132690429688
-0.11713867634534836 -0.13894078135490417 0.20577023923397064
0.1808709353208542 0.09898409247398376 0.04718317836523056
-0.03141161426901817 0.2425321340560913 0.23597344756126404
0.09074177592992783 -0.1827467530965805 0.2456972897052765
-0.0597459152340889 0.34941163659095764 -0.17023798823356628
0.1254628598690033 0.16627919673919678 0.0781664252281189
0.2206197828054428 -0.2639804780483246 -0.07744146138429642
-0.043703578412532806 0.4049348831176758 -0.16881732642650604
0.08986271917819977 -0.4108104109764099 -0.010612641461193562
-0.07949037849903107 0.36051639914512634 0.13242995738983154
0.1544303596019745 0.3532463312149048 -0.11448176205158234
0.005913030356168747 0.5570576190948486 0.056723546236753464
-0.19679921865463257 -0.30573582649230957 -0.13744764029979706
0.1824694722890854 -0.07418031990528107 0.1011803150177002
-0.012745726853609085 0.28534194827079773 0.22012336552143097
0.08850177377462387 -0.41480758786201477 0.029834553599357605
0.1673673689365387 -0.3519493043422699 -0.18094401061534882
0.1385478377342224 -0.005064266733825207 0.16932247579097748
0.20547780394554138 -0.04591568559408188 -0.09135803580284119
-0.055465057492256165 -0.42085328698158264 -0.19595013558864594
0.09688293933868408 -0.42243921756744385 -0.12715056538581848
-0.20610201358795166 -0.10074735432863235 -0.16095726191997528
-0.0006738603115081787 0.000491805374622345 -0.18016180396080017
-0.13256169855594635 0.3677961528301239 -0.033688873052597046
-0.21066217124462128 -0.3212352395057678 0.05081767961382866
0.1436711549758911 -0.41377073526382446 -0.1939225196838379
0.19676843285560608 -0.4139057397842407 -0.03131093829870224
0.1296233832836151 -0.42017751932144165 -0.1456778198480606
0.08710624277591705 0.11223289370536804 0.17626062035560608
0.12023507058620453 0.2158067226409912 -0.11403927206993103
-0.12832535803318024 0.13256748020648956 -0.012006912380456924
-0.05503256991505623 -0.4211057722568512 -0.20288634300231934
-0.12347956001758575 0.30478668212890625 0.13284683227539062
-0.17786675691604614 -0.01544925943017006 -0.17594283819198608
0.08626304566860199 0.4324021339416504 0.05775662511587143
0.2220095694065094 -0.2686323821544647 0.03790105879306793
0.12624134123325348 0.1756286472082138 0.023524893447756767
-0.09952114522457123 0.08615565299987793 -0.18049800395965576
-0.03400937095284462 0.1381375789642334 0.23539043962955475
-0.05257347226142883 -0.4168817698955536 0.00649825856089592
0.19641147553920746 -0.4016943573951721 0.003359667956829071
-0.20250780880451202 -0.18754412233829498 0.05482076480984688
-0.1256531924009323 0.22839653491973877 0.05409274250268936
0.17487245798110962 -0.4169711172580719 -0.021051675081253052
-0.17455936968326569 -0.35982128977775574 0.1269664466381073
-0.12270067632198334 -0.417005717754364 0.1031205803155899
