-0.12377047538757324 -0.0267241969704628 0.17358237504959106
-0.059282757341861725 -0.41108959913253784 0.048480015248060226
0.07971994578838348 0.5640081167221069 -0.0054419804364442825
-0.18960733711719513 -0.28893187642097473 0.12461092323064804
0.1186065673828125 0.1373380869626999 0.13761712610721588
0.1349802166223526 0.28807932138442993 0.02155672386288643
0.20822575688362122 -0.33362653851509094 -0.03964591398835182
0.008110390976071358 -0.4140179455280304 0.10814220458269119
-0.12693843245506287 0.24383963644504547 0.022931823506951332
-0.12100840359926224 0.18988700211048126 -0.021046891808509827
-0.2125772088766098 -0.23936420679092407 -0.12052302807569504
0.1985829621553421 -0.30462586879730225 -0.0973147302865982
-0.2171909511089325 -0.17868202924728394 -0.033215463161468506
-0.035496458411216736 -0.17892858386039734 -0.1668085902929306
-0.15396757423877716 0.3300935924053192 -0.06534645706415176
-0.12816886603832245 0.31185099482536316 -0.01233704388141632
0.05322721228003502 -0.04457584023475647 -0.17568185925483704
0.21114960312843323 -0.3223685324192047 -0.01768050715327263
-0.074783556163311 -0.4165622889995575 0.004508877173066139
-0.12728562951087952 0.45087844133377075 -0.06809114664793015
0.020244218409061432 0.5657830834388733 -0.05827314779162407
0.18378344178199768 0.10606516152620316 -0.005054805427789688
0.10639774799346924 -0.2489900439977646 0.24812562763690948
0.09256834536790848 -0.41212552785873413 -0.038864023983478546
-0.13963113725185394 -0.4125387668609619 0.06441795825958252
0.11168639361858368 -0.36123356223106384 -0.1933578997850418
0.06822571158409119 -0.4216457009315491 -0.14959248900413513
0.14075320959091187 -0.3611079752445221 -0.19007602334022522
0.047868259251117706 -0.41264647245407104 -0.10643056780099869
0.06816110759973526 -0.41072961688041687 0.06260418146848679
0.08449259400367737 -0.37924444675445557 -0.20036745071411133
0.10155905038118362 0.11035079509019852 0.16554704308509827
0.060847245156764984 -0.21121123433113098 0.2515000104904175
0.20521920919418335 -0.18003740906715393 0.08041924238204956
0.1257888823747635 0.15241548418998718 0.08108987659215927
-0.07567295432090759 0.3169417977333069 -0.16731098294258118
0.002344581764191389 0.01069905236363411 -0.17901134490966797
-0.19289042055606842 -0.09331005066633224 -0.1651550531387329
0.05306599289178848 -0.41340172290802 -0.08185069262981415
0.18442626297473907 0.08152560889720917 0.016366127878427505
-0.053481802344322205 0.40854960680007935 0.08999510109424591
0.021581187844276428 -0.19721519947052002 0.25497737526893616
0.13507165014743805 0.3462458550930023 0.10853110998868942
-0.14775505661964417 0.4431620240211487 -0.11670508980751038
-0.11623337864875793 0.19026066362857819 0.194455087184906
-0.1433606892824173 0.3854876458644867 -0.05507751926779747
0.00984892901033163 0.05579576641321182 -0.17892105877399445
0.00629593338817358 -0.4055081307888031 -0.019746653735637665
-0.20206855237483978 -0.41238030791282654 -0.046316396445035934
-0.20149770379066467 -0.41021203994750977 0.008294475264847279
-0.15040284395217896 -0.11714112758636475 -0.1689976453781128
-0.07014289498329163 0.2603697180747986 -0.1695971041917801
-0.109808050096035 -0.07199645042419434 -0.17430424690246582
-0.018830686807632446 0.5665168166160583 -0.10157615691423416
-0.11530590802431107 0.1500415802001953 0.10434626042842865
0.15823499858379364 0.3245854675769806 -0.08270484209060669
0.15638107061386108 0.3891170918941498 -0.07653554528951645
0.1699569821357727 -0.11943677812814713 0.16321198642253876
0.08771263062953949 -0.4202907383441925 -0.10710351914167404
0.22272051870822906 -0.2527012526988983 -0.02751326560974121
0.027683451771736145 0.026821613311767578 -0.17732253670692444
-0.02071307972073555 0.5398727655410767 0.08430815488100052
-0.14877109229564667 -0.03554961830377579 0.15081942081451416
0.20777393877506256 -0.34229332208633423 -0.12724503874778748
-0.12485648691654205 0.45934391021728516 0.019071517512202263
-0.055934976786375046 0.13936597108840942 -0.17857776582241058
-0.1256226897239685 -0.41388335824012756 0.012542441487312317
-0.010611914098262787 0.5679330825805664 -0.1311659961938858
-0.014413058757781982 -0.4177159070968628 -0.08214759081602097
-0.0968691036105156 -0.4116044044494629 0.16650857031345367
0.038199275732040405 -0.41674482822418213 0.0658765435218811
-0.18828248977661133 -0.1431371569633484 -0.16141000390052795
-0.09426172822713852 -0.41262227296829224 0.14365088939666748
0.05127281695604324 0.29753410816192627 -0.16808010637760162
-0.024552691727876663 0.43741661310195923 0.0983695313334465
0.06344737857580185 -0.06819166988134384 0.22679243981838226
-0.05021344870328903 0.43768325448036194 0.06401503086090088
0.08749791979789734 0.3054327368736267 -0.16441471874713898
-0.14941513538360596 -0.25567391514778137 0.19085530936717987
0.02948862314224243 -0.413724422454834 0.043554142117500305
0.02861333079636097 -0.31890368461608887 -0.1925041824579239
0.15166246891021729 -0.41691333055496216 -0.06919363886117935
-0.01643998548388481 -0.4251578748226166 -0.11814998090267181
-0.11220895498991013 0.33876243233680725 0.1308559775352478
0.18104223906993866 -0.41456496715545654 -0.1651492565870285
0.003536888863891363 0.3893829584121704 0.21535779535770416
0.17656062543392181 0.14797385036945343 -0.1473011076450348
-0.01203113328665495 -0.26295769214630127 0.26191890239715576
0.11657112091779709 -0.2888011932373047 -0.1734796017408371
0.07105748355388641 0.05087563022971153 0.19230376183986664
0.18671131134033203 -0.12758071720600128 0.08884529024362564
0.11849325150251389 0.1289242058992386 0.1292620450258255
0.20138591527938843 -0.017765063792467117 -0.0179942287504673
0.21103045344352722 -0.11760958284139633 -0.022305186837911606
0.11613185703754425 0.4209534525871277 -0.16234596073627472
-0.21263732016086578 -0.27803245186805725 0.05888177081942558
0.06788768619298935 -0.4149653911590576 -0.06985235214233398
0.22046120464801788 -0.23531602323055267 0.0374915786087513
0.023994171991944313 0.11227492243051529 0.2093145102262497
0.0244990773499012 -0.40869084000587463 0.02345837838947773
0.018180299550294876 -0.4100375175476074 0.05329061672091484
0.1733609288930893 -0.16722118854522705 -0.14623087644577026
0.02014356106519699 -0.4044093191623688 -0.028020156547427177
0.21006490290164948 -0.3294092118740082 -0.10174588859081268
-0.12382824718952179 0.33958789706230164 -0.16181516647338867
0.05069595202803612 -0.4200022220611572 0.11715491861104965
0.12427203357219696 0.17865997552871704 -0.08303766697645187
-0.14951494336128235 0.41539010405540466 -0.11868514865636826
0.18335282802581787 -0.33486995100975037 0.11290498077869415
0.08727587759494781 0.5407299399375916 -0.1555609256029129
-0.1256905496120453 0.23695582151412964 -0.012898387387394905
-0.11485518515110016 0.14919085800647736 0.11492560058832169
0.03667791932821274 0.007787588983774185 -0.17595908045768738
0.07258628308773041 0.5618139505386353 -0.1425287425518036
-0.03562280908226967 0.5602541565895081 0.01836876943707466
-0.04656950756907463 0.5595078468322754 0.03619852662086487
-0.1137344241142273 -0.41099488735198975 0.12186834216117859
0.09215439856052399 0.47785964608192444 0.07318178564310074
-0.009924713522195816 0.11158154159784317 -0.17791076004505157
-0.12068234384059906 -0.41107112169265747 0.06267451494932175
0.1307130604982376 0.3383471965789795 0.128252312541008
-0.016689956188201904 0.32141682505607605 0.23488584160804749
-0.06790121644735336 -0.3989812433719635 -0.21050827205181122
0.2064926028251648 -0.16492752730846405 0.04687243700027466
0.18135562539100647 -0.30667179822921753 -0.13824735581874847
0.02340773679316044 -0.41274702548980713 0.03494281321763992
-0.0730161964893341 0.3995117247104645 0.09466058760881424
-0.09694225341081619 -0.0026699285954236984 0.18850281834602356
0.2029426246881485 -0.016246072947978973 -0.11234095692634583
-0.19644509255886078 -0.17801615595817566 0.09476668387651443
-0.013336874544620514 -0.11610060930252075 0.24653805792331696
-0.013521311804652214 0.5279757380485535 -0.16214998066425323
-0.13182304799556732 0.48125478625297546 -0.07009918242692947
0.16656172275543213 -0.28091078996658325 0.18087194859981537
0.08509360253810883 0.3373819589614868 0.17823952436447144
-0.10796540230512619 0.2826295793056488 -0.15750908851623535
0.11332552134990692 0.06521821767091751 0.17370323836803436
0.20622912049293518 -0.12783822417259216 0.00789671577513218
0.009305938147008419 0.5081009864807129 0.09991774708032608
-0.07169929146766663 -0.4168824553489685 -0.1289416402578354
-0.157619908452034 -0.04911679029464722 0.14083965122699738
0.18403728306293488 0.0818338692188263 0.011523752473294735
-0.1326446831226349 0.32035496830940247 -0.159372478723526
-0.18618081510066986 -0.051824089139699936 0.032801516354084015
0.1371757686138153 0.3350667357444763 0.09275297820568085
-0.12846100330352783 0.460565984249115 -0.06487664580345154
-0.06492220610380173 0.3629283607006073 0.1330810785293579
0.13241659104824066 0.43229785561561584 -0.030000565573573112
-0.21974250674247742 -0.20315787196159363 -0.12305521965026855
-0.046337444335222244 -0.12029552459716797 0.24051201343536377
0.15950332581996918 0.32345324754714966 -0.05691881477832794
0.1425408571958542 0.48584437370300293 -0.13846872746944427
-0.10500701516866684 0.026509791612625122 0.17465589940547943
-0.19018971920013428 -0.3690744936466217 0.09466630220413208
-0.12704288959503174 0.24837639927864075 0.00040272995829582214
-0.03692547604441643 0.2940118908882141 0.21659532189369202
0.09020783007144928 0.07717073708772659 -0.17380814254283905
-0.21003679931163788 -0.404458612203598 -0.04810231178998947
-0.1541253924369812 0.31015872955322266 -0.07028236985206604
0.10525093972682953 -0.4127417802810669 0.14503121376037598
0.19829992949962616 -0.37530800700187683 -0.16143974661827087
-0.19984787702560425 -0.304361492395401 0.09522047638893127
0.18351025879383087 -0.18403096497058868 -0.1378760039806366
0.12352271378040314 0.30614328384399414 -0.1561669111251831
0.12397987395524979 0.5029765367507935 -0.14171834290027618
0.14669840037822723 -0.2998832166194916 0.2042621523141861
0.20760810375213623 -0.23470692336559296 0.090687595307827
0.06758271157741547 0.35309842228889465 -0.16659510135650635
0.136882945895195 0.39446526765823364 0.042363349348306656
-0.07221293449401855 -0.16929031908512115 -0.1677214354276657
-0.0014420021325349808 -0.4244019687175751 -0.11053458601236343
-0.12102572619915009 0.1720542460680008 -0.14941957592964172
-0.0809016078710556 0.3510587513446808 -0.16636312007904053
0.022583289071917534 0.29336827993392944 0.22164443135261536
0.04285087808966637 -0.06913986057043076 0.23045192658901215
0.11804888397455215 -0.40577539801597595 -0.048201385885477066
0.05049528554081917 0.16896796226501465 0.26192134618759155
-0.1518741399049759 0.13934409618377686 -0.059570152312517166
-0.1841491013765335 -0.039517294615507126 -0.013418088667094707
-0.10361531376838684 -0.3120502233505249 -0.1905091553926468
-0.07920755445957184 0.33007338643074036 0.19166673719882965
-0.00829774048179388 0.3264876902103424 0.23756347596645355
0.1177038922905922 0.024957414716482162 -0.17168185114860535
0.18994171917438507 -0.33266571164131165 0.09273333847522736
0.08721712231636047 0.43191030621528625 -0.16310255229473114
0.08051541447639465 -0.41305479407310486 -0.03218286857008934
0.21426953375339508 -0.39509040117263794 -0.12569600343704224
-0.03201630711555481 -0.41418588161468506 -0.05620976537466049
-0.06180082634091377 -0.4201444089412689 -0.15361210703849792
0.18193748593330383 0.006290005519986153 0.022518111392855644
-0.03808726742863655 -0.40030017495155334 0.22629232704639435
0.05391181260347366 0.16755451261997223 -0.17178428173065186
0.2078476846218109 -0.3516848385334015 -0.14294518530368805
0.05404119938611984 -0.4162537753582001 -0.011737759225070477
0.20018306374549866 -0.3263024389743805 -0.1259600669145584
-0.11931629478931427 0.13819703459739685 -0.00587206706404686
-0.20895738899707794 -0.3851472735404968 0.012870019301772118
0.04242875427007675 0.5658836960792542 -0.03488922864198685
0.19381853938102722 -0.1831817477941513 0.1293899416923523
0.0974607914686203 -0.2439257800579071 -0.16175127029418945
-0.06129084527492523 -0.30417293310165405 0.2480325549840927
0.05925943702459335 0.019464045763015747 -0.17608314752578735
0.2132139950990677 -0.13164855539798737 -0.03477620333433151
-0.1149192601442337 0.4835149943828583 -0.15475599467754364
0.16536876559257507 0.026995878666639328 0.1282861828804016
0.11084501445293427 -0.2505418360233307 0.2468418926000595
0.027798475697636604 -0.1976780742406845 -0.1615423560142517
0.08781840652227402 0.3456626832485199 -0.16495488584041595
0.1796702742576599 -0.15775039792060852 -0.14510013163089752
-0.1277802735567093 0.16360682249069214 -0.16401313245296478
0.12591645121574402 0.1630215048789978 0.02827218547463417
0.005575392860919237 0.5484570860862732 0.0802651047706604
0.04992079362273216 0.058361317962408066 0.19488966464996338
-0.1697283387184143 -0.0809946060180664 -0.16943663358688354
0.22086474299430847 -0.24187254905700684 -0.07524051517248154
-0.03219067305326462 -0.08021556586027145 0.23454919457435608
-0.03277658671140671 0.4420556426048279 -0.16698850691318512
0.04404067248106003 0.47829800844192505 -0.16493065655231476
-0.06979973614215851 0.5644735097885132 -0.09672453999519348
0.1868332177400589 -0.0909360945224762 0.016922136768698692
0.0453980416059494 0.31870967149734497 -0.1677614003419876
-0.12145458906888962 -0.41605937480926514 -0.0364871472120285
-0.09590527415275574 0.5181780457496643 0.05573718622326851
-0.09307195991277695 0.22908149659633636 -0.16325947642326355
0.18571123480796814 -0.14577029645442963 0.08625372499227524
-0.12205639481544495 -0.15474025905132294 -0.16525793075561523
0.2231663316488266 -0.2920742332935333 -0.011642437428236008
0.13501767814159393 0.33459141850471497 0.11751430481672287
-0.12433425337076187 -0.016464266926050186 -0.17666620016098022
-0.12102121859788895 0.30524471402168274 0.1401052474975586
0.0862313061952591 -0.24699784815311432 -0.16531462967395782
0.06510230153799057 -0.18965286016464233 -0.16042400896549225
-0.067765973508358 0.55754154920578 -0.010465327650308609
-0.0998176783323288 0.39536038041114807 -0.161333367228508
-0.0394379086792469 -0.20478317141532898 0.24837060272693634
0.18822555243968964 -0.1506575495004654 0.02594626136124134
0.20315171778202057 -0.3719594478607178 0.012110014446079731
-0.10583210736513138 0.15234099328517914 0.1766405999660492
0.13737642765045166 -0.40695810317993164 -0.014981583692133427
0.09523104876279831 -0.34733664989471436 -0.19418634474277496
-0.15949463844299316 -0.4145287573337555 -0.011865846812725067
-0.17222192883491516 -0.27101194858551025 0.16014978289604187
-0.020930124446749687 0.4668375253677368 0.07746344059705734
0.056903570890426636 0.5601933598518372 0.04258207976818085
0.21480713784694672 -0.3143885135650635 -0.006712771952152252
0.12668807804584503 0.1153184249997139 0.09796060621738434
0.07898520678281784 -0.41871437430381775 -0.086301788687706
0.08661143481731415 -0.4143732488155365 -0.13178934156894684
-0.19980129599571228 0.10661523044109344 -0.08457966893911362
-0.08694381266832352 0.5621575713157654 -0.06967560946941376
-0.0665576159954071 -0.36128273606300354 -0.20742739737033844
0.15931016206741333 -0.024486824870109558 0.15474404394626617
0.04316491633653641 -0.4149734079837799 0.1021043136715889
-0.09356379508972168 0.556719183921814 -0.01484774611890316
-0.12404389679431915 0.23976536095142365 0.12676964700222015
-0.14964605867862701 0.3680448532104492 -0.14864888787269592
-0.14025956392288208 -0.4158070683479309 -0.005580469500273466
0.004836001433432102 -0.41215360164642334 0.22279924154281616
-0.1631724238395691 -0.0708463042974472 0.13288827240467072
-0.13717898726463318 0.29426977038383484 -0.14955495297908783
-0.10905139148235321 0.1529007852077484 0.1661655604839325
-0.21496644616127014 -0.10205524414777756 -0.12244825065135956
0.16910341382026672 -0.4166427552700043 -0.15026654303073883
-0.10496506839990616 0.17276331782341003 -0.16356712579727173
0.20495429635047913 -0.3217082917690277 -0.10761012881994247
-0.14707136154174805 0.4243413805961609 -0.07057831436395645
0.03338051959872246 0.1949480175971985 0.26587262749671936
0.21076112985610962 -0.21491208672523499 -0.11054296046495438
0.026480993255972862 0.29481926560401917 -0.16938583552837372
-0.026549942791461945 0.04915758594870567 0.19992825388908386
-0.11882727593183517 0.5506181120872498 -0.05353734642267227
0.0023782700300216675 -0.10821661353111267 -0.17456768453121185
-0.034283142536878586 -0.4121443033218384 0.020489290356636047
-0.12484561651945114 0.2259303629398346 0.09399454295635223
0.2096959352493286 -0.08094245195388794 -0.08371065557003021
-0.11852747201919556 0.4861082136631012 0.03800055757164955
-0.09859760850667953 0.41856807470321655 0.0674353539943695
0.14588452875614166 0.36287251114845276 -0.09805598855018616
-0.20743659138679504 -0.37480705976486206 0.028519567102193832
0.030930418521165848 0.559592068195343 0.06178197264671326
0.21369504928588867 -0.13970468938350677 -0.039991408586502075
-0.21930183470249176 -0.1744428426027298 -0.12383164465427399
-0.14578089118003845 0.4022899270057678 -0.06187427416443825
0.06279446184635162 -0.4126751720905304 -0.034658607095479965
-0.045714933425188065 0.5236979722976685 0.08821747452020645
-0.14890803396701813 0.0785466656088829 -0.17620190978050232
0.12053219228982925 -0.11297637969255447 -0.16479109227657318
0.17015159130096436 -0.41543295979499817 -0.06889943778514862
0.0032927468419075012 0.3388074040412903 -0.16944590210914612
0.03296516463160515 0.2618383765220642 -0.17017322778701782
0.06432328373193741 0.3050154447555542 0.22037935256958008
-0.07292921841144562 0.15367890894412994 0.2355106770992279
-0.1392265409231186 -0.41392430663108826 -0.034177087247371674
0.12987112998962402 0.25781354308128357 -0.04081713780760765
0.06491617113351822 -0.0791449025273323 -0.17312097549438477
-0.0007542623206973076 0.46622398495674133 -0.16652420163154602
0.12170059233903885 0.121193528175354 0.11560962349176407
0.2017962783575058 -0.28247788548469543 0.10182952880859375
-0.12179016321897507 0.40350401401519775 0.05848390981554985
-0.052106887102127075 0.34377968311309814 0.19374337792396545
0.062094058841466904 -0.41930752992630005 -0.14452409744262695
-0.13692502677440643 -0.41317856311798096 0.06344249099493027
0.013520387001335621 0.2734147906303406 0.22315393388271332
0.022997025400400162 0.05615634843707085 0.1969013810157776
0.20398741960525513 -0.019107507541775703 -0.05509648472070694
0.043855905532836914 0.39536023139953613 0.15787488222122192
0.031027235090732574 0.5631088018417358 0.03375469148159027
-0.12121368199586868 0.3682286739349365 0.08496604859828949
-0.12445223331451416 0.270763635635376 0.11920838057994843
0.06043120101094246 0.5651674866676331 0.0009006243199110031
-0.11012228578329086 -0.16133268177509308 0.2212676852941513
-0.08252204954624176 0.30038750171661377 -0.16646821796894073
-0.046898309141397476 -0.1062028706073761 0.23730699717998505
0.11205711960792542 0.23657703399658203 -0.14503471553325653
0.04556071013212204 -0.3748117685317993 -0.2025548815727234
0.12887710332870483 0.20249523222446442 0.10988277196884155
-0.002413232810795307 0.01600862294435501 -0.17930150032043457
-0.08628151565790176 -0.4212682545185089 -0.1672404408454895
0.13220477104187012 -0.2836418151855469 0.22192831337451935
0.12908367812633514 0.20513460040092468 0.18572600185871124
-0.044864509254693985 -0.21249616146087646 0.24693851172924042
0.03134454786777496 -0.4113442599773407 -0.055969737470149994
-0.12609902024269104 0.2898535430431366 0.0858384221792221
-0.15004602074623108 -0.35277223587036133 0.17637228965759277
0.010298594832420349 -0.04198221117258072 -0.17755353450775146
-0.11673448234796524 0.32201507687568665 0.14085860550403595
0.13391265273094177 0.35570111870765686 -0.021702926605939865
0.2068886011838913 -0.3809555470943451 -0.01235144678503275
-0.1464395821094513 -0.17856170237064362 0.18569153547286987
0.014728754758834839 -0.4138881266117096 0.20527313649654388
0.0757681280374527 -0.3067989945411682 0.24866992235183716
-0.18697942793369293 0.09699419885873795 -0.02924252487719059
0.0917346179485321 -0.4126122295856476 0.1083262637257576
0.057722315192222595 -0.41564682126045227 -0.13954544067382812
0.1501089483499527 0.38317644596099854 -0.14536052942276
0.12434592097997665 -0.3230411112308502 -0.18287557363510132
0.2134382575750351 -0.21536622941493988 0.06358116120100021
-0.12844182550907135 0.31230127811431885 0.008918548002839088
0.08395262062549591 -0.21395531296730042 -0.15726789832115173
0.20115451514720917 -0.3583197295665741 -0.15100978314876556
-0.12981072068214417 0.16793838143348694 -0.15129175782203674
0.11814610660076141 0.1971798688173294 -0.1256234049797058
-0.07634497433900833 0.26118215918540955 0.21700963377952576
0.0028649468440562487 -0.09112116694450378 0.23972401022911072
-0.03443453460931778 -0.26385995745658875 -0.18381115794181824
-0.18203605711460114 0.005058231297880411 -0.010833725333213806
0.21376720070838928 -0.39748069643974304 -0.13634809851646423
-0.15079940855503082 0.3979994058609009 -0.12045150250196457
0.19918346405029297 0.09244909882545471 -0.10691194236278534
-0.050691843032836914 0.20305807888507843 -0.17501531541347504
0.07407501339912415 -0.4134080111980438 0.16725775599479675
0.18538282811641693 -0.196776881814003 0.15348629653453827
0.21773314476013184 -0.2254764437675476 -0.092876136302948
0.03180617094039917 0.029866870492696762 -0.17758461833000183
0.07257605344057083 0.39729517698287964 -0.16555394232273102
0.10386364161968231 0.2635332942008972 -0.1585923284292221
0.12864482402801514 -0.3901151418685913 -0.1945684552192688
-0.011672750115394592 -0.20369456708431244 0.2533547580242157
0.11575866490602493 0.06194806098937988 -0.17155499756336212
-0.177814319729805 0.1493251770734787 -0.13299478590488434
-0.08249256014823914 -0.41400524973869324 -0.02334166318178177
-0.05151395872235298 -0.2674627900123596 -0.18480387330055237
0.1303962916135788 0.20688512921333313 0.06423291563987732
-0.12673413753509521 0.29726648330688477 0.07684028893709183
-0.03836331516504288 -0.4158921539783478 0.004853461403399706
-0.13697224855422974 0.38544076681137085 -0.04909344017505646
0.040615394711494446 -0.20002639293670654 0.2534014582633972
0.011008250527083874 0.05889102816581726 0.1951342672109604
-0.1274544894695282 -0.03340242803096771 0.17280854284763336
-0.025168700143694878 0.23311777412891388 -0.17330864071846008
0.1519962102174759 0.02058124542236328 -0.16586464643478394
-0.15155065059661865 0.0489082969725132 0.11762723326683044
-0.07488297671079636 0.3874199688434601 0.10700978338718414
-0.09497612714767456 0.2491857260465622 -0.16069653630256653
0.12206042557954788 0.12184032052755356 0.11166515946388245
-0.14742569625377655 0.47313597798347473 -0.13579323887825012
0.09376053512096405 -0.34215912222862244 -0.19161425530910492
0.058460261672735214 0.44550538063049316 -0.165212020277977
0.03819340094923973 0.30104681849479675 0.22074472904205322
-0.18291553854942322 -0.08370615541934967 0.07976596802473068
-0.20067478716373444 -0.16018201410770416 0.0032765110954642296
-0.034490831196308136 -0.2769026458263397 0.25848013162612915
-0.11626587808132172 0.45505067706108093 0.05141599476337433
0.12511880695819855 0.14862731099128723 0.010784154757857323
-0.22573482990264893 -0.25601524114608765 -0.08991691470146179
-0.06874483078718185 -0.42383790016174316 -0.10570082068443298
-0.04391559213399887 -0.41886404156684875 -0.061410874128341675
-0.02091939002275467 -0.411990225315094 0.09205681085586548
0.07780639827251434 0.22508393228054047 -0.16608305275440216
-0.12082622200250626 -0.3091123104095459 0.22186945378780365
-0.15150238573551178 -0.22558516263961792 0.18285022675991058
-0.1851288080215454 0.08381534367799759 -0.022811515256762505
0.1969221979379654 0.03215625509619713 -0.13808390498161316
-0.13411223888397217 0.4728294909000397 -0.15133704245090485
0.18585750460624695 0.048733148723840714 0.06122821569442749
0.0699157640337944 0.25679948925971985 0.23560385406017303
0.1266048699617386 0.5140365958213806 -0.00557953305542469
0.07607898861169815 0.26161351799964905 0.22938793897628784
0.02958337776362896 0.5657958388328552 -0.04827510938048363
-0.006093163043260574 -0.33238065242767334 -0.1992601901292801
0.08002211153507233 0.3028295338153839 0.21580016613006592
-0.1042340025305748 0.5596607327461243 -0.033764585852622986
-0.03250349685549736 0.21268834173679352 -0.17461882531642914
0.12924261391162872 0.22577665746212006 0.20020101964473724
0.1560208797454834 -0.4185403883457184 -0.11256317049264908
-0.14546413719654083 -0.18178409337997437 0.18811440467834473
0.05376307666301727 -0.4263567626476288 -0.11955565214157104
0.15225791931152344 0.32274121046066284 -0.10204140841960907
-0.12028142809867859 0.1987886130809784 -0.05566126108169556
0.047760337591171265 0.3713226616382599 0.19935083389282227
-0.05373051390051842 0.5381991863250732 0.07221494615077972
0.00273815356194973 -0.41203680634498596 0.17335695028305054
-0.15499110519886017 -0.36694085597991943 0.16803891956806183
0.09650665521621704 -0.41159093379974365 0.16096295416355133
0.10794903337955475 -0.4069947898387909 -0.057657744735479355
0.06276971101760864 -0.4157719910144806 0.12483420968055725
-0.20007847249507904 0.10258428007364273 -0.10125290602445602
0.09916649013757706 0.5177571177482605 -0.15440066158771515
0.18301130831241608 -0.052849508821964264 0.02172032743692398
-0.0647234171628952 -0.40250733494758606 0.05410166457295418
-0.12394440174102783 0.1980518102645874 0.04018755629658699
-0.2022729516029358 0.04038778692483902 -0.06906940042972565
0.18435025215148926 -0.10053423047065735 0.022569715976715088
0.10019505023956299 0.49074652791023254 -0.15831740200519562
-0.12233175337314606 0.2728191614151001 0.16276273131370544
-0.08881799131631851 -0.20468293130397797 0.24015183746814728
-0.12992851436138153 0.004664918407797813 0.15881481766700745
-0.19392378628253937 0.11392607539892197 -0.050068896263837814
-0.18617746233940125 -0.08881662040948868 0.047425277531147
0.13545629382133484 0.3445635735988617 0.013937382027506828
-0.1844382882118225 -0.2511928379535675 0.13179177045822144
0.15408636629581451 -0.01908026449382305 0.1605229526758194
-0.14713242650032043 -0.10557237267494202 0.17275522649288177
0.04275330528616905 -0.2076055258512497 -0.1612117886543274
-0.009215708822011948 0.39632824063301086 0.1919451355934143
0.17177993059158325 -0.004416773095726967 0.12409701198339462
0.0655873566865921 -0.2180507779121399 -0.1589919775724411
-0.18316639959812164 -0.0027762409299612045 0.020707344636321068
-0.16800335049629211 -0.1060694232583046 0.13264474272727966
-0.16898737847805023 -0.2129945605993271 0.15896429121494293
-0.06430120766162872 0.0679108276963234 0.18542268872261047
0.11961245536804199 -0.40821295976638794 -0.05765846371650696
0.1949642449617386 -0.415169894695282 -0.1397273987531662
0.17866411805152893 -0.4107232391834259 0.028404254466295242
0.18158957362174988 0.12245018780231476 -0.011180687695741653
-0.20670011639595032 -0.34354448318481445 -0.14326739311218262
0.08230072259902954 0.5701524019241333 -0.1090172827243805
0.12185483425855637 -0.4066087603569031 -0.03176439553499222
0.011234854348003864 0.34397467970848083 -0.16964443027973175
-0.07158998399972916 0.5614791512489319 -0.06552305817604065
0.020652148872613907 0.4987567961215973 0.09655129909515381
-0.13810889422893524 -0.2902316749095917 -0.17554143071174622
-0.016566846519708633 0.020839093253016472 0.20888003706932068
-0.2211446315050125 -0.1955289989709854 -0.032186318188905716
-0.1693892478942871 -0.3253655731678009 -0.17458054423332214
0.0028960027266293764 0.4752660095691681 -0.16506201028823853
-0.1318426877260208 -0.06141730025410652 -0.17446701228618622
-0.08836407214403152 0.37193331122398376 0.11428391933441162
0.1905256062746048 0.1348913311958313 -0.08032512664794922
-0.12491513788700104 0.3606325089931488 0.0644713044166565
0.2222108393907547 -0.22896301746368408 0.01022692583501339
0.06726241856813431 -0.420013964176178 -0.165884330868721
0.1466551423072815 0.05578804388642311 0.1462264358997345
0.08199730515480042 -0.4148597717285156 -0.13265268504619598
-0.2194448858499527 -0.2462671399116516 -0.110472671687603
0.11735645681619644 0.5502543449401855 -0.06956174969673157
0.10967138409614563 0.3110074996948242 0.170171320438385
0.10961715877056122 0.29965001344680786 0.17871281504631042
-0.21723352372646332 -0.3723781108856201 -0.07640475034713745
0.1451347917318344 -0.16685983538627625 -0.1549224704504013
0.075292207300663 0.545650839805603 0.052691854536533356
-0.18789361417293549 -0.149664506316185 0.02810799330472946
0.12293364107608795 0.5352202653884888 -0.02628454938530922
0.1161385029554367 -0.22962379455566406 0.23747338354587555
0.136744886636734 0.30833175778388977 0.10833507776260376
0.00368434377014637 -0.04498507082462311 0.22371812164783478
-0.19354942440986633 -0.4188900589942932 0.014295190572738647
-0.11194948107004166 0.1984100639820099 0.2108171433210373
0.07412678003311157 -0.27551403641700745 0.2538657486438751
-0.21138232946395874 -0.13566698133945465 -0.03174559772014618
0.12079904228448868 0.14670631289482117 0.136819988489151
0.09566594660282135 -0.42228421568870544 -0.10489167273044586
-0.12465053051710129 0.27264702320098877 0.12597309052944183
-0.20065167546272278 -0.3736443519592285 0.0580848790705204
-0.0014240524033084512 -0.21800893545150757 0.26070430874824524
-0.20848502218723297 -0.06457283347845078 -0.044005874544382095
0.1569596230983734 -0.024927327409386635 0.1581542044878006
0.0136418417096138 -0.41238829493522644 -0.15752874314785004
-0.03043954446911812 -0.3878557085990906 0.24127347767353058
0.03363699093461037 -0.09179704636335373 0.23823173344135284
0.15162594616413116 0.4346853196620941 -0.10977785289287567
-0.155524343252182 -0.1703929305076599 0.17145471274852753
-0.042962074279785156 -0.063860684633255 -0.17910286784172058
0.020417118445038795 -0.027456365525722504 0.22054602205753326
-0.14632071554660797 0.3658756911754608 -0.08738019317388535
0.19965294003486633 -0.3374500274658203 -0.14502786099910736
-0.035790037363767624 0.36975419521331787 0.1752590388059616
0.013352455571293831 0.25515317916870117 -0.17219595611095428
-0.21338535845279694 -0.1728346049785614 -0.008364727720618248
0.009469865821301937 -0.4156016707420349 0.07501423358917236
-0.06667044013738632 0.5621007680892944 -0.06763092428445816
-0.09389840811491013 -0.41292646527290344 0.1397620588541031
0.21284864842891693 -0.13315315544605255 -0.013823931105434895
0.04557770863175392 -0.4239347279071808 -0.12218429893255234
0.03298052400350571 0.5301738381385803 -0.16033564507961273
0.20592613518238068 -0.12166447937488556 -0.1281711608171463
-0.06059426814317703 -0.2125067114830017 0.2531837522983551
-0.046877890825271606 -0.21941536664962769 0.24705182015895844
0.020658250898122787 -0.4127129316329956 0.040682628750801086
0.029995739459991455 0.5375028848648071 0.0876457616686821
-0.10378345847129822 0.09950515627861023 0.12755359709262848
0.11757377535104752 0.049939800053834915 0.17477500438690186
0.17119061946868896 0.09856829047203064 0.09953060746192932
0.05362757295370102 0.1414659470319748 0.24148786067962646
-0.14683547616004944 -0.2514476776123047 -0.15993349254131317
0.07988984882831573 0.2701343894004822 -0.166152685880661
-0.1719752699136734 -0.13315430283546448 0.12943768501281738
0.0070258574560284615 0.5150213241577148 0.09949153661727905
0.01638132706284523 -0.4138619303703308 -0.0726226344704628
-0.12405247986316681 -0.07899589836597443 -0.17279085516929626
0.18947833776474 -0.11725146323442459 0.017917847260832787
-0.17818845808506012 0.08573091775178909 -0.1701238602399826
-0.15042439103126526 -0.41507160663604736 0.04096116125583649
-0.0369008369743824 0.33765658736228943 -0.16850343346595764
-0.21617555618286133 -0.11613626033067703 -0.07059718668460846
-0.08068909496068954 -0.0544465109705925 0.210717111825943
0.07486697286367416 0.3872576057910919 -0.16602125763893127
0.15040569007396698 -0.2931375801563263 -0.15828482806682587
-0.11596707999706268 0.458841472864151 0.05337420850992203
0.20894880592823029 -0.15377077460289001 -0.1231316477060318
0.0407516211271286 0.4098215401172638 0.14481891691684723
-0.19718210399150848 0.07854770123958588 -0.056099001318216324
0.0731649398803711 0.05623426288366318 -0.1745375692844391
-0.1189524382352829 0.16874507069587708 -0.08609674870967865
0.006559232249855995 0.13710857927799225 -0.17679423093795776
-0.03794252872467041 0.10030508786439896 0.1887834519147873
-0.07970508188009262 0.17508800327777863 -0.1741047203540802
-0.04861856624484062 0.5082866549491882 -0.16311703622341156
0.11671148240566254 0.4290374219417572 -0.16099506616592407
0.16410699486732483 0.10034939646720886 0.11093294620513916
-0.11512428522109985 0.15174654126167297 0.11899557709693909
-0.22760964930057526 -0.2750855088233948 -0.04464446380734444
-0.16052696108818054 -0.10842600464820862 0.15211978554725647
0.05528327450156212 0.3640922009944916 0.15205195546150208
0.19994406402111053 0.03703722730278969 -0.11214036494493484
-0.11526328325271606 -0.41115671396255493 -0.03424452617764473
0.1833374947309494 -0.03951640799641609 0.016957532614469528
-0.039000291377305984 0.5354802012443542 0.0817187950015068
-0.12442810833454132 0.4603676199913025 0.02209942229092121
0.08614716678857803 -0.39383816719055176 -0.2016027420759201
0.12146078050136566 0.5267994403839111 -0.07554535567760468
-0.17794519662857056 0.1020093560218811 -0.16801562905311584
0.11899007856845856 0.18555141985416412 -0.12323124706745148
-0.08439190685749054 0.5569965839385986 0.01828012615442276
0.05606229603290558 -0.4144343137741089 -0.022896531969308853
0.07283047586679459 0.5693478584289551 -0.1234220638871193
0.05193491652607918 0.3690287172794342 0.16727213561534882
-0.09965658187866211 -0.4105982184410095 0.11895855516195297
0.11550337821245193 -0.09070618450641632 -0.16775032877922058
0.17515884339809418 -0.08166435360908508 0.13697852194309235
-0.019558556377887726 0.05107075721025467 0.20016777515411377
-0.16286274790763855 0.08869624882936478 0.08648164570331573
-0.03173375502228737 0.25548771023750305 0.24020877480506897
0.14946122467517853 0.01726694405078888 -0.16447804868221283
0.036201074719429016 0.36961960792541504 0.2345607727766037
-0.01298094354569912 -0.40992528200149536 0.038546666502952576
0.11532235145568848 0.3540692627429962 -0.16118326783180237
0.0034555457532405853 0.39303058385849 0.20676730573177338
0.19989758729934692 -0.3361184298992157 -0.1278710514307022
0.201706662774086 0.045508675277233124 -0.09942279011011124
0.18199805915355682 -0.0381975919008255 0.09731858223676682
-0.2063237577676773 -0.010415303520858288 -0.07566243410110474
0.14050555229187012 0.3535102605819702 -0.03958500176668167
-0.014003523625433445 0.2808385193347931 0.21300429105758667
0.10679155588150024 -0.4077327251434326 0.09325659275054932
-0.10167619585990906 -0.40277355909347534 -0.20898842811584473
-0.02371855452656746 0.5610564351081848 0.031094010919332504
0.10216747224330902 -0.020496612414717674 0.2022904008626938
0.12530896067619324 0.27100712060928345 -0.1115477979183197
0.15769024193286896 -0.3425025939941406 0.17569147050380707
-0.11371450871229172 -0.40903612971305847 0.05701349303126335
-0.023899942636489868 0.5367579460144043 0.08559807389974594
-0.1269686073064804 0.36641964316368103 0.03956425189971924
0.19666682183742523 -0.19138260185718536 0.12045640498399734
-0.0625188946723938 -0.11329585313796997 0.23360763490200043
-0.1586008220911026 -0.29089421033859253 -0.17044435441493988
-0.20725391805171967 -0.4069165289402008 -0.030366720631718636
0.11904852837324142 0.24096810817718506 0.20865635573863983
0.15529397130012512 0.4139344394207001 -0.07874345779418945
0.20728440582752228 -0.32483822107315063 -0.10501469671726227
-0.08106381446123123 0.35872212052345276 0.13040441274642944
-0.072809599339962 -0.12491227686405182 -0.17214979231357574
0.08922939747571945 0.3119392991065979 0.21432478725910187
-0.1402197927236557 0.3972156345844269 -0.05482169985771179
0.0809335708618164 -0.2172860950231552 -0.1564686894416809
-0.12660522758960724 0.4093991219997406 -0.019535385072231293
0.028283365070819855 0.5517640709877014 -0.1539323478937149
0.12970709800720215 -0.0662103146314621 -0.1670239120721817
-0.018572967499494553 -0.3833562731742859 -0.2078782618045807
-0.12182410061359406 0.5064682960510254 -0.10723904520273209
0.13999570906162262 -0.30747297406196594 0.21290065348148346
-0.14625081419944763 0.3275473415851593 -0.09632198512554169
0.22234885394573212 -0.2927761673927307 0.004474806133657694
-0.010693270713090897 0.5679578185081482 -0.09707896411418915
0.003902137279510498 0.3180972933769226 -0.1703553944826126
0.1241517961025238 0.5261186957359314 -0.04841071367263794
-0.20027589797973633 -0.41090381145477295 -0.03016725368797779
0.01549441646784544 -0.413737416267395 0.20622789859771729
0.03540533781051636 -0.41923344135284424 0.11945211887359619
0.02902480959892273 0.3128435015678406 -0.1695738285779953
-0.07205422967672348 -0.0716710239648819 0.21884304285049438
-0.1272692233324051 -0.15158765017986298 -0.16628816723823547
0.0051345364190638065 -0.4121938645839691 0.22285045683383942
-0.0896231010556221 -0.4178984761238098 -0.00936074648052454
-0.055060870945453644 0.517145037651062 -0.16171109676361084
-0.12335530668497086 0.18777135014533997 0.04269834980368614
0.1352839469909668 0.34420979022979736 0.10885565727949142
-0.1046953797340393 0.5516177415847778 0.0030044997110962868
0.1908249706029892 -0.3186810612678528 -0.14070212841033936
0.13523153960704803 0.4275282025337219 0.015637211501598358
-0.12788955867290497 -0.41205087304115295 -0.05624876171350479
0.015563718043267727 0.3163587749004364 0.23343858122825623
0.04001970216631889 -0.2984924018383026 -0.18829591572284698
0.13252103328704834 0.2368515580892563 0.09911054372787476
0.03249381110072136 0.10195626318454742 0.19312326610088348
-0.15272268652915955 0.0714794173836708 0.11215724050998688
-0.11604655534029007 -0.001193137839436531 0.1732073426246643
0.08809930831193924 0.49557027220726013 0.07829725742340088
-0.07785353809595108 0.04857483133673668 0.1859598010778427
0.06376057118177414 -0.21395036578178406 0.2524166703224182
0.15044017136096954 -0.4132689833641052 -0.1917818933725357
-0.04467398673295975 0.04672839492559433 -0.18230758607387543
0.13451117277145386 0.3964938223361969 -0.039672769606113434
-0.03334981948137283 0.1115383729338646 0.2024836242198944
0.08405675739049911 -0.379025936126709 0.22794251143932343
-0.18032655119895935 -0.2587167024612427 -0.1479773372411728
0.09626832604408264 0.32577723264694214 0.20929299294948578
0.06815329194068909 0.3362070918083191 -0.16676823794841766
0.040265824645757675 0.1981395035982132 -0.17169246077537537
-0.12797172367572784 -0.30196332931518555 -0.1814880222082138
-0.18627968430519104 0.09636056423187256 -0.028334328904747963
-0.08362127095460892 0.4618545174598694 -0.16227424144744873
0.07155570387840271 0.45420292019844055 -0.1637447029352188
0.15896998345851898 -0.41563111543655396 -0.07662475109100342
-0.15161427855491638 -0.1641571968793869 -0.1634521633386612
-0.04641390219330788 0.4852820038795471 -0.16485874354839325
-0.21253369748592377 -0.278586208820343 0.058935366570949554
-0.01551475003361702 0.19501756131649017 0.2645566761493683
-0.10377766937017441 0.008567684330046177 0.17994315922260284
-0.19160370528697968 0.12283986061811447 -0.05124187096953392
0.12866927683353424 0.19706331193447113 0.19791296124458313
0.08510136604309082 -0.009126288816332817 0.20405569672584534
0.020049195736646652 0.5644527077674866 0.01746286451816559
-0.12209650129079819 -0.2301913946866989 0.21513095498085022
0.20143552124500275 -0.28700369596481323 0.10327200591564178
-0.1484944075345993 0.45941445231437683 -0.13437455892562866
-0.1926306039094925 0.11197812110185623 -0.16094601154327393
0.012424120679497719 0.02819851040840149 -0.17801393568515778
0.05226738378405571 0.02180180884897709 0.20466773211956024
0.019314991310238838 0.39404961466789246 0.20055876672267914
0.013828478753566742 -0.0780634880065918 0.23550325632095337
0.1371338963508606 0.399940550327301 0.026930291205644608
-0.043295718729496 -0.12384624779224396 -0.17327812314033508
-0.023672882467508316 -0.4180733263492584 0.13329800963401794
0.001558663323521614 -0.4116584062576294 -0.14136256277561188
-0.18757511675357819 -0.3536466658115387 0.10309207439422607
0.012872323393821716 0.2526276409626007 0.24667644500732422
0.13527598977088928 0.4790334105491638 -0.07567932456731796
0.09281224757432938 0.08259542286396027 0.17645224928855896
0.20368589460849762 -0.2688177227973938 -0.09868128597736359
-0.11512020975351334 0.24106964468955994 -0.12357921898365021
0.037242528051137924 0.0425758995115757 0.20077404379844666
-0.11374778300523758 0.1335383802652359 0.08240116387605667
0.04974602535367012 0.3842899203300476 0.1531420350074768
0.010715349577367306 -0.05909419059753418 -0.17730407416820526
0.11027270555496216 -0.3637818396091461 -0.194747656583786
0.021498240530490875 -0.29857099056243896 -0.1891295611858368
0.07197443395853043 -0.40875476598739624 0.0462513267993927
0.17558446526527405 0.02910955809056759 0.10303503274917603
-0.21637755632400513 -0.11841104924678802 -0.13855253159999847
-0.13824623823165894 0.08970217406749725 0.12460875511169434
0.07130841165781021 0.009884566068649292 -0.1764310598373413
-0.21931961178779602 -0.2201673686504364 -0.11907831579446793
0.1982540488243103 -0.1322525590658188 0.015406981110572815
-0.07727798074483871 -0.08476293087005615 0.21969720721244812
0.06466858834028244 -0.26353955268859863 -0.17707324028015137
-0.20040063560009003 -0.39768505096435547 0.04784667491912842
-0.09579180181026459 -0.1554824560880661 -0.16801194846630096
0.12615874409675598 0.5072299242019653 -0.13288642466068268
-0.022362805902957916 -0.05293145030736923 0.22300288081169128
-0.12756623327732086 0.48162636160850525 -0.15259099006652832
-0.06620453298091888 0.11271770298480988 0.18848861753940582
0.07580619305372238 0.05866166576743126 0.18784528970718384
-0.07868203520774841 -0.2321622371673584 0.2468245029449463
-0.07203057408332825 -0.42064863443374634 -0.0806078314781189
0.09940477460622787 -0.39899933338165283 0.08650892972946167
-0.10405600070953369 -0.37203866243362427 0.21517105400562286
-0.12470196187496185 0.11502204835414886 0.052065297961235046
0.006766932085156441 -0.4118826687335968 0.17454761266708374
-0.12832824885845184 0.32935935258865356 0.020764123648405075
-0.14431285858154297 0.4804094433784485 -0.10729708522558212
0.022207027301192284 0.5646200776100159 -0.0211490411311388
-0.09454220533370972 -0.4139312207698822 0.0023496781941503286
-0.04529610276222229 -0.3687411844730377 0.23732280731201172
0.14897140860557556 0.43848422169685364 -0.13410310447216034
0.04572205990552902 0.30208510160446167 0.22027705609798431
-0.143127903342247 -0.26670053601264954 0.19993293285369873
0.16118906438350677 -0.21689940989017487 0.19386053085327148
-0.2023484855890274 -0.3815723955631256 -0.15602096915245056
0.12841399013996124 -0.23800310492515564 -0.14165803790092468
-0.20101670920848846 0.08155065029859543 -0.11744570732116699
-0.19835734367370605 -0.1767015904188156 0.0873560756444931
0.038594745099544525 0.04275474697351456 -0.1762426793575287
0.12009084969758987 0.21521532535552979 -0.12385307252407074
0.012244262732565403 0.24826548993587494 0.2457088679075241
0.036514297127723694 -0.3800051510334015 -0.2054937779903412
-0.19603164494037628 -0.3630598187446594 0.07214944064617157
0.12661869823932648 -0.21282221376895905 0.23090912401676178
-0.17652611434459686 -0.3621540665626526 0.12870384752750397
-0.023485470563173294 0.45061978697776794 0.08107378333806992
0.11606738716363907 0.35920846462249756 -0.16092979907989502
0.10025626420974731 0.5680319666862488 -0.0876205638051033
-0.20531702041625977 -0.042172640562057495 -0.04428860545158386
-0.16591016948223114 0.023218346759676933 0.09557420760393143
0.08729594945907593 -0.42567822337150574 -0.11624570935964584
-0.027692582458257675 0.508585512638092 -0.16327887773513794
0.18338868021965027 -0.3963530659675598 0.0675252377986908
-0.01956908404827118 -0.10100358724594116 -0.17531676590442657
0.10889929533004761 -0.3044828474521637 0.23849712312221527
0.02142241969704628 0.28871917724609375 0.21764133870601654
-0.01724143512547016 0.5624081492424011 -0.05487784743309021
-0.048051703721284866 0.3461979627609253 0.19799694418907166
0.10633043944835663 -0.4129990339279175 -0.030779361724853516
0.09221212565898895 -0.41667595505714417 -0.13733769953250885
-0.18414242565631866 -0.04311586916446686 0.06412765383720398
-0.11850952357053757 0.5338116884231567 -0.10523167997598648
-0.17738184332847595 0.15068529546260834 -0.13930684328079224
-0.01580221578478813 0.5405980944633484 -0.15927928686141968
0.12555554509162903 0.14940781891345978 0.022386040538549423
0.08633927255868912 -0.2839755713939667 0.2374383956193924
-0.0050437357276678085 -0.4125830829143524 -0.03545664623379707
0.21280111372470856 -0.40382736921310425 -0.09620555490255356
0.03711747005581856 -0.42253732681274414 -0.11088568717241287
-0.1461745649576187 0.04148007184267044 0.12915903329849243
-0.033809393644332886 0.2676260769367218 0.22675810754299164
0.1157555803656578 0.07316890358924866 -0.17173504829406738
0.05568510293960571 -0.02200218103826046 0.21482913196086884
-0.16830873489379883 -0.28866511583328247 -0.16487650573253632
-0.1588975191116333 -0.3029806315898895 -0.17249800264835358
-0.039068374782800674 -0.42392054200172424 -0.10608505457639694
0.16260753571987152 0.0037456294521689415 0.14148925244808197
-0.12896516919136047 -0.2153567522764206 0.21081039309501648
0.030049435794353485 -0.22686465084552765 -0.1666613072156906
-0.054894883185625076 0.5593543648719788 0.04425427317619324
0.03692490980029106 0.5654783844947815 0.006271893624216318
-0.13884297013282776 0.470420777797699 -0.1480221003293991
-0.007041871547698975 -0.07103703171014786 0.23323124647140503
0.12460590898990631 0.1597582995891571 0.12126397341489792
0.02966972626745701 -0.41112780570983887 -0.09859631955623627
-0.07349929213523865 0.46262243390083313 -0.16267181932926178
0.1373876929283142 0.31835925579071045 0.048523884266614914
-0.03301065042614937 0.4232393801212311 0.09537921100854874
0.015051163733005524 -0.37153303623199463 -0.20514819025993347
0.12229225039482117 0.24662353098392487 -0.11298874020576477
0.12378545105457306 0.18242694437503815 -0.08909033238887787
0.13507042825222015 0.4088802933692932 -0.0010845866054296494
0.09355658292770386 0.11854897439479828 0.18448926508426666
-0.09132912755012512 0.17624758183956146 0.23360690474510193
0.19160830974578857 -0.2886504828929901 0.13181203603744507
0.07557907700538635 -0.4141290485858917 0.12730906903743744
0.21542000770568848 -0.16953144967556 -0.009500549174845219
0.16425463557243347 0.021437283605337143 0.1316809505224228
0.04372909665107727 -0.10031764209270477 0.24020056426525116
0.10424140095710754 -0.2631949782371521 -0.1670868843793869
0.05657847970724106 0.34887123107910156 0.22737282514572144
0.014577980153262615 0.5641896724700928 0.020918942987918854
-0.11843542754650116 0.15363773703575134 -0.1706475019454956
0.19336466491222382 0.006399849429726601 0.00011928193271160126
-0.10344405472278595 0.18497425317764282 -0.15665096044540405
-0.06759265810251236 0.23753277957439423 0.2307393103837967
-0.11756929755210876 0.24181072413921356 -0.11358857899904251
0.07705957442522049 0.32706937193870544 0.22095203399658203
-0.15384334325790405 0.32907551527023315 -0.06429027765989304
-0.004648779984563589 0.10263553261756897 -0.17808842658996582
-0.17385496199131012 0.00332547165453434 0.08248120546340942
-0.216848224401474 -0.21849901974201202 -0.12296662479639053
-0.06588214635848999 -0.41879400610923767 -0.05087584629654884
