-0.1406320333480835 -0.10415144264698029 0.17633596062660217
-0.06072830781340599 -0.17903770506381989 -0.17008811235427856
0.21114037930965424 -0.3387770354747772 -0.11193540692329407
-0.12358517199754715 0.34860730171203613 0.07679906487464905
0.22435761988162994 -0.25903967022895813 -0.012550167739391327
-0.09510724246501923 0.4022747874259949 -0.15848694741725922
-0.07342448830604553 -0.21260569989681244 -0.16573172807693481
0.08849750459194183 -0.41016513109207153 0.03877812623977661
-0.12901148200035095 0.29381510615348816 -0.044292572885751724
-0.0029341764748096466 -0.3275143802165985 -0.19925479590892792
0.10408138483762741 -0.4088992774486542 0.026360375806689262
-0.21687081456184387 -0.12982171773910522 -0.13722893595695496
0.17151671648025513 -0.41547900438308716 -0.05819074809551239
0.1161632165312767 0.32346612215042114 0.1594088226556778
0.01610090211033821 0.24800506234169006 0.24399760365486145
0.12423528730869293 0.2694980204105377 -0.14612054824829102
-0.11128302663564682 0.04311748594045639 -0.1809043437242508
-0.04086877033114433 -0.021680336445569992 -0.18243804574012756
-0.1151113212108612 -0.11216367781162262 -0.17372974753379822
-0.04400765895843506 -0.4163892865180969 -0.157022625207901
0.08453589677810669 -0.41219818592071533 0.035041630268096924
0.07282251119613647 0.43418851494789124 -0.16660164296627045
0.17515847086906433 -0.018458154052495956 -0.16145722568035126
-0.06694714725017548 -0.07742124050855637 -0.17858827114105225
-0.13181474804878235 0.041297197341918945 0.15177728235721588
-0.15756291151046753 -0.1518886387348175 -0.16892777383327484
0.12187652289867401 -0.41664978861808777 -0.13365216553211212
-0.0035402383655309677 0.3819865584373474 0.23299290239810944
-0.20358292758464813 0.04994424432516098 -0.15084733068943024
0.13116177916526794 0.2341679036617279 0.15226590633392334
0.21182727813720703 -0.3695022463798523 -0.13211128115653992
0.1475757360458374 -0.4181501567363739 -0.14935052394866943
0.13707473874092102 0.34719231724739075 0.03819245100021362
-0.12749271094799042 -0.10120660066604614 -0.17416031658649445
-0.09456606209278107 0.5654944181442261 -0.13258139789104462
0.0924769714474678 -0.13817723095417023 0.23655757308006287
0.11391886323690414 0.06448322534561157 0.1677890419960022
-0.045193590223789215 -0.03244154900312424 -0.18187665939331055
0.12348763644695282 -0.410050630569458 -0.0333070270717144
-0.1260758340358734 0.29847949743270874 0.09046293050050735
0.13564153015613556 0.299307644367218 0.04314667731523514
-0.014150314033031464 -0.4226602613925934 -0.19293923676013947
-0.12522344291210175 0.29569727182388306 0.12085425108671188
0.1284555345773697 0.4950491487979889 0.004884637892246246
0.12420282512903214 -0.05280423164367676 0.19595301151275635
0.1593986600637436 -0.18090561032295227 -0.14876846969127655
0.14000914990901947 -0.23144057393074036 0.22400620579719543
0.14802832901477814 0.39496996998786926 -0.13782738149166107
-0.04925047233700752 0.12437374144792557 -0.18005762994289398
-0.06752504408359528 0.36464056372642517 -0.1679592877626419
-0.0404491126537323 0.3355768322944641 -0.16990043222904205
0.2238001823425293 -0.26467180252075195 0.013659179210662842
0.1891331821680069 -0.09828083217144012 0.03805997595191002
0.03126862645149231 -0.18803203105926514 -0.1644078940153122
-0.08815310150384903 0.02050301432609558 0.18501056730747223
0.13719582557678223 0.3081156015396118 0.08633961528539658
-0.21992042660713196 -0.30811917781829834 0.022689374163746834
0.03880853205919266 -0.0670660138130188 -0.17509683966636658
0.02501712366938591 -0.2621600925922394 -0.1817016899585724
-0.057021599262952805 0.4394363462924957 -0.1657053828239441
-0.10985907912254333 -0.08710359036922455 -0.1757824718952179
-0.024505145847797394 0.5634620785713196 -0.026016976684331894
0.12739913165569305 -0.4204983711242676 -0.11057817190885544
-0.018316790461540222 -0.10304459184408188 -0.17705705761909485
0.07320649921894073 0.22955022752285004 0.24113015830516815
-0.004084281623363495 -0.31449100375175476 0.2640742361545563
-0.05065346509218216 0.19590157270431519 0.2537291944026947
-0.0040021128952503204 0.45977404713630676 0.09344039112329483
0.1275477558374405 0.19872307777404785 0.1618584394454956
-0.1413143128156662 -0.1979612112045288 0.19903118908405304
-0.21466946601867676 -0.36741867661476135 -0.027547720819711685
0.13594366610050201 0.28141123056411743 0.09679295122623444
-0.14955082535743713 0.155756413936615 -0.1224164217710495
0.025423012673854828 0.5678847432136536 -0.022761814296245575
0.12725739181041718 0.16976381838321686 0.05238088220357895
0.1166183203458786 -0.1831061989068985 0.23603174090385437
-0.12697085738182068 0.2605600953102112 -0.09708720445632935
-0.158636212348938 -0.42231082916259766 -0.16266456246376038
-0.1651611626148224 -0.00998208299279213 -0.1777469962835312
-0.221379354596138 -0.15899042785167694 -0.07288379967212677
0.11195212602615356 0.4739301800727844 -0.16279716789722443
-0.21751157939434052 -0.2981986403465271 -0.08214811235666275
-0.1558818817138672 -0.3830724358558655 -0.1927417814731598
-0.025646628811955452 0.5318088531494141 0.08572810888290405
0.12852708995342255 0.2736767530441284 -0.01211506873369217
0.10125674307346344 -0.149088054895401 0.23311421275138855
0.12486118078231812 -0.3798280954360962 0.1790364384651184
0.19389894604682922 -0.23346556723117828 0.13257469236850739
0.01054546982049942 -0.3599127233028412 0.25655215978622437
0.1292199343442917 0.08229007571935654 0.14753329753875732
-0.10543325543403625 -0.024586234241724014 0.18711984157562256
-0.03744833916425705 0.5641500949859619 0.005120447836816311
0.19983185827732086 0.05547251179814339 -0.11927531659603119
0.11173494160175323 -0.4118046462535858 0.032793253660202026
-0.20195381343364716 -0.28018054366111755 0.10301727056503296
-0.16004380583763123 -0.24547767639160156 -0.15426072478294373
0.0958908200263977 0.416271448135376 0.07472209632396698
-0.16969342529773712 -0.15574577450752258 0.13870085775852203
0.18722540140151978 -0.016407258808612823 0.038441676646471024
0.08154255151748657 -0.4209029972553253 0.03073050081729889
0.13236039876937866 0.1428375095129013 -0.026311039924621582
0.1264866292476654 -0.3869342505931854 0.17943283915519714
0.03731703385710716 0.5093702673912048 0.09525611251592636
-0.047619350254535675 -0.07990078628063202 -0.1793074756860733
-0.14900673925876617 -0.3742436468601227 0.17063677310943604
-0.22517532110214233 -0.3235527575016022 -0.03472486138343811
0.21563532948493958 -0.16591155529022217 -0.06418018043041229
-0.035944901406764984 0.40832895040512085 -0.16811932623386383
-0.1306462436914444 0.13245859742164612 -0.004371169954538345
0.07752028107643127 -0.4175037443637848 0.031861256808042526
0.11586272716522217 0.35899877548217773 0.12384502589702606
0.04914935305714607 -0.41875502467155457 -0.16535978019237518
0.13434986770153046 0.2696629762649536 0.11159785091876984
-0.21904416382312775 -0.30969899892807007 0.02533060684800148
-0.05148104578256607 -0.17856673896312714 0.25116220116615295
0.17135338485240936 -0.085024394094944 0.14894218742847443
0.06530744582414627 -0.41344767808914185 0.023091722279787064
0.11138101667165756 -0.4130791127681732 0.04259800538420677
-0.022722970694303513 -0.2293604463338852 -0.17655888199806213
-0.12083418667316437 0.18893593549728394 0.019835349172353745
-0.03833596780896187 0.4095713794231415 -0.16792351007461548
0.13415472209453583 0.27351999282836914 0.027172036468982697
0.10902880132198334 -0.40930408239364624 -0.035096824169158936
0.13684046268463135 0.3704298138618469 0.033877335488796234
-0.09467209875583649 -0.4198421239852905 -0.12082967162132263
-0.06428276002407074 0.4257359802722931 0.06966333091259003
0.17941132187843323 0.07330738008022308 0.07585792988538742
0.2199309766292572 -0.22004477679729462 -0.07518910616636276
0.12520821392536163 0.512837827205658 -0.08721116930246353
-0.08142891526222229 0.5555769801139832 -0.15175524353981018
-0.11329112201929092 0.2498517781496048 0.18410685658454895
0.19798296689987183 0.1305898129940033 -0.1202227771282196
-0.204701766371727 0.0602542944252491 -0.11059276759624481
-0.11893512308597565 0.03221629559993744 -0.17963314056396484
0.02425519749522209 0.2647378146648407 -0.17207618057727814
0.010820077732205391 0.37885645031929016 0.2397802770137787
0.13484394550323486 -0.4108448624610901 0.1240505576133728
0.07770884782075882 -0.4207175672054291 0.0320795401930809
0.0003127977252006531 0.020044006407260895 -0.1793772280216217
0.20705826580524445 -0.3742181360721588 -0.0056438082829117775
0.19269855320453644 -0.3755590617656708 0.041286397725343704
0.08137261867523193 -0.4162779450416565 0.03285183757543564
0.0824768915772438 0.3290424644947052 0.2106405794620514
0.1000203862786293 -0.1890716552734375 -0.15873514115810394
0.19056536257266998 -0.40432947874069214 0.007743582129478455
0.020637188106775284 0.5661289095878601 0.023370161652565002
-0.21220101416110992 -0.08159832656383514 -0.1502159833908081
0.09093459695577621 0.218655064702034 -0.1689406931400299
-0.12273360788822174 0.4573346972465515 -0.06901772320270538
0.10850104689598083 -0.41328564286231995 -0.12366607785224915
0.12878896296024323 0.1499742865562439 -0.041615068912506104
-0.08274140954017639 -0.2180507779121399 -0.1638248711824417
0.027193818241357803 0.36561262607574463 0.2443617731332779
0.09311821311712265 -0.028814885765314102 0.2119019627571106
0.1584281623363495 -0.3186405897140503 -0.17001284658908844
-0.10979851335287094 0.15482230484485626 0.14794756472110748
0.009313318878412247 -0.33428966999053955 0.25636589527130127
-0.0564851388335228 -0.42041778564453125 -0.18825030326843262
-0.225917786359787 -0.24118244647979736 -0.07307249307632446
-0.18601083755493164 -0.4224739670753479 -0.06140045076608658
0.12148179858922958 0.14743854105472565 0.10145477950572968
-0.12641781568527222 0.3634083867073059 0.015696555376052856
0.09986639022827148 -0.03582479804754257 0.20757301151752472
-0.16251839697360992 0.12101200222969055 -0.005961397662758827
0.0639123022556305 -0.41507577896118164 0.16493311524391174
0.22116990387439728 -0.2867904007434845 0.027372360229492188
-0.1841510534286499 -0.011334702372550964 0.03684435039758682
0.07758435606956482 -0.14427730441093445 0.24243849515914917
-0.12502925097942352 0.09818176180124283 0.10910233110189438
-0.11653650552034378 0.2847917675971985 0.15813422203063965
0.18498031795024872 -0.4127848446369171 -0.027320729568600655
-0.17695267498493195 0.11655140668153763 -0.01540297269821167
0.17180520296096802 -0.4176095426082611 -0.014734465628862381
-0.07453653216362 0.14343684911727905 -0.17913882434368134
0.17914491891860962 -0.15761332213878632 0.13231882452964783
-0.1367081254720688 0.06677516549825668 0.13232435286045074
0.22385573387145996 -0.24022215604782104 -0.004000918939709663
0.09570460766553879 -0.4096408784389496 0.02884935587644577
-0.2019924819469452 -0.3064478933811188 0.09690342843532562
-0.10779491066932678 0.09318225085735321 -0.18095508217811584
0.015473682433366776 -0.4178268313407898 -0.11793036758899689
0.09593988209962845 0.5565587878227234 -0.14934121072292328
-0.1523447036743164 -0.34220173954963684 -0.18625123798847198
-0.21608081459999084 -0.28437528014183044 0.059447187930345535
-0.12637987732887268 0.34449502825737 -0.02607988566160202
0.18441630899906158 0.023176858201622963 0.019144248217344284
0.01766635850071907 0.5675076842308044 -0.0011263489723205566
0.14025507867336273 0.269772469997406 0.14598236978054047
-0.09622018784284592 -0.05464410409331322 0.20083315670490265
-0.21558251976966858 -0.35540643334388733 -0.07331930100917816
0.20685335993766785 -0.400195449590683 -0.126566544175148
0.17876765131950378 -0.17002908885478973 0.12753112614154816
0.19462640583515167 -0.25361451506614685 -0.11430341750383377
-0.07209687680006027 -0.34826016426086426 0.23460374772548676
-0.1839345246553421 0.1444227248430252 -0.12305045127868652
-0.02551562339067459 0.43596547842025757 -0.1677682101726532
0.1098930686712265 0.34375452995300293 -0.16549928486347198
-0.13347825407981873 0.052898794412612915 -0.18012738227844238
-0.18741284310817719 -0.35440775752067566 0.10401130467653275
0.18960332870483398 -0.11240821331739426 0.036464158445596695
0.17556221783161163 -0.4116159975528717 0.0361398383975029
-0.12441322952508926 0.4053517282009125 0.0354112833738327
0.04334840178489685 -0.07378077507019043 -0.17469748854637146
-0.13678821921348572 -0.41606080532073975 -0.012044446542859077
0.0987493246793747 0.23162496089935303 -0.1673949807882309
-0.031434860080480576 0.39131227135658264 -0.16828449070453644
-0.2122032791376114 -0.27124035358428955 -0.11468213051557541
-0.04163762181997299 0.4299232065677643 -0.16864581406116486
0.14515745639801025 -0.41607165336608887 -0.19117045402526855
0.15631240606307983 -0.35106736421585083 -0.1811138540506363
0.1845671683549881 -0.10761359333992004 0.09258037805557251
-0.03708703815937042 0.27449873089790344 -0.17392180860042572
-0.12097357213497162 0.2150018811225891 0.1612415760755539
0.12631578743457794 0.1764833778142929 -0.018058624118566513
-0.026262566447257996 -0.1908804029226303 -0.16905374825000763
-0.14241395890712738 -0.1342264860868454 0.18303202092647552
-0.0018321648240089417 0.5666688680648804 -0.0035498589277267456
-0.1936822235584259 -0.4098851978778839 -0.18398094177246094
0.13678795099258423 0.31245264410972595 0.03895754739642143
-0.12464676052331924 0.3990054130554199 0.03137848526239395
0.12961457669734955 0.21644440293312073 0.10741192102432251
0.13073840737342834 -0.38850459456443787 0.17291957139968872
0.16716063022613525 0.10582244396209717 0.06117258965969086
-0.0381789393723011 0.5011705756187439 0.08886707574129105
-0.10077997297048569 0.11738106608390808 0.13428816199302673
0.11841685324907303 0.5502912402153015 -0.1114707887172699
0.06252297013998032 -0.3893691301345825 -0.2060137540102005
0.1837601363658905 0.03563621640205383 0.07354266196489334
0.179647758603096 -0.34664496779441833 0.0990782156586647
0.17598499357700348 -0.1384369432926178 0.15602196753025055
0.055629849433898926 0.02815692126750946 -0.17614620923995972
0.10685579478740692 0.134463369846344 -0.17426519095897675
-0.017916616052389145 0.0258712787181139 0.20298799872398376
-0.11306498944759369 -0.2978670597076416 -0.18490003049373627
-0.1858072429895401 -0.1641254872083664 0.07467392086982727
-0.044941432774066925 0.31970441341400146 -0.1704314947128296
-0.20276027917861938 0.05430438742041588 -0.07767235487699509
0.2078247219324112 -0.14507590234279633 -0.007922088727355003
0.09437206387519836 0.24264377355575562 0.22992798686027527
0.19685481488704681 -0.4133334159851074 -0.027356650680303574
0.1334810107946396 0.2657644748687744 0.03640956059098244
-0.06095442175865173 -0.0053711459040641785 0.2058502435684204
0.03134213760495186 -0.39459550380706787 0.24909541010856628
0.09789261966943741 0.2317182868719101 -0.16767986118793488
-0.08020582795143127 -0.4184422791004181 -0.19496044516563416
0.12909400463104248 0.5017884373664856 -0.07168658822774887
0.13272054493427277 0.4559195935726166 0.003396935760974884
-0.1604052186012268 -0.0044074468314647675 -0.1774919033050537
-0.07643170654773712 -0.40896323323249817 0.21122786402702332
0.08189811557531357 -0.13321927189826965 0.2386603057384491
-0.11202394217252731 0.5507093667984009 -0.03186876326799393
-0.04977492243051529 0.430660218000412 -0.1669244021177292
0.12030387669801712 0.15285038948059082 0.12381164729595184
0.03285248205065727 0.36709344387054443 0.24261242151260376
0.10053639113903046 -0.40602031350135803 0.023743420839309692
-0.04628113657236099 -0.19261418282985687 -0.16883772611618042
-0.04032502323389053 0.24579496681690216 -0.17484743893146515
-0.005888793617486954 0.5550422072410583 0.07431239634752274
-0.04614519700407982 0.3282264471054077 -0.17016714811325073
-0.11822718381881714 0.536430299282074 -0.01570025086402893
0.12883923947811127 -0.3435826599597931 -0.19058965146541595
-0.15178585052490234 -0.15930695831775665 -0.16789962351322174
-0.12851503491401672 0.09483309835195541 0.11031167954206467
-0.04842240363359451 0.4356795847415924 -0.16613838076591492
0.19167858362197876 0.13194890320301056 -0.08239781111478806
0.02072424441576004 -0.031836215406656265 0.2190043330192566
0.16594398021697998 -0.30711498856544495 0.17534950375556946
-0.045064620673656464 -0.1974557340145111 -0.1693207323551178
0.1142047643661499 -0.41179245710372925 -0.03282039240002632
-0.09985986351966858 -0.405209481716156 0.05609644204378128
-0.0122111476957798 -0.0021255947649478912 0.21261544525623322
0.1487443447113037 -0.41799336671829224 -0.06262470036745071
-0.14236190915107727 0.43105825781822205 -0.14453209936618805
0.2015594244003296 -0.40949591994285583 -0.03597685322165489
-0.12661617994308472 -0.41614699363708496 -0.027304494753479958
0.1960701197385788 -0.2501566410064697 0.12273643165826797
-0.12675847113132477 0.28501930832862854 -0.0436561182141304
0.19513539969921112 -0.38270294666290283 0.028003642335534096
-0.061447978019714355 0.39416933059692383 -0.1676194667816162
-0.028859660029411316 -0.414250910282135 -0.14655989408493042
0.0796973928809166 0.5332942008972168 -0.16106915473937988
-0.20381765067577362 0.021898047998547554 -0.14515620470046997
-0.1946653127670288 -0.4007556736469269 -0.18618512153625488
-0.12069761753082275 -0.06906746327877045 -0.17492979764938354
0.2073182314634323 -0.14258360862731934 -0.005109765101224184
0.22422459721565247 -0.270175963640213 0.007481331937015057
-0.06876475363969803 0.35527119040489197 0.1444859504699707
0.1796385645866394 -0.4155283570289612 -0.08662354946136475
-0.09839653223752975 -0.19436416029930115 0.234277606010437
0.201524555683136 0.06863529980182648 -0.0957031100988388
-0.12600913643836975 0.39381182193756104 -0.016455356031656265
0.08715075254440308 -0.41045600175857544 0.024027906358242035
0.07280035316944122 0.40602847933769226 0.10077075660228729
-0.06670000404119492 0.5635384321212769 0.011127546429634094
0.21337345242500305 -0.3441157937049866 -0.10982590913772583
0.19334229826927185 0.015933223068714142 -0.15377895534038544
-0.2279558777809143 -0.3058905303478241 -0.009466052986681461
-0.21948426961898804 -0.17705950140953064 -0.060927875339984894
-0.14223161339759827 -0.4128381609916687 0.151155024766922
0.21060770750045776 -0.3111952543258667 0.06729786098003387
0.14191816747188568 0.15658126771450043 -0.16423407196998596
-0.12136007100343704 0.5061001777648926 -0.004128959029912949
0.008503172546625137 -0.18212293088436127 -0.16737179458141327
0.12839275598526 0.15187512338161469 -0.03899775445461273
0.07639159262180328 -0.42080533504486084 0.03205551952123642
-0.03631855919957161 0.44812238216400146 -0.1654524803161621
-0.0419527068734169 -0.19902971386909485 -0.16745878756046295
-0.12440630793571472 0.24647100269794464 0.12896336615085602
0.07591097056865692 0.12277035415172577 0.1945531666278839
0.13428014516830444 0.4283684194087982 0.004159674048423767
-0.07417096197605133 0.18121692538261414 -0.1757003664970398
0.07806470990180969 0.2357865422964096 0.23844899237155914
0.10147584974765778 -0.174856036901474 0.24058619141578674
-0.14841443300247192 -0.04210037738084793 -0.17695222795009613
-0.1355154663324356 0.09881576895713806 0.09225975722074509
-0.18222829699516296 -0.41763198375701904 9.341374970972538e-05
0.09925595670938492 -0.15174192190170288 0.23516468703746796
-0.060874003916978836 0.07077666372060776 -0.18227437138557434
-0.1861545443534851 -0.026574373245239258 0.0021340223029255867
0.08909419924020767 -0.41278278827667236 0.038293518126010895
-0.10380291938781738 0.09717511385679245 0.13818199932575226
0.04907107353210449 -0.414154052734375 0.21005482971668243
-0.2160443216562271 -0.31815123558044434 -0.0849032998085022
0.18346641957759857 -0.0002029426395893097 0.002252392005175352
-0.11206978559494019 -0.041187968105077744 0.1871371865272522
0.13338249921798706 -0.3756308853626251 -0.1965426355600357
-0.07128769159317017 -0.41586992144584656 0.00030103884637355804
-0.19722995162010193 -0.41996535658836365 -0.052586596459150314
-0.07794283330440521 0.022228874266147614 -0.18193688988685608
0.13346460461616516 0.17036356031894684 -0.0802961140871048
-0.06373336166143417 0.3859025537967682 -0.16791565716266632
-0.08295805007219315 -0.40573716163635254 0.04510065168142319
-0.16741883754730225 -0.18833604454994202 0.15910036861896515
0.177038311958313 0.15167753398418427 -0.11995428800582886
-0.11842971295118332 0.5133711099624634 0.017806105315685272
-0.13721370697021484 -0.3492802679538727 -0.19375824928283691
0.13415727019309998 0.30697309970855713 0.01419193297624588
0.13010253012180328 -0.4213924705982208 -0.13816162943840027
0.21654170751571655 -0.3726440668106079 -0.1161351278424263
0.02654113620519638 0.22515428066253662 -0.17367155849933624
-0.06031090393662453 0.2828555703163147 -0.1728021651506424
0.011151418089866638 -0.16850218176841736 0.2530219554901123
-0.10525411367416382 0.26520511507987976 0.1816088855266571
0.20024164021015167 0.09067459404468536 -0.11647118628025055
-0.20535841584205627 0.018777448683977127 -0.1385519802570343
0.1310139298439026 0.14660653471946716 0.012138660997152328
0.169433131814003 0.14781904220581055 -0.10331270843744278
-0.07367093861103058 0.4425112009048462 -0.16430304944515228
-0.020855406299233437 0.5640376210212708 0.009962747804820538
0.01579965651035309 0.3785116970539093 -0.17123112082481384
0.1899491846561432 -0.2519024610519409 -0.11579718440771103
-0.14287316799163818 -0.23765605688095093 -0.15545320510864258
0.07060104608535767 -0.1551552414894104 0.24752283096313477
0.19455501437187195 -0.4125889241695404 -0.08688454329967499
-0.18759502470493317 -0.06439562141895294 0.008104062639176846
0.04415524750947952 -0.3538888096809387 0.2553606331348419
0.07156305015087128 0.5711492300033569 -0.06420161575078964
-0.18631096184253693 -0.046039193868637085 0.011635377071797848
0.12005718052387238 0.05075198784470558 0.16732656955718994
-0.18684372305870056 -0.14759865403175354 0.05436563491821289
-0.09908196330070496 -0.2585374116897583 -0.1730215847492218
-0.16214676201343536 0.08614781498908997 -0.1803482621908188
0.011133670806884766 -0.30766570568084717 0.2622743844985962
-0.07731565833091736 -0.34926852583885193 0.23060820996761322
-0.0820535197854042 0.3449174165725708 -0.16813777387142181
0.16873694956302643 0.1040721908211708 0.06303214281797409
0.16274084150791168 0.3035185635089874 -0.0880793035030365
0.13388869166374207 0.4135040044784546 0.0555223673582077
0.09315962344408035 -0.41074231266975403 0.04003121703863144
0.19235080480575562 -0.04555647075176239 -0.1449674814939499
-0.07374192774295807 -0.4065404534339905 0.06801577657461166
-0.14032886922359467 -0.3829191327095032 0.1789976954460144
0.22281469404697418 -0.2526741027832031 -0.06312552839517593
-0.008275557309389114 0.4167640209197998 -0.16793544590473175
-0.03731202334165573 0.31394463777542114 -0.17157529294490814
0.1317799985408783 -0.37727412581443787 0.1750684231519699
-0.12786225974559784 0.326067715883255 -0.05504782870411873
-0.034100957214832306 0.4588731825351715 0.07860643416643143
0.009789414703845978 -0.37610092759132385 0.25932449102401733
0.18615591526031494 0.04514053463935852 0.06606034189462662
0.18413512408733368 0.03907649219036102 0.07296459376811981
-0.03562111407518387 -0.41377294063568115 -0.14679083228111267
-0.16802184283733368 -0.4182349145412445 -0.07291226834058762
-0.009394068270921707 0.348483681678772 0.2470344752073288
-0.03590647131204605 0.5646335482597351 -0.05224577337503433
-0.1625683605670929 -0.4147045910358429 0.08809992671012878
-0.12401405721902847 0.24157792329788208 0.12421207875013351
0.18880119919776917 -0.14364762604236603 0.09165814518928528
-0.07183053344488144 -0.41775697469711304 -0.057763468474149704
0.1135147362947464 -0.41839760541915894 -0.12049990892410278
0.13207733631134033 0.44058799743652344 -0.01783456653356552
-0.18194423615932465 -0.006375987082719803 0.06628692150115967
0.0006390232592821121 -0.16884690523147583 0.25885477662086487
0.06134916841983795 0.48328283429145813 0.07699543982744217
0.13081923127174377 0.4933544993400574 -0.14872433245182037
-0.10237149149179459 -0.2717880308628082 -0.17765574157238007
0.1952832192182541 0.01622091978788376 -0.15859919786453247
0.16176024079322815 -0.097969651222229 0.17629210650920868
0.01605379953980446 0.5629733800888062 -0.1513775885105133
0.09183889627456665 -0.40755629539489746 0.04849648475646973
-0.03386824578046799 0.43799760937690735 -0.16611330211162567
-0.1734088957309723 -0.01720372587442398 0.08876965194940567
0.08743323385715485 0.2575613558292389 -0.1684543490409851
-0.20792299509048462 -0.017474515363574028 -0.06988857686519623
-0.18695731461048126 -0.2504051923751831 -0.13630591332912445
0.13032734394073486 0.22867420315742493 0.1455952376127243
0.05048490688204765 -0.16014616191387177 0.2537102699279785
0.08723483979701996 -0.41430434584617615 -0.06814038753509521
0.0927143543958664 -0.4088229835033417 0.010501530952751637
-0.08787121623754501 0.4490970969200134 -0.1623295396566391
0.1448925882577896 -0.19777068495750427 0.2142411321401596
0.1996975988149643 0.050774361938238144 -0.11995959281921387
-0.20854268968105316 -0.01111437939107418 -0.10826773196458817
0.21310527622699738 -0.3353698253631592 -0.10265475511550903
0.04587214067578316 0.43719595670700073 0.09466461837291718
0.17621885240077972 0.015911368653178215 0.10319159924983978
-0.21622706949710846 -0.11658576875925064 -0.08556284755468369
-0.12435901910066605 0.2418709099292755 0.14324118196964264
0.16624657809734344 0.12481643259525299 -0.003249123692512512
0.21783298254013062 -0.1925436556339264 -0.07268167287111282
-0.14306974411010742 0.021176036447286606 0.14121320843696594
0.008627738803625107 -0.41682493686676025 -0.13744327425956726
0.20960567891597748 -0.16360314190387726 -0.11625419557094574
-0.1257411688566208 0.2571142017841339 0.07171844691038132
0.10097334533929825 -0.40884608030319214 0.019749049097299576
-0.11916688829660416 0.1633668839931488 -0.001964285969734192
-0.11817856132984161 0.5026222467422485 0.004626180976629257
-0.09155106544494629 0.04215818643569946 -0.18198251724243164
-0.0203024223446846 -0.41354429721832275 0.004976771771907806
0.099310502409935 -0.4006362557411194 0.05101432651281357
-0.09110460430383682 -0.051718682050704956 0.2041284143924713
0.08363445848226547 -0.017976488918066025 0.20793434977531433
0.04406914860010147 0.5684645771980286 -0.02249891683459282
-0.188569575548172 0.086069256067276 -0.030150650069117546
0.0005998387932777405 -0.3986853361129761 0.2333584725856781
0.10772731155157089 -0.4111458361148834 0.0067144278436899185
0.10129886865615845 -0.4087071716785431 0.056968241930007935
0.11578116565942764 0.1324159801006317 0.13431206345558167
-0.16124989092350006 -0.42158764600753784 -0.1671086698770523
0.033862318843603134 0.3264567255973816 -0.1705440729856491
0.11354799568653107 0.0009107829537242651 0.18748876452445984
0.09198838472366333 -0.21233689785003662 -0.15840068459510803
-0.2221984565258026 -0.19218790531158447 -0.061643075197935104
0.0370185561478138 -0.41066426038742065 -0.06807777285575867
-0.06477578729391098 -0.20020639896392822 0.25508755445480347
0.05964550003409386 0.2815297245979309 -0.1703571081161499
0.07862831652164459 0.14691415429115295 0.22651810944080353
-0.0847940742969513 -0.13415446877479553 0.22813771665096283
-0.20247182250022888 -0.10380089282989502 -0.16372354328632355
-0.05950523912906647 0.1203778013586998 0.20320779085159302
0.21976010501384735 -0.2743660509586334 0.04606691002845764
0.0809239000082016 0.034251101315021515 0.19419719278812408
-0.17199690639972687 -0.41956445574760437 -0.08825144171714783
0.22419892251491547 -0.2607322931289673 -0.041379161179065704
-0.16350018978118896 0.049435097724199295 0.09174802899360657
-0.03757454827427864 0.5283187627792358 0.0850425735116005
-0.1632082164287567 0.12733924388885498 -0.012625135481357574
-0.12543870508670807 0.29809609055519104 0.0978410542011261
0.0080210380256176 0.12598687410354614 0.2232188582420349
-0.11996841430664062 0.514695942401886 0.010800376534461975
-0.05269245430827141 0.43640273809432983 -0.16662468016147614
0.011223621666431427 0.41995957493782043 0.1556112915277481
-0.12723864614963531 0.34446045756340027 0.02726932242512703
-0.16055265069007874 -0.1418236792087555 -0.16963757574558258
-0.1274985671043396 0.28850257396698 0.04536556452512741
0.13093025982379913 0.2116367071866989 0.18468952178955078
0.13702061772346497 -0.2495361566543579 -0.15134555101394653
0.1553824096918106 -0.2069082111120224 -0.1432277113199234
0.1864262968301773 -0.09558578580617905 0.06617070734500885
-0.143959641456604 -0.41481155157089233 0.12229561805725098
0.12404860556125641 0.16963252425193787 0.09331200271844864
0.11385596543550491 0.5553818345069885 -0.12737472355365753
0.13190603256225586 0.25662291049957275 0.16776615381240845
0.1942877173423767 -0.41422051191329956 -0.09510593116283417
0.06880632042884827 0.5633105635643005 0.02108342945575714
-0.18774063885211945 -0.14072781801223755 0.06948114186525345
-0.22121983766555786 -0.2516317069530487 -0.09615887701511383
0.09871029853820801 -0.08820473402738571 0.21917171776294708
0.13195392489433289 -0.36823606491088867 -0.1942145824432373
0.161650151014328 -0.01698814332485199 0.14721278846263885
0.2103758007287979 -0.10039833188056946 -0.04510597139596939
0.0676947832107544 -0.045767076313495636 -0.17523090541362762
-0.18683212995529175 -0.12934312224388123 0.07198325544595718
-0.02389463782310486 -0.09139519929885864 -0.1767701804637909
0.1484263837337494 0.29356157779693604 -0.10920565575361252
-0.11821591854095459 0.49242544174194336 0.025115512311458588
-0.1185276061296463 -0.41755515336990356 -0.19923625886440277
-0.1581360548734665 0.031117673963308334 0.11129806935787201
-0.1693277806043625 -0.06619843095541 -0.1749294549226761
0.22172200679779053 -0.2899235188961029 0.003720142412930727
-0.07233579456806183 -0.05278928577899933 0.2130199819803238
-0.018515244126319885 -0.12228050082921982 0.24366354942321777
0.07342490553855896 0.19167740643024445 0.2517798840999603
0.2001219093799591 0.046512722969055176 -0.12044516205787659
0.20248079299926758 0.019901692867279053 -0.11097073554992676
0.13291426002979279 0.4524713158607483 0.0005235970020294189
0.03699348494410515 0.3448023498058319 0.2395322024822235
-0.05165351927280426 0.5627356171607971 -0.015265367925167084
-0.16088752448558807 -0.007378146052360535 0.1193244457244873
-0.21759963035583496 -0.24910256266593933 0.05024934560060501
0.09954719990491867 0.2429167926311493 -0.1633497178554535
0.12369926273822784 -0.4170726239681244 -0.13116717338562012
-0.06640926003456116 0.36243751645088196 -0.16799399256706238
0.21391312777996063 -0.33126553893089294 -0.05139688029885292
0.13627588748931885 0.29767045378685 0.1098640039563179
-0.07837933301925659 -0.13402670621871948 -0.17481586337089539
0.07535530626773834 -0.09379768371582031 0.22864104807376862
0.027405250817537308 0.06755497306585312 0.1909804791212082
-0.183890700340271 -0.4009743928909302 -0.1936040222644806
0.08085025101900101 -0.41384565830230713 0.03213897719979286
-0.1862303614616394 -0.408774197101593 -0.19122320413589478
0.14694851636886597 0.4264896810054779 -0.14334501326084137
0.09168332070112228 -0.01174723356962204 0.20207884907722473
0.22139447927474976 -0.24123041331768036 -0.053806982934474945
-0.16058266162872314 0.10868745297193527 0.042187511920928955
-0.03292996063828468 0.2499479204416275 0.2380032241344452
-0.1724216789007187 -0.26419225335121155 -0.1498083621263504
-0.17215269804000854 -0.4142895042896271 0.0791202262043953
-0.09734705090522766 0.0925045758485794 0.15087422728538513
0.19259104132652283 -0.08457527309656143 -0.14860042929649353
-0.12485750019550323 0.3984399437904358 -0.02514241635799408
0.1027713194489479 -0.027095165103673935 0.2011474072933197
0.11751887202262878 0.5329858660697937 0.0175618976354599
0.2078377604484558 -0.08574847877025604 -0.09621008485555649
-0.17090898752212524 -0.24552977085113525 0.16395089030265808
0.15189170837402344 0.288236141204834 -0.08167276531457901
-0.04084737226366997 0.4216062128543854 -0.1684638112783432
-0.20364369451999664 -0.2707175612449646 0.09878253936767578
0.13441374897956848 0.3848341405391693 0.06298145651817322
0.05390527844429016 0.23387694358825684 0.2529662549495697
0.15463785827159882 -0.4163148105144501 -0.1789976954460144
-0.1568097472190857 0.07846902310848236 -0.1787276417016983
0.022802546620368958 -0.41266193985939026 0.02199183776974678
0.20068137347698212 0.11198846995830536 -0.11911048740148544
-0.0644497275352478 -0.11399301886558533 -0.17698509991168976
-0.21018321812152863 -0.22473740577697754 -0.13260439038276672
0.03516530618071556 0.5612043142318726 -0.15140299499034882
0.06048770993947983 0.44277846813201904 -0.1670052409172058
-0.12927736341953278 -0.41424116492271423 0.1418338418006897
0.07201161235570908 0.1424015760421753 0.2239268273115158
-0.12182854115962982 0.5213894844055176 -0.019790489226579666
0.18608370423316956 -0.03220166265964508 0.07652553915977478
-0.18623143434524536 -0.36525076627731323 0.10418747365474701
-0.11093880236148834 -0.2942928373813629 -0.184343159198761
0.20283085107803345 -0.023045480251312256 -0.0828065276145935
-0.03238099813461304 0.15257272124290466 0.243626669049263
0.21199819445610046 -0.3483995497226715 -0.11990910023450851
-0.12140714377164841 0.209152951836586 -0.037493735551834106
-0.06915515661239624 0.5525911450386047 0.045692265033721924
0.13097991049289703 0.30779486894607544 -0.002562500536441803
0.0905776172876358 0.22608035802841187 0.2355421930551529
0.08995766937732697 0.180686354637146 0.24074000120162964
-0.12368820607662201 -0.4230155944824219 -0.1667698472738266
0.17850720882415771 -0.13935542106628418 0.13466502726078033
0.08883216232061386 -0.41546326875686646 0.033231690526008606
-0.07463639229536057 0.5641273856163025 -0.001998085528612137
-0.007787097245454788 -0.24209128320217133 -0.178829625248909
-0.15651196241378784 -0.38320475816726685 0.1619839072227478
0.09745544195175171 0.16523003578186035 0.23207280039787292
0.19109424948692322 -0.02464985102415085 -0.006983533035963774
-0.0772886797785759 -0.2264183610677719 -0.16678306460380554
-0.19051110744476318 -0.40620535612106323 0.06701985746622086
-0.06823919713497162 -0.4203469753265381 -0.19490806758403778
-0.10634074360132217 0.10017605125904083 -0.1805870682001114
0.09045590460300446 -0.40532606840133667 0.06527357548475266
-0.12696589529514313 0.3186708688735962 0.03878222405910492
0.1706271767616272 -0.4165066182613373 -0.01963561773300171
-0.14739418029785156 -0.13839636743068695 0.17841315269470215
0.13480724394321442 0.28533419966697693 0.12134460359811783
-0.07228150963783264 0.5635553598403931 0.013947014696896076
-0.1583826243877411 -0.14906932413578033 -0.16904857754707336
-0.028030123561620712 0.35220420360565186 0.24170348048210144
0.15228451788425446 -0.3715837597846985 0.14825159311294556
0.13506944477558136 -0.39318856596946716 -0.19942225515842438
0.15070676803588867 -0.36545753479003906 -0.18932349979877472
0.0855071097612381 0.0540543831884861 0.186693474650383
-0.0521690659224987 0.1691349297761917 0.25234025716781616
-0.08715127408504486 0.317001610994339 0.192562997341156
-0.09658890962600708 -0.1893416941165924 0.234910249710083
-0.16072450578212738 -0.42013615369796753 -0.17724023759365082
0.2115378975868225 -0.34045782685279846 -0.10997165739536285
-0.04457380995154381 0.5214186906814575 0.08451522886753082
-0.1248711496591568 0.4614931643009186 -0.031426429748535156
-0.04702233895659447 0.012178890407085419 -0.1819995641708374
-0.12462577223777771 0.2433311492204666 0.10262658447027206
0.14575515687465668 0.2863631546497345 -0.07734362781047821
0.14249145984649658 -0.409761518239975 0.0821286216378212
0.2209979146718979 -0.2232452780008316 -0.07923024892807007
0.017965827137231827 -0.4061130881309509 -0.20727665722370148
-0.11860920488834381 0.04553048312664032 -0.18067975342273712
0.13153396546840668 -0.21829873323440552 0.2285945564508438
0.1263178437948227 0.19651289284229279 -0.0413246750831604
0.13678523898124695 0.4173799753189087 0.012698650360107422
0.011208612471818924 -0.4153505861759186 0.16515688598155975
-0.16324089467525482 0.03515733405947685 0.09989642351865768
-0.1871999353170395 0.11491557210683823 -0.05629122257232666
-0.17468835413455963 0.0004204288125038147 -0.17670005559921265
0.07298816740512848 0.17849910259246826 0.2530367076396942
0.12847761809825897 0.21454554796218872 -0.04717295989394188
-0.20824865996837616 -0.006938787177205086 -0.1158367469906807
-0.19501647353172302 -0.2314320206642151 0.11296236515045166
0.22110901772975922 -0.28086769580841064 0.03338419273495674
-0.19872543215751648 -0.19105584919452667 0.02382880449295044
-0.07126834243535995 -0.20717506110668182 -0.1642782837152481
-0.1983523666858673 0.04978790506720543 -0.05707312747836113
0.11466299742460251 0.3608088195323944 0.12315895408391953
0.21011699736118317 -0.3940485417842865 -0.10948394238948822
0.21877939999103546 -0.24497884511947632 -0.07855533063411713
6.38933852314949e-06 0.40734779834747314 0.17641842365264893
0.11287367343902588 -0.4134664833545685 -0.09887421131134033
-0.05868995189666748 -0.4137985408306122 0.15217912197113037
0.09398450702428818 -0.40581709146499634 0.07011950761079788
-0.15902259945869446 0.051670242100954056 -0.17753179371356964
-0.12538018822669983 0.26045578718185425 -0.10472573339939117
0.20005197823047638 -0.3832646310329437 0.018621036782860756
0.11476510763168335 -0.2045764923095703 0.23293864727020264
0.14993858337402344 -0.37557753920555115 -0.19160254299640656
0.0524546317756176 -0.0022142231464385986 -0.17673762142658234
-0.12758783996105194 0.30600979924201965 0.03683341667056084
-0.12634870409965515 0.4685877561569214 -0.04249025508761406
0.1401435136795044 -0.40251728892326355 -0.19857090711593628
0.06428459286689758 -0.41811758279800415 -0.12445402145385742
0.15055018663406372 -0.414972186088562 -0.027509130537509918
-0.1119576096534729 0.08937080949544907 0.13991720974445343
-0.03124120645225048 -0.17559321224689484 0.25709789991378784
0.12073618173599243 0.15760555863380432 -0.166010320186615
-0.206258624792099 0.00686525646597147 -0.07635901123285294
0.21856671571731567 -0.2066541314125061 -0.09337905794382095
-0.20617146790027618 -0.3832308351993561 -0.16479980945587158
0.12595123052597046 0.17366774380207062 0.07930935174226761
0.06782712042331696 0.21116958558559418 0.25154972076416016
-0.2249377816915512 -0.2420075535774231 -0.018046289682388306
0.1290890872478485 0.21384520828723907 0.11352856457233429
-0.09112247824668884 -0.3765396177768707 0.21909600496292114
0.04400151968002319 0.04821714013814926 0.19560548663139343
0.20195573568344116 0.03501161187887192 -0.09666331112384796
0.005145430564880371 0.4753146171569824 -0.16794006526470184
0.018706761300563812 -0.4202203154563904 -0.17817148566246033
0.18417102098464966 -0.07970261573791504 0.037559252232313156
0.16115082800388336 -0.14122700691223145 0.18897058069705963
-0.042141392827034 -0.4139079451560974 0.14495746791362762
0.1017770916223526 -0.398647665977478 -0.20428894460201263
-0.05727386102080345 0.4005374312400818 -0.1678301841020584
-0.0006751865148544312 0.4213812053203583 -0.16760148108005524
0.1275605410337448 0.17861124873161316 0.03243950009346008
-0.1796296238899231 -0.13504144549369812 0.09962373226881027
-0.10994602739810944 0.03344932943582535 -0.1812836080789566
-0.12820124626159668 -0.12264384329319 0.19409874081611633
-0.10431759059429169 0.1905847042798996 0.20919010043144226
0.09528948366641998 -0.4076768457889557 0.008466420695185661
0.12806053459644318 0.17828120291233063 0.05751459300518036
-0.08009664714336395 -0.3816602826118469 0.22486454248428345
-0.10048502683639526 -0.40196794271469116 -0.2069934457540512
0.20569957792758942 -0.05008377879858017 -0.0793091431260109
-0.02292422577738762 0.14984315633773804 0.24521952867507935
-0.0052247680723667145 0.4018641710281372 -0.16849969327449799
0.2030065506696701 0.010362217202782631 -0.06272640824317932
0.09528671205043793 -0.40984857082366943 0.015485110692679882
-0.07165545970201492 -0.42107459902763367 -0.20138761401176453
0.11620151996612549 0.16736963391304016 0.19895707070827484
-0.12467060983181 -0.32420670986175537 -0.1912151575088501
0.13122296333312988 0.23836961388587952 0.15504813194274902
-0.13725422322750092 -0.2131814956665039 -0.1587674468755722
-0.20396043360233307 -0.25128716230392456 -0.13297051191329956
0.13309787213802338 0.3015069365501404 0.11870579421520233
0.17489755153656006 0.1362808793783188 -0.04621296375989914
-0.17781558632850647 0.09368379414081573 0.018239349126815796
-0.08000931143760681 -0.167671799659729 -0.17061379551887512
-0.13065794110298157 -0.1924809366464615 0.21039262413978577
0.12663166224956512 0.3601922392845154 0.09960970282554626
0.09596949070692062 -0.4129350483417511 -0.09436793625354767
-0.19659829139709473 -0.05687875300645828 -0.007906484417617321
-0.08854734152555466 -0.09772427380084991 0.2166011929512024
-0.16080036759376526 -0.4174933433532715 -0.18290400505065918
0.10156252235174179 -0.4147961139678955 -0.12403419613838196
-0.08316372334957123 0.5479114055633545 0.0396786704659462
0.09757588058710098 -0.4150448739528656 -0.06955741345882416
0.06106777861714363 -0.17737054824829102 0.2567698657512665
0.14747893810272217 -0.3038601279258728 -0.16820310056209564
-0.03594018891453743 0.39953121542930603 0.12177299708127975
-0.04037514328956604 -0.18393316864967346 -0.17051728069782257
-0.19817359745502472 -0.4013020694255829 0.05675975978374481
0.13070330023765564 0.41464152932167053 0.05808888375759125
0.07140135765075684 0.35789379477500916 0.15223197638988495
-0.2022639513015747 0.09577202796936035 -0.15713688731193542
-0.028432048857212067 0.30847105383872986 -0.1723594218492508
-0.04295206442475319 0.43203961849212646 -0.16749615967273712
0.0510035939514637 0.07133680582046509 0.18819057941436768
0.08777112513780594 -0.41962262988090515 -0.13625597953796387
-0.06450013816356659 0.36278101801872253 -0.16846825182437897
0.09828789532184601 -0.4141694903373718 -0.12360390275716782
-0.20836253464221954 -0.039343710988759995 -0.061741046607494354
-0.1868489533662796 -0.13942864537239075 0.04043405130505562
0.14108654856681824 0.05031225085258484 0.15013761818408966
-0.04508236050605774 0.23144613206386566 0.24064652621746063
-0.05879975110292435 0.40133991837501526 -0.1677606850862503
-0.06436830759048462 -0.09172844886779785 0.22699923813343048
0.11725980788469315 0.14317263662815094 0.14286407828330994
-0.04487929493188858 -0.1965753138065338 -0.1692185401916504
-0.07586359232664108 0.19854527711868286 0.23994575440883636
-0.03658941388130188 -0.41704460978507996 -0.20561902225017548
0.08869405090808868 -0.41144809126853943 0.009259423241019249
0.1278134286403656 0.19830390810966492 -0.030744820833206177
0.2005157470703125 0.04281304031610489 -0.11714443564414978
-0.028821615502238274 0.44216787815093994 -0.16703388094902039
0.04955432564020157 0.45739150047302246 0.06953811645507812
0.13707678020000458 0.3010195791721344 0.07458532601594925
0.10902459919452667 -0.4093165397644043 0.06063900142908096
0.10212649405002594 -0.4141092002391815 -0.11743846535682678
0.18477848172187805 0.09502246975898743 0.03684454783797264
-0.08336521685123444 -0.4139672815799713 -0.008772427216172218
0.017113570123910904 0.37577545642852783 0.23367497324943542
-0.12672188878059387 0.4451124966144562 -0.15096431970596313
-0.05096104368567467 -0.1838521510362625 -0.16940027475357056
-0.12851013243198395 0.1663871705532074 -0.12082480639219284
-0.041764289140701294 0.06735298037528992 -0.18218420445919037
0.13239599764347076 0.20180834829807281 0.18782667815685272
0.028068486601114273 -0.4169766902923584 0.23061005771160126
0.12346872687339783 -0.21096444129943848 0.23325598239898682
-0.04965779185295105 -0.16022853553295135 -0.17134100198745728
0.027581555768847466 0.4276844263076782 0.12356068938970566
0.1579897254705429 0.15648946166038513 -0.13280832767486572
-0.19239933788776398 -0.2221841663122177 0.11918401718139648
-0.09941442310810089 -0.4189765453338623 -0.1953156590461731
-0.2039792239665985 -0.41530758142471313 -0.10679411888122559
-0.1325986534357071 0.4830071032047272 -0.059000276029109955
0.21258072555065155 -0.3910132646560669 -0.07725559920072556
0.10684090107679367 0.040416911244392395 0.18028391897678375
-0.06386741250753403 -0.3702889680862427 -0.20689238607883453
-0.19364026188850403 -0.14016592502593994 -0.1628189980983734
-0.08260800689458847 0.19869495928287506 -0.17306219041347504
0.12403114140033722 0.1807715892791748 0.17655570805072784
-0.042847223579883575 -0.2287748157978058 -0.17207302153110504
-0.20401568710803986 0.025936568155884743 -0.06360065191984177
0.13462810218334198 -0.18192918598651886 0.22567322850227356
0.06663283705711365 0.07775066047906876 0.18651875853538513
0.19802594184875488 0.08786364644765854 -0.12177304923534393
0.009108372032642365 -0.15694844722747803 -0.17024965584278107
0.13127730786800385 0.49478229880332947 -0.09196245670318604
0.18141181766986847 -0.1602439284324646 0.12243503332138062
-0.20558954775333405 -0.19402003288269043 0.05393112078309059
0.1556861251592636 0.14906510710716248 -0.09035586565732956
-0.2203242927789688 -0.29056110978126526 0.03887886554002762
0.1343979835510254 0.357412725687027 -0.011464551091194153
-0.22560694813728333 -0.26347535848617554 -0.009084783494472504
0.11533927172422409 0.15736445784568787 0.17726437747478485
0.024230511859059334 0.39756879210472107 0.18824096024036407
0.15220604836940765 0.37153559923171997 -0.10743297636508942
0.17455188930034637 -0.4178273677825928 -0.11525779962539673
-0.07572242617607117 0.16237755119800568 0.23086664080619812
0.19865165650844574 -0.22035691142082214 -0.12181958556175232
0.09182481467723846 -0.1777079850435257 0.24906949698925018
-0.05062083527445793 -0.05039948970079422 -0.1816176474094391
0.03480863571166992 -0.4152161777019501 0.21984949707984924
-0.015955228358507156 0.08089280873537064 0.1911647766828537
-0.02827702835202217 0.5667564272880554 -0.12774372100830078
-0.09290874749422073 0.5459020137786865 0.013306967914104462
-0.05637345463037491 0.5626575350761414 -0.01107131689786911
-0.07534000277519226 0.004642225801944733 -0.18151240050792694
0.04848656430840492 0.28304949402809143 -0.17127437889575958
-0.1319911777973175 -0.4109259247779846 0.08233129978179932
-0.22331897914409637 -0.25813716650009155 0.010194335132837296
0.11190532147884369 -0.41875001788139343 -0.11315230280160904
0.12153234332799911 0.41548335552215576 0.06429402530193329
0.045130904763936996 -0.18519701063632965 -0.16328592598438263
-0.03975418210029602 0.06845182925462723 -0.1821902096271515
-0.20300820469856262 -0.39807790517807007 0.03292267024517059
-0.18083448708057404 -0.23531943559646606 -0.14856301248073578
-0.0623885840177536 0.440308153629303 -0.165432870388031
-0.20427975058555603 -0.18982283771038055 0.05616893619298935
0.22305643558502197 -0.2295389175415039 0.007658815942704678
0.18871362507343292 -0.1745021641254425 0.11466808617115021
-0.004067275673151016 0.4160551428794861 0.1557721197605133
0.1342681497335434 0.2721399664878845 0.0220482237637043
-0.11579437553882599 0.16356292366981506 0.11862962692975998
0.1302167773246765 0.2421266883611679 -0.021029267460107803
0.08318020403385162 -0.41767504811286926 -0.12764787673950195
-0.11582040786743164 0.5463021397590637 -0.07970252633094788
-0.18449467420578003 0.034335967153310776 0.03651392087340355
0.03310327231884003 0.10814017802476883 0.19986800849437714
-0.12700612843036652 0.31578296422958374 0.04029237478971481
0.053299546241760254 0.03468503803014755 0.19815972447395325
0.13567280769348145 0.4636180102825165 -0.08313333988189697
0.15110068023204803 0.41175541281700134 -0.13171933591365814
0.21054773032665253 -0.36363378167152405 -0.03334522247314453
-0.15464848279953003 0.09111817181110382 0.07033083587884903
0.09753614664077759 -0.18754242360591888 -0.15939705073833466
