0.10186873376369476 0.5655251145362854 -0.04548511281609535
-0.018479883670806885 0.5200898051261902 0.09784771502017975
-0.08130486309528351 -0.17239020764827728 0.24390505254268646
-0.16415582597255707 -0.00033176690340042114 0.1082020178437233
0.2078056037425995 -0.31119081377983093 -0.08935501426458359
-0.191106379032135 0.07294071465730667 -0.03632070869207382
-0.00031354278326034546 -0.40900206565856934 0.2299630045890808
-0.0452982634305954 -0.0017239954322576523 0.207759827375412
0.2041090726852417 -0.06391208618879318 -0.006770135834813118
-0.031223081052303314 0.45740193128585815 0.06534796953201294
0.016534652560949326 -0.13350853323936462 -0.17210042476654053
0.03560534119606018 0.05857900530099869 -0.1786210536956787
-0.15427172183990479 0.30188825726509094 -0.1472063809633255
0.09709338843822479 -0.3917943239212036 -0.2045150101184845
0.1523154228925705 -0.4083568751811981 -0.19462721049785614
0.1923300176858902 0.05859934911131859 -0.1462119221687317
-0.07710488885641098 0.39609527587890625 0.09858457744121552
-0.05685793608427048 0.27919232845306396 0.20841950178146362
-0.21480198204517365 -0.10588549077510834 -0.12586000561714172
-0.016341764479875565 -0.42216289043426514 -0.10575452446937561
0.04324354603886604 0.4205719232559204 0.12010641396045685
-0.0413966029882431 0.5416081547737122 0.07507530599832535
-0.047493260353803635 0.2806791365146637 -0.17285148799419403
0.16312983632087708 -0.028619224205613136 0.14836914837360382
0.1998526155948639 0.0845433697104454 -0.052069321274757385
0.09743038564920425 -0.41497334837913513 0.08583380281925201
-0.021821029484272003 0.31934425234794617 0.22502265870571136
-0.10257470607757568 0.004195636138319969 0.180494487285614
-0.06474083662033081 0.3146786093711853 0.2168107032775879
-0.08444732427597046 -0.38136520981788635 -0.20699353516101837
0.13810299336910248 0.3987768590450287 0.01694401726126671
-0.016169555485248566 0.5164169669151306 -0.1658257097005844
-0.04316887632012367 0.35864025354385376 0.20400597155094147
-0.07344499975442886 0.18679094314575195 -0.1759335845708847
0.12884511053562164 0.5155212879180908 -0.12985897064208984
0.03297261893749237 0.09816763550043106 -0.17730216681957245
0.037809476256370544 -0.0799890086054802 -0.17579832673072815
-0.08979364484548569 0.23152251541614532 0.22035561501979828
-0.128449484705925 -0.2084592580795288 0.21305018663406372
0.06349655240774155 0.5664716362953186 -0.007152324542403221
0.06126360967755318 0.3396170139312744 0.2248465120792389
0.1413497030735016 -0.40854230523109436 -0.05481705814599991
-0.06055103614926338 -0.01189933717250824 0.20677444338798523
0.12679950892925262 0.16282686591148376 0.00747714564204216
-0.11552462726831436 0.34815916419029236 -0.16731739044189453
-0.2121201604604721 -0.3665047585964203 -0.11472457647323608
0.13415077328681946 0.04379252344369888 -0.17195875942707062
-0.20154398679733276 -0.3679795563220978 0.062047384679317474
-0.1856740415096283 -0.418419748544693 0.03763017803430557
0.21114271879196167 -0.13583321869373322 -0.0048299385234713554
-0.12380512803792953 0.2249072939157486 0.09641218185424805
-0.21247464418411255 -0.08434973657131195 -0.15067440271377563
0.1951400339603424 0.07413864880800247 -0.14725393056869507
-0.025397522374987602 0.392831951379776 0.16625571250915527
0.049261804670095444 0.062116555869579315 0.19166474044322968
-0.18881557881832123 -0.2446412742137909 0.12733250856399536
0.08081108331680298 -0.2759632468223572 -0.17852923274040222
0.11531496047973633 -0.4124167561531067 -0.10738035291433334
0.15840798616409302 -0.07506811618804932 0.16953107714653015
0.07735583931207657 -0.3148871958255768 -0.19047683477401733
0.14993353188037872 0.05866656452417374 -0.17138995230197906
-0.02395216003060341 0.46321535110473633 0.07075270265340805
-0.024037551134824753 0.5101232528686523 0.09781032055616379
-0.03354020416736603 0.2464645653963089 -0.17422989010810852
-0.0807722732424736 0.49949777126312256 -0.16372895240783691
0.03966568037867546 -0.2205987274646759 -0.1635809987783432
-0.07913995534181595 0.19042277336120605 -0.17540714144706726
-0.08436021208763123 -0.4185425639152527 -0.07643435895442963
0.0077110398560762405 0.3126322031021118 0.22560536861419678
-0.16656842827796936 0.050876107066869736 -0.17986997961997986
0.10484948754310608 -0.3985867500305176 0.06585186719894409
0.03146560490131378 -0.30633777379989624 -0.19100847840309143
0.05026920512318611 -0.412724107503891 0.111714206635952
-0.0738781988620758 0.5669062733650208 -0.12434647977352142
-0.08491826057434082 -0.41273489594459534 0.1729086935520172
-0.14712390303611755 -0.15437258780002594 -0.16860312223434448
0.1624232679605484 -0.4116887152194977 -0.021137941628694534
0.12945272028446198 -0.42447805404663086 -0.10888584703207016
0.04645461589097977 0.4343264698982239 0.08987579494714737
0.2218589186668396 -0.24695783853530884 0.03508388623595238
0.14251485466957092 0.4919777810573578 -0.14464950561523438
-0.12527726590633392 0.3941054046154022 -0.01673588901758194
0.18167445063591003 0.11826528608798981 0.00049549899995327
-0.12649844586849213 0.16348780691623688 -0.10556191205978394
-0.09727168828248978 0.1003788486123085 0.13574403524398804
-0.0033289389684796333 0.46406233310699463 0.07693538069725037
-0.03426193818449974 -0.38031044602394104 0.2432284653186798
-0.11699634790420532 0.14930441975593567 0.07218039035797119
0.18573817610740662 -0.4148868918418884 -0.10138881951570511
-0.07939453423023224 0.00026251375675201416 -0.1824992597103119
-0.14418470859527588 0.3946562707424164 -0.1501534879207611
-0.10334527492523193 0.26846250891685486 0.19097581505775452
-0.12237460911273956 0.26501038670539856 -0.1281556785106659
0.18631041049957275 -0.21238665282726288 0.15252357721328735
-0.19915331900119781 -0.2169480323791504 0.10078956931829453
-0.12314946204423904 0.41953498125076294 -0.16122514009475708
-0.1519506424665451 -0.18486931920051575 -0.16332797706127167
-0.12232731282711029 -0.37585893273353577 -0.20339937508106232
0.05864137038588524 0.05334749445319176 0.19276155531406403
-0.031131885945796967 0.2928791046142578 -0.1726657897233963
0.1373455971479416 0.3951299488544464 -0.0018497016280889511
-0.13094286620616913 0.269954651594162 -0.11944927275180817
0.10801222920417786 0.03943633660674095 -0.1757226437330246
-0.12877775728702545 0.15812180936336517 -0.09863659739494324
-0.14868471026420593 -0.3372590243816376 -0.18577520549297333
0.09387015551328659 0.015614628791809082 -0.1751994788646698
-0.11495117098093033 -0.141299769282341 0.21290898323059082
-0.039825789630413055 0.36118215322494507 0.1777772456407547
-0.13594874739646912 -0.41561153531074524 0.053467411547899246
-0.10513035953044891 -0.4209466576576233 -0.13280190527439117
0.013997990638017654 -0.18497659265995026 0.2633829116821289
0.1518419235944748 -0.2242593914270401 -0.1416776180267334
-0.22631263732910156 -0.25280964374542236 -0.06246534734964371
0.035652924329042435 -0.15995657444000244 -0.16885212063789368
-0.09091334044933319 -0.292599618434906 -0.18819904327392578
0.10909982025623322 -0.3306008279323578 -0.18874701857566833
0.22326339781284332 -0.24830575287342072 0.0017243493348360062
0.17111164331436157 -0.38280266523361206 -0.18946798145771027
-0.17227239906787872 -0.16229717433452606 0.12850069999694824
-0.048410564661026 -0.4129185974597931 0.15955480933189392
0.2217620313167572 -0.2274358570575714 -0.004189884290099144
-0.14669086039066315 0.3308925926685333 -0.07233633100986481
-0.13956084847450256 0.4848359227180481 -0.09210674464702606
-0.17950190603733063 0.05581967532634735 0.03798491507768631
-0.2028968632221222 -0.16595740616321564 0.004402122460305691
0.08437258005142212 0.36074453592300415 -0.1668095588684082
-0.1217285767197609 -0.14362017810344696 0.20718792080879211
0.19839829206466675 -0.2910342812538147 0.11268405616283417
0.12797881662845612 0.25330835580825806 -0.09731902927160263
0.1960231512784958 0.09741390496492386 -0.048651084303855896
-0.19541355967521667 -0.09386435151100159 -0.02282475307583809
-0.00018979422748088837 0.02076330967247486 0.20657993853092194
-0.1243935376405716 0.47112661600112915 -0.058654844760894775
0.13717880845069885 0.3565770387649536 0.05403217673301697
0.2028350979089737 -0.11109871417284012 -0.13923797011375427
0.1429433673620224 0.037091419100761414 -0.1727425456047058
0.08570029586553574 -0.34363195300102234 -0.19450139999389648
0.11478233337402344 0.08598433434963226 0.16005638241767883
-0.09437335282564163 -0.25741612911224365 0.24147774279117584
0.1937527060508728 -0.3015833795070648 0.11890079081058502
0.13732868432998657 0.3342668116092682 0.017791979014873505
-0.02597789093852043 0.39915770292282104 0.15070019662380219
0.025197088718414307 0.2768101990222931 0.2237623631954193
0.2168320268392563 -0.17727357149124146 -0.009003769606351852
-0.19905894994735718 -0.39844468235969543 -0.1627446711063385
0.177432581782341 -0.2275443971157074 0.16592605412006378
0.11172913014888763 0.11538804322481155 0.1436663120985031
-0.1732582151889801 -0.1210397481918335 0.12454891949892044
-0.2121572196483612 -0.34366172552108765 0.006467519793659449
0.03136333078145981 0.16731446981430054 -0.17418219149112701
0.07279915362596512 -0.16326968371868134 0.24603837728500366
-0.1291823387145996 0.43431755900382996 -0.1593925952911377
0.18752296268939972 0.0826042890548706 -0.1557680368423462
0.11536235362291336 0.418857604265213 -0.16765333712100983
0.13064804673194885 0.15684564411640167 -0.16320602595806122
0.04734323173761368 0.1117943748831749 0.19543802738189697
0.09689299017190933 0.5478813648223877 0.02764919027686119
-0.1732848882675171 0.03281610086560249 0.07566843181848526
0.20721261203289032 -0.19277949631214142 0.06255057454109192
-0.22757042944431305 -0.2872711420059204 -0.035954419523477554
-0.09941297024488449 0.21897432208061218 0.2186976671218872
0.1275433599948883 -0.41445645689964294 -0.04952182248234749
-0.009147118777036667 -0.4106099307537079 -0.024295976385474205
-0.03509015962481499 -0.12401410937309265 -0.17602941393852234
-0.06683214008808136 -0.4202468991279602 -0.020939543843269348
0.18152070045471191 0.06437969207763672 0.0765831246972084
-0.1258801817893982 0.39527666568756104 0.03640840947628021
0.013345342129468918 0.04857373237609863 -0.17853376269340515
0.18237055838108063 0.10794869810342789 -0.014256119728088379
0.21490727365016937 -0.2527719736099243 0.07340121269226074
0.19599545001983643 -0.40965908765792847 -0.058303192257881165
0.21984681487083435 -0.275187224149704 0.03622249513864517
0.09213981032371521 -0.3971315026283264 -0.20415425300598145
0.1848696619272232 -0.1293727606534958 0.029481086879968643
-0.1765204221010208 -0.2364467829465866 0.1493934839963913
0.16424447298049927 -0.09089530259370804 -0.15989844501018524
0.11926932632923126 0.15046358108520508 -0.16828592121601105
-0.19347451627254486 0.10133960098028183 -0.0530373677611351
-0.002163883298635483 -0.20990970730781555 -0.1633010357618332
-0.09545966237783432 -0.14451125264167786 -0.17245472967624664
0.001077001914381981 0.25180789828300476 -0.17370979487895966
-0.018629010766744614 -0.37272724509239197 0.24613288044929504
-0.02205575257539749 -0.31226956844329834 -0.19581349194049835
-0.09809018671512604 0.2655319571495056 0.1987057328224182
-0.06865330040454865 -0.4212096035480499 -0.17275278270244598
0.22261503338813782 -0.24372223019599915 -0.0708470568060875
0.1938856840133667 -0.186099112033844 0.12803326547145844
0.0884246975183487 -0.36037543416023254 0.23875342309474945
-0.001117512583732605 -0.3767605721950531 -0.20712783932685852
-0.05990537256002426 0.1467180997133255 -0.17757758498191833
-0.17670020461082458 -0.14987249672412872 -0.16680653393268585
0.08875787258148193 0.06505772471427917 -0.1769719421863556
0.21645979583263397 -0.24831439554691315 -0.09330051392316818
0.005742073059082031 -0.027365339919924736 0.21766120195388794
-0.11563242971897125 -0.08535905182361603 -0.175196573138237
0.16594856977462769 -0.17863503098487854 -0.14765912294387817
0.05454804748296738 -0.07135118544101715 -0.1737200766801834
-0.12396841496229172 -0.1259511411190033 0.2007954865694046
-0.06052859127521515 -0.41387274861335754 0.17425978183746338
0.14290538430213928 -0.25901103019714355 0.22064359486103058
-0.19131876528263092 0.11031045764684677 -0.04948927089571953
-0.12067203223705292 0.4466635584831238 0.02928268164396286
-0.15237799286842346 -0.3540169894695282 0.17701199650764465
-0.22848331928253174 -0.2883293032646179 -0.04755653813481331
-0.17346598207950592 -0.22831425070762634 0.1568022221326828
-0.09669020771980286 -0.04123852401971817 0.19960109889507294
0.03581954911351204 0.20865313708782196 0.25792795419692993
0.21015839278697968 -0.101442351937294 -0.11515966802835464
-0.19225749373435974 -0.35750898718833923 0.09096631407737732
0.007858846336603165 0.04522741585969925 -0.17826181650161743
0.20508559048175812 -0.03848984092473984 -0.04012446850538254
0.07039429992437363 0.5047037601470947 0.08281750977039337
0.15379685163497925 -0.412210077047348 0.05372580885887146
-0.2046639770269394 -0.0291084386408329 -0.044176507741212845
0.01667962595820427 0.04681634530425072 0.1977965235710144
0.18539384007453918 -0.13491904735565186 0.0890093520283699
0.16924868524074554 -0.21306611597537994 0.18184375762939453
-0.22027058899402618 -0.17964640259742737 -0.11456233263015747
0.20867156982421875 -0.40252333879470825 -0.15383107960224152
0.15701839327812195 -0.40498054027557373 -0.19328849017620087
-0.05304283648729324 -0.1325448602437973 0.24096137285232544
0.14978699386119843 0.4491000175476074 -0.11169169843196869
-0.05956656113266945 0.3713124692440033 0.13050885498523712
-0.12237729132175446 0.08808239549398422 0.13903993368148804
-0.13661536574363708 -0.13720771670341492 0.1930646151304245
0.01528988592326641 -0.18584977090358734 -0.16528967022895813
-0.17684252560138702 -0.044576648622751236 0.09413692355155945
0.17702749371528625 -0.40437448024749756 0.07540078461170197
-0.051518794149160385 0.33899933099746704 0.22666314244270325
-0.10865393280982971 0.11573228240013123 0.0940873846411705
-0.032327085733413696 0.43422383069992065 0.07802613824605942
-0.1275855004787445 0.3009641170501709 -0.00766335241496563
0.013465553522109985 0.05016089975833893 -0.17871050536632538
-0.09848469495773315 -0.22300413250923157 -0.1602938175201416
0.11535228788852692 0.2918517589569092 0.17586281895637512
-0.041620884090662 0.06422419846057892 -0.18080757558345795
-0.0646013543009758 0.379972368478775 0.12043235450983047
-0.09849117696285248 -0.4174439311027527 -0.07240749150514603
0.21006466448307037 -0.3962404429912567 -0.042706359177827835
0.07048923522233963 0.30373114347457886 0.21628031134605408
0.07231059670448303 0.30023109912872314 0.21445819735527039
0.17826855182647705 0.14429061114788055 -0.09702040255069733
-0.22019018232822418 -0.18732602894306183 -0.12071467936038971
0.03196260333061218 0.5632859468460083 0.04844149947166443
-0.14014312624931335 0.4806136190891266 -0.09207213670015335
-0.19556838274002075 0.025030191987752914 -0.032595451921224594
0.04144679382443428 -0.2914199233055115 -0.18648914992809296
0.08831274509429932 0.5721421241760254 -0.08727871626615524
-0.14535178244113922 0.3706580698490143 -0.11167502403259277
0.1819368600845337 -0.41229933500289917 0.030509401112794876
-0.2171666920185089 -0.1292816400527954 -0.1366964727640152
0.15985965728759766 -0.4202269911766052 -0.07029858231544495
0.12049034982919693 0.4796716570854187 0.04839698597788811
-0.021068977192044258 0.08016595989465714 0.18942418694496155
-0.09813258051872253 -0.06682014465332031 0.20470818877220154
0.07671654969453812 -0.40985554456710815 -0.0029393844306468964
0.08152004331350327 -0.18244904279708862 0.2450348287820816
0.10774317383766174 -0.42324793338775635 -0.14079561829566956
-0.027380138635635376 -0.41508013010025024 0.13213597238063812
0.12826783955097198 0.2617936134338379 -0.09062513709068298
-0.1321183294057846 -0.18293337523937225 0.20480965077877045
-0.21233463287353516 -0.13742922246456146 -0.14961674809455872
0.1148357093334198 -0.2701246738433838 -0.16960319876670837
-0.1541275680065155 -0.08899115025997162 -0.17395296692848206
0.12952198088169098 -0.4132104516029358 0.13597746193408966
-0.019818080589175224 0.5530268549919128 -0.16026513278484344
-0.1727900356054306 -0.3596430718898773 0.14090579748153687
0.014551524072885513 0.3696915805339813 0.24235613644123077
0.12494491785764694 0.23828627169132233 -0.12450581789016724
-0.11629325896501541 0.3160610496997833 0.1423678696155548
-0.11317577213048935 -0.41185322403907776 -0.20726807415485382
0.12746009230613708 0.14317013323307037 0.027687614783644676
0.05911008268594742 -0.19446027278900146 -0.1623600870370865
0.1372677981853485 0.3232397437095642 0.03826958313584328
-0.11455091089010239 0.16223883628845215 0.11409904807806015
0.16979357600212097 -0.2687520980834961 0.17756178975105286
0.02716618962585926 -0.08987288177013397 0.23655007779598236
0.03859153017401695 -0.40926116704940796 -0.006913196295499802
-0.20640705525875092 -0.4064174294471741 -0.022149011492729187
0.1265019178390503 0.5235363841056824 -0.036455944180488586
0.20346207916736603 -0.3094378411769867 -0.11562619358301163
0.05609437823295593 -0.4129398465156555 -0.12826760113239288
0.05819232389330864 -0.15128670632839203 0.2518692910671234
-0.17484161257743835 -0.23494750261306763 0.15354344248771667
-0.1703667938709259 -0.2137359082698822 0.15756715834140778
-0.13614210486412048 -0.30707135796546936 0.21173976361751556
0.1874481588602066 0.0772673562169075 0.04326276481151581
0.1385202705860138 0.4413546323776245 -0.0991581529378891
0.13598911464214325 0.38511228561401367 -0.017399689182639122
0.050222259014844894 -0.17485012114048004 -0.16588400304317474
0.05102962628006935 -0.4131767451763153 0.11643484234809875
-0.1660434901714325 -0.42137566208839417 -0.07834207266569138
-0.010367011651396751 0.14706894755363464 -0.1765635907649994
-0.1423390805721283 -0.2919100522994995 0.20498859882354736
0.12132734805345535 -0.26942217350006104 0.2384217381477356
-0.2166038453578949 -0.2084311544895172 0.01991363614797592
0.09705725312232971 -0.32051411271095276 0.2294771373271942
0.03395109623670578 -0.38030847907066345 0.25887051224708557
0.014251246117055416 0.38761579990386963 0.22210846841335297
0.20990154147148132 -0.11537039279937744 -0.012425149790942669
0.18161961436271667 -0.06233189254999161 0.10793320089578629
0.08591435104608536 -0.3459358811378479 -0.1950957030057907
0.12397851794958115 0.1763555258512497 0.1779528558254242
-0.0787370577454567 0.5360590219497681 -0.15991182625293732
0.024482058361172676 -0.07417676597833633 0.23165328800678253
-0.1413498818874359 0.3396133482456207 -0.09704843908548355
-0.14281122386455536 0.393404096364975 -0.07712870091199875
0.023339955136179924 -0.01548481173813343 0.21310241520404816
-0.2217816859483719 -0.3129006624221802 -0.010315567255020142
-0.15254099667072296 -0.4176681339740753 0.018063820898532867
0.19140176475048065 -0.41522520780563354 -0.006898929364979267
0.02541293017566204 -0.41307440400123596 0.12417419999837875
-0.19780872762203217 0.04232027381658554 -0.051110319793224335
0.163679301738739 -0.058866776525974274 0.15697117149829865
0.13114529848098755 0.2843938171863556 -0.0202769935131073
-0.0850432813167572 -0.0850917249917984 -0.17753276228904724
0.14921309053897858 0.33297601342201233 -0.15436500310897827
-0.04086947813630104 -0.052115000784397125 0.22226476669311523
-0.0011251410469412804 0.3912501633167267 0.21083423495292664
-0.12517471611499786 -0.2935379445552826 -0.17844009399414062
0.20955286920070648 -0.3274320662021637 -0.11771310120820999
-0.12495151162147522 0.3294658958911896 -0.025481734424829483
-0.16763120889663696 -0.28459474444389343 -0.159160777926445
0.13117031753063202 0.48064303398132324 -0.05098583176732063
0.11594823002815247 -0.32023942470550537 0.22610607743263245
-0.16403891146183014 -0.10782778263092041 0.14603565633296967
0.12136811017990112 -0.22329075634479523 -0.14981284737586975
0.18240272998809814 0.10536544770002365 0.00015789642930030823
-0.04725568741559982 0.566824734210968 -0.12565109133720398
0.21291449666023254 -0.1304241567850113 -0.10215912759304047
0.12451530247926712 -0.3453398644924164 -0.19078686833381653
-0.2127237319946289 -0.28101876378059387 0.06758478283882141
0.1154295951128006 -0.42082807421684265 -0.11287339776754379
-0.11180080473423004 -0.4221597909927368 -0.16846272349357605
-0.0007117316126823425 0.17869430780410767 -0.17495909333229065
-0.006091173738241196 -0.41008076071739197 0.06410546600818634
0.2034849226474762 -0.020263466984033585 -0.044611573219299316
-0.14484679698944092 -0.3951784074306488 -0.20125305652618408
-0.07606129348278046 0.5418366193771362 -0.16044169664382935
0.06443671882152557 0.44829174876213074 0.05497102811932564
0.1557731181383133 -0.14514462649822235 0.19770598411560059
-0.052514366805553436 0.43406563997268677 -0.16704967617988586
-0.15909962356090546 0.09151957184076309 0.08676599711179733
-0.033143300563097 0.1915276050567627 0.2561381161212921
0.21188952028751373 -0.22148892283439636 0.0796256735920906
-0.034390706568956375 0.37853944301605225 0.15095598995685577
-0.13596093654632568 -0.41262757778167725 0.15978895127773285
-0.2056959867477417 -0.019101480022072792 -0.06293225288391113
-0.10488578677177429 -0.31005170941352844 0.23503540456295013
0.1299154907464981 0.19616396725177765 0.0413619689643383
0.22248807549476624 -0.23456063866615295 0.0012665661051869392
0.003848142921924591 0.07508396357297897 -0.1779026985168457
-0.14455237984657288 0.4417436718940735 -0.12329210340976715
-0.1043090969324112 0.5436716079711914 0.017890896648168564
0.20556695759296417 -0.30732017755508423 0.08589038997888565
-0.18336819112300873 0.006906880531460047 0.021017147228121758
0.13505467772483826 0.3239714205265045 -0.004714582115411758
-0.0033250413835048676 -0.40848836302757263 0.06656084209680557
-0.20238396525382996 0.051973842084407806 -0.11246827989816666
0.15168336033821106 -0.08868846297264099 0.1816970407962799
0.10211921483278275 -0.18481560051441193 0.24663060903549194
0.22033673524856567 -0.3562384247779846 -0.056979868561029434
0.1565336287021637 -0.3948967158794403 0.13463202118873596
-0.13234835863113403 0.0666123554110527 -0.17969268560409546
-0.11716722697019577 -0.22007635235786438 0.22189836204051971
-0.05129748582839966 0.18520480394363403 -0.17565152049064636
-0.12361499667167664 0.41626453399658203 -0.0388096421957016
-0.057577501982450485 -0.4148823618888855 -0.1414531171321869
0.14408981800079346 0.46726322174072266 -0.15660648047924042
-0.19540585577487946 -0.36192652583122253 0.07954776287078857
0.12465180456638336 -0.41980376839637756 -0.1476372629404068
0.1347247064113617 0.3927692770957947 -0.033118218183517456
-0.18311777710914612 0.13779184222221375 -0.16523584723472595
-0.04190349578857422 -0.3597300052642822 -0.2069607675075531
-0.08675426244735718 0.5617146492004395 -0.05604293569922447
0.18464115262031555 -0.27241361141204834 -0.11683863401412964
0.12472640722990036 0.16438347101211548 -0.15296754240989685
0.1446182131767273 -0.3183903098106384 0.2036968320608139
0.20829983055591583 -0.32902756333351135 -0.12359553575515747
-0.12390197813510895 0.2069307118654251 0.023991752415895462
-0.0856778547167778 -0.31151503324508667 0.2452591210603714
-0.09186050295829773 -0.2440284788608551 0.2436952143907547
0.15984342992305756 -0.20006920397281647 -0.1467358022928238
0.037196770310401917 0.20811304450035095 0.25789880752563477
0.10910176485776901 -0.16833767294883728 0.24092260003089905
-0.12470745295286179 0.29680922627449036 0.10671987384557724
0.040398769080638885 0.5678991675376892 -0.0005004070699214935
-0.14103683829307556 0.09481053799390793 0.09275379776954651
-0.11687515676021576 0.15904627740383148 0.08815260231494904
0.09514874964952469 -0.3193007707595825 0.2327302098274231
-0.14148882031440735 0.46923649311065674 -0.14368586242198944
0.036434102803468704 -0.4126121997833252 0.010503534227609634
0.07751555740833282 -0.37926608324050903 -0.20432046055793762
-0.0829087570309639 -0.31859156489372253 0.24371838569641113
0.0015858840197324753 0.2931464910507202 -0.1725529283285141
0.13832826912403107 0.3556179106235504 0.07472386211156845
-0.10896234959363937 0.018765687942504883 0.17226257920265198
0.1757386326789856 0.10500442981719971 0.07621266692876816
0.21219922602176666 -0.31845858693122864 0.030275017023086548
-0.21224913001060486 -0.37019652128219604 -0.005273095332086086
0.11332730203866959 -0.417855441570282 -0.19451811909675598
0.09103644639253616 -0.4220513105392456 -0.11359817534685135
-0.041322916746139526 -0.41575750708580017 0.11166201531887054
-0.03073694184422493 -0.418667197227478 -0.10346319526433945
0.133098766207695 0.308980256319046 -0.03747299686074257
0.10386671870946884 0.5347256064414978 0.035634011030197144
-0.1411997228860855 -0.2652086317539215 0.20501871407032013
0.09196621924638748 -0.16543175280094147 0.2488279640674591
0.04748845845460892 0.18788522481918335 -0.1731664538383484
0.08813737332820892 0.5573598146438599 -0.1559135913848877
-0.1758890450000763 -0.10189054906368256 -0.1723199337720871
-0.11476011574268341 -0.2125256508588791 0.22473853826522827
-0.01886887103319168 -0.41490963101387024 0.021811384707689285
-0.12755337357521057 -0.1938120573759079 0.21375660598278046
0.1629635989665985 0.007026024162769318 -0.16769570112228394
0.10658534616231918 0.3190428912639618 0.1779838651418686
-0.12773115932941437 0.42175623774528503 -0.1609906703233719
-0.029391126707196236 0.5029851198196411 -0.16582557559013367
-0.10289067775011063 0.5447060465812683 0.01730763539671898
0.04165492579340935 -0.41478800773620605 0.2233835756778717
0.17361268401145935 -0.1559823602437973 0.1475646197795868
-0.024001752957701683 -0.13402844965457916 0.2472682148218155
0.03208107501268387 0.29718104004859924 0.2172582596540451
0.21018654108047485 -0.40527069568634033 -0.0917772501707077
-0.19900596141815186 -0.16439193487167358 -0.02290438860654831
-0.007803849410265684 0.5198557376861572 0.10002512484788895
-0.0023536458611488342 -0.29410097002983093 -0.19028052687644958
-0.20456823706626892 -0.09106668829917908 -0.02931344509124756
0.19949397444725037 0.09576620161533356 -0.0641559287905693
-0.21566897630691528 -0.11477287113666534 -0.12623199820518494
-0.050995729863643646 -0.2969266474246979 0.25726228952407837
-0.07893707603216171 -0.06085265800356865 0.21305453777313232
0.006025705486536026 0.5535989999771118 -0.15917068719863892
-0.07316435128450394 0.1806146502494812 -0.17643481492996216
-0.19784757494926453 -0.3204526901245117 -0.14739225804805756
-0.09851919859647751 -0.41211700439453125 -0.09612440317869186
-0.16228343546390533 -0.04913322255015373 0.13111428916454315
-0.07589105516672134 0.5388104319572449 -0.16129587590694427
0.17852234840393066 -0.18848411738872528 -0.14103016257286072
-0.1628694236278534 -0.22977353632450104 0.17444926500320435
0.16609126329421997 -0.14783529937267303 0.18357731401920319
0.1445801705121994 0.48148030042648315 -0.1487399786710739
-0.17125648260116577 -0.3490943908691406 -0.1813025176525116
0.051204387098550797 -0.4187701940536499 -0.16656193137168884
0.030526993796229362 0.05282938480377197 0.19117453694343567
-0.11918511241674423 0.18374161422252655 0.09909979999065399
-0.17923951148986816 0.07061402499675751 -0.013537704013288021
-0.04467404633760452 -0.4171234369277954 -0.05893070995807648
-0.18713174760341644 -0.41679567098617554 0.032096680253744125
-0.15062618255615234 0.36466583609580994 -0.13509514927864075
-0.09596177190542221 0.20607830584049225 -0.17090077698230743
-0.11630431562662125 -0.14142240583896637 -0.17127183079719543
0.12497077137231827 0.4907190799713135 0.023753829300403595
-0.09998981654644012 0.5610846281051636 -0.0573950856924057
-0.15994702279567719 -0.325211763381958 -0.17592692375183105
0.005930732935667038 -0.4112054407596588 -0.02954656258225441
0.14442604780197144 0.4052799344062805 -0.07871569693088531
0.14929604530334473 -0.18931138515472412 -0.14993780851364136
0.11726821213960648 -0.1092558205127716 0.21680420637130737
0.15028536319732666 0.45318499207496643 -0.11272820830345154
0.13286004960536957 0.39961445331573486 -0.044674187898635864
-0.15060526132583618 0.33979547023773193 -0.15750806033611298
-0.2165457308292389 -0.18904370069503784 -0.13322100043296814
0.15640613436698914 -0.4225868880748749 -0.0835685282945633
0.1461504101753235 -0.24491092562675476 0.21878330409526825
-0.08642352372407913 -0.24250346422195435 0.24661843478679657
0.13718917965888977 0.3184158205986023 0.052299246191978455
0.1402900367975235 -0.32136663794517517 0.20724979043006897
-0.20555497705936432 -0.0016096960753202438 -0.13545209169387817
-0.1813073754310608 -0.19872495532035828 0.14219173789024353
0.08347204327583313 -0.4138435125350952 0.06433923542499542
0.02014637552201748 -0.41599082946777344 0.09207143634557724
0.10085839033126831 0.5612793564796448 -0.007990654557943344
0.16294993460178375 -0.418886661529541 -0.06524829566478729
0.11342056840658188 -0.03352592885494232 -0.17186301946640015
0.1872444599866867 -0.07074553519487381 0.08864055573940277
0.20627045631408691 -0.39269784092903137 -0.15594112873077393
-0.1841595321893692 0.08567988872528076 -0.025315027683973312
-0.11516372859477997 -0.34681063890457153 0.21177059412002563
0.10550256073474884 -0.3820081353187561 -0.2016339898109436
0.039384014904499054 0.5378368496894836 -0.16434508562088013
0.20564162731170654 -0.06371356546878815 -0.032518431544303894
0.2137526571750641 -0.36843448877334595 -0.13474026322364807
0.05736171454191208 0.2849016487598419 0.20954741537570953
0.03120812028646469 0.5688859224319458 -0.12214282155036926
0.08136844635009766 -0.07451927661895752 0.22244660556316376
0.05528463423252106 -0.20118869841098785 -0.16289673745632172
0.16349256038665771 -0.06938151270151138 0.16205339133739471
-0.21675626933574677 -0.32098114490509033 -0.014403972774744034
0.02616722509264946 -0.07635053992271423 0.2321939319372177
0.08814230561256409 -0.18119819462299347 0.2452564835548401
-0.021235229447484016 0.4696993827819824 -0.1663021594285965
-0.014580929651856422 -0.19106680154800415 0.2600313425064087
-0.09067407250404358 0.35221877694129944 -0.16871388256549835
-0.14390408992767334 0.32166817784309387 -0.09325466305017471
-0.19412899017333984 -0.2611721158027649 -0.13454152643680573
0.18652647733688354 0.03880332037806511 -0.006188029423356056
-0.062490880489349365 0.5626856088638306 -0.04653750732541084
-0.022872094064950943 -0.06229611486196518 0.22946882247924805
-0.06492765247821808 0.06534179300069809 0.18289607763290405
0.18758241832256317 -0.10354091227054596 0.08029768615961075
0.1367136687040329 0.33098649978637695 -0.04880101978778839
-0.1956811249256134 0.13656358420848846 -0.12203177809715271
0.050387270748615265 0.2586490511894226 -0.1717676967382431
-0.13678139448165894 -0.4204014837741852 -0.08202150464057922
-0.13307778537273407 -0.24823124706745148 0.2120448648929596
-0.02199949324131012 0.400468111038208 0.16100426018238068
-0.09915819764137268 -0.15844549238681793 -0.1701551228761673
-0.20400714874267578 0.0572175458073616 -0.13882726430892944
-0.20995742082595825 -0.23102667927742004 0.06681722402572632
-0.0980943962931633 0.0589166060090065 -0.18121804296970367
0.12836425006389618 0.508795976638794 -0.04496154934167862
0.22327344119548798 -0.2380865514278412 0.013063136488199234
-0.12013207376003265 0.1987380087375641 -0.045171089470386505
-0.003045477904379368 -0.05661680921912193 0.22296148538589478
-0.11033783107995987 -0.3037400245666504 0.23385445773601532
-0.04292909801006317 0.15181733667850494 -0.17729036509990692
-0.030421800911426544 0.36035868525505066 0.2314639687538147
0.023202229291200638 -0.03960827738046646 -0.17883428931236267
-0.1511223316192627 -0.42070579528808594 -0.07769124954938889
-0.15711091458797455 -0.1587340086698532 -0.16797956824302673
0.13045431673526764 0.3366781771183014 -0.02780606597661972
-0.11975209414958954 0.30480247735977173 0.13985785841941833
0.10180642455816269 -0.016080234199762344 -0.1741994023323059
0.20590542256832123 -0.37973400950431824 -0.002992166206240654
0.21643894910812378 -0.35238590836524963 -0.1116679385304451
-0.11139927804470062 0.1945246458053589 0.21243201196193695
-0.17063315212726593 0.08215410262346268 0.0648694857954979
0.2097531259059906 -0.24670101702213287 0.09199734032154083
0.11273294687271118 -0.3020084798336029 0.23141194880008698
0.18717122077941895 0.02985408902168274 0.03134768828749657
0.11974061280488968 -0.4015462100505829 0.05887223407626152
0.15305164456367493 0.32259976863861084 -0.10415172576904297
0.1341797411441803 0.259123831987381 0.02460404485464096
-0.04625755548477173 0.10215399414300919 -0.17994974553585052
0.16266286373138428 -0.41154688596725464 -0.04560042917728424
0.21358837187290192 -0.3332168161869049 -0.1166025847196579
0.16114577651023865 -0.4205881953239441 -0.06427713483572006
-0.02720339223742485 -0.10793083906173706 0.2407272458076477
0.04087041690945625 -0.4149898886680603 0.0922028049826622
-0.025312453508377075 0.10903400182723999 0.19952283799648285
0.07751292735338211 0.343822717666626 0.19493678212165833
0.13198132812976837 -0.3627711534500122 0.19003745913505554
-0.19577902555465698 0.0532212033867836 -0.04475190490484238
0.10873320698738098 0.49680209159851074 -0.16423292458057404
-0.08168615400791168 0.25244924426078796 -0.17161007225513458
0.15318861603736877 0.4207618534564972 -0.11788540333509445
0.012915514409542084 0.5676453113555908 -0.021950282156467438
-0.08504944294691086 0.1336628496646881 0.19688889384269714
0.1316562294960022 0.2785378098487854 -0.016774719581007957
0.1871434897184372 -0.04887955263257027 0.04746715724468231
-0.15061278641223907 -0.4126957356929779 -0.03902212157845497
0.22147883474826813 -0.19866278767585754 -0.025891514495015144
0.21149230003356934 -0.4010516405105591 -0.07114686071872711
-0.04533306509256363 0.2865045368671417 0.20752371847629547
-0.12758927047252655 0.3599701523780823 0.03418126702308655
0.09186434000730515 0.11141873896121979 0.16928182542324066
0.14723685383796692 0.3848878741264343 -0.14952445030212402
0.13390092551708221 0.39845386147499084 -0.061121098697185516
0.03335162252187729 -0.4103972315788269 -0.02969604916870594
0.001244635321199894 0.5682461261749268 -0.0946277529001236
-0.029248669743537903 0.5627844929695129 0.02869277261197567
-0.13651998341083527 0.49648919701576233 -0.13047075271606445
-0.14691804349422455 0.3459251821041107 -0.1590457558631897
-0.12200149893760681 0.21068257093429565 0.11334015429019928
0.0693264827132225 0.11792922765016556 0.1914088875055313
-0.055474963039159775 -0.24158979952335358 -0.17502084374427795
0.17734959721565247 -0.4163471758365631 -0.03019694983959198
-0.07978357374668121 -0.2897336184978485 0.24836024641990662
-0.030128616839647293 0.33119240403175354 0.22489190101623535
-0.1250719577074051 0.15387558937072754 -0.08137267082929611
0.20010164380073547 -0.3566713035106659 0.010961666703224182
-0.06210152059793472 -0.4138360619544983 0.10046866536140442
-0.1927078813314438 0.039468590170145035 -0.030313119292259216
0.018525265157222748 0.09444569051265717 0.18721812963485718
-0.13095951080322266 -0.12187120318412781 0.19414851069450378
-0.18527169525623322 0.009785227477550507 -0.023290667682886124
-0.11369644105434418 0.15859442949295044 -0.1572670042514801
0.1097264438867569 -0.348933607339859 0.2115890383720398
-0.07384396344423294 0.561509907245636 0.004536373540759087
-0.16070088744163513 -0.04536762461066246 0.13344936072826385
-0.13803410530090332 -0.09375405311584473 -0.17258983850479126
0.035043198615312576 -0.41051140427589417 -0.013369705528020859
-0.17999376356601715 -0.23699745535850525 0.1427740603685379
-0.18303023278713226 0.02390223555266857 -0.020175794139504433
-0.026990311220288277 -0.41135141253471375 0.007023261860013008
0.01697365567088127 0.5672908425331116 -0.042113080620765686
0.16660071909427643 -0.09699829667806625 0.16821961104869843
0.005117718130350113 0.5126518607139587 0.10077489167451859
0.08182819187641144 -0.308102548122406 -0.18678563833236694
-0.12436418235301971 0.2293500006198883 0.13129517436027527
0.16052430868148804 -0.33439531922340393 -0.17772139608860016
0.21127019822597504 -0.11336015164852142 -0.11196029931306839
-0.21218284964561462 -0.0715070441365242 -0.10705357789993286
-0.20781010389328003 -0.0238452460616827 -0.1020544022321701
-0.10915406048297882 -0.4096013605594635 -0.2086239457130432
0.15175692737102509 -0.413886696100235 0.03524069860577583
0.08569510281085968 0.5383838415145874 0.04881639778614044
0.10564939677715302 -0.019559118896722794 -0.17318697273731232
-0.22380176186561584 -0.2453230619430542 -0.10572418570518494
-0.18263556063175201 -0.1473793089389801 0.06866395473480225
0.18054944276809692 -0.143707275390625 -0.1473238319158554
0.07296004891395569 -0.2469606101512909 -0.16981953382492065
0.15140332281589508 -0.36700189113616943 -0.19063800573349
0.1313299983739853 0.22617968916893005 0.1182219609618187
0.14098496735095978 -0.1537151336669922 0.2145005166530609
0.11370674520730972 0.5583788156509399 -0.034151434898376465
0.118683360517025 0.13590668141841888 0.13293491303920746
0.12236815690994263 0.12130676209926605 0.10390303283929825
0.15822768211364746 -0.1583349108695984 0.19797340035438538
0.10082897543907166 0.5614361763000488 -0.020003072917461395
-0.19162842631340027 -0.34331366419792175 0.10002084076404572
-0.08571457862854004 0.0065092965960502625 -0.18167723715305328
-0.12574070692062378 0.3378925621509552 0.0681830644607544
0.12029039859771729 -0.4262654185295105 -0.1212574765086174
0.12497782707214355 -0.4047948122024536 0.17014415562152863
-0.11150556057691574 0.489463210105896 0.04335716739296913
0.07874748855829239 -0.19001995027065277 0.25465652346611023
0.0798105001449585 -0.19724757969379425 -0.16029520332813263
-0.009889988228678703 0.34077030420303345 -0.16990607976913452
0.20462051033973694 -0.30657896399497986 -0.10520563274621964
0.1866280436515808 -0.11753559857606888 0.09358346462249756
-0.12306803464889526 0.3793323040008545 -0.03174527734518051
-0.015368426218628883 0.27278462052345276 0.22751484811306
0.11632906645536423 0.5558944344520569 -0.11184239387512207
-0.0820692628622055 0.006547421216964722 -0.1814330667257309
0.15849095582962036 0.0704139769077301 -0.17023198306560516
0.22461150586605072 -0.25610557198524475 -0.01774807833135128
0.1343628317117691 0.42530447244644165 -0.03170410916209221
0.0009762407280504704 0.31887415051460266 0.22563610970973969
-0.18200647830963135 0.008318579755723476 0.052059728652238846
0.17578884959220886 0.09493366628885269 0.07929544895887375
0.023561909794807434 -0.41130733489990234 -0.010131476446986198
0.2078382819890976 -0.10641483962535858 -0.013322519138455391
-0.02256280742585659 0.4638219475746155 -0.1676899641752243
-0.17652319371700287 -0.1436091512441635 0.10852154344320297
-0.20227853953838348 -0.2866160273551941 -0.1212749183177948
-0.16205081343650818 -0.2000148445367813 0.17664280533790588
-0.11869623512029648 0.5406160354614258 -0.026703231036663055
0.13815204799175262 0.3710176348686218 0.009099157527089119
-0.2050158530473709 -0.21609202027320862 0.07772748172283173
0.0744929164648056 0.5671339631080627 -0.14763061702251434
0.17730797827243805 -0.41823214292526245 -0.03621750697493553
0.18057891726493835 -0.1842031180858612 0.16212768852710724
0.06779457628726959 -0.4133637845516205 0.06975588947534561
-0.14580038189888 0.3622029423713684 -0.16127942502498627
-0.08964098244905472 -0.4110482335090637 0.14157669246196747
-0.005847935564815998 -0.11230018734931946 0.24305352568626404
0.184183731675148 0.02024729736149311 0.01626063510775566
0.13458488881587982 0.4487777352333069 -0.021386735141277313
0.14816956222057343 0.34724438190460205 -0.12759022414684296
-0.18200121819972992 0.008365685120224953 0.05198878422379494
-0.12319419533014297 0.47017157077789307 0.01353020966053009
0.13037873804569244 -0.42150405049324036 -0.08196692913770676
0.06240260601043701 -0.2025751769542694 -0.16276514530181885
-0.07232849299907684 0.26748397946357727 0.21250584721565247
0.19412223994731903 -0.14426636695861816 -0.14018090069293976
-0.01395936869084835 0.057391587644815445 0.19685839116573334
-0.11983045935630798 -0.14098650217056274 0.20915170013904572
-0.17757585644721985 -0.11403699219226837 -0.1727672964334488
-0.16619805991649628 -0.14490601420402527 0.14274361729621887
-0.18645213544368744 -0.04442606493830681 0.03826140984892845
0.1337955892086029 0.35163941979408264 0.10133187472820282
0.1534942388534546 -0.20933791995048523 -0.14566904306411743
-0.19389212131500244 -0.08521044999361038 -0.02060108259320259
0.16920353472232819 -0.03278528153896332 0.1368759423494339
0.2156645953655243 -0.1385156363248825 -0.07573134452104568
-0.00742553174495697 -0.41571515798568726 -0.04315313696861267
0.13455967605113983 0.4093644320964813 -0.06321995705366135
-0.15659867227077484 -0.14548538625240326 0.16667711734771729
0.18620255589485168 -0.11550377309322357 0.06520168483257294
0.13084745407104492 0.21979324519634247 0.08526603132486343
-0.1944337636232376 0.029981479048728943 -0.030621739104390144
-0.10216930508613586 0.19813963770866394 -0.16409951448440552
0.010158181190490723 -0.28186386823654175 -0.18637992441654205
-0.10829634964466095 -0.4220530390739441 -0.11646255850791931
0.12062254548072815 -0.4180934727191925 -0.09037669748067856
-0.13000212609767914 -0.08390176296234131 -0.174166738986969
0.13923726975917816 -0.3741142451763153 -0.19488942623138428
-0.1285351663827896 0.04321415722370148 -0.17990317940711975
0.05967627465724945 -0.01873713545501232 0.210419163107872
0.15114599466323853 -0.36007052659988403 0.16673687100410461
-0.08162643760442734 0.3643754720687866 0.12748190760612488
0.20774246752262115 -0.09071501344442368 -0.022819729521870613
0.199632465839386 0.09806112200021744 -0.07728918641805649
0.046950340270996094 -0.17703098058700562 0.2590693235397339
0.14800766110420227 -0.17396746575832367 -0.15312612056732178
0.18594858050346375 -0.26339370012283325 -0.11762506514787674
-0.17225702106952667 -0.31639960408210754 -0.16854949295520782
-0.173011913895607 -0.4164249002933502 -0.18312466144561768
0.1506955921649933 0.44361063838005066 -0.14078713953495026
-0.0923868715763092 -0.42156538367271423 -0.05395253002643585
0.136451855301857 0.30656835436820984 0.04205486178398132
-0.12196361273527145 0.21766947209835052 -0.0260147862136364
0.18775475025177002 -0.05913376808166504 0.05982621759176254
-0.15167491137981415 -0.41728776693344116 0.03882349655032158
-0.09232035279273987 -0.1945687085390091 0.24149587750434875
0.15603138506412506 -0.42278987169265747 -0.08173809200525284
-0.004059050232172012 0.019248411059379578 -0.17900122702121735
-0.0034225042909383774 0.26737233996391296 -0.1740795075893402
-0.21949337422847748 -0.17544536292552948 -0.1251501590013504
-0.01581195369362831 -0.09853764623403549 -0.17837698757648468
0.054528843611478806 -0.34837982058525085 -0.20000812411308289
-0.14897705614566803 -0.41517364978790283 0.003022376913577318
0.12636132538318634 -0.15930704772472382 -0.16122101247310638
0.20351816713809967 -0.17069725692272186 0.0186164453625679
-0.04831060394644737 -0.11397741734981537 0.23657341301441193
0.078083835542202 -0.4033745527267456 -0.20595180988311768
0.13005493581295013 0.5088077783584595 -0.1469208300113678
-0.1681133657693863 -0.016924820840358734 0.10627567023038864
0.22084690630435944 -0.3662867248058319 -0.0579485148191452
-0.11601822078227997 -0.22673667967319489 0.2252693921327591
-0.17210237681865692 -0.17763341963291168 0.1444222331047058
-0.20126445591449738 0.0384603887796402 -0.07644225656986237
0.032922159880399704 -0.42489132285118103 -0.12469089776277542
-0.1432076245546341 -0.011226924136281013 0.1515084058046341
0.01687321625649929 0.037702299654483795 0.19967176020145416
0.0025789476931095123 0.2080332338809967 -0.17453184723854065
-0.11771002411842346 0.3360045850276947 0.12108413130044937
0.064931221306324 -0.41151687502861023 0.12565970420837402
0.18338239192962646 -0.3351444602012634 -0.16188831627368927
0.18370571732521057 0.09613574296236038 -0.013788461685180664
-0.08039891719818115 0.19197598099708557 -0.1753017008304596
0.1654011309146881 -0.14781127870082855 -0.15271498262882233
0.10429400950670242 0.32047563791275024 0.20569884777069092
0.21036715805530548 -0.0909770280122757 -0.07691778987646103
-0.2212637960910797 -0.29330751299858093 -0.07745733857154846
0.01650170050561428 -0.36099666357040405 0.2618279457092285
0.18370001018047333 -0.14531581103801727 0.039941124618053436
-0.05259842798113823 -0.4164483845233917 -0.007351442240178585
0.10451856255531311 -0.21986745297908783 -0.15439851582050323
0.10017192363739014 0.15739208459854126 0.22757305204868317
0.18852651119232178 -0.04151294380426407 0.008909810334444046
0.20152390003204346 -0.3147546947002411 0.07931636273860931
0.13535715639591217 -0.2638193368911743 -0.15827292203903198
0.13761456310749054 0.3231734335422516 0.06386347860097885
0.19531390070915222 0.054159898310899734 -0.14396265149116516
0.13704784214496613 0.40297576785087585 0.0278510469943285
-0.0751713216304779 0.1736082136631012 -0.17707495391368866
0.09105703234672546 -0.36629045009613037 0.2370736002922058
0.15670816600322723 0.3205644190311432 -0.09013457596302032
0.16956284642219543 -0.40386083722114563 -0.18807576596736908
-0.18282653391361237 0.1375405192375183 -0.16549554467201233
0.0066116019152104855 0.4081840217113495 0.1754218339920044
-0.1253620833158493 0.261989027261734 -0.08156035095453262
-0.15443041920661926 0.06415387988090515 0.10306233912706375
-0.020479220896959305 0.3857177495956421 0.20286168158054352
0.0720253437757492 -0.4122864305973053 -0.06984561681747437
0.22406694293022156 -0.262222021818161 0.003798709250986576
-0.04912833124399185 -0.40997856855392456 0.22825059294700623
-0.12401112169027328 0.21443507075309753 0.0760035589337349
-0.01441560685634613 0.5177189111709595 0.10055091977119446
-0.18695463240146637 -0.08120958507061005 0.02062036469578743
0.003098282963037491 -0.4208381474018097 -0.08579163253307343
0.2024202197790146 0.018198668956756592 -0.13323718309402466
-0.034835539758205414 0.4362780749797821 0.07285795360803604
0.01666071265935898 -0.41212257742881775 -0.0536448135972023
0.18769381940364838 -0.05497618764638901 0.06471159309148788
-0.11280557513237 -0.4133872389793396 0.11625267565250397
0.039102766662836075 0.1458122730255127 -0.17347991466522217
0.02604691870510578 0.5678841471672058 -0.01485699787735939
0.03448081389069557 -0.36020123958587646 0.26276636123657227
-0.11047077178955078 0.21296922862529755 0.2118784487247467
0.12771248817443848 0.2837372422218323 -0.15233275294303894
-0.07348158955574036 0.29358044266700745 0.20596519112586975
0.1301477551460266 0.49312862753868103 -0.04720461368560791
0.06321797519922256 -0.403359591960907 -0.20645371079444885
0.19645923376083374 -0.35139304399490356 0.022942373529076576
0.18676094710826874 -0.11529272794723511 0.08158748596906662
-0.04853044077754021 0.5660757422447205 -0.1187853217124939
0.1196972206234932 0.48740652203559875 0.04461905360221863
-0.17845432460308075 -0.4203060567378998 -0.1615862399339676
0.12463348358869553 -0.41671454906463623 0.093512162566185
0.11403686553239822 0.15744005143642426 -0.1648324728012085
0.15213191509246826 -0.4184037744998932 -0.17108526825904846
-0.051761724054813385 0.5628626346588135 -0.03349941223859787
0.0868653729557991 -0.18580298125743866 0.2451767772436142
-0.08817578852176666 -0.410413533449173 0.20889946818351746
-0.04592327028512955 0.5621219277381897 -0.007407058030366898
-0.18901358544826508 -0.37956762313842773 0.09486620873212814
0.21868382394313812 -0.32096847891807556 -0.03756855055689812
0.12201187014579773 0.5410572290420532 -0.10244244337081909
-0.11507627367973328 0.04213903099298477 -0.1799745112657547
-0.06446774303913116 0.5573370456695557 0.02909260056912899
-0.11474484950304031 0.13918495178222656 -0.17111638188362122
0.01815655268728733 0.20740284025669098 0.2591618597507477
