-0.03315077722072601 0.5634720921516418 -0.05601624399423599
-0.2137116640806198 -0.2989003360271454 -0.07575741410255432
-0.02203928492963314 -0.4103756844997406 0.10826540738344193
0.0764865130186081 0.2963751554489136 0.21791338920593262
-0.11482533067464828 0.381163090467453 0.05501161515712738
0.1666327863931656 0.3292938470840454 -0.10641127079725266
0.004671668633818626 -0.39263659715652466 -0.20643149316310883
-0.0463087372481823 -0.41080307960510254 -0.12193886935710907
-0.07579755038022995 -0.07972725480794907 -0.17169708013534546
0.07965229451656342 0.4527980089187622 -0.16173666715621948
-0.02975776046514511 0.5620253086090088 0.04034838825464249
-0.0034073758870363235 -0.23562432825565338 0.2601429522037506
-0.19034038484096527 0.023611005395650864 -0.05612647160887718
0.1143001914024353 -0.40228602290153503 -0.012905948795378208
0.15718461573123932 -0.024056339636445045 -0.1633010059595108
0.02993195876479149 -0.37381184101104736 0.25999799370765686
0.12861257791519165 -0.2275943160057068 -0.14650367200374603
0.13724243640899658 0.19393862783908844 -0.0017295274883508682
-0.022303495556116104 0.11741700023412704 0.20848028361797333
0.19156035780906677 -0.09813894331455231 -0.14949865639209747
-0.13002286851406097 -0.2661688029766083 0.2126859575510025
-0.07091853767633438 0.3346836268901825 0.1751682311296463
0.034525904804468155 0.24778898060321808 -0.1685318499803543
0.08622821420431137 0.11633531749248505 -0.17008383572101593
-0.10844215005636215 0.531719982624054 -0.04751524701714516
0.09800386428833008 0.5696443319320679 -0.12414181977510452
0.1705348938703537 -0.36360836029052734 0.13318337500095367
-0.05043691769242287 0.08478156477212906 0.1825304627418518
-0.06432121992111206 -0.4153245687484741 -0.07270984351634979
-0.07700596749782562 0.3794872462749481 0.1129072830080986
0.2182389497756958 -0.3965418040752411 -0.06554639339447021
0.109535813331604 -0.2646045386791229 0.25131839513778687
0.012254681438207626 -0.40430882573127747 0.003356693312525749
0.0783177837729454 0.04656336084008217 0.19663986563682556
0.216705784201622 -0.3598906397819519 -0.015144835226237774
0.1715715229511261 -0.3632669150829315 0.1307067722082138
0.14506807923316956 0.13296660780906677 -0.16670754551887512
0.195423886179924 -0.07485748827457428 0.04768599197268486
0.0886637419462204 0.05820287764072418 0.18950748443603516
-0.1471220850944519 -0.1993522047996521 -0.15545661747455597
-0.11158490926027298 0.15087513625621796 -0.05504239723086357
-0.033346451818943024 0.5623090267181396 0.01325901411473751
0.07504287362098694 -0.11923585832118988 0.24493996798992157
-0.011141895316541195 0.4519222378730774 0.08208005130290985
-0.11545220017433167 0.2575409710407257 0.11551797389984131
-0.1339958757162094 -0.4086517095565796 -0.19368872046470642
0.19502271711826324 -0.04511558637022972 0.0859660729765892
-0.03849417343735695 0.34676650166511536 0.22693349421024323
0.11920676380395889 0.45145300030708313 0.05277088284492493
-0.19198739528656006 -0.362662672996521 -0.16034983098506927
0.06885535269975662 0.40914681553840637 0.09829342365264893
-0.1256924569606781 -0.199769526720047 -0.15501029789447784
0.1977580338716507 -0.2733719050884247 0.1513511836528778
0.159501314163208 0.30236995220184326 -0.1409650444984436
0.013341815210878849 0.33881428837776184 -0.16795161366462708
0.19496876001358032 -0.27565041184425354 0.15612050890922546
0.21929942071437836 -0.13153904676437378 -0.12093210965394974
-0.141382098197937 -0.41552677750587463 -0.17840676009655
-0.06817477941513062 -0.41595688462257385 -0.10510538518428802
0.0025780522264540195 -0.4045063853263855 0.027042951434850693
0.004922663792967796 -0.4070596992969513 0.10371366888284683
0.19640663266181946 -0.09295930713415146 0.08661530166864395
-0.11886698007583618 -0.11494874954223633 0.19607585668563843
-0.028524279594421387 -0.40316644310951233 0.07556591182947159
0.17063546180725098 0.343928724527359 -0.0802682638168335
0.12228614091873169 -0.3987342417240143 -0.1950875222682953
0.16360251605510712 0.3346096873283386 -0.1069638654589653
-0.17394787073135376 -0.03428220376372337 0.004349479451775551
-0.015414820052683353 0.4533195495605469 -0.16373507678508759
0.2062869817018509 -0.19523020088672638 0.11874998360872269
-0.04121849685907364 0.11168406903743744 -0.17688480019569397
-0.09410679340362549 0.18137980997562408 -0.16596347093582153
0.22082284092903137 -0.38095173239707947 -0.05270594358444214
0.21425193548202515 -0.3644103407859802 -0.15083687007427216
0.22255274653434753 -0.15195710957050323 -0.10137958824634552
0.1552220731973648 0.02300381101667881 -0.1657676249742508
0.14417290687561035 0.413076251745224 -0.04842165857553482
0.08347069472074509 -0.32581081986427307 0.24699260294437408
0.12461934983730316 0.1030128076672554 0.1550961583852768
0.061484046280384064 0.5158414840698242 0.0982532948255539
-0.10454551875591278 0.023774215951561928 -0.17528705298900604
0.04862968996167183 -0.2467796802520752 0.2658413350582123
0.21212266385555267 0.07724493741989136 -0.08990190923213959
-0.08919252455234528 -0.1397985965013504 -0.16700725257396698
-0.03309211879968643 -0.13208699226379395 -0.1710202544927597
0.02368798479437828 -0.40450695157051086 -0.07549421489238739
-0.1879461407661438 -0.4145803451538086 -0.1572054922580719
0.08934763818979263 -0.1187216266989708 0.2405012547969818
-0.1834334433078766 -0.17707498371601105 0.07100780308246613
0.19343246519565582 -0.1079009473323822 -0.1468052715063095
0.21251121163368225 0.020243126899003983 -0.0898546501994133
0.0011729523539543152 0.0782744511961937 -0.17651405930519104
0.19460415840148926 -0.11764628440141678 0.043143775314092636
-0.1419021040201187 -0.35813888907432556 -0.1880854219198227
-0.17039938271045685 0.044272832572460175 0.029342420399188995
0.08828157931566238 0.523617684841156 0.0762607678771019
-0.04046184569597244 0.1602100282907486 0.25118759274482727
0.018928714096546173 -0.40377384424209595 0.0397443063557148
-0.18065083026885986 0.13119766116142273 -0.07502637058496475
0.07580505311489105 -0.40895670652389526 0.17696642875671387
-0.10114100575447083 0.5027216672897339 -0.1526058316230774
-0.20168805122375488 -0.33759042620658875 -0.06164029613137245
0.1844034045934677 -0.006065618246793747 0.11559060215950012
-0.11195002496242523 0.20839525759220123 0.07601602375507355
0.0459902361035347 -0.41924238204956055 -0.10023662447929382
-0.06516310572624207 0.2781856954097748 0.21439018845558167
0.1026812419295311 0.4652620255947113 -0.16021233797073364
-0.10881916433572769 0.5247840881347656 -0.1064228042960167
-0.10769404470920563 0.1687115877866745 0.0271285530179739
0.15411220490932465 -0.09164346009492874 -0.16170279681682587
0.09087593853473663 0.542086660861969 0.058115556836128235
0.229897141456604 -0.2053915560245514 -0.06963809579610825
0.1026027649641037 0.13004650175571442 -0.1690145879983902
0.05101365968585014 -0.4176584780216217 -0.11460863053798676
-0.059106968343257904 0.11708363890647888 -0.17723974585533142
0.11951074004173279 0.2559734284877777 0.21579532325267792
0.03820517286658287 -0.016920875757932663 0.22187761962413788
-0.12076403945684433 0.49980348348617554 -0.13403388857841492
0.06968572735786438 0.45818156003952026 0.06693651527166367
0.08373478800058365 0.4602492153644562 -0.16033637523651123
0.10783624649047852 -0.38665762543678284 0.21479041874408722
-0.09554131329059601 -0.35400906205177307 -0.19938313961029053
0.16704048216342926 0.4279080331325531 -0.10764647275209427
0.12467826157808304 0.17568089067935944 -0.15985804796218872
-0.01392493024468422 -0.4086516499519348 0.17844638228416443
0.12716957926750183 -0.24176856875419617 0.24460449814796448
0.1724134385585785 -0.05666257068514824 0.16406641900539398
-0.20977123081684113 -0.31810975074768066 -0.02696395292878151
-0.027180977165699005 0.18152323365211487 0.26400142908096313
0.022278528660535812 -0.4110458791255951 -0.08536620438098907
0.09479221701622009 0.5569252371788025 0.03775739669799805
0.2205672264099121 -0.37698107957839966 -0.13999837636947632
-0.13829557597637177 -0.40390369296073914 -0.19433718919754028
-0.11881408840417862 -0.09244293719530106 0.19203902781009674
0.13793133199214935 0.17536893486976624 0.06203973665833473
0.22201374173164368 -0.29517287015914917 -0.06953833252191544
0.22804073989391327 -0.19739335775375366 0.026668548583984375
0.14492547512054443 0.396959125995636 -0.06035682186484337
0.055511679500341415 -0.4084666073322296 0.18699882924556732
0.15142427384853363 -0.40309572219848633 -0.016915153712034225
-0.06967788934707642 0.2963287830352783 0.202714741230011
-0.173444464802742 -0.41580459475517273 -0.07573683559894562
0.10440462827682495 -0.33696818351745605 0.2374025136232376
0.19181619584560394 -0.09479010105133057 0.022488174960017204
0.1776334047317505 -0.41279515624046326 0.056874699890613556
-0.1518242061138153 -0.4161345958709717 -0.16362100839614868
-0.0187413040548563 0.5620307326316833 0.04390843212604523
-0.09333127737045288 0.29315224289894104 -0.16004477441310883
-0.00664946436882019 0.3660232722759247 -0.16589012742042542
0.05858562886714935 -0.1149849146604538 -0.16885942220687866
0.2048228532075882 0.03328406438231468 -0.15173426270484924
0.11282554268836975 -0.40913867950439453 0.14256365597248077
-0.004196472465991974 -0.40373533964157104 -0.04927709326148033
0.15181156992912292 0.3959287703037262 -0.07086896151304245
-0.015430319122970104 0.47597432136535645 -0.16279833018779755
-0.0036901356652379036 -0.4087490141391754 -0.1466253697872162
-0.004535553976893425 0.45822036266326904 0.08181478828191757
0.20768536627292633 -0.14539088308811188 0.012124527245759964
0.0101558743044734 -0.4081610143184662 0.07395113259553909
0.04292251914739609 0.056856632232666016 -0.1732056438922882
-0.01896646060049534 -0.2420211285352707 0.2584080696105957
0.2111835777759552 0.05910918116569519 -0.04286952316761017
-0.08941569924354553 0.20861878991127014 -0.15919411182403564
0.1932646632194519 -0.2923099994659424 -0.13443338871002197
-0.08622834086418152 -0.41356492042541504 -0.051932889968156815
0.1378856599330902 0.17697183787822723 0.05448780953884125
0.015207918360829353 0.12815023958683014 -0.17433148622512817
0.19276201725006104 0.04846090078353882 0.07449214160442352
-0.1860801726579666 -0.4148522913455963 -0.15369778871536255
-0.13566048443317413 0.3780496418476105 -0.10392119735479355
0.11508138477802277 -0.3887760043144226 0.20759551227092743
-0.11154315620660782 0.0035749897360801697 -0.1748141348361969
0.07419587671756744 0.3711087703704834 -0.16487714648246765
0.08102187514305115 -0.3490557074546814 0.24781732261180878
-0.19564306735992432 -0.04781261086463928 -0.05221640318632126
-0.11448661237955093 0.25966939330101013 0.1665932983160019
-0.19341421127319336 0.00013075675815343857 -0.053583696484565735
0.16408278048038483 -0.29119473695755005 0.2038736641407013
0.13550542294979095 0.15204305946826935 -0.013658547773957253
0.21357081830501556 -0.012195699848234653 -0.051497992128133774
-0.02997015044093132 0.40420669317245483 0.10877936333417892
0.1905786246061325 -0.4155186116695404 -0.09472668170928955
-0.04135166481137276 -0.15888817608356476 0.2534363567829132
-0.07245152443647385 -0.00325410021468997 0.20235955715179443
0.17289717495441437 -0.029037903994321823 -0.15987634658813477
0.09959579259157181 0.29581600427627563 0.21104346215724945
-0.14764286577701569 -0.4100699722766876 0.10178522765636444
0.13931134343147278 0.12044757604598999 0.08027420938014984
-0.18778209388256073 0.060665301978588104 -0.1639871597290039
-0.15074403584003448 0.14662319421768188 -0.16982845962047577
0.10639358311891556 0.1866866499185562 -0.16399288177490234
0.14876139163970947 0.10903620719909668 0.11234359443187714
-0.043911196291446686 0.5601416230201721 -0.1483340859413147
0.16843970119953156 -0.4142915904521942 -0.06646441668272018
-0.08280051499605179 0.05871444568037987 0.17838488519191742
-0.05705678090453148 0.3016255497932434 0.21160469949245453
0.03503596410155296 0.23745563626289368 0.2586737275123596
0.2020471841096878 0.10072384774684906 -0.03180311620235443
0.1592486947774887 -0.04735866189002991 -0.1616591215133667
-0.11695283651351929 0.38556668162345886 0.0191093347966671
0.051909834146499634 -0.40724825859069824 -0.09411598742008209
0.17144249379634857 -0.2116159200668335 0.19860276579856873
-0.20115891098976135 -0.29297468066215515 0.06692738085985184
0.08112036436796188 -0.37547212839126587 0.23980088531970978
-0.11104971170425415 -0.38662391901016235 -0.20153571665287018
-0.1533869355916977 -0.2769584059715271 0.17873243987560272
0.11887820065021515 -0.2603531777858734 0.24618229269981384
0.22966347634792328 -0.21201960742473602 -0.04392281919717789
-0.057794053107500076 0.5647567510604858 -0.07701608538627625
0.062443651258945465 -0.06344185769557953 -0.1713854819536209
0.14400075376033783 0.2598836421966553 0.09792383015155792
0.023791737854480743 0.5130773782730103 0.10441740602254868
-0.12070950865745544 0.316139817237854 -0.0630250796675682
0.1356591135263443 -0.11703663319349289 0.217556431889534
0.14494657516479492 0.13947485387325287 -0.16618436574935913
-0.11467549204826355 0.36444684863090515 -0.050412025302648544
0.02838345244526863 -0.050894416868686676 0.23055611550807953
0.11940866708755493 -0.058174461126327515 -0.1666247844696045
0.1928948312997818 -0.1238614022731781 0.026587091386318207
0.2100864052772522 -0.075930655002594 -0.1393256038427353
0.13038909435272217 -0.22240515053272247 0.24178120493888855
-0.2112269252538681 -0.27579864859580994 -0.0958813726902008
-0.02310139685869217 0.4295330345630646 0.0832030326128006
0.11060333251953125 -0.2827012538909912 0.24909189343452454
-0.11372560262680054 -0.18660156428813934 0.22135517001152039
-0.011496009305119514 -0.09226026386022568 0.24193927645683289
0.049763355404138565 -0.3032718598842621 -0.18796062469482422
0.14488163590431213 -0.3432309329509735 0.21194370090961456
-0.11096303164958954 -0.12765195965766907 0.20840169489383698
0.1500142514705658 0.1268349289894104 0.04126690328121185
0.02717478945851326 -0.2688368558883667 0.26848652958869934
-0.1540950983762741 0.1425010710954666 -0.07557863742113113
0.19886602461338043 -0.03147982060909271 -0.005549456924200058
0.07900525629520416 -0.4142223596572876 -0.13180966675281525
-0.11461097747087479 0.2304793894290924 0.09596940875053406
-0.12684644758701324 -0.40868470072746277 -0.019368039444088936
0.15606527030467987 -0.2306075096130371 0.22012007236480713
-0.061602476984262466 -0.16192540526390076 0.24702097475528717
-0.04477313160896301 0.26557520031929016 -0.16898123919963837
0.012274189852178097 0.3329083025455475 0.24673321843147278
0.11950817704200745 0.566246509552002 -0.07771685719490051
-0.168011873960495 -0.1936599761247635 0.14463618397712708
0.07830066233873367 -0.4031713306903839 -0.0353105366230011
-0.026150867342948914 -0.4032853841781616 0.08485595881938934
0.07404816150665283 0.5683220028877258 -0.10810550302267075
0.13576844334602356 0.1534026861190796 -0.021657723933458328
0.16925689578056335 0.10497643798589706 0.11071532964706421
-0.002642991952598095 0.41006600856781006 -0.16405704617500305
-0.09969814121723175 -0.4159879982471466 -0.13278870284557343
0.07068946212530136 0.35155731439590454 -0.16517408192157745
-0.10477275401353836 -0.15259478986263275 0.22040683031082153
-0.004500662907958031 0.5649290084838867 0.01722419075667858
-0.11426903307437897 0.34621813893318176 0.09674715250730515
0.20794439315795898 -0.07325036078691483 -0.0032392931170761585
-0.1052752435207367 0.31684446334838867 -0.16242212057113647
0.19671104848384857 -0.13241370022296906 -0.14358435571193695
-0.11652914434671402 0.37963220477104187 0.020058365538716316
-0.13218559324741364 0.42119014263153076 -0.15254908800125122
0.1582663357257843 0.3747231960296631 -0.15443575382232666
0.027932781726121902 -0.22285909950733185 -0.16650287806987762
-0.11730064451694489 0.40321895480155945 0.0017869756557047367
0.09359432756900787 0.4393768012523651 0.06294585019350052
0.2163720726966858 -0.2715352773666382 -0.08776635676622391
-0.1606992930173874 0.14937008917331696 -0.1679842621088028
0.16901594400405884 0.4233563244342804 -0.10024142265319824
-0.11591727286577225 0.3466433882713318 0.045068517327308655
0.0724160373210907 -0.40902993083000183 -0.20022286474704742
-0.1761344075202942 -0.05470077320933342 0.0197752732783556
0.0022571347653865814 -0.409631609916687 0.22381839156150818
-0.21356484293937683 -0.2797497808933258 0.010537045076489449
-0.1825195550918579 0.14183442294597626 -0.11769820004701614
0.2047640085220337 -0.40057486295700073 0.012892327271401882
0.14460429549217224 0.4199077785015106 -0.021756188943982124
0.14056333899497986 0.13523264229297638 0.027443764731287956
0.05123279243707657 0.5679784417152405 -0.13394100964069366
0.13558952510356903 0.033633407205343246 -0.16769371926784515
0.14623358845710754 0.3381308317184448 0.10193929821252823
-0.11159425973892212 0.2077064961194992 0.10795771330595016
-0.03839508444070816 -0.06758465617895126 -0.174613356590271
0.05826515704393387 -0.4085831642150879 -0.015062009915709496
-0.041379787027835846 0.5652375817298889 -0.0771629735827446
0.05260855704545975 0.41753190755844116 -0.16270822286605835
0.19882161915302277 -0.313266396522522 0.11693108081817627
0.1453251838684082 0.3818070888519287 0.08721181005239487
-0.17932306230068207 -0.41542375087738037 -0.12371578067541122
-0.1284283995628357 0.09491556137800217 0.12277229875326157
-0.07373783737421036 0.10919591784477234 -0.17605829238891602
-0.11213558167219162 0.5135801434516907 -0.046387992799282074
-0.12115589529275894 -0.406699001789093 -0.019981499761343002
-0.13966280221939087 0.36070480942726135 -0.0935286283493042
0.0672217458486557 0.03284716233611107 -0.17276611924171448
-0.04653192311525345 0.2760987877845764 -0.1682882159948349
0.19606424868106842 -0.0878637358546257 0.0872635468840599
0.1207939088344574 0.08459232747554779 -0.16872495412826538
0.22335463762283325 -0.18134991824626923 0.03827354684472084
-0.022763878107070923 -0.1577746719121933 0.2576790153980255
0.11212825775146484 0.381576806306839 -0.16101936995983124
0.19384056329727173 0.05944874510169029 0.00820134673267603
-0.17793145775794983 -0.4160713255405426 -0.1081061065196991
0.03459962457418442 0.2454017698764801 0.25102952122688293
0.10690628737211227 0.52569580078125 0.05751848593354225
-0.17913945019245148 0.03427797555923462 -0.03142145648598671
-0.12294461578130722 0.28641924262046814 -0.08820934593677521
0.019962936639785767 -0.19333615899085999 0.2665488123893738
-0.03796477988362312 0.5628339648246765 -0.05736103281378746
0.13632993400096893 0.4033457040786743 -0.15840281546115875
0.1946563571691513 -0.1474505364894867 0.02991459146142006
-0.1322634220123291 0.2969261407852173 -0.15241007506847382
-0.1961260885000229 -0.35775837302207947 0.015779100358486176
0.0873846709728241 0.5125225782394409 0.08397819846868515
-0.04147431626915932 -0.4093645215034485 0.04667559266090393
-0.16724778711795807 0.046101685613393784 0.06295549869537354
-0.14134767651557922 -0.20167623460292816 -0.15511542558670044
-0.12335116416215897 0.28347277641296387 -0.14165382087230682
0.04211288318037987 0.09904318302869797 0.19180180132389069
-0.09682133793830872 0.30714279413223267 -0.16379189491271973
-0.14259368181228638 0.35065796971321106 -0.14575834572315216
0.13459879159927368 0.4898727238178253 0.04768524318933487
-0.11415684223175049 0.4877158999443054 -0.010297266766428947
-0.15343791246414185 -0.19613657891750336 -0.1557430475950241
0.21161329746246338 -0.33759942650794983 0.006948438473045826
0.06377623230218887 0.37120556831359863 0.17082682251930237
-0.0708346962928772 -0.2790077328681946 0.25107577443122864
-0.16839341819286346 0.10504434257745743 0.012990333139896393
-0.17773094773292542 -0.395438551902771 0.08435977250337601
0.08230361342430115 -0.3388347625732422 0.24772007763385773
0.2104848325252533 -0.2548302114009857 0.11447566747665405
0.21791687607765198 -0.07011474668979645 -0.07684361189603806
-0.07917807996273041 0.18763479590415955 0.2382400929927826
-0.049661457538604736 -0.3865993320941925 0.23095881938934326
0.036701686680316925 0.39781221747398376 -0.16481858491897583
-0.11641351878643036 -0.4072706401348114 -0.025638502091169357
0.15920083224773407 0.4568403661251068 -0.15049493312835693
-0.1882162094116211 -0.4123026430606842 -0.014069223776459694
-0.0857422947883606 0.14303310215473175 -0.17438191175460815
0.15789102017879486 -0.2534801959991455 0.21172167360782623
0.06893796473741531 -0.03650291636586189 -0.1719822883605957
-0.12472853064537048 0.15121710300445557 -0.07725807279348373
0.22285786271095276 -0.30306217074394226 0.0003537251614034176
0.1468939632177353 0.2856765687465668 -0.08912085741758347
0.029921557754278183 0.4771532416343689 0.08788015693426132
-0.09941556304693222 0.16666483879089355 0.16830933094024658
-0.0008964873850345612 -0.1705624759197235 0.2633122205734253
-0.14008064568042755 0.06039127707481384 0.1226816400885582
-0.0957828164100647 0.3860848844051361 0.09878789633512497
-0.029277460649609566 0.4306547939777374 0.07547008246183395
0.1411191076040268 0.26792892813682556 -0.057238515466451645
0.05618542805314064 0.5670866370201111 -0.02571404166519642
0.1350221186876297 0.5006574392318726 -0.1515779048204422
-0.03249595686793327 -0.08967994153499603 -0.17356263101100922
-0.07620366662740707 -0.07487766444683075 0.21730642020702362
0.21102304756641388 -0.06633197516202927 -0.007786194793879986
0.21399852633476257 -0.3228306174278259 -0.007303742226213217
0.044144198298454285 0.567707359790802 -0.08033881336450577
-0.13449659943580627 0.3800846040248871 -0.1567848026752472
-0.07190229743719101 -0.41611889004707336 -0.1493890881538391
-0.11635652184486389 0.2645966112613678 0.059653159230947495
-0.01292470470070839 -0.40530309081077576 0.029548104852437973
0.0877690315246582 0.567655086517334 -0.025200234726071358
-0.20037993788719177 -0.38723716139793396 -0.12885165214538574
-0.11388976871967316 0.2710592746734619 -0.09866560250520706
0.13770551979541779 0.1760457456111908 0.050190720707178116
-0.13687720894813538 0.04382588714361191 0.133952334523201
-0.09359470754861832 -0.28759056329727173 0.23834094405174255
0.013618585653603077 -0.4106152355670929 0.19956785440444946
0.05464410036802292 -0.4138321876525879 0.10388673096895218
-0.005358556285500526 0.24500218033790588 -0.16971364617347717
0.029516123235225677 0.5664682984352112 0.008092313073575497
-0.13113343715667725 -0.24976502358913422 0.20200252532958984
-0.18973882496356964 0.06304387003183365 -0.07085501402616501
-0.09150135517120361 -0.11310344934463501 0.21900159120559692
-0.10049469769001007 -0.16578127443790436 0.22626301646232605
0.00761944567784667 0.04975409060716629 0.20163573324680328
0.21598273515701294 -0.40723833441734314 -0.08987381309270859
0.14659389853477478 0.3257809281349182 -0.05214572697877884
-0.10584763437509537 0.5364300012588501 -0.004065577406436205
0.07198470085859299 -0.40998387336730957 0.18167145550251007
0.13627663254737854 0.1858055293560028 0.14767158031463623
-0.11369787901639938 0.27026087045669556 -0.10758230835199356
0.07418251037597656 -0.37205323576927185 0.2527135908603668
-0.1725035011768341 0.0014223416801542044 0.05387924611568451
0.22830887138843536 -0.1998189389705658 -0.0241010133177042
-0.1490050107240677 -0.41384586691856384 0.013420657254755497
-0.2015613317489624 -0.4048612415790558 -0.09150196611881256
0.17243704199790955 -0.35724708437919617 0.13094335794448853
0.06592202931642532 0.5682141780853271 -0.04532216861844063
-0.20280201733112335 -0.11083085834980011 -0.14613182842731476
0.05640072003006935 0.5134614706039429 -0.16085518896579742
-0.13967488706111908 -0.25051745772361755 0.19283322989940643
0.029491128399968147 -0.4131087064743042 -0.1352325826883316
-0.03223270922899246 -0.40913125872612 0.19475671648979187
0.19089645147323608 -0.14798912405967712 -0.14390979707241058
0.14818397164344788 0.10853461176156998 0.11487098038196564
-0.17388585209846497 -0.4140286445617676 0.028930161148309708
0.16615071892738342 0.3904310464859009 -0.10463212430477142
-0.009880337864160538 0.040009211748838425 0.2063676118850708
-0.07309012860059738 -0.11116603761911392 0.22868436574935913
0.06969976425170898 -0.18751218914985657 -0.15708495676517487
-0.12624727189540863 -0.11139024049043655 -0.16872245073318481
-0.017239809036254883 -0.028493091464042664 0.22452034056186676
0.13363103568553925 0.38966935873031616 0.095171719789505
-0.11689314991235733 0.1419084519147873 -0.17338602244853973
-0.18348006904125214 -0.3545494079589844 -0.16571371257305145
0.20509056746959686 -0.2931392788887024 0.12168975174427032
0.09958282113075256 -0.07493094354867935 -0.16870525479316711
0.1487036645412445 0.4470195770263672 -0.0936649814248085
-0.01176903210580349 0.1884804666042328 -0.17258590459823608
0.025603940710425377 0.025068631395697594 0.21110443770885468
-0.19277752935886383 0.03885389864444733 -0.07539252936840057
-0.04355335980653763 -0.2596977651119232 0.25426143407821655
-0.16600611805915833 0.04326994717121124 0.0681893602013588
-0.11044582724571228 0.06896001845598221 0.15369991958141327
0.06914480775594711 -0.2859066128730774 -0.17997483909130096
0.004891702905297279 -0.03958049416542053 -0.17508822679519653
-0.061389148235321045 -0.014964793808758259 0.20887738466262817
-0.21319517493247986 -0.20363444089889526 -0.06966258585453033
-0.07197575271129608 -0.12986712157726288 -0.16923655569553375
0.1287158578634262 0.28153422474861145 0.18970197439193726
-0.2155246138572693 -0.2694593369960785 -0.04241116717457771
0.03547865152359009 0.2944680154323578 -0.16723376512527466
-0.09645344316959381 -0.38574960827827454 -0.20334115624427795
-0.040084026753902435 0.56121426820755 -0.03893815726041794
-0.1765540987253189 -0.12390682846307755 -0.0022901766933500767
-0.19718636572360992 -0.11985228955745697 -0.019062507897615433
0.13552387058734894 0.16161507368087769 -0.016962166875600815
0.19529595971107483 -0.21876013278961182 0.15947498381137848
-0.103983074426651 0.14535722136497498 0.09509249776601791
0.1394863724708557 0.29121536016464233 0.17202594876289368
-0.11322547495365143 0.4393344521522522 0.026808004826307297
-0.011589434929192066 -0.4032568335533142 0.1250818967819214
-0.21388402581214905 -0.24690572917461395 -0.07767894119024277
-0.11456535756587982 0.25703129172325134 0.1588347852230072
-0.12173349410295486 0.47081896662712097 -0.15331719815731049
-0.1284606158733368 -0.4091060161590576 0.023304836824536324
0.033873043954372406 -0.3276812434196472 0.2643924951553345
-0.14681129157543182 -0.25012433528900146 -0.1467062085866928
0.1657904088497162 0.42327848076820374 -0.11547187715768814
0.14019593596458435 0.004638832062482834 -0.16744467616081238
0.09754683077335358 0.5606206059455872 0.025411412119865417
0.20567134022712708 0.13037125766277313 -0.05911039188504219
-0.10192398726940155 0.46344059705734253 -0.15598034858703613
0.05870907008647919 0.14014050364494324 0.23634609580039978
-0.18885965645313263 0.026255648583173752 -0.046782173216342926
-0.17569150030612946 -0.1982073336839676 0.13538551330566406
-0.17494282126426697 0.09066852182149887 -0.03982429951429367
-0.09038164466619492 -0.22122132778167725 -0.15632686018943787
-0.17669235169887543 -0.06797519326210022 0.050097085535526276
-0.12237942963838577 0.44085028767585754 -0.1545461118221283
0.20707640051841736 -0.3249279260635376 -0.13629919290542603
0.14846192300319672 0.3776148557662964 0.008345547132194042
-0.1364412158727646 -0.2704724669456482 0.2044031023979187
-0.08111834526062012 0.4918612837791443 0.07522949576377869
-0.09276692569255829 -0.409309983253479 0.18537524342536926
0.20179080963134766 -0.14212197065353394 0.014605391770601273
-0.17354413866996765 -0.1821950227022171 0.11434447020292282
0.22457027435302734 -0.3001723885536194 -0.010824861004948616
0.104529470205307 0.06238024681806564 0.18296517431735992
0.006065452471375465 0.5684108138084412 -0.13788466155529022
0.19767417013645172 -0.30467644333839417 0.1407294124364853
-0.05446449667215347 0.32787713408470154 0.22697782516479492
-0.009922971948981285 -0.20512869954109192 0.2664845287799835
-0.211203932762146 -0.17800623178482056 -0.05783981829881668
0.05065690726041794 -0.25513774156570435 0.2658523619174957
0.11013158410787582 0.10973037034273148 -0.1700873225927353
-0.11781525611877441 -0.41007718443870544 0.027710093185305595
-0.10763509571552277 0.1315620392560959 0.03529289737343788
-0.16584570705890656 -0.15076865255832672 0.11712709814310074
-0.040646716952323914 0.24274834990501404 -0.17020252346992493
-0.07444649189710617 0.2570565938949585 -0.16423876583576202
0.08507555723190308 -0.37523412704467773 0.23332108557224274
0.10560336709022522 0.2054630070924759 0.2470652461051941
0.22035032510757446 -0.13508334755897522 -0.11235914379358292
0.14841166138648987 0.3259139657020569 -0.15719477832317352
-0.09367524087429047 0.41604793071746826 0.06958838552236557
0.032469842582941055 -0.4090169370174408 0.06021273508667946
0.05781330168247223 0.022492732852697372 -0.17277580499649048
-0.1757175475358963 -0.414300799369812 -0.02072812058031559
0.12282412499189377 0.09137404710054398 0.1641148179769516
-0.1430884152650833 -0.26800012588500977 -0.15592999756336212
0.04580887034535408 -0.407802939414978 0.11372637748718262
0.0917600616812706 -0.40832364559173584 0.2019115686416626
0.011385602876543999 -0.4049092233181 0.03913618624210358
-0.19638347625732422 -0.2743779718875885 0.08375745266675949
-0.11481447517871857 0.24054934084415436 0.13323462009429932
-0.16545209288597107 -0.4164767861366272 -0.12412867695093155
-0.055692244321107864 -0.13799433410167694 -0.17000354826450348
-0.058035679161548615 0.5424649715423584 -0.1545732170343399
-0.18749473989009857 0.1165325716137886 -0.16247890889644623
0.09736811369657516 0.21397744119167328 0.2478405386209488
-0.08175008744001389 0.5633913278579712 -0.01827963814139366
0.11287354677915573 0.18385381996631622 -0.15977449715137482
-0.047612451016902924 0.18808408081531525 -0.1733536720275879
-0.0022323094308376312 -0.40854886174201965 0.15587544441223145
-0.07498817145824432 0.32660776376724243 0.20615364611148834
0.16023141145706177 0.3726257085800171 -0.12379411607980728
-0.10592302680015564 -0.4049815833568573 -0.0272962749004364
0.09019279479980469 0.5647364258766174 -0.14334428310394287
0.1868903934955597 -0.09610193967819214 0.1341685652732849
0.05491575971245766 0.2538345158100128 -0.1671791970729828
0.07063008099794388 -0.41546738147735596 -0.13927529752254486
0.12479488551616669 -0.4122666120529175 0.09110410511493683
0.09364073723554611 -0.05724436417222023 -0.1697521060705185
0.15807905793190002 0.16257627308368683 -0.155209481716156
-0.20244349539279938 -0.368451327085495 -0.10028788447380066
0.14622114598751068 0.36225059628486633 0.006668529473245144
0.1904677450656891 -0.41114887595176697 0.0090749841183424
-0.19769099354743958 -0.3157329261302948 -0.09121346473693848
-0.19536009430885315 -0.2632172107696533 0.08750851452350616
0.13912011682987213 0.4852648675441742 -0.08350745588541031
0.1933615505695343 -0.09739004820585251 0.0309099480509758
-0.04497388377785683 -0.41672059893608093 -0.05536336824297905
0.19969391822814941 -0.2787225842475891 -0.11031725257635117
-0.19138523936271667 0.0799073725938797 -0.13872817158699036
-0.005838623270392418 -0.4056492745876312 0.12187527865171432
-0.06870170682668686 -0.40741726756095886 0.11199913918972015
-0.11585560441017151 0.42653346061706543 -0.061582550406455994
-0.04112737625837326 0.5161166191101074 0.09515494108200073
-0.16875652968883514 -0.21588057279586792 -0.14690396189689636
0.05855899304151535 -0.09037356823682785 -0.17111213505268097
-0.08040119707584381 0.12094057351350784 -0.1766432821750641
-0.08039497584104538 0.5096707940101624 0.07314760982990265
-0.0858965814113617 0.5639305114746094 -0.07489113509654999
0.03950221464037895 0.44366592168807983 0.10833438485860825
-0.1115611121058464 0.2348019778728485 -0.05369967967271805
-0.023443084210157394 -0.4071674942970276 0.0497170053422451
-0.013061449863016605 0.3480682671070099 -0.16719911992549896
-0.03199557960033417 0.20120517909526825 -0.1728074550628662
0.1818714588880539 0.004078473895788193 -0.16165383160114288
-0.09713683277368546 0.5422973036766052 0.015723329037427902
0.11527076363563538 -0.1970299780368805 0.24938805401325226
-0.1927182674407959 0.038377925753593445 -0.11561188846826553
0.00280003622174263 -0.04218655452132225 0.22585542500019073
-0.0035939691588282585 -0.40999990701675415 0.1257621943950653
-0.012066240422427654 -0.2152024209499359 0.26441773772239685
-0.0046045659109950066 -0.41036921739578247 0.20150825381278992
-0.19502100348472595 -0.36961740255355835 0.027822712436318398
-0.1722312867641449 0.06252855807542801 -0.013102483004331589
0.2092445194721222 -0.3842686414718628 -0.1645723283290863
0.18184584379196167 -0.00603109784424305 0.12340251356363297
0.0029294765554368496 0.28631460666656494 0.2171163409948349
-0.18663349747657776 -0.21132615208625793 0.1166912242770195
0.14887967705726624 -0.41060465574264526 -0.035533271729946136
0.21840791404247284 -0.3121926486492157 -0.09096834063529968
0.19964563846588135 -0.2645989656448364 -0.10703299194574356
0.20683489739894867 -0.35740888118743896 -0.15807846188545227
-0.06316221505403519 -0.41489389538764954 -0.1283804476261139
0.061649616807699203 -0.14564315974712372 -0.1633928418159485
-0.11723100394010544 0.32177242636680603 -0.05641398951411247
0.14466430246829987 0.48801034688949585 -0.09578949213027954
-0.19742777943611145 -0.04282858222723007 -0.15032589435577393
-0.1571497768163681 0.14250384271144867 -0.170093834400177
-0.16292358934879303 -0.181056946516037 0.14307765662670135
-0.11512545496225357 -0.06838145852088928 0.1878991574048996
-0.058465465903282166 0.11724766343832016 0.18486282229423523
0.1396389603614807 0.5168214440345764 -0.01921982131898403
-0.16196531057357788 -0.24951593577861786 0.16411738097667694
0.11837934702634811 -0.26277273893356323 0.24652206897735596
-0.02480299212038517 0.27068448066711426 0.23619966208934784
0.022311512380838394 -0.3006487786769867 -0.18793798983097076
0.1301908940076828 0.10981705784797668 -0.16800785064697266
-0.15564173460006714 -0.024214113131165504 -0.17288580536842346
0.006844558287411928 0.35740020871162415 0.25587916374206543
-0.1091160774230957 0.5109180212020874 -0.09949877858161926
0.05244895815849304 -0.40851977467536926 0.15069058537483215
0.12112176418304443 0.28649625182151794 0.1931062936782837
0.06143679469823837 -0.12841181457042694 -0.16568942368030548
-0.12477381527423859 -0.07611072808504105 0.1815841943025589
0.11561743170022964 0.4928872287273407 -0.15813979506492615
-0.20180636644363403 -0.18607197701931 0.04010684788227081
-0.15689881145954132 -0.14458917081356049 0.1509275585412979
0.2205944061279297 -0.31836771965026855 -0.08908914029598236
-0.1153058260679245 0.45562806725502014 -0.1547366827726364
-0.09098905324935913 0.3003675639629364 0.1824181079864502
-0.012932184152305126 -0.4095357656478882 0.1456211507320404
0.06210416555404663 0.43893828988075256 0.07491850107908249
0.22778312861919403 -0.1825500726699829 -0.06852184981107712
-0.05728783831000328 -0.1286870390176773 -0.171009823679924
0.13249880075454712 -0.10858792811632156 0.21654321253299713
0.044383276253938675 -0.15419213473796844 -0.16469494998455048
-0.18855635821819305 0.112433061003685 -0.09869237244129181
-0.17555181682109833 -0.1607901006937027 0.019504984840750694
0.165226012468338 -0.09158315509557724 -0.15825055539608002
0.11875709891319275 0.4429495632648468 -0.15954343974590302
0.18351514637470245 -0.016462143510580063 0.12277287989854813
0.14635175466537476 -0.1318904459476471 -0.1585034877061844
0.1087711974978447 0.11592168360948563 0.16854412853717804
-0.1759769320487976 -0.070258229970932 0.05764029175043106
0.135385662317276 0.49908646941185 -0.1528552919626236
0.10879474133253098 0.40726718306541443 -0.15966050326824188
-0.12030956149101257 0.1342766284942627 -0.00610628817230463
-0.08287416398525238 -0.4121300280094147 0.0010560888331383467
0.09470324218273163 -0.40087810158729553 0.20990221202373505
-0.005320918746292591 -0.032130125910043716 0.22365254163742065
0.03173761069774628 -0.2449212372303009 0.2658872604370117
0.06244632601737976 0.4426930546760559 0.07031455636024475
0.15854497253894806 0.13482539355754852 -0.004754416178911924
0.17214703559875488 -0.139952152967453 0.19012528657913208
-0.07105569541454315 -0.39364534616470337 0.22441622614860535
0.05538734421133995 -0.17250141501426697 -0.16107608377933502
0.2220463901758194 -0.229478120803833 0.07542011886835098
-0.05069678649306297 0.2921558618545532 0.20627270638942719
-0.06863405555486679 0.5646394491195679 -0.05341349542140961
-0.1053784042596817 0.22609339654445648 0.19994011521339417
0.019998330622911453 -0.010200376622378826 -0.1752225011587143
-0.10444421321153641 0.11658960580825806 0.0831705629825592
0.10313519090414047 0.33493712544441223 0.20732875168323517
-0.12835009396076202 -0.26051852107048035 -0.15964293479919434
-0.03405369818210602 0.24739645421504974 0.2413405328989029
0.0650179535150528 -0.2832382619380951 0.26307258009910583
0.1480482816696167 -0.18218350410461426 0.22645242512226105
0.038727592676877975 0.5070986151695251 -0.16189631819725037
-0.14606499671936035 -0.4154128432273865 -0.10804187506437302
-0.08730348944664001 0.473161906003952 -0.15568199753761292
0.10629841685295105 0.104774110019207 0.16787292063236237
-0.050156787037849426 0.26262733340263367 -0.16854725778102875
0.053787048906087875 -0.17492085695266724 -0.16063472628593445
0.0923025980591774 -0.22417080402374268 0.2607206702232361
-0.006544916890561581 -0.4137033224105835 0.11185720562934875
0.14762498438358307 0.3962184488773346 0.0222576092928648
-0.05655130371451378 -0.01607070118188858 0.21072344481945038
0.15937241911888123 0.49012327194213867 -0.12944066524505615
0.13867199420928955 0.14288581907749176 0.0016346280463039875
0.15547610819339752 0.4858091473579407 -0.14612694084644318
0.14232102036476135 0.39540091156959534 0.08250539004802704
0.19990593194961548 -0.2905213534832001 0.1350671797990799
-0.20759378373622894 -0.19855491816997528 -0.01300967950373888
0.07601423561573029 -0.27593547105789185 0.26149997115135193
0.16500060260295868 0.05336110293865204 -0.16516108810901642
0.19164733588695526 -0.3216564953327179 -0.15399019420146942
0.02056785300374031 -0.33852583169937134 -0.19665741920471191
-0.08550183475017548 0.4951924979686737 -0.15601575374603271
-0.06672323495149612 -0.03014090657234192 0.2101777195930481
-0.16151389479637146 -0.39711281657218933 -0.18749390542507172
0.1368187516927719 0.5062320232391357 -0.08894440531730652
-0.19072531163692474 -0.1756044626235962 0.008012726902961731
0.08122518658638 0.33074283599853516 0.22814705967903137
0.13806408643722534 -0.3553687334060669 0.20756657421588898
-0.1916177123785019 -0.038357578217983246 -0.030427871271967888
-0.11191602051258087 0.21269863843917847 0.13149791955947876
-0.047193169593811035 0.5249297022819519 -0.15845713019371033
-0.11290840059518814 0.21684995293617249 0.020563527941703796
-0.1160520687699318 0.44637331366539 0.0039035703521221876
0.09728715568780899 -0.3826788365840912 -0.19856981933116913
-0.024240190163254738 0.37084466218948364 0.19907568395137787
-0.10708671808242798 0.4782978892326355 0.04518388211727142
-0.16010887920856476 -0.36986109614372253 0.13662566244602203
0.15131017565727234 -0.30311447381973267 -0.1690722107887268
0.11714064329862595 -0.3617256283760071 -0.19261176884174347
-0.10865916311740875 0.2088504135608673 -0.07913622260093689
0.20949584245681763 -0.13519391417503357 -0.13553953170776367
0.1549612432718277 -0.021722177043557167 0.17415909469127655
-0.09957747161388397 -0.40037640929222107 0.053120508790016174
0.023729391396045685 -0.41104233264923096 -0.03363620489835739
0.08883938193321228 0.4323178827762604 -0.161268949508667
-0.10019049048423767 -0.20055392384529114 -0.1565328985452652
-0.00592208094894886 0.5203514099121094 -0.15863390266895294
0.07172226160764694 -0.42352744936943054 -0.10403285175561905
-0.11585105210542679 0.457017719745636 -0.08930050581693649
-0.10921590775251389 0.19803191721439362 -0.0411725677549839
-0.18545731902122498 -0.012208741158246994 -0.028314532712101936
-0.10690023005008698 -0.37544211745262146 0.2048289179801941
-0.20030616223812103 -0.3822166621685028 -0.1305832713842392
-0.025054186582565308 -0.40908578038215637 -0.139006108045578
-0.19346292316913605 -0.3944239020347595 0.028616957366466522
0.11065900325775146 0.3436954915523529 0.15628769993782043
0.0019738092087209225 0.18910819292068481 0.2684048116207123
0.21845902502536774 -0.09432096034288406 -0.07936519384384155
0.11834269762039185 0.4357414245605469 -0.1593203842639923
-0.11298675835132599 -0.40608716011047363 0.18332988023757935
-0.07526693493127823 0.5641639232635498 -0.05995164066553116
-0.1397215723991394 0.3463532328605652 -0.12691077589988708
0.14796701073646545 0.4129948914051056 0.024080593138933182
0.0750650092959404 0.4616546928882599 -0.16164496541023254
0.1468454748392105 0.3741525411605835 -0.004343874752521515
-0.025713080540299416 -0.27218398451805115 -0.1804608404636383
0.056041497737169266 0.3430614173412323 -0.16598068177700043
0.0034328000620007515 -0.09581919014453888 0.24239927530288696
-0.015275039710104465 -0.1473187357187271 0.2563972771167755
-0.022433068603277206 -0.41376879811286926 -0.08518223464488983
0.20446908473968506 -0.27818989753723145 -0.09926982969045639
-0.1094110757112503 0.5082132816314697 -0.11073724180459976
-0.12218166142702103 -0.26326510310173035 0.21788516640663147
-0.043776437640190125 -0.410209059715271 0.04463423788547516
-0.027234774082899094 -0.40318241715431213 0.07522744685411453
-0.1077943742275238 0.16463786363601685 0.05516797676682472
0.05114632844924927 -0.10050710290670395 -0.17051929235458374
-0.1052359864115715 0.17903387546539307 -0.1363726705312729
0.16781409084796906 0.4293656647205353 -0.10308729112148285
0.05672159790992737 0.5683386921882629 -0.03616700693964958
-0.05976859852671623 -0.4109898507595062 0.008750537410378456
0.22178737819194794 -0.30484703183174133 0.005315047688782215
0.13873672485351562 -0.4072932004928589 -0.1931547224521637
0.06503143161535263 -0.21977315843105316 0.255731999874115
0.03040125221014023 -0.2881319224834442 0.2676246166229248
-0.09316613525152206 0.5089942216873169 -0.15428200364112854
-0.2047225385904312 -0.13137978315353394 -0.04451020434498787
0.1765080988407135 -0.05499514937400818 0.15432509779930115
0.14628764986991882 0.34497973322868347 -0.0500183142721653
-0.09923473745584488 0.40581628680229187 0.076119065284729
0.16590449213981628 0.3202095627784729 -0.07124555855989456
-0.020257610827684402 0.34398481249809265 0.24555103480815887
-0.17500506341457367 -0.04033277928829193 0.04539375379681587
0.007451008073985577 -0.4104321599006653 0.0903533473610878
0.1539517343044281 0.13949787616729736 -0.018620850518345833
0.05705561116337776 0.382944256067276 0.18359841406345367
-0.02165120653808117 -0.40528416633605957 0.027621405199170113
-0.16493794322013855 -0.4154442548751831 -0.13914500176906586
0.05677437037229538 -0.40873926877975464 0.08634576946496964
0.11448556929826736 0.5674108862876892 -0.10632732510566711
-0.01113925501704216 0.4577438533306122 0.07691867649555206
-0.01691955327987671 -0.37343165278434753 0.2544291615486145
0.18763498961925507 0.09315505623817444 -0.1650215983390808
-0.05971294268965721 -0.02007635496556759 0.21067006886005402
0.21937450766563416 -0.09817925840616226 -0.05362756550312042
-0.16155090928077698 0.09939199686050415 0.05937398970127106
0.15430502593517303 0.43133729696273804 -0.0817389264702797
0.04934501275420189 0.4083924889564514 0.15846125781536102
0.15818312764167786 -0.03448975831270218 -0.16337795555591583
-0.11270999163389206 -0.24431230127811432 -0.157261461019516
0.12870831787586212 0.2523892819881439 0.20924843847751617
-0.132165789604187 -0.3304426074028015 -0.1832282692193985
-0.18135476112365723 0.036854106932878494 -0.03413305804133415
0.15626738965511322 0.4659639298915863 -0.09487032890319824
0.11496680229902267 -0.061992425471544266 0.21711599826812744
-0.08951284736394882 -0.10548873245716095 0.2175634503364563
-0.17819775640964508 -0.4162490665912628 -0.09678854793310165
-0.03150332346558571 -0.39749929308891296 0.22962424159049988
-0.09856368601322174 -0.04810294136404991 -0.17224867641925812
-0.11355827748775482 0.476433128118515 -0.02709132805466652
0.16295698285102844 -0.41283899545669556 0.0024785115383565426
0.15566584467887878 0.1649828851222992 -0.15680046379566193
-0.062179677188396454 0.3409818708896637 0.20086893439292908
0.08697131276130676 0.22503691911697388 -0.16681940853595734
0.11664260178804398 -0.4171494245529175 -0.13503354787826538
0.19820159673690796 -0.41697958111763 -0.14480164647102356
-0.029700126498937607 -0.42086201906204224 -0.10309838503599167
0.16561101377010345 -0.30849260091781616 0.19775386154651642
0.19740769267082214 -0.13733185827732086 0.01833156868815422
-0.18476717174053192 -0.16530746221542358 -0.15167833864688873
-0.09416427463293076 -0.4073936939239502 0.10926391184329987
-0.171706423163414 0.08957499265670776 0.002061282517388463
0.1297493875026703 0.27397415041923523 0.19314411282539368
0.017992734909057617 -0.030960215255618095 0.22506113350391388
0.07549028098583221 0.5694572925567627 -0.12744422256946564
-0.19355791807174683 -0.29669517278671265 -0.1084274873137474
0.15923452377319336 -0.17441226541996002 -0.1487276703119278
-0.12261659651994705 0.43033644556999207 -0.0802464485168457
0.010934761725366116 0.3632909953594208 -0.1671200841665268
0.02869025617837906 -0.4038178026676178 -0.1253712922334671
-0.0836910530924797 -0.4110272526741028 0.025324292480945587
-0.1703636199235916 0.08300969749689102 -0.021443931385874748
-0.18786129355430603 -0.018422909080982208 -0.029780231416225433
-0.02867666259407997 0.1634659618139267 -0.17435041069984436
-0.03518075495958328 0.461259663105011 -0.16272008419036865
0.037502795457839966 -0.026446860283613205 0.22366385161876678
-0.21391227841377258 -0.21133163571357727 -0.056096624583005905
0.18795384466648102 -0.17498239874839783 0.13938193023204803
0.04407694190740585 -0.23659765720367432 0.2645232081413269
0.10725980997085571 -0.2187640219926834 0.25619280338287354
0.1606930047273636 0.4906027615070343 -0.12070657312870026
0.2045098841190338 -0.1263604611158371 -0.139899343252182
0.0881710797548294 0.12701845169067383 -0.1707066148519516
-0.19180430471897125 0.005498358979821205 -0.04669604450464249
0.0580228790640831 -0.30228009819984436 -0.1855085790157318
-0.1548663228750229 -0.2522020637989044 0.17536184191703796
0.09205012023448944 -0.05221720412373543 0.22136075794696808
0.15469124913215637 -0.2817983627319336 0.21489271521568298
0.16410095989704132 -0.41189900040626526 0.09655749797821045
-0.015148388221859932 0.27948394417762756 0.22050049901008606
0.04382076859474182 -0.4114375412464142 0.08782040327787399
-0.03530200943350792 0.36118224263191223 0.1518966406583786
-0.09757979959249496 0.12435682117938995 -0.17524003982543945
0.1390349566936493 0.3568416237831116 -0.15808087587356567
0.07931803911924362 -0.006284024100750685 -0.17151963710784912
-0.10670572519302368 0.22487591207027435 -0.11794956028461456
-0.20589230954647064 -0.17088823020458221 -0.1325613111257553
-0.13056008517742157 -0.40891996026039124 -0.1942458152770996
0.22043432295322418 -0.11116255074739456 -0.07590188086032867
-0.02796296402812004 -0.3895089328289032 0.24432580173015594
-0.17914216220378876 -0.16629131138324738 0.036570437252521515
-0.18275144696235657 -0.24653415381908417 0.12118310481309891
0.045400477945804596 -0.13444174826145172 0.25380969047546387
-0.061356958001852036 -0.4151204824447632 -0.1441386342048645
-0.163874089717865 -0.23048292100429535 -0.14418409764766693
0.13225530087947845 0.17996534705162048 -0.12640507519245148
0.14377176761627197 -0.25367745757102966 -0.14960360527038574
0.14047329127788544 0.4893004894256592 -0.0140113215893507
