0.21997514367103577 -0.280241996049881 0.035950709134340286
0.19919262826442719 -0.014837421476840973 -0.11666609346866608
-0.06548775732517242 0.08900852501392365 0.17312805354595184
0.11640168726444244 -0.41438716650009155 0.18025736510753632
-0.13913430273532867 -0.03612079471349716 -0.1764073520898819
0.09797853231430054 -0.170142263174057 -0.15966494381427765
0.0035015977919101715 0.15787208080291748 0.25987744331359863
-0.11342964321374893 0.1615585833787918 0.14175724983215332
-0.06860815733671188 0.5607790350914001 -0.1450449377298355
-0.0181606262922287 0.43849247694015503 0.11309105157852173
0.13343800604343414 0.2735549509525299 0.015008509159088135
-0.008460654877126217 0.3849668800830841 0.2215036153793335
0.13247735798358917 0.248286172747612 0.04143592715263367
-0.179343581199646 -0.13171711564064026 -0.1684820055961609
-0.06758593022823334 0.12327729910612106 0.1988980770111084
0.13656651973724365 0.3121882379055023 0.06672434508800507
0.22108329832553864 -0.26420626044273376 0.03537747263908386
0.028538305312395096 -0.14006716012954712 0.24846239387989044
0.20401793718338013 -0.39003509283065796 -0.014562344178557396
0.17982155084609985 -0.1259744018316269 0.13022297620773315
-0.14357686042785645 0.12394607812166214 0.006411638110876083
0.1286756843328476 0.22285975515842438 -0.027703028172254562
-0.0365462452173233 -0.18902327120304108 -0.16749708354473114
-0.09140977263450623 0.12243616580963135 0.16623395681381226
-0.20419146120548248 0.08210970461368561 -0.14225950837135315
0.200481116771698 0.08793462067842484 -0.10991627722978592
0.1518261730670929 -0.30369383096694946 -0.16443105041980743
-0.03640354424715042 0.14769068360328674 0.2422713190317154
0.13304387032985687 0.24994271993637085 0.06959330290555954
0.14423808455467224 -0.42342954874038696 -0.12176854908466339
-0.04775922745466232 -0.24729284644126892 -0.17399850487709045
-0.08957571536302567 0.1442471295595169 0.19869713485240936
-0.15835291147232056 0.1446843147277832 -0.0901930034160614
0.057182878255844116 0.220517098903656 -0.17206169664859772
-0.2067357748746872 0.0030024629086256027 -0.13507916033267975
-0.11706064641475677 0.1799880564212799 0.15313784778118134
0.1312122642993927 0.2324000895023346 0.05832032859325409
0.0782451406121254 -0.41316577792167664 0.20835274457931519
0.2144094854593277 -0.30247554183006287 0.030602579936385155
-0.06916996836662292 -0.06641541421413422 0.21895559132099152
0.17005294561386108 0.024790875613689423 0.1197732612490654
0.027484923601150513 0.5447405576705933 0.08141912519931793
-0.1287246197462082 -0.4159534275531769 0.15297025442123413
0.0171949602663517 -0.41723647713661194 0.21156799793243408
0.10799409449100494 -0.00030414387583732605 0.19106227159500122
-0.09935460239648819 -0.29715222120285034 0.2405146360397339
-0.12999042868614197 0.015995539724826813 -0.17761024832725525
-0.07306459546089172 0.564456582069397 -0.0005950646591372788
0.12899643182754517 0.2581081688404083 -0.03840899467468262
0.12157578766345978 -0.09401775896549225 0.21155712008476257
-0.12737007439136505 0.3137798607349396 0.07311917096376419
0.0786987915635109 -0.37100476026535034 0.23289623856544495
0.17747101187705994 -0.40366116166114807 0.06990502774715424
-0.12811468541622162 0.2948068380355835 0.04139623045921326
0.12166452407836914 0.4547731876373291 0.05064819008111954
0.0592765286564827 0.13019900023937225 0.2121453583240509
-0.12295162677764893 0.198179230093956 0.06454361230134964
0.1628827452659607 0.09112393110990524 0.10842015594244003
-0.18266747891902924 -0.12729837000370026 -0.16930575668811798
0.2029561549425125 0.006928382441401482 -0.07248550653457642
0.13011357188224792 0.4961640238761902 -0.029040232300758362
0.0014551710337400436 0.444479376077652 0.11150452494621277
0.1685461550951004 -0.39796122908592224 0.10209476202726364
0.1534174382686615 0.11538223922252655 0.05317838490009308
0.15100780129432678 0.141781285405159 -0.061257436871528625
0.21518853306770325 -0.37080010771751404 -0.07684988528490067
-0.044733088463544846 0.35016772150993347 -0.16904981434345245
0.13193583488464355 0.2235819399356842 0.16894157230854034
0.18972408771514893 -0.3446408212184906 0.06172126159071922
-0.0067715123295784 0.4427235722541809 0.11070150882005692
0.1510542929172516 0.07974754273891449 0.131311297416687
0.20408733189105988 -0.020423786714673042 -0.07664720714092255
-0.14121457934379578 -0.0626409575343132 0.1623343974351883
0.11513867974281311 -0.17193715274333954 -0.15692585706710815
0.11771984398365021 -0.4090820252895355 0.005684619769454002
-0.09555321931838989 -0.10665930807590485 -0.17483583092689514
-0.21519802510738373 -0.3403191566467285 -0.00424475222826004
-0.02180965431034565 0.419035404920578 0.1400151252746582
0.08434848487377167 -0.12033127248287201 0.23602597415447235
-0.107066310942173 0.16222190856933594 0.17971037328243256
0.032896995544433594 -0.0007385760545730591 0.2107481211423874
-0.21290743350982666 -0.06229671835899353 -0.07825722545385361
-0.1284756362438202 0.2918650209903717 -0.0020886100828647614
0.172060027718544 -0.41510507464408875 -0.002231976017355919
-0.20732469856739044 0.002298979787155986 -0.11641262471675873
0.05881620943546295 -0.3719879686832428 0.24617229402065277
0.020562468096613884 0.3971427083015442 0.19505995512008667
0.1634327620267868 0.13190509378910065 -0.011885164305567741
0.1586015224456787 0.13513405621051788 -0.03821748122572899
0.0732206255197525 0.21554413437843323 0.2499472200870514
-0.10947999358177185 0.15232278406620026 0.1473633050918579
-0.20689687132835388 -1.2517150025814772e-05 -0.14309602975845337
0.1307774931192398 0.22667643427848816 0.08415812253952026
-0.21772268414497375 -0.3342680037021637 -0.018219903111457825
-0.15825510025024414 -0.060190409421920776 0.14021654427051544
0.13062794506549835 0.39907950162887573 0.06746932119131088
-0.05145011842250824 0.09196113795042038 0.1780817210674286
0.20302321016788483 -0.00866374559700489 -0.0824279859662056
0.21619005501270294 -0.3036859631538391 -0.06653806567192078
0.13486309349536896 0.3000195324420929 0.05910934880375862
0.13309252262115479 0.2606411576271057 0.02409602329134941
-0.13865768909454346 0.024708375334739685 0.14701174199581146
-0.1870298832654953 -0.13125838339328766 0.0653047189116478
-0.06121654808521271 0.48022112250328064 0.07205231487751007
-0.04606712609529495 0.3586346209049225 -0.16958431899547577
0.14790140092372894 0.03229208290576935 0.15118063986301422
0.06302773952484131 0.5095673203468323 0.07985270768404007
-0.07001940160989761 0.09506414085626602 0.1691853255033493
0.10009878128767014 -0.12458460032939911 -0.16807423532009125
0.09929262101650238 -0.11912430822849274 0.22837400436401367
0.1260930299758911 0.185662642121315 0.0901975929737091
0.14732292294502258 -0.3458896279335022 -0.18241024017333984
0.0662330910563469 0.16129662096500397 0.252453476190567
0.10643260180950165 -0.14559081196784973 0.23426494002342224
-0.21995505690574646 -0.1812961995601654 -0.11846060305833817
0.13101203739643097 0.22948552668094635 0.022249780595302582
-0.12586970627307892 0.2200845628976822 0.03733164817094803
-0.08658260852098465 0.1272279918193817 0.17941716313362122
0.05276159197092056 -0.34693509340286255 -0.1986359804868698
0.21652290225028992 -0.3084239959716797 -0.037034813314676285
0.13263016939163208 0.2533574104309082 0.13538241386413574
-0.07770626246929169 0.1539556235074997 0.22437599301338196
-0.1841176301240921 -0.10021709650754929 0.07950994372367859
-0.14326177537441254 0.11904888600111008 0.022588931024074554
-0.0492158904671669 -0.13486263155937195 0.24289268255233765
0.11480174958705902 -0.41263246536254883 0.1731540560722351
0.19518034160137177 -0.36627912521362305 -0.16497206687927246
-0.07895395904779434 0.3407824635505676 -0.16819269955158234
-0.06628613919019699 0.46009355783462524 0.059425320476293564
0.15975020825862885 0.13871869444847107 -0.04620705917477608
-0.16718581318855286 0.11544565111398697 0.014338824898004532
0.12832601368427277 -0.09144297242164612 0.20623570680618286
-0.2077770233154297 0.004859911277890205 -0.12903963029384613
-0.11178180575370789 0.15791529417037964 0.15963777899742126
-0.07229064404964447 0.10483814030885696 0.17573899030685425
-0.21252913773059845 -0.07551700621843338 -0.09885477274656296
0.1241312101483345 -0.4134315550327301 0.1759629249572754
-0.12773962318897247 0.27191489934921265 0.004819279536604881
0.10063526779413223 -0.41088753938674927 0.0932786762714386
0.15060235559940338 0.11353915184736252 0.06316594034433365
-0.14832696318626404 0.14538569748401642 -0.08879219740629196
0.13262872397899628 -0.16031678020954132 0.22300593554973602
-0.18498240411281586 -0.058954209089279175 0.05766607075929642
-0.14870361983776093 0.11844184994697571 0.02100219391286373
0.18163998425006866 -0.1214563176035881 0.11889081448316574
0.15278132259845734 0.42220211029052734 -0.1062907725572586
0.09539183229207993 -0.41879525780677795 -0.12073782086372375
-0.059311188757419586 0.3141660690307617 -0.17079952359199524
-0.07676692306995392 -0.004820145666599274 -0.17956116795539856
0.10223238170146942 0.5421878099441528 -0.14286001026630402
0.12368406355381012 0.5332883596420288 -0.0426885224878788
0.09667341411113739 -0.412391722202301 -0.11410166323184967
0.1861955225467682 0.034659259021282196 0.05153502896428108
0.019898610189557076 0.42074427008628845 0.14325527846813202
0.2062917798757553 -0.36993852257728577 -0.0052878279238939285
-0.2117857187986374 -0.21825438737869263 0.06378795206546783
-0.07390284538269043 -0.1286132037639618 -0.17593777179718018
-0.10548464208841324 -0.3228447437286377 0.2359316498041153
0.11882533133029938 -0.40894216299057007 0.05066691339015961
0.1023031622171402 0.10470224916934967 -0.17410412430763245
0.037217095494270325 -0.1792633831501007 0.26366400718688965
0.12393289059400558 0.2170746922492981 -0.10066733509302139
-0.0062952470034360886 0.5656100511550903 -0.10229551792144775
-0.12692666053771973 0.25058937072753906 -0.003598276525735855
0.18258559703826904 -0.41598081588745117 -0.009445011615753174
0.1042947918176651 0.5470349192619324 0.016980960965156555
0.18315467238426208 0.1449253261089325 -0.13478708267211914
-0.03806818276643753 -0.41784992814064026 -0.08477579057216644
0.10725212097167969 -0.05316067859530449 0.20514515042304993
-0.11222681403160095 0.0307767316699028 -0.1800241768360138
0.13463930785655975 -0.13897454738616943 0.21295788884162903
0.14539989829063416 0.3013154864311218 -0.11831969767808914
-0.09613699465990067 0.2810765206813812 -0.1645136922597885
-0.11675360053777695 0.5444866418838501 -0.00991411879658699
-0.13273672759532928 0.11938590556383133 0.029403027147054672
0.022558555006980896 0.5685940384864807 -0.01692044362425804
0.17822255194187164 -0.18504196405410767 0.15501312911510468
0.13796289265155792 -0.4149971902370453 -0.059457600116729736
0.13001158833503723 0.48834410309791565 -0.09639239311218262
0.12863871455192566 0.24183090031147003 -0.046102505177259445
0.07356450706720352 0.05316050350666046 0.18509703874588013
0.17943540215492249 -0.035541534423828125 0.10720869153738022
0.1782686412334442 -0.15948832035064697 0.13498833775520325
-0.005355138331651688 -0.33315324783325195 -0.19823312759399414
0.10170736163854599 0.14011672139167786 -0.17301689088344574
-0.03823095187544823 -0.41496792435646057 0.18640531599521637
-0.17135316133499146 0.0026249499060213566 0.0912221223115921
0.096756711602211 -0.4100414216518402 -0.11704914271831512
0.2179698944091797 -0.25508078932762146 0.05632948875427246
0.12543579936027527 -0.36899375915527344 0.19975677132606506
-0.050161659717559814 -0.18393512070178986 0.258729487657547
0.14624083042144775 -0.36627548933029175 -0.1884397268295288
0.1813356727361679 -0.4145457148551941 -0.02273639291524887
-0.059401050209999084 0.522327184677124 0.07803522050380707
0.1867743879556656 0.019151965156197548 0.009379561990499496
-0.13017669320106506 -0.06781546026468277 -0.1755397915840149
-0.09750642627477646 -0.2935977578163147 -0.18409724533557892
0.10575581341981888 -0.09824654459953308 0.22023750841617584
0.20679819583892822 -0.19820967316627502 0.07702736556529999
0.08432410657405853 -0.4136950671672821 0.032480061054229736
0.1332162618637085 0.24145285785198212 0.16453616321086884
-0.12849031388759613 0.3909339904785156 -0.027422375977039337
-0.025007963180541992 -0.4210435748100281 -0.18483997881412506
0.13636384904384613 0.2955835461616516 0.0101785808801651
0.17781221866607666 0.06016892194747925 0.08670753240585327
0.20161736011505127 0.07996739447116852 -0.09571830928325653
0.21203893423080444 -0.35012340545654297 -0.1261284500360489
0.21135863661766052 -0.15541984140872955 0.005031243897974491
-0.11005693674087524 0.08369068801403046 0.1498371660709381
0.14795929193496704 -0.17459839582443237 0.21188218891620636
-0.08693448454141617 -0.4135292172431946 0.12257495522499084
0.18210679292678833 -0.03534822165966034 0.0998539850115776
-0.055414967238903046 -0.3113963007926941 -0.19409145414829254
0.14989297091960907 -0.2383510023355484 -0.140445277094841
-0.21353259682655334 -0.18486107885837555 -0.027055006474256516
0.122489333152771 -0.23084793984889984 0.23207314312458038
-0.09641781449317932 0.39230459928512573 0.09172995388507843
-0.10378122329711914 0.33146166801452637 -0.16658231616020203
-0.15432676672935486 0.08009345829486847 -0.17991314828395844
0.1721653938293457 -0.07975246757268906 0.1462024301290512
0.12990394234657288 0.21322646737098694 0.024350054562091827
-0.02835862711071968 0.4660705327987671 0.0792422890663147
-0.17053061723709106 0.1492743045091629 -0.12765851616859436
-0.0012219101190567017 -0.13592535257339478 -0.1726132035255432
0.2085624635219574 -0.30497056245803833 0.0687360167503357
0.02242109179496765 -0.38462403416633606 -0.20452146232128143
-0.15651191771030426 0.1280076652765274 -0.0253094844520092
0.15913930535316467 -0.3302510678768158 0.18262222409248352
0.18723076581954956 -0.39117053151130676 0.05862864851951599
0.2195630818605423 -0.22266608476638794 -0.04635128006339073
0.20335184037685394 -0.031191688030958176 -0.09141430258750916
0.18806330859661102 -0.3482370674610138 0.06912119686603546
-0.1276421844959259 0.34360119700431824 0.05875827372074127
0.11006049811840057 -0.4055217206478119 -0.0008732536807656288
0.08468876779079437 -0.3962068259716034 -0.2015266865491867
-0.014432159252464771 0.47211307287216187 0.08052222430706024
0.1342548280954361 0.2677769660949707 0.03726913034915924
0.008611459285020828 -0.41077882051467896 0.07098950445652008
-0.0676850974559784 -0.4191611111164093 -0.19883204996585846
-0.1059231385588646 0.12714965641498566 0.12965255975723267
0.20968185365200043 -0.3416609466075897 -0.12713126838207245
0.11078208684921265 0.3330836296081543 -0.16251449286937714
-0.08294739574193954 0.06780454516410828 -0.18040627241134644
-0.01082184724509716 0.4538156986236572 0.0981394350528717
0.21354809403419495 -0.3915020823478699 -0.07600215077400208
-0.20450705289840698 -0.039489567279815674 -0.16172917187213898
0.2094225287437439 -0.4014805257320404 -0.05139438062906265
-0.08371797204017639 -0.4160115718841553 -0.014607992954552174
0.00021000951528549194 0.5613400936126709 0.05597960203886032
0.13131259381771088 0.2430633157491684 0.010676436126232147
-0.03505523130297661 0.44743067026138306 0.07386500388383865
-0.18568667769432068 -0.07905542850494385 0.04192385822534561
-0.21083150804042816 -0.05749183148145676 -0.10119783878326416
-0.04244060441851616 -0.2533811032772064 0.26098665595054626
-0.2029634565114975 -0.0012980811297893524 -0.16230380535125732
-0.05237278342247009 0.38581809401512146 -0.16743485629558563
0.11723089963197708 0.2305980920791626 -0.10761508345603943
-0.12334150075912476 0.24646614491939545 -0.06913504004478455
0.03189827501773834 0.370594322681427 0.239324688911438
-0.21645337343215942 -0.3742319643497467 -0.12586116790771484
0.17773130536079407 0.059012796729803085 0.08759010583162308
-0.006492797285318375 0.3397141993045807 0.2409241795539856
-0.16290923953056335 -0.006151232868432999 0.11682205647230148
0.051793769001960754 0.20864714682102203 0.2518865764141083
-0.12073048949241638 -0.08713030815124512 0.1917797327041626
0.0011397264897823334 0.37973424792289734 -0.16918142139911652
0.12929973006248474 0.17323581874370575 -0.07670042663812637
-0.12199677526950836 -0.08485432714223862 -0.1746290773153305
-0.12624166905879974 0.27944719791412354 0.13807693123817444
-0.03862834721803665 -0.2983280420303345 0.2574603259563446
0.21114853024482727 -0.22414438426494598 -0.10040245950222015
-0.20923639833927155 -0.058550719171762466 -0.15419350564479828
0.09499026834964752 -0.11160818487405777 0.22803694009780884
-0.010679803788661957 -0.0119815394282341 0.2122097760438919
-0.04833517596125603 -0.04877917468547821 -0.1787859946489334
0.1808035671710968 -0.06983271986246109 0.11301752924919128
0.064963698387146 0.5644048452377319 0.01643300987780094
0.0074708834290504456 -0.3954044580459595 0.2513398230075836
-0.05791258066892624 -0.17801807820796967 -0.16924725472927094
0.1402558833360672 -0.4202825725078583 -0.16817326843738556
0.13516539335250854 0.3631308376789093 0.0011605024337768555
-0.09168872982263565 -0.4128974974155426 0.1653069704771042
0.20636498928070068 -0.0646776482462883 -0.07396145164966583
0.22311072051525116 -0.2609563171863556 0.010484844446182251
-0.06366521120071411 -0.4157043397426605 -0.07751528918743134
-0.11815353482961655 0.18283559381961823 0.14538179337978363
-0.18465496599674225 -0.1330377608537674 0.038192447274923325
-0.10514809191226959 -0.27209705114364624 -0.1759168952703476
0.13322937488555908 0.27437448501586914 0.008146919310092926
-0.09175360947847366 -0.10028774291276932 0.21647126972675323
0.14782264828681946 0.0026941224932670593 0.158983513712883
-0.08521322906017303 0.528012216091156 -0.1604275107383728
0.09288588911294937 -0.41157567501068115 0.03905338793992996
-0.06431928277015686 0.4196975827217102 -0.16450068354606628
0.13041014969348907 0.22450605034828186 0.06616455316543579
-0.02036728523671627 0.47384825348854065 -0.16656500101089478
-0.016550350934267044 0.5557265281677246 -0.1467425525188446
0.13471966981887817 0.2923276424407959 0.03960641846060753
-0.09137739986181259 0.5622386336326599 0.0009835585951805115
0.2104424685239792 -0.2979572117328644 0.070195272564888
0.13708001375198364 0.2657434344291687 -0.00437864288687706
-0.055359333753585815 -0.4133599102497101 0.016353962942957878
0.09760164469480515 -0.41823816299438477 -0.12303659319877625
-0.033933497965335846 0.11159571260213852 0.19914454221725464
0.0022610053420066833 0.5610034465789795 0.05110006034374237
0.06721950322389603 0.34907305240631104 0.1714237481355667
-0.006189405918121338 -0.4204050898551941 -0.1942354142665863
-0.16776321828365326 -0.005284225568175316 0.10500115156173706
0.17642110586166382 -0.17835812270641327 0.1510317474603653
0.13350071012973785 0.258041650056839 0.07672634720802307
-0.12699933350086212 0.36284250020980835 0.010444585233926773
-0.09329317510128021 -0.03634818643331528 0.20010851323604584
0.005184102803468704 -0.4091809391975403 0.04229964315891266
-0.16353948414325714 -0.1405164897441864 0.1531190276145935
-0.029039237648248672 -0.18826079368591309 -0.16684289276599884
0.13060154020786285 0.4701191186904907 -0.06514441221952438
0.1597248762845993 -0.00818576104938984 0.1493346095085144
-0.10440736263990402 0.01314568892121315 0.17836683988571167
0.12735629081726074 0.18897752463817596 -0.017323840409517288
0.1608598232269287 -0.34633487462997437 -0.17768548429012299
0.14715519547462463 -0.41513746976852417 -0.05777277424931526
0.039909180253744125 0.5022398233413696 0.09407931566238403
0.18595552444458008 -0.07493366301059723 0.08859971165657043
-0.06136564537882805 -0.41716960072517395 -0.0864240974187851
0.13809384405612946 0.34250566363334656 0.07082346081733704
-0.12763352692127228 0.1471736878156662 -0.06195225566625595
0.0290553979575634 0.3998298645019531 0.17733421921730042
0.05945628136396408 0.24089457094669342 0.24901118874549866
-0.07290714979171753 -0.13085785508155823 -0.17394649982452393
0.007044646888971329 -0.2726348340511322 0.2639469504356384
0.07470953464508057 0.2703651785850525 -0.16836419701576233
-0.12121020257472992 0.5239945650100708 -0.013208277523517609
0.0029123052954673767 0.4730502665042877 -0.1670064479112625
0.19863750040531158 -0.3903328776359558 -0.1678047627210617
0.17121398448944092 -0.3698584735393524 0.1092088520526886
0.14034581184387207 -0.16341449320316315 -0.15764176845550537
0.1990140974521637 0.11251238733530045 -0.11700049042701721
-0.12459255754947662 0.34335365891456604 -0.03163059428334236
0.1430290937423706 0.10743940621614456 0.11767178773880005
0.12148325890302658 0.1867567002773285 0.2060178518295288
-0.03872232139110565 -0.1720472127199173 0.2615187466144562
-0.04530118778347969 0.42229536175727844 -0.16819339990615845
0.13601461052894592 0.32211264967918396 0.044147588312625885
0.1864718496799469 -0.08372681587934494 0.07320693135261536
0.2125961035490036 -0.3505346477031708 -0.12066387385129929
-0.11463622003793716 -0.12367171794176102 0.2083885818719864
-0.0030185282230377197 -0.3483242392539978 -0.20109611749649048
-0.19110780954360962 -0.252019464969635 -0.1374635398387909
-0.14217641949653625 0.10050559043884277 0.08536096662282944
-0.12820306420326233 0.4075249135494232 -0.03859534114599228
-0.12383746355772018 -0.03527134656906128 0.17562469840049744
0.16269563138484955 -0.3576303720474243 -0.18174274265766144
0.22229641675949097 -0.2587166428565979 -0.0486934632062912
-0.21565352380275726 -0.363198846578598 -0.027028411626815796
-0.22282087802886963 -0.1707846075296402 -0.08448120951652527
-0.19987694919109344 -0.4132990539073944 -0.005025390535593033
-0.15336927771568298 0.1342095285654068 -0.03871683031320572
-0.11094722151756287 -0.30469197034835815 -0.18606983125209808
-0.12051613628864288 0.1971089243888855 -0.11627548933029175
0.13588286936283112 0.4024430513381958 0.010083816945552826
-0.12716156244277954 0.2815118432044983 0.13511553406715393
-0.17362576723098755 0.06801800429821014 0.057978395372629166
0.04662438854575157 -0.06574750691652298 0.2278042882680893
0.09390897303819656 -0.4143059551715851 -0.11827217042446136
-0.117401622235775 0.05615498870611191 -0.1806459277868271
-0.164123073220253 -0.13330772519111633 0.15050838887691498
-0.20716199278831482 -0.41729736328125 0.00514206662774086
-0.05257006734609604 -0.05767177417874336 0.22112666070461273
0.00035349861718714237 0.40117233991622925 0.19117099046707153
0.14852701127529144 -0.291479229927063 -0.16121304035186768
-0.056950416415929794 0.047812581062316895 -0.1815570443868637
0.1863335818052292 -0.07435396313667297 0.06816558539867401
0.20109125971794128 -0.37116628885269165 0.01380094699561596
0.08548083901405334 -0.4142603278160095 0.03787803649902344
-0.12655317783355713 0.36644265055656433 -0.011138416826725006
0.08131978660821915 -0.4127257168292999 0.19841589033603668
-0.04628174751996994 0.550400972366333 -0.15638840198516846
-0.17917262017726898 -0.01973690278828144 0.07942507416009903
0.18714256584644318 -0.41539642214775085 -0.03496440872550011
-0.21383072435855865 -0.2419860064983368 0.06314092874526978
0.047220293432474136 -0.3592882454395294 0.25625815987586975
0.003529820591211319 0.4450867474079132 0.11071230471134186
0.19258907437324524 -0.33844438195228577 0.06794409453868866
-0.2036219835281372 -0.2374805063009262 0.08925597369670868
0.04564046114683151 -0.053171224892139435 -0.17602074146270752
0.20603622496128082 -0.03577721118927002 -0.05713655799627304
0.06273867189884186 -0.15778064727783203 -0.16628006100654602
-0.06091475486755371 -0.026169605553150177 -0.17914022505283356
-0.06401680409908295 -0.41950076818466187 -0.1997261792421341
-0.1832604557275772 0.0061368998140096664 -0.0004816073924303055
-0.21478953957557678 -0.1576036512851715 -0.04310695827007294
0.07152996212244034 0.4393678307533264 0.05972751975059509
0.20852746069431305 -0.07730576395988464 -0.045770227909088135
-0.13047417998313904 0.4659448266029358 -0.04502921551465988
0.04441283643245697 0.09764888137578964 -0.17605522274971008
0.13165828585624695 0.25100797414779663 0.1757194846868515
-0.177821084856987 0.0824202448129654 0.03677187114953995
0.09214147925376892 -0.4143174886703491 0.040077365934848785
-0.16723757982254028 0.03607693687081337 0.09114909172058105
-0.0223078653216362 0.39091864228248596 -0.16749879717826843
-0.1319316327571869 0.4506579339504242 -0.15778441727161407
-0.22211475670337677 -0.19406262040138245 -0.04375578463077545
-0.1192886158823967 -0.1788906306028366 0.22142499685287476
0.2004837542772293 0.11026716977357864 -0.11626461148262024
0.0903225988149643 -0.406821072101593 0.054870836436748505
0.10205449163913727 -0.3973224461078644 0.04456929489970207
-0.2147136628627777 -0.3429630398750305 -0.08413874357938766
-0.17488093674182892 -0.4194716811180115 0.024730999022722244
-0.06643177568912506 0.003949753940105438 -0.18048979341983795
0.12769371271133423 0.49191245436668396 0.012032557278871536
0.16882838308811188 -0.3508510887622833 0.12663233280181885
-0.16998545825481415 -0.4120558500289917 0.10378529131412506
-0.12248972803354263 0.19174696505069733 0.019445277750492096
-0.08184287697076797 0.43651947379112244 0.06037140637636185
0.0671667605638504 -0.03735113888978958 0.21535129845142365
-0.108232781291008 0.32027244567871094 -0.16671130061149597
0.07402414828538895 -0.41406023502349854 0.19169402122497559
0.16382375359535217 -0.42018547654151917 -0.11189605295658112
-0.07375049591064453 0.44627654552459717 -0.16542097926139832
-0.12903058528900146 0.41867461800575256 -0.04543411731719971
0.22228527069091797 -0.2611015737056732 0.002583492547273636
0.21776032447814941 -0.243387833237648 0.06359751522541046
0.20069214701652527 0.028849607333540916 -0.061005719006061554
0.03336234390735626 -0.4233384430408478 -0.1808706670999527
-0.12533651292324066 0.21396251022815704 0.02943437546491623
0.13201330602169037 -0.34316298365592957 -0.1858603060245514
0.05522691830992699 -0.413609117269516 0.10413159430027008
-0.12027131021022797 0.18344572186470032 -0.008225273340940475
0.1166832447052002 -0.41386184096336365 0.039237067103385925
0.022909818217158318 -0.3487822413444519 -0.2006172239780426
-0.08320274949073792 -0.1596977859735489 0.2382495105266571
0.15342825651168823 -0.41654524207115173 -0.051036249846220016
-0.11280647665262222 0.09249768406152725 0.13995172083377838
0.0024838335812091827 -0.41891753673553467 -0.17587444186210632
0.040924906730651855 0.5516521334648132 0.06514466553926468
-0.07150187343358994 -0.41279125213623047 0.1569633036851883
-0.07463446259498596 -0.4194495677947998 -0.19433823227882385
0.05525186285376549 0.08850376307964325 0.18677856028079987
-0.17235371470451355 -0.0866360142827034 0.11629971116781235
0.1034686416387558 -0.03026069700717926 -0.1721087098121643
-0.13852030038833618 0.1564292013645172 -0.13106806576251984
0.08532249182462692 -0.1441803127527237 -0.16617688536643982
0.13633422553539276 0.3562270998954773 0.0335739441215992
0.2150915116071701 -0.2938311696052551 0.050681889057159424
0.21690262854099274 -0.20675554871559143 -0.0955708771944046
0.20690585672855377 -0.10353396832942963 -0.11650736629962921
0.05290459468960762 -0.4154725968837738 0.2296123504638672
0.08301790803670883 -0.4141632914543152 0.03524589538574219
0.08534476906061172 -0.4170946776866913 0.0364830382168293
-0.15431489050388336 -0.04148746281862259 0.14100821316242218
0.12474606186151505 0.48429784178733826 0.03589877113699913
-0.12718504667282104 0.37784937024116516 0.011823061853647232
0.22146980464458466 -0.24578125774860382 -0.07023032009601593
-0.10102362185716629 0.13534636795520782 0.1515381783246994
0.19379045069217682 0.0878896713256836 -0.04820726066827774
0.13976885378360748 0.10776786506175995 0.10779283195734024
0.0004379376769065857 0.06717903912067413 -0.17879414558410645
-0.0755482017993927 -0.4214818477630615 -0.19896717369556427
-0.22431494295597076 -0.27519306540489197 0.004800569266080856
0.006936028599739075 0.3618350625038147 -0.16927815973758698
-0.18519410490989685 -0.4230932295322418 -0.0786992534995079
0.10530945658683777 0.0734608918428421 0.169905424118042
0.1794646680355072 -0.3952047824859619 0.07052600383758545
-0.21363341808319092 -0.07611846923828125 -0.07224362343549728
-0.0025747008621692657 -0.3206065893173218 -0.19480954110622406
0.012610156089067459 -0.41659003496170044 -0.18814276158809662
0.18406151235103607 -0.077346071600914 0.09966229647397995
0.14369215071201324 -0.3949139416217804 -0.19517910480499268
0.20904338359832764 -0.340076744556427 -0.12229418754577637
0.2018134593963623 -0.025371551513671875 -0.10033020377159119
0.15382225811481476 -0.41416066884994507 -0.04601506143808365
-0.03401446342468262 0.5348017811775208 -0.1646951138973236
0.02091057226061821 0.5449075698852539 0.08322904258966446
-0.12737275660037994 0.34654349088668823 -0.010194152593612671
-0.12855203449726105 0.4904612898826599 -0.0793401449918747
0.13551247119903564 -0.41607192158699036 0.1268337070941925
-0.18434566259384155 -0.03215491771697998 0.02225477620959282
-0.012807756662368774 0.18889859318733215 -0.17575019598007202
0.12411455065011978 0.16866683959960938 0.08562272787094116
-0.061456743627786636 0.36744803190231323 -0.16841107606887817
-0.11931052803993225 0.2024925947189331 0.17515316605567932
-0.15216876566410065 0.30812445282936096 -0.1466396450996399
-0.059707771986722946 0.25272372364997864 0.22532635927200317
-0.07189434766769409 0.061430443078279495 0.1814509928226471
0.1811182051897049 -0.3184753358364105 0.12906645238399506
0.18504200875759125 -0.22837692499160767 0.15517239272594452
-0.06300447881221771 0.004280842840671539 -0.18066653609275818
-0.039712242782115936 0.3288845121860504 -0.1703282743692398
0.21503889560699463 -0.3033401072025299 0.047833770513534546
-0.11375837028026581 0.5567477941513062 -0.07320170104503632
-0.026631928980350494 0.3971635699272156 0.1644098460674286
-0.05586184933781624 0.24343174695968628 0.2284679412841797
0.1278046816587448 0.25803515315055847 0.17319758236408234
-0.09582509100437164 0.09382490068674088 0.15305951237678528
-0.11912226676940918 0.19556504487991333 -0.11730135977268219
0.18002969026565552 -0.034551724791526794 -0.15877743065357208
0.16743052005767822 -0.3428364098072052 -0.1746239960193634
-0.11007925868034363 0.05418091267347336 -0.18060892820358276
-0.22480033338069916 -0.2761077880859375 0.0018492601811885834
-0.037653300911188126 0.3232267200946808 0.23024699091911316
0.021385684609413147 -0.4166296124458313 0.022001471370458603
0.14893187582492828 0.3469852805137634 -0.08478757739067078
0.13922414183616638 0.29124563932418823 -0.09024059027433395
0.19558578729629517 -0.35094529390335083 -0.1586357206106186
-0.20586638152599335 0.010285431519150734 -0.11215263605117798
-0.22569365799427032 -0.24023327231407166 -0.09586372971534729
0.21569211781024933 -0.3182156980037689 -0.04501399025321007
0.14763392508029938 -0.4163404703140259 -0.08030184358358383
0.12492133677005768 -0.358926922082901 -0.1915874481201172
0.2019524723291397 0.005756587255746126 -0.04517538100481033
-0.2135927677154541 -0.2285526692867279 -0.12498204410076141
-0.06573730707168579 0.4439038634300232 -0.16553056240081787
0.13390594720840454 -0.21526390314102173 0.23341260850429535
-0.10736288130283356 0.09554320573806763 -0.17975793778896332
0.038742199540138245 0.5339816212654114 0.08284702152013779
-0.11764657497406006 0.47834551334381104 0.03338300809264183
-0.15795095264911652 -0.16487358510494232 -0.16469696164131165
-0.041222743690013885 0.17398205399513245 -0.1767818033695221
0.06348858773708344 0.05456782877445221 0.18811899423599243
0.11383191496133804 -0.17195752263069153 0.23628303408622742
0.22161518037319183 -0.22922080755233765 -0.035933420062065125
-0.21413758397102356 -0.25166136026382446 0.06410758942365646
-0.20559845864772797 0.00125076062977314 -0.15907356142997742
-0.226619690656662 -0.25128644704818726 -0.030094748362898827
-0.05786329135298729 -0.1606951653957367 -0.1703723669052124
-0.15792140364646912 0.06078742817044258 -0.1787787526845932
-0.20303142070770264 0.11350603401660919 -0.14238843321800232
0.1272209733724594 0.48512551188468933 -0.07335866987705231
-0.1618131548166275 -0.20631945133209229 -0.158208966255188
0.05440642312169075 -0.4185686409473419 0.03520305082201958
-0.194010391831398 0.0376790426671505 -0.0436197891831398
-0.05466868728399277 0.018128030002117157 -0.18127848207950592
-0.08283104747533798 0.5142480731010437 0.06918184459209442
-0.020832333713769913 0.433464914560318 0.11771754175424576
0.08780713379383087 -0.4119158685207367 0.03669087588787079
-0.14046722650527954 -0.15256604552268982 -0.16785304248332977
-0.20352809131145477 -0.41942116618156433 -0.11875021457672119
-0.02428380772471428 -0.42072758078575134 -0.17171578109264374
0.04444292187690735 -0.3087121844291687 -0.19081589579582214
-0.20717450976371765 -0.29087284207344055 0.07867522537708282
0.010184033773839474 0.21572402119636536 0.26062169671058655
0.21454721689224243 -0.30979523062705994 -0.017741383984684944
-0.11195307224988937 -0.41399818658828735 0.16087912023067474
0.09772256016731262 0.05264765024185181 0.1800483614206314
-0.12336321175098419 -0.15838579833507538 -0.16806523501873016
0.14893627166748047 0.10245627909898758 0.11796818673610687
-0.21313512325286865 -0.20719462633132935 0.04798728600144386
0.1018805131316185 0.06708738952875137 0.17207971215248108
-0.005403595976531506 0.2937532663345337 0.23143644630908966
-0.18145692348480225 0.10418210923671722 -0.023993592709302902
-0.08117475360631943 0.3476685583591461 0.14688222110271454
-0.1539967656135559 0.06770804524421692 -0.18003034591674805
-0.1132088452577591 -0.4159775674343109 -0.029987994581460953
-0.12037380039691925 0.18426769971847534 -0.14274124801158905
0.13758088648319244 0.1306946724653244 0.02535548247396946
0.09698455035686493 -0.19272811710834503 0.24924331903457642
-0.18374505639076233 -0.14008013904094696 0.0826408788561821
0.05204435810446739 -0.4253382980823517 -0.1681572049856186
0.15786150097846985 -0.35946470499038696 -0.1819075345993042
0.1860860288143158 -0.04522470757365227 0.07407442480325699
0.20361988246440887 -0.4058685898780823 -0.05199580639600754
0.13265460729599 0.013713780790567398 0.17012590169906616
0.02006346918642521 -0.16127100586891174 0.2607431411743164
-0.031232580542564392 -0.019501928240060806 -0.1797376126050949
0.17381134629249573 -0.41541600227355957 -0.020218582823872566
-0.03612370043992996 0.3315691351890564 -0.17004092037677765
0.15224125981330872 -0.22712065279483795 -0.14050114154815674
-0.21284763514995575 -0.06960858404636383 -0.1332683265209198
0.140512153506279 0.438841849565506 -0.03712121397256851
-0.12749651074409485 0.3778653144836426 -0.014651954174041748
-0.07733143866062164 0.4916183650493622 -0.16182507574558258
-0.1252739280462265 0.4332776963710785 0.02536841481924057
0.19549544155597687 -0.13256901502609253 0.03578896075487137
0.12415648251771927 -0.1666431576013565 -0.15826630592346191
0.05312115326523781 -0.41545042395591736 0.20156730711460114
0.20326539874076843 -0.025739653035998344 -0.07802481949329376
-0.1439746767282486 -0.05659674480557442 0.15816934406757355
-0.0021981820464134216 0.5663416385650635 -0.12823234498500824
-0.12131435424089432 0.25673341751098633 -0.11916700005531311
0.008975314907729626 0.39387431740760803 0.2046249806880951
0.18952322006225586 -0.02793259546160698 -0.15214036405086517
0.05687868222594261 -0.11614644527435303 -0.17226476967334747
0.19515261054039001 0.053995825350284576 -0.12715259194374084
0.1428442895412445 0.29783913493156433 -0.09358492493629456
0.1903233826160431 0.10263549536466599 -0.14896336197853088
0.12347648292779922 -0.39575138688087463 0.1822369247674942
0.13547036051750183 0.3814893960952759 -0.05806484818458557
0.13744235038757324 0.3281576335430145 0.07796589285135269
-0.04734316095709801 -0.02577408403158188 -0.17865385115146637
0.13398496806621552 0.41500476002693176 -0.011892318725585938
-0.028815407305955887 0.46505364775657654 0.08191607147455215
-0.08827376365661621 -0.12342840433120728 0.22499287128448486
-0.17032749950885773 -0.1463562250137329 -0.1688532680273056
0.1048881933093071 -0.03431534022092819 0.20188291370868683
0.0877905860543251 -0.007095731794834137 0.20290043950080872
0.021582406014204025 0.5535439848899841 0.07223013043403625
-0.16372619569301605 -0.023531537503004074 0.11308740079402924
0.02555970475077629 0.24791549146175385 0.2369028627872467
0.03516625985503197 0.37387463450431824 0.2312358021736145
0.019922561943531036 0.4193887412548065 -0.16777732968330383
0.20119133591651917 -0.39067527651786804 -0.0023912135511636734
-0.13039828836917877 0.15478581190109253 -0.09382743388414383
0.17931534349918365 -0.0004589986056089401 0.0989530086517334
-0.05753099173307419 0.019342035055160522 -0.18183204531669617
0.13372373580932617 0.29438450932502747 0.14647500216960907
0.016004862263798714 0.5682765245437622 -0.01633550599217415
-0.010083656758069992 0.3715919852256775 -0.169918492436409
-0.12934507429599762 0.43087249994277954 -0.06688342988491058
0.1975548267364502 -0.3533099293708801 0.024277281016111374
0.13121990859508514 0.47505906224250793 -0.036156393587589264
0.12461745738983154 -0.25597456097602844 0.23094983398914337
-0.07597692310810089 -0.42146220803260803 -0.19407404959201813
-0.020406533032655716 0.41584962606430054 0.15101979672908783
-0.05559137463569641 -0.17266622185707092 -0.16879209876060486
-0.028285503387451172 0.4669954180717468 0.07861281931400299
-0.013522692024707794 0.5659216642379761 -0.012943793088197708
0.07705560326576233 0.001692960038781166 0.20242711901664734
0.20784330368041992 -0.09726983308792114 -0.030360398814082146
-0.06816072016954422 -0.09278881549835205 0.22654634714126587
0.10382625460624695 0.341500848531723 0.14775145053863525
0.12243551760911942 -0.4145898222923279 0.06291863322257996
0.09603091329336166 0.5591809749603271 -0.13523364067077637
-0.04472333937883377 0.3564145267009735 0.22618943452835083
-0.11745195090770721 0.07986637949943542 -0.17931723594665527
-0.162544846534729 -0.3650200664997101 -0.1876341700553894
-0.054589562118053436 -0.03666601702570915 -0.17907942831516266
0.21912139654159546 -0.2744123935699463 -0.0724349319934845
0.11369767785072327 0.1237625777721405 -0.17396225035190582
-0.11122654378414154 -0.18892958760261536 0.22695636749267578
-0.12126506865024567 0.023248258978128433 0.1640099585056305
0.12735337018966675 0.22220152616500854 0.20523576438426971
0.21231389045715332 -0.340436726808548 -0.10973557829856873
0.04705219715833664 -0.15848159790039062 -0.16654637455940247
0.13120809197425842 -0.4196684956550598 -0.16700413823127747
0.08668237924575806 0.5625813603401184 -0.14241918921470642
-0.018406502902507782 0.11715058982372284 0.21068815886974335
0.054170504212379456 0.4093867242336273 0.11903539299964905
0.09885182976722717 0.1611463725566864 0.22898606956005096
-0.050483908504247665 0.10485571622848511 -0.17907041311264038
0.023085054010152817 -0.42046627402305603 -0.18742458522319794
0.012062828987836838 0.4100818634033203 0.16954973340034485
-0.01248670369386673 0.4782452881336212 0.08417486399412155
-0.06376990675926208 0.44423583149909973 -0.1644251048564911
0.20217344164848328 -0.3536688983440399 -0.1519925594329834
0.2125822901725769 -0.2988814413547516 0.05492234230041504
0.15639342367649078 0.02954857051372528 0.14077860116958618
0.09925021231174469 -0.40225324034690857 0.0434393547475338
0.021748710423707962 -0.4155314862728119 0.024100981652736664
-0.05948849767446518 0.363788366317749 -0.1687372475862503
-0.10172279924154282 0.15023191273212433 0.17856471240520477
0.182224303483963 -0.06898913532495499 0.048882681876420975
-0.07965562492609024 -0.38874784111976624 -0.20450639724731445
0.048749372363090515 -0.39543431997299194 0.24848972260951996
-0.09851349145174026 0.39300206303596497 0.08972939103841782
-0.11106424033641815 0.07585740089416504 -0.17954081296920776
-0.19854380190372467 -0.38657620549201965 0.08057324588298798
-0.1746903657913208 -0.41308245062828064 0.0975940003991127
-0.20107337832450867 0.04574332758784294 -0.07410738617181778
-0.05029167979955673 -0.2075251042842865 0.2617068588733673
-0.20617647469043732 0.004401596263051033 -0.10798251628875732
-0.03510311245918274 0.4393230676651001 -0.16737259924411774
0.12169961631298065 -0.3472418785095215 -0.19038718938827515
0.08763168752193451 -0.42022931575775146 -0.14686360955238342
-0.07616959512233734 -0.41866999864578247 -0.19637899100780487
0.21865737438201904 -0.23797130584716797 0.05263630300760269
0.06205511465668678 0.5208603739738464 0.07886381447315216
0.011907298117876053 -0.4102896749973297 -0.07546920329332352
0.06570672988891602 0.08101356774568558 0.1846151053905487
-0.09785981476306915 0.12208392471075058 -0.17857986688613892
0.20092245936393738 -0.33417385816574097 0.010812774300575256
0.18620304763317108 0.042989835143089294 0.05143015831708908
-0.12868233025074005 0.3378574550151825 -0.021371200680732727
0.01751655898988247 0.10463310778141022 0.19721464812755585
-0.15181073546409607 -0.41779884696006775 -7.527554407715797e-05
0.0031034499406814575 0.4757499694824219 0.08359837532043457
-0.11245040595531464 0.08156018704175949 0.14882177114486694
0.1234695240855217 -0.20017987489700317 0.23771536350250244
-0.01772354543209076 0.03281712532043457 -0.1800140142440796
0.05017285421490669 -0.1634974330663681 0.25927504897117615
-0.04101227596402168 -0.18268023431301117 -0.16854329407215118
0.13603535294532776 0.299507200717926 0.07555700838565826
0.18456697463989258 -0.00629488006234169 0.01797366887331009
-0.20649494230747223 0.0005875527858734131 -0.07269980013370514
-0.011731013655662537 0.4288901090621948 -0.16707246005535126
-0.01836974173784256 0.5613425374031067 -0.14271365106105804
0.2007528394460678 0.0537453219294548 -0.061023056507110596
0.08647287636995316 -0.42897409200668335 -0.14945381879806519
0.1336880922317505 -0.1374252587556839 0.21345999836921692
-0.11498299241065979 0.054687242954969406 0.15807794034481049
0.2137882560491562 -0.34833961725234985 -0.123528853058815
0.2206312119960785 -0.26623085141181946 -0.07088150084018707
-0.18360811471939087 -0.004532076418399811 0.007755019702017307
-0.09508930891752243 -0.41801223158836365 -0.10335104167461395
-0.0628579705953598 0.0744582861661911 -0.181809663772583
0.1479482352733612 -0.06468439102172852 -0.16645550727844238
0.0416390486061573 0.22939914464950562 0.2540198862552643
0.1339218020439148 0.2962355613708496 0.13189354538917542
-0.07567554712295532 0.5652928352355957 0.0015704073011875153
-0.10698089003562927 -0.41733065247535706 -0.11003459990024567
0.1964811086654663 -0.2741268575191498 -0.11117952316999435
0.2016361504793167 0.02343653328716755 -0.10404372215270996
0.16209867596626282 -0.41402459144592285 0.047886282205581665
-0.06724538654088974 -0.15886618196964264 -0.17109595239162445
0.12620973587036133 0.18377143144607544 -0.03950973600149155
0.2029876410961151 -0.0024212580174207687 -0.05883786082267761
-0.20343348383903503 -0.3939395844936371 0.036645568907260895
0.07357887923717499 -0.017983082681894302 0.20768827199935913
-0.12742367386817932 0.35663673281669617 -0.039582230150699615
0.026595463976264 0.5672214031219482 -0.08201530575752258
0.20803077518939972 -0.077025406062603 -0.04151051491498947
-0.1955990344285965 0.13735376298427582 -0.13649576902389526
0.13300283253192902 0.2649606168270111 0.1404987871646881
-0.19570302963256836 -0.4001106321811676 0.07570500671863556
-0.09079702943563461 0.45426785945892334 -0.1639435738325119
0.08015495538711548 -0.4119824469089508 -0.0017820943612605333
0.12225504219532013 -0.19366568326950073 0.23453907668590546
-0.15513402223587036 -0.1759321242570877 0.17728912830352783
0.1329905092716217 0.48130449652671814 -0.10217322409152985
0.06733342260122299 0.5689502358436584 -0.011212717741727829
0.1838739812374115 -0.23346009850502014 -0.12393657118082047
-0.0851714089512825 -0.10823321342468262 -0.17494051158428192
0.1620050072669983 -0.32166627049446106 -0.16719892621040344
-0.09328719228506088 -0.4151575565338135 -0.04965018481016159
-0.1291777640581131 -0.30589818954467773 0.22149258852005005
-0.1674041748046875 -0.039592452347278595 0.10834888368844986
-0.03349306061863899 0.03482593968510628 0.20009644329547882
-0.17993421852588654 0.13652221858501434 -0.07767218351364136
-0.12402816861867905 0.13722366094589233 0.0037843361496925354
-0.09080065786838531 0.0543738454580307 0.17561571300029755
0.06809082627296448 0.5627871751785278 0.021759547293186188
0.13390347361564636 0.2729417085647583 0.03478292003273964
-0.14227856695652008 -0.4160493314266205 0.11810669302940369
-0.15847648680210114 0.10606566071510315 0.04699873924255371
-0.0754900872707367 -0.01210329495370388 0.2031775563955307
0.14400647580623627 -0.41754475235939026 -0.043756693601608276
-0.12719382345676422 0.4081738591194153 -0.02482796460390091
0.18680918216705322 -0.040685027837753296 0.055963702499866486
0.13012710213661194 0.21817640960216522 0.07333666831254959
-0.18416215479373932 -0.21233540773391724 -0.15097638964653015
0.022949479520320892 -0.41470643877983093 0.01986333355307579
-0.1214045062661171 0.5136802792549133 -0.1096133142709732
0.20829859375953674 -0.3327730596065521 -0.11820345371961594
-0.12231609970331192 0.330957293510437 -0.16342252492904663
-0.01572387106716633 0.46366408467292786 0.08606594800949097
0.15793274343013763 0.131849005818367 -0.025013618171215057
0.2098858654499054 -0.24922829866409302 -0.08946961909532547
0.1804218888282776 -0.36040735244750977 -0.17492495477199554
-0.22488254308700562 -0.3114655911922455 -0.03480354696512222
-0.04527724161744118 0.24863570928573608 0.22970376908779144
0.044436704367399216 -0.36037272214889526 0.25718677043914795
0.12087192386388779 -0.4089915156364441 0.04276520386338234
-0.035740725696086884 -0.41321006417274475 0.013225000351667404
-0.21593791246414185 -0.36720624566078186 -0.09351663291454315
-0.016796022653579712 0.37019994854927063 0.24128057062625885
0.07509170472621918 0.04519355297088623 0.1885361224412918
-0.03946792334318161 0.13239151239395142 -0.1785157471895218
0.14647968113422394 -0.2823145389556885 -0.15856164693832397
0.11825160682201385 -0.4089340567588806 -0.0330427847802639
-0.16258537769317627 -0.2057049572467804 0.17459435760974884
0.21552897989749908 -0.2650946378707886 -0.08395794034004211
-0.22456996142864227 -0.2091429978609085 -0.08558336645364761
0.13977642357349396 0.3312453329563141 -0.0034147799015045166
-0.1396474689245224 -0.1662682443857193 0.1942576915025711
0.1605273336172104 -0.033170200884342194 0.15534189343452454
0.21109244227409363 -0.3271390497684479 -0.10622213780879974
0.22264106571674347 -0.2663131356239319 0.001589692197740078
0.19849149882793427 0.10714881122112274 -0.1218462884426117
-0.04490243270993233 -0.0036833249032497406 0.209224134683609
-0.20169028639793396 0.03953877091407776 -0.07142394036054611
0.18284793198108673 0.08279037475585938 -0.01643200032413006
-0.0685834065079689 -0.07623011618852615 0.2216598391532898
0.2034471482038498 -0.021785536780953407 -0.07479878515005112
-0.08604578673839569 0.5324509739875793 -0.15968070924282074
0.10666357725858688 -0.4204438626766205 -0.1218685582280159
-0.03362884372472763 0.1671232283115387 -0.17702248692512512
0.1327981799840927 0.4609844982624054 0.01247304305434227
0.14576692879199982 -0.1622801572084427 0.21300014853477478
-0.10179178416728973 -0.40892618894577026 0.02026071771979332
0.09638713300228119 -0.09321780502796173 0.22131727635860443
-0.20515628159046173 0.008978603407740593 -0.0713236927986145
-0.1284351497888565 -0.4118216037750244 -0.201210618019104
-0.08157500624656677 0.03862065076828003 -0.18153440952301025
-0.025473998859524727 0.5631871223449707 -0.02683403715491295
-0.20300863683223724 -0.27296122908592224 -0.12661558389663696
-0.22161313891410828 -0.2764592170715332 0.023978933691978455
-0.05833577364683151 0.4126661419868469 -0.16721408069133759
-0.032753415405750275 -0.3982982337474823 0.23548823595046997
