-0.015765013173222542 0.37731093168258667 0.22734665870666504
0.1313118189573288 0.26829323172569275 -0.07319064438343048
-0.15367373824119568 -0.19845426082611084 0.18316443264484406
0.12723898887634277 -0.38094887137413025 0.19166933000087738
0.02418433129787445 0.4337155818939209 -0.1676110178232193
0.06466341018676758 0.5089123845100403 -0.16584143042564392
-0.15269340574741364 0.15685337781906128 -0.1276065558195114
0.049796465784311295 -0.41443169116973877 0.23427270352840424
0.21052393317222595 -0.2552091181278229 0.08603953570127487
0.06060998514294624 0.02180224098265171 0.20080241560935974
0.06846528500318527 0.08782948553562164 0.1870872527360916
0.032903626561164856 -0.4164123237133026 -0.1925365924835205
0.09787023812532425 -0.40297189354896545 0.01684001460671425
0.12970826029777527 -0.4062853455543518 0.02214895188808441
-0.07993732392787933 0.5646538138389587 -0.10505436360836029
0.08129186928272247 0.1402176320552826 0.22247648239135742
0.15773707628250122 -0.41325560212135315 -0.18768693506717682
-0.13821226358413696 -0.15194715559482574 -0.16621683537960052
-0.06701922416687012 0.5246115922927856 -0.1634046882390976
-0.056858789175748825 -0.1607791781425476 -0.17047502100467682
0.09543737769126892 -0.4073460102081299 0.0008518195245414972
-0.020735131576657295 0.2747202217578888 -0.17329920828342438
0.1493867188692093 0.31886202096939087 -0.14709417521953583
-0.07666139304637909 -0.4174194633960724 -0.19444318115711212
-0.12481512874364853 0.2287166863679886 -0.01369236409664154
-0.123787060379982 0.21400509774684906 0.07377678155899048
0.12860845029354095 0.19244171679019928 0.022788118571043015
-0.19672797620296478 -0.13701677322387695 -0.012939516454935074
0.0903073325753212 -0.40896493196487427 0.03780491650104523
-0.0651940405368805 0.4430091083049774 -0.16378149390220642
0.2074427753686905 -0.40240514278411865 -0.12554962933063507
0.17545264959335327 0.12232430279254913 -0.008663982152938843
-0.22173918783664703 -0.22502592206001282 -0.10955581814050674
-0.16694918274879456 0.11645869165658951 0.016517873853445053
-0.1258729249238968 0.48399317264556885 -0.0763152539730072
0.08222506940364838 0.4227626919746399 0.07068280130624771
0.14762520790100098 -0.4152989089488983 -0.17723000049591064
0.12686790525913239 0.16775676608085632 0.02382437139749527
0.09486491978168488 -0.4089459776878357 0.026368044316768646
-0.025052648037672043 -0.4155433773994446 -0.19958537817001343
0.18040893971920013 0.11344777047634125 -0.02758730761706829
-0.13849134743213654 -0.40286386013031006 0.16761302947998047
-0.21168139576911926 -0.08004342764616013 -0.08880004286766052
0.19966809451580048 0.09603242576122284 -0.1405007392168045
0.20439380407333374 -0.029275821521878242 -0.08221609890460968
-0.14596693217754364 0.3669915795326233 -0.09151657670736313
0.1875627338886261 0.07422792166471481 0.04971487075090408
0.13565312325954437 0.3243076205253601 0.016693290323019028
-0.11252421885728836 -0.09531345218420029 -0.17227013409137726
0.12771481275558472 0.18770301342010498 -0.02752542868256569
-0.06362324208021164 0.5620284676551819 -0.001634310930967331
-0.05596748739480972 0.23583298921585083 0.23697611689567566
0.18444740772247314 0.025011686608195305 0.0723249539732933
0.1703091710805893 0.025273844599723816 0.11922550201416016
-0.12093080580234528 0.1978875994682312 -0.016378257423639297
-0.03359110653400421 -0.39628809690475464 0.23687154054641724
0.11751542240381241 -0.4132749140262604 0.1501510739326477
0.07535068690776825 -0.28084129095077515 -0.18132126331329346
-0.21355105936527252 -0.08212366700172424 -0.11732430011034012
-0.2307201474905014 -0.28126221895217896 -0.01832829788327217
0.20395764708518982 -0.22499080002307892 0.10649166256189346
0.030930258333683014 0.30109208822250366 0.23393702507019043
-0.09047631919384003 -0.3578799068927765 0.2231229543685913
-0.01966514065861702 0.05019654333591461 -0.1804865300655365
0.1583927720785141 -0.2187260091304779 -0.14028236269950867
0.0381508506834507 -0.17082573473453522 0.25967732071876526
0.16768373548984528 -0.3520345091819763 -0.17964285612106323
-0.18362993001937866 -0.26786714792251587 0.14192377030849457
-0.00022259727120399475 0.5643777251243591 0.02961644157767296
-0.06845006346702576 -0.41304636001586914 0.09095077216625214
0.11232171952724457 -0.1495724320411682 0.2331157624721527
-0.07798861712217331 0.14940603077411652 0.21696193516254425
0.0755084902048111 -0.41317278146743774 0.16027279198169708
-0.13038292527198792 -0.41790705919265747 -0.014589153230190277
0.17677411437034607 -0.17713965475559235 0.1413937360048294
0.10709286481142044 -0.19739094376564026 0.2467261105775833
0.20787012577056885 -0.33547544479370117 -0.13065406680107117
-0.01760990172624588 -0.258752703666687 -0.1815204620361328
-0.04052700102329254 -0.4139110743999481 -0.15620273351669312
0.18415530025959015 0.10690756142139435 -0.03510277718305588
0.029720477759838104 0.40779682993888855 0.16123828291893005
0.10503606498241425 0.2369205355644226 -0.160254567861557
-0.21171316504478455 -0.19866783916950226 -0.1344146579504013
0.09677640348672867 -0.412034273147583 0.04195566475391388
0.1149115040898323 -0.40802305936813354 0.07746788114309311
0.20711417496204376 -0.3526310324668884 -0.02708524651825428
0.1138916090130806 0.17135797441005707 0.21742166578769684
-0.12460003048181534 0.24621476233005524 0.09840454161167145
0.11310486495494843 0.47472697496414185 -0.1626911610364914
0.11676665395498276 -0.4158514142036438 -0.11695288121700287
0.2179587483406067 -0.3730466663837433 -0.12035514414310455
-0.06296532601118088 0.1541108936071396 -0.1778237223625183
-0.04038427770137787 0.43310412764549255 -0.16550463438034058
0.1863308846950531 -0.12200701981782913 0.09100418537855148
0.14195838570594788 0.28411680459976196 -0.0788021832704544
0.10594454407691956 -0.40764182806015015 -0.011677141301333904
-0.12680388987064362 0.1632227897644043 -0.1014523059129715
-0.07832694798707962 0.49349111318588257 0.07878373563289642
0.21941189467906952 -0.29049989581108093 0.03796672821044922
0.05131486430764198 -0.18368826806545258 -0.1615598499774933
-0.12038200348615646 -0.4142894446849823 0.10102486610412598
-0.16988538205623627 -0.04275597631931305 0.10581018775701523
0.1445591300725937 -0.10874482989311218 0.19559481739997864
-0.16647356748580933 0.03523587808012962 0.09367106109857559
0.20414352416992188 -0.023626990616321564 -0.08964212238788605
0.12951646745204926 0.3185003101825714 0.14555203914642334
0.014542721211910248 -0.38092586398124695 0.2560056746006012
0.22039350867271423 -0.21754752099514008 -0.04768335074186325
0.1857643723487854 -0.04508338123559952 -0.15563245117664337
0.21842364966869354 -0.2337806224822998 0.0617329403758049
-0.01229674369096756 -0.1666749119758606 0.2516994774341583
-0.02771046757698059 0.10181035846471786 0.18800126016139984
-0.03399786725640297 0.20872798562049866 0.25708305835723877
0.09558697044849396 -0.4029240012168884 0.017940696328878403
0.11851689964532852 0.12375997751951218 0.12614408135414124
-0.10004088282585144 0.39947012066841125 0.06997711956501007
0.12052268534898758 0.5365951061248779 0.004192125052213669
-0.135331392288208 -0.3271290361881256 0.20540651679039001
0.1334524154663086 0.2836798131465912 -0.038954101502895355
0.08891303837299347 -0.23918984830379486 -0.16432571411132812
0.2145053744316101 -0.1542818546295166 -0.05721035227179527
0.07452607154846191 0.18075492978096008 0.25307053327560425
-0.05503449589014053 0.40551018714904785 -0.16680976748466492
-0.17228390276432037 -0.03466768562793732 0.09886223822832108
0.09676527976989746 -0.4177364110946655 -0.15745867788791656
-0.007409213110804558 0.5575150847434998 0.07319051027297974
0.04871255159378052 -0.17447474598884583 0.25846752524375916
0.04159773886203766 0.2683712840080261 0.23231187462806702
-0.12840163707733154 0.36638009548187256 0.02917187474668026
-0.0927647277712822 0.5548518896102905 0.010057948529720306
0.10395040363073349 0.5667251944541931 -0.10260464251041412
0.22085437178611755 -0.26531413197517395 0.031772274523973465
0.08874717354774475 -0.41711074113845825 -0.13654427230358124
0.07245128601789474 0.18306975066661835 0.25314807891845703
0.18617743253707886 -0.06371787190437317 0.0739443451166153
-0.13604573905467987 0.4355316758155823 -0.08993780612945557
-0.07292058318853378 -0.4137924313545227 -0.051037803292274475
-0.09959612041711807 0.33069685101509094 0.15318548679351807
0.18976815044879913 0.13557827472686768 -0.06881244480609894
-0.21210522949695587 -0.37955790758132935 -0.03370051085948944
0.14524152874946594 -0.19063276052474976 -0.15073437988758087
-0.22483962774276733 -0.2718299329280853 -0.07899658381938934
-0.1282048225402832 0.2848324775695801 0.036190323531627655
0.1785471886396408 -0.379671186208725 0.091538205742836
-0.22559918463230133 -0.2404627799987793 -0.0661303773522377
0.019273241981863976 0.18175597488880157 0.26511847972869873
-0.12676145136356354 0.3037140369415283 -0.012487523257732391
0.0785863995552063 -0.21906839311122894 -0.15912598371505737
0.15670859813690186 -0.41045767068862915 -0.031151343137025833
-0.16411848366260529 0.12214815616607666 -0.010592274367809296
0.12069821357727051 -0.41279342770576477 0.11763109266757965
0.20025433599948883 -0.2014189213514328 0.11341460049152374
0.1868511140346527 -0.1703924834728241 0.11588625609874725
-0.1612936109304428 -0.26471108198165894 -0.15149787068367004
-0.03291768208146095 0.06294301152229309 -0.18060554563999176
0.01050502061843872 -0.32946550846099854 0.25918474793434143
0.13328564167022705 0.3195670545101166 -0.15935997664928436
-0.15836000442504883 0.07380148768424988 0.08887694776058197
0.10228081047534943 -0.41069507598876953 -0.09510800242424011
0.21254277229309082 -0.3769484758377075 -0.13221147656440735
0.09397710114717484 -0.4112604260444641 0.03286026790738106
-0.1748655140399933 -0.112097829580307 0.12524154782295227
0.032289646565914154 -0.4061776101589203 0.24408984184265137
0.13425752520561218 0.29010599851608276 0.012923568487167358
-0.18365247547626495 0.00394492968916893 -0.17504197359085083
-0.13264420628547668 -0.05967569723725319 -0.17567676305770874
0.2137068212032318 -0.2303541600704193 0.06923333555459976
-0.18866413831710815 -0.03484707698225975 -0.17029379308223724
-0.07767308503389359 -0.4133164584636688 -0.20404209196567535
-0.17711284756660461 -0.24100755155086517 -0.14178529381752014
-0.11825045198202133 0.5267874002456665 0.012003614567220211
-0.1844596564769745 -0.07282637059688568 0.042332299053668976
-0.18046602606773376 -0.1955714225769043 0.13800190389156342
-0.018182557076215744 -0.20247335731983185 -0.1656479835510254
-0.20353363454341888 -0.29278257489204407 0.09291799366474152
-0.19555161893367767 -0.11620732396841049 -0.16322505474090576
-0.20705382525920868 0.03031422384083271 -0.13215793669223785
-0.22304126620292664 -0.21903175115585327 -0.009258024394512177
-0.0442202165722847 -0.18074931204319 0.25951001048088074
0.1254601925611496 0.5227513313293457 0.0019284114241600037
-0.12310938537120819 -0.32079559564590454 -0.18789181113243103
0.13651737570762634 -0.1169503703713417 0.20537836849689484
0.1370246559381485 0.31205853819847107 0.05293335020542145
-0.046068571507930756 0.12997731566429138 0.22004568576812744
-0.15227395296096802 -0.3627385199069977 -0.19063229858875275
0.15550537407398224 0.2866007387638092 -0.08444691449403763
0.17194058001041412 -0.33408641815185547 -0.17015524208545685
-0.12743927538394928 0.386006236076355 0.034022871404886246
0.01677108183503151 -0.4123387336730957 -0.024679427966475487
-0.05240728706121445 0.41654717922210693 -0.16535095870494843
-0.1268732249736786 0.41666072607040405 -0.1543205976486206
-0.19244827330112457 -0.13931944966316223 0.001886763609945774
0.047448914498090744 -0.41452911496162415 0.23246073722839355
-0.1339295208454132 0.47641515731811523 -0.06004362553358078
-0.1806667447090149 -0.06460019946098328 0.08235517144203186
0.1287577748298645 0.14912723004817963 0.008917544037103653
0.19523084163665771 -0.32909008860588074 0.07822874933481216
-0.09636761248111725 0.1267022341489792 0.1545618772506714
0.2235826551914215 -0.23793672025203705 -0.012424567714333534
-0.09990066289901733 -0.40688806772232056 0.07155553251504898
-0.12476767599582672 0.21471849083900452 0.030970796942710876
0.03267580270767212 0.375346302986145 0.2330903708934784
0.14733999967575073 -0.36655014753341675 0.16031241416931152
0.1318308264017105 -0.41238081455230713 0.04843868315219879
0.01176765188574791 0.47567445039749146 -0.16588784754276276
0.22187255322933197 -0.25535285472869873 -0.03546132147312164
-0.12377984821796417 0.5014775991439819 -0.020973924547433853
0.09452496469020844 -0.06629494577646255 0.21702633798122406
0.13130046427249908 0.21377494931221008 0.11030856519937515
0.027007248252630234 -0.3277794122695923 0.26179686188697815
0.1259339302778244 0.5281780958175659 -0.012256946414709091
0.17778055369853973 -0.14521627128124237 0.13586345314979553
-0.057315509766340256 -0.1717958152294159 -0.16951017081737518
-0.10632241517305374 0.17845311760902405 0.2042916715145111
-0.22532761096954346 -0.2578635513782501 -0.08465292304754257
0.10782663524150848 -0.4082036316394806 -0.048362135887145996
0.12842553853988647 0.18716581165790558 0.07150352001190186
0.11597070842981339 -0.4182042181491852 -0.13677667081356049
0.015044462867081165 -0.19304324686527252 -0.16392113268375397
0.15783147513866425 0.32367804646492004 -0.09082343429327011
0.09623648226261139 -0.41661590337753296 -0.12375494837760925
-0.007822658866643906 0.4175944924354553 -0.16646970808506012
-0.08998441696166992 -0.41224169731140137 0.15668520331382751
0.12630708515644073 0.21699410676956177 0.20770110189914703
0.21514809131622314 -0.35933661460876465 -0.12478678673505783
0.011337000876665115 -0.31713032722473145 0.25868743658065796
-0.09028002619743347 0.06387553364038467 -0.17987756431102753
0.18612468242645264 0.07019084692001343 0.06220240145921707
-0.10150326043367386 0.5313118100166321 -0.15855242311954498
-0.12630721926689148 0.03238200768828392 0.15695595741271973
0.09641186892986298 0.06044154241681099 0.17907828092575073
0.22033865749835968 -0.20317794382572174 -0.04387792944908142
0.13171829283237457 0.2401120513677597 0.01210368424654007
0.2203460931777954 -0.25041642785072327 0.04870779067277908
0.21030931174755096 -0.3137480914592743 0.03690828010439873
-0.08099140226840973 0.41108307242393494 -0.16573557257652283
0.12348291277885437 -0.4101758599281311 0.09166687726974487
0.2091868817806244 -0.24854490160942078 0.09102103114128113
0.08528370410203934 0.5324188470840454 -0.15594837069511414
0.04601734131574631 0.07554695010185242 -0.17529550194740295
-0.049666523933410645 -0.15892206132411957 -0.17180319130420685
0.12324663996696472 -0.1991129219532013 0.23635636270046234
-0.15563823282718658 -0.2922624349594116 -0.16378387808799744
-0.22102518379688263 -0.2654746174812317 -0.09503167867660522
-0.11329761892557144 0.24411877989768982 0.1868598461151123
0.09411998093128204 -0.13068528473377228 0.23396669328212738
-0.11297562718391418 0.5462985634803772 -0.08164703845977783
0.14280135929584503 -0.3490235209465027 -0.1855815201997757
-0.023526392877101898 0.4373258948326111 -0.1668948233127594
0.1068287193775177 -0.4090818464756012 -0.013601815328001976
-0.08108953386545181 0.5418304800987244 -0.15832827985286713
0.153066948056221 -0.22098734974861145 -0.14196130633354187
0.10019201040267944 -0.4136334955692291 -0.11615316569805145
0.10247734189033508 0.24828483164310455 -0.16061677038669586
-0.11781710386276245 -0.1860940158367157 0.22182072699069977
0.08125025033950806 -0.3743320405483246 -0.20188868045806885
0.06976503133773804 0.1884741634130478 0.2565964460372925
0.13901396095752716 -0.1644611656665802 -0.1576029658317566
-0.06267401576042175 -0.0789937898516655 -0.1780460774898529
0.054168976843357086 -0.4143194258213043 0.20873107016086578
0.0907660573720932 -0.24649758636951447 -0.16517794132232666
-0.1230015680193901 0.22283270955085754 0.1118670105934143
0.10471117496490479 0.03496454283595085 0.17877526581287384
-0.0027418993413448334 0.39069077372550964 -0.16742068529129028
0.22141093015670776 -0.2607734501361847 -0.04847092181444168
0.18629857897758484 -0.40573596954345703 0.028342124074697495
0.148921400308609 -0.41275641322135925 -0.06408020853996277
0.136588454246521 -0.3456486761569977 -0.18700090050697327
-0.17028838396072388 -0.11321540176868439 -0.17030762135982513
-0.0567278191447258 0.08089154958724976 0.18338119983673096
-0.07964169979095459 0.5614026784896851 -0.1464412957429886
0.03205868601799011 0.5582734942436218 0.053365856409072876
0.07541945576667786 -0.220637708902359 0.25388696789741516
0.18640099465847015 -0.3527749478816986 0.06801657378673553
0.07290209829807281 -0.132591113448143 -0.16963671147823334
0.07483622431755066 -0.41479817032814026 -0.030329179018735886
0.1204749047756195 -0.21061065793037415 0.2308489829301834
0.1884898543357849 0.04997285082936287 -0.1601456254720688
-0.14548510313034058 -0.4162916839122772 -0.042254578322172165
0.21004530787467957 -0.32971981167793274 -0.11344502866268158
0.11569011211395264 -0.40311315655708313 0.0006024986505508423
-0.22070620954036713 -0.2556435465812683 0.02357933670282364
-0.09965874254703522 -0.2914545238018036 -0.1832256019115448
-0.18635337054729462 0.014630943536758423 -0.17571872472763062
-0.10922089219093323 0.4397975504398346 -0.1593024879693985
-0.12893973290920258 0.42301255464553833 -0.057066310197114944
-0.07131782919168472 -0.4154919683933258 -0.1851622462272644
0.2131606638431549 -0.22214950621128082 -0.09581436216831207
0.0038385093212127686 0.4230639338493347 -0.16730207204818726
0.03398388624191284 -0.17448705434799194 -0.16609914600849152
-0.08514256775379181 0.43956896662712097 -0.16367493569850922
0.2086566686630249 -0.2625274062156677 0.09565266966819763
-0.13844075798988342 -0.3659074604511261 0.1835784614086151
0.15404938161373138 0.4171667993068695 -0.12427051365375519
0.04068758711218834 0.39647161960601807 0.158351868391037
0.21051955223083496 -0.346209317445755 -0.0414695218205452
0.11659923940896988 -0.19760321080684662 0.23272976279258728
-0.02904004417359829 -0.19656620919704437 0.2565886378288269
0.11167599260807037 0.5538362860679626 -0.042828820645809174
0.0485464483499527 -0.38598284125328064 0.25141364336013794
-0.17507673799991608 -0.01663191057741642 0.08996427059173584
-0.15683746337890625 -0.18757878243923187 0.1850324124097824
-0.12671561539173126 0.40003472566604614 0.004372317343950272
-0.2069188356399536 -0.025111349299550056 -0.14955000579357147
0.14441366493701935 0.3548884689807892 -0.07180560380220413
0.06457095593214035 0.10265658050775528 0.1835700124502182
0.11768852174282074 0.04380707070231438 0.16759437322616577
0.15124882757663727 0.4555562734603882 -0.1310950368642807
0.21660900115966797 -0.18731507658958435 -0.06756619364023209
0.0954316034913063 0.5632215738296509 -0.0017539337277412415
0.13371965289115906 0.35138824582099915 0.10200139135122299
-0.1502864807844162 0.361910879611969 -0.12634065747261047
0.043218232691287994 -0.4162505865097046 -0.19333265721797943
0.08988270163536072 0.46645835041999817 0.061182837933301926
0.13742616772651672 -0.40262970328330994 0.1654396802186966
-0.07151349633932114 0.5321341156959534 -0.16155874729156494
0.13948971033096313 -0.21507972478866577 0.22414347529411316
-0.0233345665037632 0.2528526782989502 -0.17316605150699615
0.01355331763625145 -0.4111522138118744 0.006248502992093563
-0.013196563348174095 0.3871523141860962 0.21383439004421234
0.022314967587590218 0.2792586088180542 0.2282959222793579
0.1179368793964386 -0.41996413469314575 -0.12082923948764801
-0.125656396150589 0.24078556895256042 0.056732453405857086
0.052832238376140594 0.5197862982749939 0.08603356778621674
-0.0872606486082077 0.542020320892334 -0.15686465799808502
0.21347928047180176 -0.2916506826877594 0.06803802400827408
-0.032584093511104584 0.3721243143081665 0.20082783699035645
0.19761301577091217 0.012548832222819328 -0.14755547046661377
-0.21403564512729645 -0.09940739721059799 -0.07121829688549042
0.0989467203617096 -0.4115823805332184 -0.11177065968513489
0.100087471306324 -0.40863358974456787 0.010895820334553719
-0.024531833827495575 0.5668568015098572 -0.10589016228914261
-0.042462173849344254 -0.4154112637042999 -0.13740816712379456
0.1966676563024521 -0.11316275596618652 -0.14036758244037628
-0.22597606480121613 -0.2121792435646057 -0.056183043867349625
-0.22090129554271698 -0.2573009133338928 0.021145403385162354
0.089851014316082 -0.13804998993873596 -0.16748027503490448
0.010614238679409027 -0.4144338071346283 0.20828625559806824
-0.12824927270412445 0.2922748327255249 0.038201358169317245
-0.10271931439638138 0.13922947645187378 0.14018386602401733
0.20335054397583008 -0.296912282705307 -0.10326489806175232
0.09343479573726654 -0.40955230593681335 0.03329788148403168
0.12623263895511627 0.19074365496635437 -0.04138335585594177
-0.1269378960132599 0.28573787212371826 0.09533446282148361
-0.13014516234397888 0.3279762268066406 -0.03286539018154144
-0.10230172425508499 -0.4100908637046814 -0.07991664856672287
0.1015632152557373 -0.4039241671562195 0.01500141341239214
-0.12944552302360535 -0.014874294400215149 0.16856646537780762
-0.044572338461875916 0.03756452351808548 -0.18182943761348724
-0.07904300838708878 0.157424658536911 0.22407689690589905
0.20196951925754547 -0.3441457748413086 -0.14170211553573608
0.04368182271718979 0.044346436858177185 0.19758108258247375
0.1159561425447464 0.5438835620880127 -0.12398482114076614
0.08898639678955078 -0.41592180728912354 -0.1355047971010208
0.2097642868757248 -0.19021445512771606 0.03308992460370064
-0.22754837572574615 -0.2749200463294983 -0.05511012300848961
-0.14544561505317688 -0.4169495701789856 -0.10288545489311218
-0.11283240467309952 -0.12018058449029922 0.2071351408958435
0.20101284980773926 0.09783722460269928 -0.11633387953042984
-0.1877133548259735 -0.41937455534935 0.026975523680448532
0.020891696214675903 -0.3842797875404358 -0.2049061357975006
-0.21788635849952698 -0.15117265284061432 -0.11168339848518372
-0.02438650280237198 0.11125415563583374 0.19974730908870697
0.21561314165592194 -0.15551549196243286 -0.09512446820735931
-0.03332068771123886 -0.4100966453552246 0.22099587321281433
0.18899808824062347 -0.19222082197666168 0.1333330273628235
0.1359448879957199 -0.41688135266304016 -0.1655944585800171
-0.12274561822414398 -0.4156246781349182 -0.19962765276432037
-0.19327735900878906 0.05835641175508499 -0.039380837231874466
-0.05977008119225502 -0.19736972451210022 0.25550946593284607
-0.19602704048156738 -0.4087204337120056 0.06045360118150711
0.1469898521900177 -0.35552236437797546 -0.18669210374355316
0.1318380981683731 0.2347225546836853 -0.012132655829191208
0.12780682742595673 0.19540898501873016 0.15913119912147522
0.07944592088460922 -0.18202032148838043 0.2538449168205261
0.137022465467453 0.38578128814697266 0.011383458971977234
-0.17708419263362885 -0.06667710095643997 0.09245569258928299
0.12982997298240662 0.49283409118652344 -0.011645369231700897
-0.15787549316883087 0.030188990756869316 0.1154576912522316
0.18528932332992554 -0.4051198661327362 0.044871795922517776
0.13473640382289886 -0.4178641438484192 -0.15045930445194244
0.08154106140136719 -0.411204993724823 0.0290264543145895
0.06282395869493484 -0.02586345002055168 0.2144319713115692
-0.1478169858455658 0.2870527505874634 -0.12119577080011368
-0.12292131781578064 -0.3352337181568146 -0.19246862828731537
0.009314712136983871 -0.4032045900821686 -0.20519068837165833
0.022754058241844177 0.5061903595924377 0.10257479548454285
0.2023969441652298 0.012152334675192833 -0.0505768358707428
-0.1296752393245697 -0.054945290088653564 0.176148921251297
-0.048592615872621536 -0.29265883564949036 -0.19002211093902588
-0.12045956403017044 0.11695826053619385 0.08804020285606384
-0.08667059242725372 -0.04581785947084427 0.2066059559583664
-0.025248300284147263 -0.4145963788032532 -0.17179757356643677
0.08367770165205002 -0.4060550034046173 0.042001619935035706
-0.11715855449438095 -0.08145664632320404 -0.1742859184741974
0.08321816474199295 0.5463786125183105 -0.15522503852844238
0.10739800333976746 -0.41106584668159485 0.02747107669711113
0.10600387305021286 -0.40836548805236816 0.09697341173887253
0.18631941080093384 0.039351686835289 0.0227605439722538
0.21595491468906403 -0.3601584732532501 -0.11916165053844452
0.08644760400056839 -0.4109128713607788 -0.02883659489452839
-0.11858761310577393 -0.27261820435523987 -0.17010676860809326
-0.1685466468334198 0.06634971499443054 -0.17816290259361267
-0.18914130330085754 -0.1906801164150238 -0.1532517373561859
-0.06725993752479553 -0.20027019083499908 0.2534875273704529
0.011067688465118408 0.014413075521588326 0.20935435593128204
0.22184942662715912 -0.2389203906059265 -0.05224229395389557
0.20646385848522186 -0.24553094804286957 -0.10020114481449127
-0.12377415597438812 -0.37747982144355774 0.1931076943874359
0.11450107395648956 -0.3760262727737427 -0.1988428235054016
0.14900225400924683 -0.2452157735824585 -0.14192356169223785
-0.2113719880580902 -0.3939119577407837 -0.1250024139881134
0.2193363755941391 -0.20194344222545624 -0.055029772222042084
0.2171316146850586 -0.1686314344406128 -0.04981037229299545
0.17939315736293793 -0.2556559145450592 0.17233388125896454
0.18325038254261017 0.02280963957309723 0.013209098018705845
-0.120876744389534 0.48344677686691284 0.02331119403243065
0.1698995679616928 -0.12262137234210968 0.1670483648777008
0.10330934077501297 -0.41114023327827454 0.12428542971611023
-0.1131737157702446 0.5353894829750061 0.013437190093100071
0.21819435060024261 -0.2243853658437729 0.058230314403772354
0.13029438257217407 0.4352823495864868 0.044181495904922485
0.09292465448379517 -0.4099312722682953 0.04032829403877258
-0.20892299711704254 -0.07262489944696426 -0.15435123443603516
-0.1961398869752884 -0.18474358320236206 -0.15088699758052826
0.13615591824054718 0.36721235513687134 0.0335024893283844
-0.09444127976894379 0.09461939334869385 -0.17991667985916138
-0.014866777695715427 -0.18970482051372528 -0.16483649611473083
0.05141889676451683 -0.41304486989974976 0.22823616862297058
-0.09533532708883286 -0.4103873670101166 -0.0857330933213234
-0.12573136389255524 0.35804349184036255 -0.012173183262348175
-0.20482932031154633 0.017667535692453384 -0.08532989025115967
-0.1013631597161293 0.39741745591163635 0.06753816455602646
0.2071610391139984 -0.310472697019577 0.07449191063642502
0.21820370852947235 -0.27669867873191833 0.0552021786570549
0.22374309599399567 -0.26719391345977783 0.002418474294245243
0.20736955106258392 -0.21351906657218933 0.08944889158010483
0.21559402346611023 -0.3097008168697357 -0.06256244331598282
-0.0954405888915062 -0.18326176702976227 -0.16464747488498688
-0.08047103136777878 -0.10506729781627655 -0.17498767375946045
-0.1072649285197258 -0.4122034013271332 0.15255050361156464
0.06764094531536102 -0.1505817472934723 0.246976837515831
0.0788462832570076 -0.1477091908454895 0.2447965294122696
0.20963510870933533 -0.29624050855636597 0.07806972414255142
-0.052303433418273926 0.429993212223053 -0.16575941443443298
-0.12009070068597794 -0.41101697087287903 0.16761979460716248
0.12963762879371643 -0.037118472158908844 -0.170440673828125
-0.12720800936222076 0.37381330132484436 0.01950988546013832
0.1856258064508438 -0.4020877778530121 0.05176590755581856
-0.04928093031048775 -0.21493370831012726 -0.1651289016008377
0.2029523402452469 0.012169498950242996 -0.08656560629606247
-0.20266923308372498 0.09966715425252914 -0.14780575037002563
-0.18027471005916595 -0.003894072026014328 -0.1746368110179901
-0.0698549896478653 -0.10898613184690475 -0.17598357796669006
0.018575262278318405 -0.1697464883327484 -0.16805779933929443
-0.07932495325803757 -0.40661001205444336 0.04987025260925293
-0.04500751197338104 -0.016055893152952194 -0.18190690875053406
-0.20571894943714142 -0.28030258417129517 -0.11955512315034866
-0.05814118683338165 0.5558706521987915 0.0387142151594162
0.04521998390555382 -0.06802748143672943 0.2296954095363617
-0.11229316890239716 0.48193544149398804 0.04404791444540024
-0.05976303666830063 -0.16854169964790344 -0.17110511660575867
0.10531705617904663 -0.41150882840156555 0.016326231881976128
0.13614289462566376 -0.03174782544374466 0.18080055713653564
0.10190647840499878 -0.4108147621154785 -0.12726573646068573
-0.193013995885849 -0.08887624740600586 -0.16698074340820312
0.22101262211799622 -0.2919347882270813 -0.002799220383167267
0.0979476049542427 -0.40728968381881714 0.03813255578279495
0.21062657237052917 -0.2455638200044632 0.09132587909698486
0.18606168031692505 -0.04458141326904297 0.06087042763829231
0.12928429245948792 0.2149885594844818 0.1919928640127182
-0.1272124946117401 0.04465702921152115 -0.17939633131027222
-0.009472347795963287 0.08105652034282684 0.19182944297790527
0.12459778785705566 0.15112946927547455 -0.17123915255069733
0.12581607699394226 0.5127416253089905 -0.051945749670267105
0.08549772202968597 -0.019317755475640297 0.20529772341251373
-0.06045366823673248 -0.16846291720867157 -0.1712673306465149
0.11181247979402542 -0.4082838296890259 0.09470761567354202
-0.12377361208200455 0.4399407207965851 -0.04982948675751686
0.12272962927818298 -0.05973835662007332 0.20053596794605255
0.07214691489934921 -0.10973258316516876 -0.17262797057628632
-0.20582354068756104 0.0029798541218042374 -0.15332914888858795
-0.14881563186645508 0.428218811750412 -0.1311701387166977
-0.010645706206560135 0.5586547255516052 0.06826585531234741
0.04895938187837601 0.36573609709739685 0.2197842299938202
-0.1336372196674347 0.13105060160160065 -0.1766013503074646
-0.05656641349196434 0.17072784900665283 0.24955743551254272
-0.08703829348087311 0.08713479340076447 -0.18049615621566772
-0.01729014702141285 0.4518415629863739 -0.16705089807510376
-0.040447309613227844 0.36433035135269165 0.1966351866722107
-0.09585580974817276 -0.1266942024230957 0.22181086242198944
-0.18190503120422363 -0.07266824692487717 0.0799136534333229
0.20185768604278564 0.03167622536420822 -0.1131611317396164
-0.22240513563156128 -0.218857541680336 -0.004937183111906052
-0.2070980668067932 -0.019299568608403206 -0.06233520805835724
0.09908068925142288 -0.2714264392852783 0.2481694221496582
0.13339485228061676 0.1373414695262909 0.05239182338118553
0.18304914236068726 0.10439926385879517 0.03439224511384964
-0.1497715562582016 0.34612298011779785 -0.1363120675086975
-0.1275567263364792 0.3197407126426697 0.030832095071673393
-0.09948769956827164 0.5631484985351562 -0.07408859580755234
0.08758890628814697 0.09766799211502075 -0.1732696145772934
0.21153637766838074 -0.3360549807548523 -0.06974516808986664
0.030091192573308945 -0.4165987968444824 -0.19003155827522278
0.15423381328582764 -0.3428032398223877 -0.17947885394096375
0.205057755112648 -0.027307646349072456 -0.04356607422232628
-0.20621179044246674 -0.1878882348537445 0.0625186413526535
0.08393597602844238 -0.40920475125312805 -0.12700581550598145
-0.20024806261062622 -0.4172521233558655 0.017611660063266754
-0.03137706220149994 0.3714233934879303 0.19889818131923676
0.01908397674560547 -0.30747613310813904 0.2629947364330292
-0.11699841916561127 0.09285243600606918 -0.18008100986480713
0.2180936485528946 -0.37107351422309875 -0.10830745100975037
0.01742570474743843 0.11841074377298355 -0.17610929906368256
-0.06546063721179962 0.08115831762552261 -0.18075157701969147
0.1855054646730423 -0.036513932049274445 0.041828446090221405
-0.1870003193616867 -0.09327519685029984 -0.16975665092468262
0.0686948299407959 -0.40359702706336975 -0.2017311304807663
-0.18840989470481873 -0.05978928506374359 -0.16978494822978973
-0.034134671092033386 0.04792200028896332 0.1970171183347702
0.038417521864175797 -0.1721513271331787 0.25991055369377136
0.006341096013784409 -0.4087919592857361 -0.014285681769251823
0.13388460874557495 -0.15807154774665833 -0.16021719574928284
-0.2140842080116272 -0.3216048777103424 0.009441930800676346
-0.12172244489192963 0.18814468383789062 0.0435495525598526
0.218597874045372 -0.3793089687824249 -0.12593281269073486
-0.10089468210935593 0.13476410508155823 0.14412306249141693
0.2065458744764328 -0.2569676339626312 0.09957324713468552
0.19447816908359528 -0.40936705470085144 -0.1301855742931366
0.12634971737861633 -0.25814369320869446 0.2293165922164917
0.11478932201862335 -0.19556021690368652 0.23317812383174896
-0.22496464848518372 -0.21093341708183289 -0.047972422093153
-0.09828610718250275 0.5482908487319946 0.027601024135947227
0.1776071935892105 -0.3268164396286011 0.13643865287303925
-0.07773939520120621 0.4572465419769287 0.05555427074432373
0.18805889785289764 0.06959520280361176 0.0470941960811615
0.00416187196969986 0.5644960403442383 -0.008500476367771626
0.19638381898403168 0.030990449711680412 -0.0401061549782753
-0.03637198731303215 -0.4177020490169525 -0.19555509090423584
0.07540281862020493 0.549881100654602 0.04654704034328461
0.16991138458251953 -0.4169788956642151 -0.10295309126377106
-0.1513153463602066 0.35940632224082947 -0.11470445990562439
-0.19322678446769714 -0.06142470985651016 -0.16815423965454102
0.09746939688920975 -0.4127354919910431 -0.07800555229187012
-0.050964225083589554 -0.1342923939228058 -0.1741546243429184
0.13730883598327637 0.38868123292922974 0.038461461663246155
0.17289431393146515 0.006006610579788685 0.11836545169353485
0.1581624150276184 0.3141424059867859 -0.08562485873699188
-0.1123216524720192 0.5043677687644958 -0.1547069251537323
0.13546422123908997 0.3881821036338806 -0.05035853013396263
-0.17706166207790375 -0.35631120204925537 -0.17774009704589844
-0.09090198576450348 0.5131334066390991 0.06363999843597412
0.1968277394771576 -0.4033436179161072 0.028030145913362503
0.20167802274227142 0.048504747450351715 -0.07544776797294617
-0.12653061747550964 0.4027116000652313 0.032391179352998734
0.09639731794595718 -0.4102778732776642 0.030076976865530014
-0.0995091050863266 -0.14137187600135803 -0.1706550419330597
0.2217247039079666 -0.28438007831573486 0.007527639158070087
0.19771873950958252 -0.4095800220966339 -0.04713568463921547
0.2241932451725006 -0.23714657127857208 -0.022306425496935844
-0.12778940796852112 0.3838164210319519 -0.0547722727060318
0.09775853902101517 -0.41216349601745605 -0.08762083947658539
-0.07037043571472168 0.16450102627277374 -0.17705845832824707
0.12026644498109818 0.523779034614563 0.024554681032896042
-0.017765477299690247 0.2681807279586792 -0.1723102480173111
-0.05097225308418274 0.1743551641702652 -0.1769721806049347
0.09670566022396088 0.2664625346660614 0.21407774090766907
0.17796067893505096 -0.40965408086776733 -0.022025007754564285
-0.06745947897434235 -0.08225074410438538 -0.17805255949497223
-0.055421940982341766 0.264145165681839 -0.1731347292661667
0.17838053405284882 -0.407058447599411 0.060145605355501175
0.1407909393310547 0.48106473684310913 -0.10248245298862457
0.1172201856970787 0.33171576261520386 -0.1654537469148636
0.1367180496454239 0.29856163263320923 0.12849274277687073
-0.09313467890024185 -0.4204361140727997 -0.10254165530204773
0.09136264026165009 -0.40870392322540283 0.026078781113028526
0.014970175921916962 0.12725326418876648 -0.1755141168832779
0.1953076869249344 -0.30514997243881226 -0.12409550696611404
0.09209498763084412 0.5686627626419067 -0.11414584517478943
0.17026928067207336 -0.21391277015209198 -0.1385323405265808
0.1025606095790863 -0.40492454171180725 -0.038461241871118546
0.1537320911884308 -0.4049457907676697 0.13096797466278076
0.12398967891931534 -0.019245676696300507 0.18297913670539856
0.1254037469625473 -0.060301415622234344 -0.16956937313079834
-0.0885884091258049 0.010838309302926064 0.1900026649236679
0.13332904875278473 0.44350069761276245 -0.0575525276362896
-0.17696809768676758 -0.4142879545688629 -0.18781296908855438
-0.033789586275815964 0.3706916272640228 0.2128669023513794
0.1970987468957901 -0.1712954044342041 0.08420772850513458
-0.04737648367881775 0.07408430427312851 -0.18161457777023315
0.1770627200603485 -0.1741272509098053 0.1390531063079834
-0.12460602074861526 0.12618476152420044 0.021712321788072586
0.023250753059983253 -0.277233362197876 -0.18354856967926025
0.20233525335788727 -0.11523450911045074 -0.13623900711536407
-0.14916445314884186 -0.040403615683317184 -0.1760549247264862
-0.21007078886032104 -0.24441491067409515 0.07925642281770706
-0.013955742120742798 0.021344661712646484 -0.17948207259178162
-0.12310982495546341 0.22574575245380402 0.12200374901294708
-0.2066432535648346 0.025388453155755997 -0.11131854355335236
0.20017801225185394 0.07949147373437881 -0.05962313711643219
0.1520492434501648 0.05615125969052315 -0.17023895680904388
-0.03855631500482559 0.4272926449775696 -0.1652650088071823
0.12224873155355453 -0.02312593162059784 -0.17093949019908905
0.07772202044725418 0.04714109003543854 -0.17438118159770966
0.08487065136432648 -0.12410284578800201 0.23923265933990479
0.12113743275403976 0.5386974811553955 -0.06506188213825226
0.14483411610126495 0.283968985080719 -0.09495892375707626
0.19399389624595642 -0.10763449221849442 0.013590285554528236
-0.20852312445640564 -0.018488990142941475 -0.09064516425132751
-0.07100440561771393 -0.41829806566238403 -0.1952771097421646
-0.1441243439912796 0.03726644068956375 -0.17886698246002197
0.1283295452594757 0.18339665234088898 0.07702721655368805
-0.11494717001914978 0.5455986857414246 -0.07003788650035858
0.21337415277957916 -0.2987392544746399 0.059129610657691956
0.07039450109004974 0.21647650003433228 0.24998429417610168
-0.10141916573047638 -0.4184746742248535 -0.19379009306430817
0.13524305820465088 0.2869172692298889 0.005281880497932434
-0.1990201622247696 -0.12139728665351868 -0.014153899624943733
0.2135004848241806 -0.3492545187473297 -0.12103444337844849
0.1884082406759262 -0.1333838403224945 0.05430154502391815
-0.17890766263008118 -0.4086356461048126 0.07755173742771149
-0.015123743563890457 0.4642542600631714 -0.1679183691740036
0.09361723810434341 0.5604090690612793 0.01111973449587822
0.21608024835586548 -0.30005666613578796 0.03620602563023567
0.16208595037460327 -0.35945752263069153 -0.18503177165985107
0.1982058584690094 0.09910113364458084 -0.12430418282747269
0.13523800671100616 0.2822166383266449 0.14021837711334229
-0.006735101342201233 -0.4111236035823822 0.0030244039371609688
0.09151522070169449 -0.4115479588508606 0.030919097363948822
0.009021203964948654 -0.3030475974082947 0.2599340081214905
0.21693748235702515 -0.2666807472705841 -0.07473982870578766
0.025291340425610542 -0.29456812143325806 -0.18848873674869537
-0.1830873191356659 0.03355320170521736 0.0426490381360054
0.058547597378492355 0.024833358824253082 -0.17614193260669708
0.21112552285194397 -0.35908856987953186 -0.12995046377182007
-0.14480137825012207 0.47281044721603394 -0.13401256501674652
0.0671294704079628 0.03384950011968613 -0.17661042511463165
0.017667390406131744 -0.4096618890762329 -0.03383628651499748
0.10744565725326538 -0.18558520078659058 0.24334092438220978
0.10652533173561096 -0.2588968276977539 -0.166675865650177
-0.15608824789524078 -0.15884533524513245 0.17073938250541687
0.17275714874267578 -0.08237382024526596 0.14494113624095917
-0.0009544678032398224 -0.39509910345077515 -0.20635661482810974
-0.10546918213367462 -0.19515681266784668 0.22839641571044922
-0.16987024247646332 -0.12390872836112976 -0.16947336494922638
0.09632665663957596 0.12697485089302063 -0.17219863831996918
-0.10531830042600632 0.1041514128446579 0.130407452583313
-0.10584111511707306 -0.19156673550605774 0.23039141297340393
-0.12260185182094574 0.22892695665359497 -0.10251159965991974
0.1398412436246872 -0.4152824878692627 -0.17262357473373413
0.20163576304912567 0.12459403276443481 -0.1129368245601654
0.07629106193780899 -0.41838955879211426 -0.16357354819774628
-0.021197862923145294 0.26495739817619324 -0.17255067825317383
-0.028827620670199394 0.39635470509529114 0.158242866396904
-0.14407697319984436 0.15165351331233978 -0.10270349681377411
-0.08807829767465591 0.18369218707084656 -0.1728363335132599
0.09108136594295502 0.3413147032260895 0.17352493107318878
0.07163242995738983 -0.14287450909614563 -0.16882021725177765
-0.21714909374713898 -0.14246219396591187 -0.10160147398710251
-0.07636578381061554 0.2502228021621704 0.22290484607219696
-0.01058933138847351 -0.41149747371673584 -0.017530249431729317
0.0805208757519722 0.28718268871307373 0.20786374807357788
0.10708156228065491 -0.414720743894577 -0.12048850953578949
-0.015792835503816605 -0.16536426544189453 0.2540617287158966
0.009121323004364967 0.3614206612110138 0.24586455523967743
-0.09359170496463776 0.5380467176437378 -0.15578100085258484
-0.17565786838531494 0.023102132603526115 0.0709511935710907
0.07693621516227722 -0.4248083531856537 -0.1595979481935501
-0.17858979105949402 0.10466684401035309 -0.0065162405371665955
0.2013406604528427 0.08509640395641327 -0.1044044941663742
0.09952595084905624 0.12184450775384903 0.1656152307987213
-0.18476830422878265 -0.15185584127902985 0.06278746575117111
-0.22204536199569702 -0.25623154640197754 0.01642816886305809
0.06754988431930542 0.565929651260376 0.018491651862859726
-0.17308513820171356 -0.1397690623998642 0.13338032364845276
-0.20017822086811066 0.10906244814395905 -0.11603154242038727
0.05478030443191528 0.5241960287094116 0.08278822898864746
0.13158901035785675 0.11953728646039963 0.07722154259681702
-0.11893593519926071 -0.4142594337463379 -0.20220890641212463
0.06038763001561165 0.5706992745399475 -0.00515352375805378
-0.05361534655094147 0.167915478348732 0.2487909346818924
0.010712385177612305 0.5712786912918091 -0.13378994166851044
-0.06066109985113144 -0.10935534536838531 -0.1770249605178833
0.20978094637393951 -0.3743667006492615 -0.03130468726158142
0.1714775264263153 0.1385791152715683 -0.026811841875314713
0.221767857670784 -0.23912553489208221 -0.04884885251522064
-0.09464947879314423 0.5471424460411072 0.017951902002096176
0.1261046677827835 0.17904721200466156 0.156276673078537
0.18530823290348053 -0.1307525783777237 0.06124601140618324
-0.08377781510353088 0.07360156625509262 -0.1812049150466919
0.13471703231334686 0.27919694781303406 0.1027594730257988
-0.0004893019795417786 -0.41921448707580566 -0.19489824771881104
0.015368867665529251 0.46817997097969055 -0.1651293784379959
0.0907992348074913 -0.41304004192352295 0.03175392001867294
0.13280898332595825 0.22787168622016907 0.09345200657844543
0.13586631417274475 -0.4177515208721161 -0.1506623774766922
0.12727785110473633 0.24457740783691406 -0.0635337382555008
0.08272372931241989 0.046827126294374466 0.18574821949005127
-0.07364659011363983 0.43923014402389526 -0.16392959654331207
-0.04273722693324089 0.16610416769981384 0.25541481375694275
0.20849740505218506 -0.3684651851654053 -0.015266071073710918
0.1871192306280136 -0.40343013405799866 0.04326261207461357
-0.04997987300157547 0.33728691935539246 0.2357049137353897
-0.153622105717659 -0.3924441635608673 0.15752077102661133
0.02402471750974655 -0.3278777301311493 0.262180358171463
0.18801848590373993 -0.36857399344444275 0.06722591072320938
0.1938486397266388 -0.18293823301792145 0.10929076373577118
-0.13081210851669312 0.4639662802219391 -0.06572210788726807
0.06279698759317398 0.20020851492881775 0.2582969665527344
-0.07458377629518509 0.026799306273460388 -0.18085628747940063
0.1016981303691864 0.499267041683197 0.06752970814704895
-0.08387121558189392 0.0976654589176178 0.15935024619102478
0.07528015971183777 -0.32506099343299866 -0.19184954464435577
-0.20558153092861176 -0.18844930827617645 0.052421893924474716
-0.010432902723550797 0.05718183517456055 -0.17992925643920898
0.18907755613327026 -0.4060071110725403 0.017649535089731216
0.1613282710313797 -0.4105440676212311 -0.03979448229074478
-0.0034909211099147797 -0.3552330434322357 -0.20356744527816772
-0.21805039048194885 -0.2494875192642212 0.04310953617095947
0.16270437836647034 0.06274209916591644 -0.1696416437625885
0.18881750106811523 -0.06251556426286697 0.020083382725715637
0.2093053013086319 -0.3728090524673462 -0.02455715835094452
-0.059502605348825455 -0.21521949768066406 0.2590261697769165
-0.09069111198186874 0.4161037504673004 0.07213179022073746
0.17780843377113342 -0.3321773409843445 0.13623616099357605
0.20942513644695282 -0.16816328465938568 -0.11723823845386505
-0.043101683259010315 0.3123754560947418 -0.1713310182094574
0.208274245262146 -0.3525482714176178 -0.03273641690611839
0.13025246560573578 -0.41641491651535034 -0.16959697008132935
0.09026513993740082 -0.358123779296875 0.22819733619689941
0.13497844338417053 -0.4064596891403198 0.16245116293430328
0.16220352053642273 -0.4187312722206116 -0.08629821985960007
-0.0546722374856472 -0.17975063621997833 0.25286874175071716
-0.08109842240810394 0.5564513206481934 0.02380533516407013
-0.18421828746795654 0.0454632043838501 0.030800234526395798
-0.0791090652346611 0.3781001567840576 0.11340281367301941
-0.2033146172761917 0.03058304637670517 -0.1505354940891266
-0.16754786670207977 0.15029549598693848 -0.11878833174705505
0.09321147203445435 -0.4073845446109772 0.006542711518704891
-0.15110911428928375 0.09574844688177109 0.07531601190567017
0.21785083413124084 -0.3842889070510864 -0.09948991239070892
-0.2074991911649704 -0.012458255514502525 -0.09363801777362823
-0.18365024030208588 -0.037236616015434265 0.0561661422252655
0.2159043401479721 -0.17204329371452332 -0.08119115233421326
-0.035229213535785675 0.3746059834957123 0.16362501680850983
0.06432609260082245 -0.40925970673561096 0.04581029713153839
-0.08914345502853394 0.133783221244812 0.1769842505455017
-0.18235784769058228 0.06989641487598419 0.027763575315475464
0.2185676246881485 -0.1957528293132782 -0.05015362799167633
0.1390163153409958 0.34969186782836914 0.09164419025182724
0.10866671800613403 -0.3591114282608032 -0.19713011384010315
0.16192218661308289 -0.099097840487957 0.17440590262413025
-0.027948088943958282 0.5625502467155457 -0.018245425075292587
-0.18469330668449402 -0.11013256758451462 0.0780530497431755
-0.09656819701194763 -0.41863903403282166 -0.16454800963401794
-0.09578932076692581 0.26692959666252136 0.21345394849777222
-0.11572126299142838 -0.41177403926849365 0.17326857149600983
0.07288317382335663 0.5467985272407532 -0.16006812453269958
-0.08916151523590088 0.5081185698509216 0.0680001825094223
-0.1498349905014038 -0.04820912331342697 -0.17793509364128113
-0.06474517285823822 0.37159422039985657 -0.16696666181087494
-0.006228942424058914 0.5686457753181458 -0.11045386642217636
0.11830512434244156 -0.41854047775268555 -0.14420033991336823
-0.06725531816482544 -0.11952611058950424 -0.17550909519195557
0.12481558322906494 0.17623278498649597 0.15894636511802673
0.123438760638237 -0.048519253730773926 0.19693215191364288
-0.05313488468527794 -0.41316816210746765 -0.011277971789240837
0.036320362240076065 0.3860396146774292 -0.16732580959796906
-0.06683488190174103 0.19478857517242432 -0.17438076436519623
-0.024681251496076584 0.500806987285614 0.09267941862344742
-0.12950953841209412 0.4296146035194397 -0.06815582513809204
-0.20649541914463043 -0.23536159098148346 0.08424660563468933
0.04362412542104721 0.31885236501693726 -0.16997095942497253
-0.15685471892356873 -0.4199506640434265 -0.023618508130311966
0.1314849853515625 0.2854466736316681 -0.027238231152296066
0.18621881306171417 -0.081569142639637 -0.153712198138237
0.20301631093025208 -0.3257279098033905 0.05252800136804581
-0.15036338567733765 0.35663822293281555 -0.10987816751003265
-0.18626950681209564 -0.03494417294859886 -0.00405987910926342
0.08035208284854889 0.2654506266117096 -0.16822586953639984
-0.0994049608707428 0.5003716945648193 -0.16175700724124908
0.0804777592420578 -0.38722100853919983 0.22790613770484924
0.06394463032484055 -0.4240444302558899 -0.17611011862754822
-0.05295902118086815 0.49864229559898376 0.0877603217959404
-0.04763270914554596 0.07262040674686432 -0.18166132271289825
0.12731462717056274 -0.25264081358909607 -0.15472657978534698
0.09704389423131943 -0.017438117414712906 0.2004399597644806
