0.1853293627500534 -0.025905810296535492 0.02921862155199051
-0.01827426068484783 0.13319872319698334 -0.1786528080701828
-0.18068301677703857 -0.13132092356681824 0.10254973918199539
0.1436930149793625 -0.3801272511482239 -0.19445349276065826
0.06822779774665833 0.47886279225349426 0.07092795521020889
-0.2272094190120697 -0.29628345370292664 -0.0014002155512571335
0.13350607454776764 0.17171071469783783 -0.1421642005443573
0.14891593158245087 -0.41260749101638794 0.08919618278741837
0.028964195400476456 -0.37428638339042664 0.25039365887641907
-0.19796650111675262 0.0025613028556108475 -0.16603884100914001
0.14427100121974945 -0.4131528437137604 0.1197013109922409
-0.1187894344329834 0.18501436710357666 -0.03430735319852829
0.1740054339170456 -0.3357478976249695 0.1396111398935318
0.1137525886297226 -0.21045413613319397 0.23859839141368866
0.0894942507147789 -0.4116758108139038 -0.11688552051782608
-0.1229417473077774 0.2499716579914093 -0.10378512740135193
0.08658049255609512 0.5608125329017639 0.004569170996546745
-0.12546764314174652 0.3462257385253906 0.07531387358903885
0.13799163699150085 -0.18013937771320343 0.22158405184745789
0.12345372140407562 0.11793403327465057 0.11548534780740738
-0.12818999588489532 0.11364293843507767 0.04021776095032692
-0.06619551032781601 0.5597837567329407 -0.016860581934452057
-0.1408146470785141 -0.3736463785171509 -0.1991574913263321
-0.12235381454229355 -0.41845861077308655 -0.015981364995241165
-0.03944021090865135 -0.1988070160150528 -0.16824615001678467
0.18049496412277222 -0.34397080540657043 0.11331617832183838
0.13509005308151245 -0.4132499396800995 0.06235957145690918
-0.08171989023685455 0.42198672890663147 0.06485556066036224
-0.13728368282318115 0.14077721536159515 -0.056842025369405746
0.17025069892406464 0.07396133244037628 -0.1696944385766983
0.21120047569274902 -0.31122761964797974 0.03945709019899368
0.06714364886283875 -0.4150264263153076 -0.06724175810813904
0.14877595007419586 -0.0269329696893692 0.16640692949295044
-0.12376529723405838 0.46298763155937195 -0.06549189984798431
-0.11093566566705704 -0.09597696363925934 0.20001141726970673
0.07265516370534897 0.33223384618759155 0.2012179046869278
0.0654764175415039 -0.03769207373261452 -0.17611254751682281
0.21384285390377045 -0.39270487427711487 -0.11238335072994232
0.20203369855880737 -0.0015531708486378193 -0.11755362153053284
-0.0033321380615234375 -0.3989017903804779 0.24240779876708984
0.1848083734512329 -0.03428534418344498 0.0153660848736763
0.1802167296409607 -0.1624419093132019 -0.15147057175636292
-0.06418557465076447 -0.4208151400089264 -0.1895536184310913
-0.1250954121351242 -0.4207512438297272 -0.0872749611735344
-0.2246457040309906 -0.22865508496761322 -0.028393246233463287
-0.14289303123950958 0.2835053503513336 -0.13173629343509674
-0.1456754058599472 -0.12525025010108948 -0.1719946414232254
0.03882751613855362 -0.3822460174560547 -0.2036319226026535
-0.05761117488145828 -0.15856802463531494 -0.1733453869819641
0.17826813459396362 0.14436112344264984 -0.10465821623802185
0.19513455033302307 -0.41100072860717773 -0.04407557100057602
-0.10326513648033142 0.4614880084991455 -0.1615828424692154
0.010431114584207535 -0.3832528293132782 -0.20532545447349548
-0.11475015431642532 0.1699589043855667 0.14952698349952698
-0.1622888147830963 -0.417121022939682 -0.05589307099580765
0.10175308585166931 -0.38516688346862793 -0.2003708779811859
0.10712099820375443 -0.4112052917480469 0.0130679402500391
0.18727369606494904 0.04715967923402786 0.04833122342824936
-0.06914941966533661 -0.14075440168380737 -0.17386606335639954
-0.04488983377814293 0.417086660861969 -0.16810539364814758
-0.02321796864271164 0.3704753816127777 0.21855953335762024
-0.14010226726531982 -0.4009687602519989 0.17147418856620789
-0.05790119245648384 0.5629770755767822 -0.07796788960695267
-0.11548595130443573 0.5195278525352478 0.009714536368846893
-0.04123822599649429 -0.18552276492118835 -0.1695924997329712
0.1393238604068756 -0.017840135842561722 0.17273803055286407
-0.22390851378440857 -0.23225298523902893 -0.018258195370435715
-0.21061068773269653 -0.08434928208589554 -0.06353121250867844
-0.18689683079719543 -0.3448755741119385 0.11471045017242432
-0.08298300206661224 -0.4200383722782135 -0.19903622567653656
-0.12484008073806763 0.2449067384004593 0.11156711727380753
-0.0843602791428566 0.4435471296310425 -0.1641295850276947
0.2058688998222351 -0.39861971139907837 -0.04637851566076279
-0.08813183754682541 0.10174354910850525 -0.18204781413078308
0.18342162668704987 -0.039631351828575134 0.0951470211148262
0.036901745945215225 -0.17189699411392212 0.2588629424571991
-0.03340907022356987 -0.41581425070762634 -0.19695505499839783
-0.16525791585445404 0.1405245065689087 -0.13221430778503418
0.19919483363628387 -0.39617544412612915 0.0018685441464185715
-0.01756839081645012 0.3743675649166107 0.2183619886636734
0.17912735044956207 -0.41432175040245056 -0.029853448271751404
0.0355338454246521 0.10712540149688721 0.19465813040733337
-0.12428491562604904 0.13937808573246002 -0.021570570766925812
-0.04834352433681488 0.4277746379375458 -0.1675715148448944
0.2152901440858841 -0.35333889722824097 -0.08161886036396027
0.12916193902492523 0.19780991971492767 -0.016560900956392288
-0.020469501614570618 -0.17894300818443298 -0.17032518982887268
-0.08637646585702896 0.5452446341514587 0.028532778844237328
0.19999875128269196 0.08879256248474121 -0.12092927098274231
-0.11314060539007187 0.14626002311706543 0.1040881872177124
-0.12128549814224243 0.3225480020046234 -0.052960071712732315
-0.1676986962556839 0.11634524911642075 -0.025122761726379395
0.1271304190158844 0.18601030111312866 0.0988309308886528
-0.08107471466064453 0.5661236643791199 -0.13441231846809387
0.166380375623703 -0.35388100147247314 -0.1807967573404312
0.10063724964857101 -0.41085097193717957 -0.052728861570358276
0.06762564182281494 -0.1631493717432022 0.25132691860198975
0.161774680018425 -0.41535136103630066 -0.03553855046629906
0.039238300174474716 -0.38486161828041077 0.25212910771369934
-0.10519058257341385 -0.26991668343544006 -0.17798678576946259
0.18333683907985687 -0.1300888955593109 0.10125932842493057
0.12372017651796341 0.5257000923156738 -0.056201476603746414
0.13188472390174866 0.2192203253507614 -0.015177030116319656
-0.03895195946097374 0.3309999108314514 0.233970046043396
0.07167524099349976 -0.41601523756980896 0.018770907074213028
-0.07468031346797943 0.16174033284187317 0.23493430018424988
0.10396840423345566 0.15677204728126526 0.21886466443538666
0.13277475535869598 0.2532956898212433 0.1519986391067505
0.17450380325317383 -0.16510963439941406 0.15587261319160461
0.13604268431663513 -0.40710192918777466 0.1531197726726532
0.21401503682136536 -0.3479185402393341 -0.1134260967373848
-0.1658136546611786 -0.149675190448761 0.14790259301662445
-0.021020883694291115 -0.19643014669418335 -0.16739338636398315
0.019152160733938217 -0.41403186321258545 -0.17345261573791504
-0.14682993292808533 0.10222217440605164 -0.18077091872692108
0.09523387253284454 -0.41118109226226807 0.02906963787972927
-0.10919202864170074 0.5608399510383606 -0.084724560379982
0.0892988070845604 -0.41333696246147156 0.019832760095596313
-0.12135329097509384 0.18317639827728271 0.05133706331253052
0.0945095419883728 -0.40547674894332886 0.0572860985994339
0.13010907173156738 0.14158318936824799 0.05407380312681198
0.00480564683675766 0.5340304374694824 0.08649339526891708
0.13341327011585236 0.4549252390861511 -0.029901206493377686
0.1876404583454132 0.03757430613040924 0.046386219561100006
0.14690783619880676 -0.1480201929807663 0.20764829218387604
0.21020884811878204 -0.34602636098861694 -0.122274249792099
-0.11854766309261322 0.5012800097465515 0.0215342678129673
-0.18352895975112915 -0.07516428828239441 0.031021850183606148
0.12708540260791779 0.16861429810523987 -0.04164635390043259
-0.010937277227640152 -0.3799026608467102 -0.20758996903896332
0.11337558180093765 0.355332612991333 0.12486491352319717
0.17897272109985352 -0.15036891400814056 0.13002203404903412
-0.12592852115631104 0.45187506079673767 -0.057323772460222244
0.09103504568338394 -0.40791648626327515 0.02073146402835846
-0.12634211778640747 0.2428043633699417 0.009450226090848446
0.05360637232661247 0.2118213027715683 0.24819710850715637
-0.17275699973106384 -0.11912836879491806 0.12616515159606934
0.1296117901802063 -0.2766975164413452 -0.16384047269821167
-0.20607423782348633 -0.3605697453022003 0.03543078526854515
-0.04234045371413231 0.32942667603492737 0.2286251187324524
-0.18759602308273315 -0.3529265820980072 0.10798448324203491
-0.2027168869972229 -0.4068480134010315 -0.005837349221110344
-0.0411626361310482 0.35343968868255615 0.1851080060005188
0.14518791437149048 -0.36568745970726013 -0.18979860842227936
0.08035136759281158 0.5682020783424377 -0.0883750170469284
-0.1219809502363205 0.27143287658691406 -0.052355941385030746
-0.12869323790073395 0.2837763726711273 -0.02764568105340004
0.21034958958625793 -0.2873896360397339 -0.08732274174690247
0.18777619302272797 0.04493292421102524 0.047468990087509155
-0.21784274280071259 -0.1398533284664154 -0.1120256781578064
0.14383140206336975 -0.3178495466709137 0.2142205536365509
0.22384512424468994 -0.24748453497886658 -0.009125728160142899
-0.09164506196975708 0.033393651247024536 -0.18185362219810486
-0.1383802443742752 0.11559091508388519 0.021978124976158142
0.14995220303535461 0.10997707396745682 0.06738308072090149
0.09547494351863861 0.4326317608356476 0.05229274928569794
0.2196468561887741 -0.21142786741256714 -0.07018287479877472
-0.21750891208648682 -0.20473577082157135 -0.04030223563313484
-0.1754521131515503 -0.026259254664182663 0.07729203253984451
-0.18067550659179688 -0.1058550477027893 0.08517108857631683
0.12547363340854645 -0.04944424331188202 0.19967393577098846
0.07165425270795822 0.0417710542678833 -0.17607709765434265
0.20803172886371613 -0.317842572927475 -0.10113219916820526
-0.18509458005428314 -0.22516445815563202 0.131051167845726
-0.10646258294582367 -0.41692468523979187 -0.20570842921733856
-0.21599911153316498 -0.2331830859184265 0.0466318316757679
-0.07357083261013031 0.44227465987205505 -0.16490744054317474
-0.11969846487045288 -0.39952653646469116 -0.20414023101329803
-0.11467357724905014 0.15401175618171692 0.10269169509410858
-0.17426975071430206 -0.4157792031764984 -0.18133097887039185
0.03602314740419388 0.3443610668182373 0.24066774547100067
0.012337315827608109 0.5639108419418335 -0.032131511718034744
-0.01724998652935028 0.4304521679878235 -0.16875672340393066
0.12961015105247498 0.4833453595638275 -0.06729070842266083
0.19574040174484253 -0.35731399059295654 0.022929813712835312
-0.05977806821465492 0.33527278900146484 0.19555288553237915
0.2116873860359192 -0.3473663032054901 -0.1138288825750351
0.01696377992630005 0.5649920105934143 -0.013839116320014
0.1312474012374878 -0.39461520314216614 0.17323805391788483
0.09898203611373901 -0.4037531912326813 0.04286383092403412
0.20572331547737122 -0.043478988111019135 -0.10202808678150177
0.15434102714061737 -0.28134220838546753 -0.1545291244983673
0.07448894530534744 0.1859387904405594 0.25146013498306274
0.15033140778541565 -0.38111159205436707 0.14576753973960876
-0.06639063358306885 0.39392364025115967 0.09719163924455643
0.12997262179851532 0.11443483829498291 0.08714891970157623
-0.1874777227640152 -0.14885346591472626 0.061641592532396317
-0.036052122712135315 0.24742288887500763 0.23167765140533447
0.04969296231865883 -0.4110702574253082 0.2300344556570053
0.11745050549507141 -0.40968215465545654 0.09586179256439209
0.1413484513759613 -0.37674710154533386 0.16451318562030792
-0.11476683616638184 0.22632023692131042 0.19431106746196747
0.21437451243400574 -0.32424670457839966 -0.08851111680269241
0.13709257543087006 0.30646950006484985 0.032794032245874405
0.07600953429937363 -0.4179914593696594 0.029847614467144012
-0.170840784907341 0.14705775678157806 -0.1473076045513153
0.03953152894973755 0.41241905093193054 -0.16832470893859863
0.10488118976354599 0.41657158732414246 0.06983079016208649
0.11429642140865326 0.008932939730584621 0.1863219141960144
-0.1912296712398529 -0.4113953113555908 -0.18436573445796967
-0.023514587432146072 0.5431714057922363 0.07619740813970566
0.07616793364286423 -0.41822099685668945 0.034663282334804535
-0.12801165878772736 0.2823358476161957 0.03810897469520569
-0.0425017774105072 0.42787429690361023 0.0659056007862091
0.036153633147478104 -0.4238293468952179 -0.18753749132156372
0.16534899175167084 -0.3542536795139313 0.12868601083755493
-0.1827067732810974 0.001877475529909134 0.003713292069733143
-0.0665273368358612 0.5410376787185669 0.05926838889718056
0.13713188469409943 0.3724871873855591 0.010826490819454193
0.13553932309150696 -0.15663884580135345 0.2187177985906601
-0.12163291126489639 -0.33377933502197266 0.21925649046897888
0.13701395690441132 0.2941833436489105 0.09108428657054901
-0.13330402970314026 -0.06735778599977493 -0.1768030822277069
0.15137414634227753 0.2891365885734558 -0.10594593733549118
-0.20624221861362457 0.008273761719465256 -0.13428287208080292
0.14419281482696533 -0.39417994022369385 0.15609920024871826
-0.0026737451553344727 -0.1843513697385788 -0.16845829784870148
-0.11814931035041809 0.5081571340560913 0.014760524034500122
-0.04000077396631241 0.4084945023059845 0.09279590845108032
0.22377438843250275 -0.2662625312805176 -0.03877316415309906
0.11786066740751266 0.5135203003883362 0.03176673874258995
-0.03885588049888611 0.44068726897239685 0.05767500400543213
-0.12122896313667297 0.5197177529335022 -0.022562608122825623
0.22125397622585297 -0.2920312285423279 0.004933292046189308
-0.1289895474910736 0.11892575770616531 0.027356289327144623
-0.016782622784376144 -0.23586446046829224 -0.17723672091960907
-0.06141098216176033 0.005513571202754974 -0.18063588440418243
-0.12552542984485626 0.4471215009689331 -0.06558170169591904
0.11237037181854248 0.2342160940170288 -0.14561837911605835
0.07352413982152939 -0.15825581550598145 0.25101590156555176
-0.16200301051139832 -0.009701129049062729 -0.17688456177711487
0.10707393288612366 -0.18311673402786255 0.23796945810317993
-0.10113656520843506 -0.41353100538253784 0.04476702958345413
0.10839225351810455 -0.4207024574279785 -0.1258997768163681
-0.16602352261543274 -0.13509777188301086 -0.17018309235572815
-0.12314924597740173 0.3588344156742096 -0.05185798928141594
-0.06814180314540863 0.07325349748134613 0.18114648759365082
0.07694341987371445 -0.4185275733470917 0.030084960162639618
0.004447542130947113 0.41754913330078125 -0.16859273612499237
-0.14942021667957306 0.31716156005859375 -0.0972801074385643
-0.002593250945210457 0.5230863094329834 0.09300902485847473
-0.22379393875598907 -0.2718375325202942 -0.08518113940954208
0.05278376489877701 0.1675904393196106 0.256486713886261
-0.05897741764783859 0.38262659311294556 -0.16955789923667908
-0.21504591405391693 -0.25212109088897705 -0.11225730180740356
0.11829862743616104 0.5166095495223999 -0.1440240889787674
0.07393576204776764 -0.3884856700897217 -0.20391815900802612
0.18359291553497314 0.090105339884758 -0.0074203889816999435
-0.06345394253730774 -0.4208235442638397 -0.19306886196136475
0.09106379747390747 0.378823846578598 0.10940040647983551
-0.019912753254175186 0.15258964896202087 -0.17861464619636536
0.07165339589118958 -0.4161411225795746 0.03006148897111416
0.07775667309761047 -0.4163389801979065 0.036743611097335815
-0.09732275456190109 -0.19960980117321014 0.23455218970775604
0.010677654296159744 -0.37752556800842285 -0.20451009273529053
-0.07083913683891296 -0.14301231503486633 0.23602592945098877
0.0030291080474853516 0.5668194890022278 -0.12794463336467743
-0.03949791193008423 0.025154173374176025 -0.18247690796852112
-0.1334841549396515 0.010634612292051315 -0.17933839559555054
-0.12944772839546204 -0.011792544275522232 0.16357940435409546
-0.09836232662200928 -0.4091355502605438 -0.08051767945289612
-0.20039217174053192 0.10591849684715271 -0.14513617753982544
-0.02504494972527027 0.37425342202186584 0.19685231149196625
0.06587590277194977 0.33973705768585205 -0.1695428341627121
-0.1281905621290207 0.3812095820903778 0.00219157338142395
0.06214454770088196 0.37679237127304077 -0.16859880089759827
0.13402707874774933 0.41114479303359985 0.04606425762176514
-0.058415960520505905 0.35998761653900146 0.13675467669963837
-0.08800818771123886 -0.40477508306503296 0.0524447001516819
-0.03111674264073372 0.5592693090438843 -0.015261240303516388
0.08937732130289078 -0.41352570056915283 0.02402736246585846
0.18475604057312012 0.043796733021736145 0.06639297306537628
-0.049479492008686066 0.4370523691177368 -0.166363924741745
-0.14788661897182465 0.06369179487228394 0.11268199980258942
-0.09088349342346191 0.17442436516284943 0.2270345687866211
0.09109783172607422 -0.4107997417449951 0.038117095828056335
0.16748613119125366 -0.15187755227088928 -0.15640577673912048
-0.16695936024188995 -0.17908558249473572 -0.1640036702156067
-0.1735883504152298 -0.04083549976348877 0.09113861620426178
0.0939456894993782 -0.4160365164279938 -0.10415981709957123
0.1384798288345337 0.10580175369977951 0.11834690719842911
0.02490866184234619 -0.05715988203883171 0.22810547053813934
0.0836692750453949 0.4243573546409607 0.06463177502155304
0.11951857805252075 0.3800506889820099 0.09559131413698196
-0.2140865921974182 -0.23783493041992188 0.051892656832933426
0.10169117152690887 -0.4108375608921051 -0.12182977795600891
0.08497605472803116 -0.4136006534099579 0.028046848252415657
0.1017911285161972 -0.41274526715278625 -0.11631376296281815
-0.006420351564884186 0.564708948135376 -0.06629016995429993
-0.024685746058821678 -0.1852658987045288 -0.16782431304454803
-0.1258675754070282 0.3951764404773712 -0.020664170384407043
-0.10311342775821686 0.07169020175933838 -0.1810537576675415
0.05948115885257721 -0.411835253238678 0.027194932103157043
0.09450268745422363 -0.08167417347431183 0.22026945650577545
-0.19242951273918152 -0.36361294984817505 0.0819714367389679
0.08929993212223053 -0.4124152362346649 -0.12062752991914749
0.21981273591518402 -0.2833505868911743 0.031200749799609184
-0.03795836865901947 0.3540685176849365 0.19885298609733582
-0.08140204846858978 0.06102312356233597 -0.18168450891971588
0.13099971413612366 -0.16608823835849762 -0.16111458837985992
0.04833878576755524 0.4998973309993744 0.09182813763618469
0.18690703809261322 -0.19812989234924316 -0.1377313882112503
0.19345588982105255 -0.040252093225717545 -0.00714479386806488
0.10012774169445038 -0.4122452139854431 -0.11708158254623413
-0.19092990458011627 -0.1948227435350418 -0.15399101376533508
0.0867653340101242 0.13455693423748016 0.2065698206424713
0.1340053379535675 -0.3870558738708496 -0.19700604677200317
0.04073452576994896 0.20391714572906494 0.2523147463798523
0.17143887281417847 -0.0233090091496706 0.12374332547187805
0.1515771448612213 0.07444696873426437 0.12916071712970734
-0.2110084593296051 -0.22648486495018005 -0.12903498113155365
0.0632232204079628 -0.18394652009010315 0.2572506368160248
-0.03603265807032585 -0.3304116427898407 -0.19887569546699524
0.20254264771938324 -0.4044116735458374 -0.042375754565000534
-0.1198853999376297 0.1923190802335739 0.16505984961986542
-0.18718063831329346 -0.11180653423070908 -0.16827572882175446
0.1948515921831131 -0.4104127585887909 -0.01988111436367035
0.08524536341428757 -0.007569216191768646 0.20387306809425354
-0.12330664694309235 0.27426037192344666 -0.060703080147504807
-0.05792168527841568 -0.16893905401229858 -0.17134639620780945
0.13531799614429474 -0.35404157638549805 0.1989416927099228
-0.10418951511383057 0.564963161945343 -0.08436596393585205
0.021814679726958275 -0.3343261480331421 -0.1967400759458542
-0.12865176796913147 0.37148401141166687 0.0006889365613460541
-0.025908203795552254 -0.18132933974266052 -0.1690887212753296
-0.06175403296947479 0.5270753502845764 0.07283548265695572
-0.21274402737617493 -0.10178118944168091 -0.062176283448934555
0.18215803802013397 0.10006705671548843 0.030334874987602234
-0.21148134768009186 -0.3560996651649475 -0.12362547963857651
-0.007096543908119202 -0.40211886167526245 0.24099567532539368
0.20866799354553223 -0.342557817697525 -0.12262635678052902
0.1717194765806198 -0.1435641497373581 0.16792257130146027
0.10430194437503815 -0.06401170790195465 0.21398043632507324
-0.22070375084877014 -0.16038507223129272 -0.07489542663097382
0.08371101319789886 0.25797420740127563 -0.16973398625850677
0.12819279730319977 0.1557033658027649 -0.05730462074279785
0.08377163112163544 -0.41361090540885925 -0.12292695045471191
-0.117555633187294 -0.3535696268081665 0.2096303552389145
0.13136878609657288 0.22501200437545776 0.08753295987844467
0.064076267182827 0.16528835892677307 0.25423628091812134
0.22390668094158173 -0.267294704914093 -0.045324213802814484
-0.11896546930074692 0.5157677531242371 0.0029557906091213226
-0.09621486812829971 -0.19367578625679016 -0.1648668348789215
0.12767791748046875 0.1776597797870636 0.12183572351932526
0.20982928574085236 -0.22525373101234436 0.08293811976909637
-0.12409262359142303 0.09812239557504654 0.10851259529590607
-0.08203665912151337 0.5469071865081787 -0.15501686930656433
0.10786189883947372 0.042807482182979584 0.1740560084581375
0.04361762851476669 -0.40104609727859497 0.24290534853935242
-0.13338574767112732 0.04466141760349274 -0.18005748093128204
-0.19030240178108215 -0.1762418895959854 0.07326263934373856
-0.0661252960562706 0.06384561210870743 0.18488472700119019
-0.20132379233837128 -0.2104579359292984 0.09060557931661606
0.12418461591005325 0.46252742409706116 -0.1644381284713745
-0.02954091876745224 -0.2556363642215729 -0.18229341506958008
-0.024916023015975952 -0.4133845567703247 0.17774157226085663
0.2026514858007431 0.04386886954307556 -0.10064593702554703
0.1466960906982422 0.10769103467464447 0.10002484172582626
-0.014615314081311226 0.46108588576316833 0.08445791900157928
0.16713665425777435 0.03283479064702988 0.11980030685663223
-0.00929407961666584 0.5592078566551208 0.044335946440696716
-0.12552885711193085 0.23977872729301453 -0.029631994664669037
0.03769459202885628 -0.18203972280025482 -0.16479508578777313
0.13622909784317017 0.3187359869480133 0.04161367565393448
0.11653979122638702 -0.20123910903930664 0.24119332432746887
0.18741698563098907 -0.41539689898490906 -0.046943649649620056
-0.16792482137680054 -0.4214562773704529 -0.027164313942193985
-0.02807837352156639 0.4343775808811188 -0.16779060661792755
-0.09291616082191467 0.5551297664642334 -0.14658652245998383
-0.16764506697654724 -0.00810050405561924 -0.17611584067344666
0.1684291511774063 -0.12077945470809937 -0.15987779200077057
0.13340045511722565 0.2959624230861664 0.11715751886367798
0.13404355943202972 0.25654295086860657 0.04108976945281029
0.07968165725469589 0.2926737070083618 0.20879243314266205
-0.17904409766197205 0.08359502255916595 0.019835565239191055
0.11243738979101181 0.15498128533363342 -0.1710536628961563
-0.18248476088047028 -0.30078375339508057 -0.15916556119918823
0.10219414532184601 0.2735799551010132 0.20064397156238556
0.12478366494178772 -0.41339027881622314 0.1213047057390213
-0.12794528901576996 0.4155135452747345 -0.046894822269678116
-0.12594081461429596 0.315091073513031 0.0874958261847496
0.12654294073581696 0.47507140040397644 0.027335621416568756
0.10117527842521667 -0.4203786253929138 -0.15615561604499817
0.12727628648281097 0.18520544469356537 -0.0415043905377388
-0.1681704968214035 -0.28403499722480774 -0.157566636800766
0.18078675866127014 -0.24883882701396942 -0.1241036206483841
0.15155920386314392 -0.36099764704704285 0.14837655425071716
0.11880684643983841 0.11169760674238205 0.12720336019992828
-0.16837890446186066 0.13675366342067719 -0.16335605084896088
0.17821922898292542 -0.3857801556587219 0.08027908205986023
0.14171309769153595 -0.09329324960708618 0.19221824407577515
0.12859107553958893 0.1933327168226242 -0.024021856486797333
0.052233364433050156 -0.41866621375083923 -0.16122540831565857
-0.1589798778295517 -0.18750669062137604 0.17488421499729156
0.13019371032714844 0.24678261578083038 -0.02168494462966919
0.17845651507377625 -0.29635271430015564 -0.13808906078338623
-0.20510050654411316 0.023538343608379364 -0.10249262303113937
-0.1149306446313858 0.5234020948410034 -0.12369218468666077
-0.0684841051697731 -0.4203043580055237 -0.1880955696105957
0.0737583190202713 0.09453990310430527 0.18077148497104645
0.184158593416214 -0.41290757060050964 -0.025817502290010452
-0.20280468463897705 0.01754411682486534 -0.0696624144911766
-0.10112287849187851 -0.026877835392951965 0.18892112374305725
-0.09364842623472214 0.5288517475128174 -0.15940813720226288
0.07740489393472672 0.21628175675868988 0.2411942034959793
0.008183714002370834 0.5643134117126465 -0.021044932305812836
0.0031114835292100906 -0.25990206003189087 -0.18152298033237457
0.1353110373020172 0.26178839802742004 0.12330426275730133
0.2111896425485611 -0.3530292212963104 -0.12862639129161835
-0.2237841635942459 -0.26237669587135315 0.0045715756714344025
-0.143935427069664 -0.05068335682153702 -0.17887546122074127
0.210627943277359 -0.27822747826576233 0.07840922474861145
-0.12681470811367035 -0.017771149054169655 0.16771629452705383
-0.06088980659842491 -0.09196710586547852 0.22657208144664764
0.10513380169868469 -0.414287269115448 -0.12242227047681808
-0.004095515236258507 -0.24343769252300262 -0.17921163141727448
0.08195407688617706 -0.4164329767227173 0.02551085874438286
-0.12757068872451782 0.24816781282424927 0.0014919806271791458
0.20579595863819122 -0.040368348360061646 -0.09623021632432938
0.17424757778644562 -0.13804922997951508 0.16122697293758392
-0.00449971342459321 0.4287779629230499 0.12469203770160675
0.13799230754375458 0.1119835376739502 0.07464295625686646
0.03822842240333557 -0.41365376114845276 0.2178882509469986
0.14719995856285095 -0.19125428795814514 0.210049107670784
0.08638113737106323 0.18422625958919525 0.24341852962970734
0.10724887251853943 -0.2253730595111847 0.242782324552536
0.11565744876861572 -0.2063094526529312 0.24193084239959717
0.1457420289516449 -0.41349467635154724 0.11687321960926056
-0.0010899826884269714 -0.1868535876274109 -0.16671869158744812
-0.16318002343177795 0.06550026684999466 -0.17926836013793945
-0.007126215845346451 0.5664366483688354 -0.12778501212596893
-0.1331588327884674 -0.19136828184127808 -0.16316214203834534
0.0004481289070099592 0.5635201930999756 -0.06659234315156937
0.04006253927946091 -0.3905578553676605 0.25000452995300293
-0.08745402842760086 0.05344512686133385 0.17705780267715454
-0.12765894830226898 0.3503696024417877 0.035113297402858734
-0.023423440754413605 -0.22523729503154755 -0.17303913831710815
0.13433948159217834 0.08025551587343216 0.14297376573085785
0.09937100112438202 -0.40832167863845825 0.029543673619627953
-0.17906734347343445 -0.13723936676979065 0.11044490337371826
-0.14464297890663147 -0.20129463076591492 0.1952625811100006
0.11546280235052109 -0.41939806938171387 -0.1067739874124527
0.22321611642837524 -0.26996514201164246 -0.05056341364979744
0.09337783604860306 0.008036315441131592 0.19631481170654297
-0.10449978709220886 -0.08578861504793167 0.20262621343135834
0.16125984489917755 -0.11054716259241104 0.17774996161460876
0.2029246985912323 0.0144314831122756 -0.11439880728721619
0.1251041293144226 -0.033690206706523895 -0.17169007658958435
0.07312051951885223 -0.4016132056713104 0.22548793256282806
-0.13622510433197021 0.33661049604415894 -0.07745809853076935
0.13173751533031464 0.11357410997152328 0.0854155421257019
0.13746358454227448 0.014866799116134644 0.16428691148757935
-0.19746671617031097 0.11020495742559433 -0.1112126037478447
-0.08836648613214493 0.3135387897491455 0.1763792634010315
0.05507201328873634 0.17142288386821747 0.25520920753479004
-0.061455462127923965 0.44675424695014954 0.05390321835875511
0.10007371008396149 -0.4134942293167114 -0.11424628645181656
-0.12842512130737305 0.3120061159133911 0.03258473798632622
0.12718245387077332 -0.3625030815601349 -0.1945374608039856
-0.111248679459095 0.18091067671775818 0.192251056432724
-0.02849537506699562 0.2616221010684967 0.22432078421115875
-0.058481402695178986 -0.04841677099466324 0.21725454926490784
0.17866306006908417 -0.1665372997522354 0.13590891659259796
-0.10056453198194504 0.0972229391336441 0.13804738223552704
-0.07309014350175858 -0.42060667276382446 -0.18635201454162598
0.2230919897556305 -0.26038989424705505 -0.04553314298391342
-0.11836114525794983 0.4935770332813263 0.020633593201637268
0.2241140902042389 -0.2728120684623718 -0.01650872454047203
0.14041808247566223 -0.23680803179740906 0.22239510715007782
0.08998492360115051 -0.41148725152015686 0.03262951225042343
0.011128392070531845 0.5634670257568359 -0.017384985461831093
0.14948523044586182 0.28846025466918945 -0.09892188757658005
0.10401402413845062 -0.41350057721138 -0.12138763815164566
0.13395318388938904 0.2723684012889862 -0.039085760712623596
-0.18362627923488617 -0.04040360078215599 0.034452132880687714
0.18685011565685272 -0.034418985247612 0.05375378206372261
-0.09839189052581787 0.15160232782363892 0.1898200809955597
0.07674135267734528 -0.4174376428127289 0.02955712378025055
-0.045187339186668396 0.5644045472145081 -0.13142900168895721
-0.06444375216960907 -0.42085981369018555 -0.1901393085718155
0.04226101189851761 0.18033647537231445 -0.1742701530456543
0.05380142107605934 -0.41238635778427124 0.11471004784107208
0.1063959002494812 -0.415792852640152 -0.1260465681552887
-0.1364048272371292 0.33688437938690186 -0.0774473249912262
0.2230750173330307 -0.2406633198261261 0.0025738533586263657
-0.12740764021873474 0.25391852855682373 0.0024477746337652206
-0.0518895648419857 0.3432934284210205 0.18212749063968658
0.20408464968204498 -0.003049757331609726 -0.1050991341471672
0.04088670387864113 -0.3550529181957245 0.2560122609138489
-0.05531943589448929 -0.17203274369239807 -0.17035330832004547
-0.010954653844237328 0.5658256411552429 -0.09515616297721863
-0.08314662426710129 0.3427146375179291 -0.16951240599155426
0.02855600044131279 0.36354780197143555 0.24084898829460144
0.07407955080270767 -0.41628265380859375 0.029410429298877716
-0.12302127480506897 0.21570280194282532 0.14398983120918274
-0.17770624160766602 -0.15398237109184265 0.10858820378780365
-0.049040596932172775 -0.15847966074943542 -0.173055037856102
0.17079773545265198 -0.021779434755444527 0.12565478682518005
-0.10427645593881607 0.10139621794223785 0.12019272893667221
0.1697855293750763 0.08651533722877502 -0.16962510347366333
0.0077004097402095795 -0.32698142528533936 0.2566230297088623
0.10422906279563904 -0.41037169098854065 -0.12422612309455872
0.06899012625217438 -0.38074570894241333 -0.2024819552898407
0.03415192291140556 0.2463514804840088 0.24440541863441467
-0.1821156144142151 0.013785915449261665 0.005786806344985962
0.18782097101211548 -0.4067752957344055 -0.009173132479190826
0.08565020561218262 -0.41354355216026306 0.024609051644802094
0.06932121515274048 -0.42222467064857483 -0.16714003682136536
0.08004394173622131 -0.18768081068992615 0.25410354137420654
0.10111360251903534 0.17510361969470978 -0.16881738603115082
-0.21323731541633606 -0.3802154064178467 -0.03761608526110649
0.20099522173404694 0.09074880927801132 -0.10719404369592667
0.21224887669086456 -0.3470480442047119 -0.12006786465644836
-0.13018155097961426 0.42666348814964294 -0.0871795117855072
0.2065502256155014 -0.3459448218345642 -0.12016457319259644
0.22126953303813934 -0.21603979170322418 -0.03170742839574814
-0.028076685965061188 -0.050939589738845825 -0.18076272308826447
0.08284415304660797 0.4486629366874695 -0.16696521639823914
-0.007364831864833832 -0.3190700113773346 0.25988107919692993
-0.22525864839553833 -0.24645039439201355 -0.04550750181078911
-0.21826399862766266 -0.1485840082168579 -0.09898941963911057
0.18920575082302094 -0.1999461054801941 -0.13503426313400269
-0.12375450879335403 0.25006356835365295 -0.09556227922439575
-0.0973348468542099 0.15550532937049866 0.20121315121650696
-0.048681631684303284 0.3675735890865326 0.13616256415843964
-0.09285370260477066 0.3316408395767212 -0.16650773584842682
0.22135446965694427 -0.28108036518096924 -0.05422571673989296
0.14751213788986206 0.28431883454322815 -0.09549349546432495
0.10755721479654312 0.22369889914989471 -0.16075439751148224
-0.05498760938644409 0.004402661696076393 0.20365330576896667
-0.167646124958992 0.11667100340127945 -0.044552333652973175
0.0034682713449001312 -0.32271140813827515 0.2589087188243866
-0.06326299905776978 0.39334338903427124 0.09770309925079346
-0.05598323047161102 0.5596961379051208 -0.019411485642194748
-0.1765347272157669 -0.2215108871459961 0.146029993891716
0.2150084376335144 -0.3271750211715698 -0.08763644099235535
-0.08299285173416138 -0.05376831814646721 0.20778192579746246
-0.18004770576953888 -0.007272511720657349 -0.17542853951454163
-0.05192534625530243 0.44517672061920166 -0.16606703400611877
0.0996701642870903 -0.4060134291648865 0.025210939347743988
-0.023036807775497437 -0.40304988622665405 0.23039574921131134
0.007722299546003342 0.1325151026248932 0.22858554124832153
0.12808111310005188 -0.183280348777771 0.22939081490039825
0.0802098959684372 -0.41712960600852966 0.026612471789121628
0.020531021058559418 0.46916770935058594 -0.16840986907482147
0.2152062952518463 -0.20115762948989868 0.05857568234205246
-0.03419392183423042 0.33577072620391846 0.23548565804958344
0.006268639117479324 -0.12862944602966309 0.2467425912618637
-0.19577492773532867 -0.33399704098701477 -0.15798987448215485
0.13459919393062592 0.2544354200363159 -0.004345763474702835
0.13120253384113312 0.24198444187641144 -0.018164250999689102
-0.13605576753616333 -0.09837571531534195 0.17682825028896332
0.04453587904572487 -0.38932928442955017 0.24951760470867157
0.2101035863161087 -0.09980672597885132 -0.061010029166936874
0.20286206901073456 0.01176363229751587 -0.11422508955001831
0.13673870265483856 0.3394157290458679 -0.018534980714321136
0.1291791796684265 0.06967420130968094 -0.17423036694526672
-0.040122367441654205 0.4309842884540558 -0.16917964816093445
-0.1794462651014328 -0.2002979964017868 -0.1579430103302002
-0.1735314428806305 0.13241848349571228 -0.1691179722547531
-0.03644435107707977 0.014368914067745209 -0.18316760659217834
0.19421491026878357 -0.3843157887458801 0.030636752024292946
0.13078656792640686 0.20462733507156372 0.0204492025077343
-0.1732395738363266 0.06477800011634827 0.054760195314884186
-0.11285483837127686 0.19025017321109772 0.19642111659049988
-0.21155215799808502 -0.34049198031425476 0.043973036110401154
0.0426214262843132 -0.40752971172332764 -0.004588534124195576
0.19936414062976837 0.07746431231498718 -0.12366771697998047
0.14586953818798065 -0.35610970854759216 -0.18698324263095856
0.040628381073474884 0.16091249883174896 -0.17520257830619812
0.1364879608154297 -0.044623199850320816 -0.1698555052280426
0.20715969800949097 -0.3226642608642578 -0.10343734920024872
0.029815802350640297 0.25652575492858887 0.23526352643966675
-0.1838364601135254 -0.09600859135389328 0.05773523077368736
-0.2005634903907776 0.05571631342172623 -0.07862038910388947
-0.002192925661802292 -0.07581903040409088 0.23054829239845276
-0.15458764135837555 -0.4152664840221405 0.1119997650384903
0.0709775984287262 -0.41482219099998474 0.02933456003665924
-0.20437462627887726 -0.3780670762062073 0.030637506395578384
0.016478177160024643 0.5639691948890686 -0.0017738353926688433
0.09859225153923035 -0.4126319885253906 -0.11680693924427032
-0.12554267048835754 0.2998273968696594 0.11959532648324966
0.2031046599149704 0.02147429808974266 -0.11066421866416931
-0.12785278260707855 0.3370072543621063 0.045156080275774
0.08114667236804962 -0.4073614478111267 0.015582695603370667
0.1806987076997757 -0.40389522910118103 0.03607533499598503
0.13164277374744415 0.46237581968307495 -0.025201216340065002
0.021600812673568726 -0.4018692672252655 -0.2072550356388092
-0.19819676876068115 -0.27383333444595337 0.10308318585157394
0.07175347954034805 0.17747409641742706 0.25262826681137085
-0.194564551115036 0.04944852739572525 -0.054436761885881424
0.07314087450504303 0.17619448900222778 0.25120115280151367
0.22239476442337036 -0.23664017021656036 0.007360248826444149
0.003140173852443695 0.4685150384902954 -0.16963793337345123
0.10841991007328033 -0.41066744923591614 -0.032780393958091736
-0.05602420121431351 0.5594516396522522 -0.004645019769668579
-0.21651089191436768 -0.20210716128349304 -0.015300721861422062
-0.09269921481609344 0.14615800976753235 0.19554252922534943
0.05616171285510063 -0.18216662108898163 -0.16193392872810364
0.09960855543613434 -0.3231125473976135 0.2369174212217331
0.2205868363380432 -0.286365270614624 0.0196376983076334
-0.22664643824100494 -0.2511228024959564 -0.05086211860179901
-0.15889453887939453 -0.3551928997039795 0.16553007066249847
-0.03824746981263161 0.3097190260887146 -0.17142875492572784
0.20350734889507294 0.02067364938557148 -0.06653767079114914
0.07084819674491882 0.008831607177853584 0.20505693554878235
-0.20329105854034424 0.058139387518167496 -0.09799673408269882
-0.1250333935022354 0.46987012028694153 -0.007147118449211121
0.10013476014137268 0.28256893157958984 -0.16594348847866058
0.10170453041791916 0.05827770754694939 -0.17425772547721863
-0.15068908035755157 -0.28999850153923035 0.18497861921787262
0.07147867232561111 -0.4146544933319092 0.030309610068798065
0.0347738191485405 0.5648746490478516 -0.00632210448384285
-0.08277219533920288 -0.1128401979804039 -0.17508821189403534
-0.15357299149036407 0.10875559598207474 0.04355940967798233
0.13294640183448792 -0.31836777925491333 -0.17862631380558014
0.05482392758131027 0.16974559426307678 0.25529131293296814
0.11393104493618011 -0.15432806313037872 0.23347944021224976
-0.0679503083229065 -0.14700153470039368 -0.17468208074569702
-0.005901796277612448 0.5639955401420593 -0.02201094478368759
-0.013046477921307087 0.47241613268852234 0.07701770216226578
0.12670041620731354 0.17449212074279785 0.12720496952533722
0.07349567115306854 -0.41398876905441284 0.031176812946796417
-0.21408210694789886 -0.3466949760913849 -0.0282658152282238
-0.12718266248703003 0.3590850830078125 -0.0351753756403923
0.11252724379301071 -0.415649950504303 -0.11632104218006134
0.18567074835300446 0.03470337390899658 0.05668243020772934
-0.16753992438316345 -0.004701724275946617 0.0934944599866867
0.08610212057828903 -0.41056641936302185 0.1848810315132141
-0.16721507906913757 -0.03822646662592888 0.10842107236385345
0.09981738775968552 0.22491423785686493 -0.16404768824577332
0.20404361188411713 -0.042265091091394424 -0.070345938205719
0.048850081861019135 0.02599625289440155 -0.17760124802589417
0.0996960997581482 -0.19125401973724365 0.24738658964633942
0.13906177878379822 0.13688310980796814 -0.02648523822426796
0.19886356592178345 -0.39843106269836426 -0.006172578781843185
0.023580174893140793 -0.35578393936157227 0.2565476894378662
-0.006717056035995483 -0.4189732074737549 -0.20779778063297272
0.06215934827923775 0.4152615964412689 -0.16772408783435822
-0.06258773803710938 -0.06192106381058693 -0.17896530032157898
-0.09496483206748962 0.09791853278875351 0.13341988623142242
0.1373697966337204 0.06437379866838455 -0.1732928603887558
-0.03829248622059822 0.5499517917633057 0.05986489728093147
-0.08785134553909302 0.10719616711139679 0.14147579669952393
-0.05465216934680939 -0.04645358398556709 -0.17898814380168915
-0.1142781600356102 0.5416876673698425 -0.04119439423084259
0.03824048489332199 -0.4105866253376007 0.1742684692144394
-0.19475217163562775 -0.30492496490478516 -0.14588406682014465
0.06279747188091278 -0.15334700047969818 -0.16843503713607788
0.11993256211280823 0.045939359813928604 0.16563552618026733
-0.11942216008901596 0.17757734656333923 0.1256253719329834
-0.02665630728006363 0.4734865128993988 0.07414638251066208
-0.10375547409057617 0.05614680051803589 -0.18138016760349274
-0.19732239842414856 -0.30328860878944397 -0.13551384210586548
-0.0458211787045002 -0.2003677934408188 -0.16734839975833893
0.011047076433897018 0.5648916959762573 -0.004269917495548725
0.22331392765045166 -0.2819386422634125 -0.04601461440324783
-0.21535347402095795 -0.13397593796253204 -0.06005625054240227
0.15367987751960754 0.3286265730857849 -0.0845484584569931
-0.1425430327653885 -0.4127250015735626 -0.06094618886709213
-0.07599129527807236 0.554960310459137 0.0053084846585989
0.09329929202795029 0.49015185236930847 0.06789686530828476
0.07930723577737808 0.4273107349872589 0.0649876669049263
-0.05432567372918129 0.3740434944629669 -0.1691678911447525
-0.11094807833433151 0.5332542657852173 -0.0020983368158340454
0.11587350070476532 -0.41757646203041077 -0.12648771703243256
-0.029110804200172424 0.14426128566265106 0.24223540723323822
-0.0870537981390953 0.07498514652252197 -0.1821136176586151
-0.020956020802259445 -0.4144758880138397 -0.0681743249297142
-0.05821039527654648 -0.2013726681470871 0.2532029151916504
-0.07761185616254807 0.0485805869102478 -0.18200655281543732
-0.07084913551807404 0.5596165657043457 0.012178913690149784
0.09957273304462433 -0.14725813269615173 -0.16777053475379944
0.20722660422325134 -0.3971339166164398 -0.11477267742156982
0.016606079414486885 0.25017061829566956 -0.17318390309810638
-0.0678325742483139 0.5586009621620178 0.004721733741462231
0.17500317096710205 -0.4175392985343933 -0.07728046178817749
0.13427887856960297 0.32073941826820374 -0.014756008982658386
0.2137637883424759 -0.20445317029953003 0.06941813975572586
0.19713738560676575 -0.348449170589447 0.019236890599131584
0.1323462724685669 0.22448784112930298 0.18120762705802917
0.04882943630218506 0.21443581581115723 0.2507469356060028
0.15594904124736786 0.35679030418395996 -0.1155070811510086
0.0813818871974945 -0.4131743013858795 0.022930677980184555
-0.09558732807636261 -0.42124131321907043 -0.19356603920459747
0.11400425434112549 0.17208510637283325 0.21243737637996674
0.02552124857902527 -0.37644025683403015 0.2544362246990204
0.14817506074905396 -0.3736374080181122 -0.19017775356769562
0.12816712260246277 -0.031940486282110214 0.1858293116092682
0.18424570560455322 -0.1558878868818283 0.10367276519536972
0.1374269723892212 0.3259102404117584 0.0230192132294178
0.04780200868844986 -0.412546843290329 0.1973842829465866
-0.04970993846654892 0.43187031149864197 -0.16757944226264954
-0.14237484335899353 -0.04333381727337837 -0.17718446254730225
0.08416734635829926 0.0914887934923172 0.17660470306873322
-0.18616768717765808 -0.1564260721206665 0.06385469436645508
-0.12608212232589722 0.023378973826766014 0.15287722647190094
0.141627237200737 0.4817946255207062 -0.11277881264686584
-0.12638764083385468 -0.031912222504615784 0.17106348276138306
-0.1467263549566269 -0.16912855207920074 -0.16618411242961884
-0.010750521905720234 0.3845956027507782 0.20655734837055206
-0.13320475816726685 0.3622162640094757 -0.153681680560112
-0.026280049234628677 -0.24455526471138 -0.17904867231845856
-0.026353228837251663 -0.413210928440094 -0.19629845023155212
0.20792146027088165 -0.06900294125080109 -0.07018442451953888
0.12198592722415924 0.043624088168144226 0.1658582091331482
-0.009861405938863754 0.5628036260604858 -0.034797728061676025
0.14577436447143555 0.2826789617538452 -0.08860340714454651
-0.025186507031321526 -0.2110016942024231 0.25681108236312866
-0.01427658274769783 0.4944756329059601 0.09239755570888519
-0.06453774869441986 -0.16570653021335602 -0.17111584544181824
0.1551390439271927 -0.14563588798046112 0.19851449131965637
0.014858976006507874 -0.35556480288505554 0.2585417926311493
-0.1278369277715683 0.2627973258495331 0.00886484608054161
-0.2075222283601761 -0.01127190887928009 -0.11828866600990295
0.18843775987625122 -0.3019165098667145 0.1362185925245285
0.16950128972530365 -0.3507501780986786 0.12543287873268127
-0.1831691414117813 0.03661859780550003 -0.009806616231799126
-0.12480629980564117 0.46568992733955383 0.001373283565044403
0.08862537145614624 -0.4109753668308258 0.016549520194530487
-0.1627839356660843 -0.3505316376686096 -0.18714797496795654
-0.0819500982761383 -0.42000362277030945 -0.08666078746318817
0.02675546705722809 0.07746848464012146 0.18864910304546356
0.04306303709745407 0.565143883228302 -0.02893490344285965
-0.21458368003368378 -0.3625137209892273 -0.025441616773605347
0.19909736514091492 0.018972959369421005 -0.15031713247299194
-0.012694276869297028 0.44214093685150146 -0.16782043874263763
0.0885058119893074 0.434314101934433 0.05539781600236893
0.1330609917640686 0.24957838654518127 -0.020123016089200974
-0.20946234464645386 -0.20406590402126312 0.051315270364284515
0.09595337510108948 -0.029980817809700966 0.20610910654067993
0.10947632789611816 -0.4162222743034363 -0.11986284703016281
0.009224951267242432 0.03307364881038666 -0.1794026494026184
-0.022931978106498718 0.137372225522995 0.23146188259124756
0.014203980565071106 0.3676114082336426 0.23712529242038727
0.19492797553539276 -0.3418559730052948 0.04130140691995621
0.16010348498821259 -0.033674031496047974 0.15163826942443848
-0.08433859050273895 0.5510137677192688 0.015742911025881767
0.18398451805114746 -0.08059793710708618 0.10280461609363556
0.11816215515136719 -0.202443927526474 0.23832806944847107
-0.15129277110099792 0.05268651247024536 0.11268928647041321
0.13599704205989838 -0.1781369149684906 -0.15532319247722626
0.1695859134197235 0.0895797535777092 0.0841684564948082
-0.09873965382575989 0.12462306022644043 -0.1800372451543808
0.008621923625469208 0.2946116030216217 -0.17330330610275269
0.2014254778623581 -0.4057580530643463 -0.03855085372924805
-0.1636236160993576 -0.10153912007808685 0.14093805849552155
-0.2086951583623886 -0.029268179088830948 -0.10784527659416199
-0.03668074309825897 -0.004418209195137024 -0.18350781500339508
-0.11873026937246323 0.5132489204406738 0.006625454872846603
0.06702398508787155 0.11938077211380005 0.19392958283424377
0.10376941412687302 -0.18647201359272003 0.24392186105251312
-0.21435131132602692 -0.210745707154274 0.03181152790784836
-0.09790355712175369 0.5396730303764343 -0.15024879574775696
0.21115858852863312 -0.1275843381881714 -0.04424981772899628
0.13871321082115173 -0.4133990705013275 0.13598820567131042
0.09840637445449829 0.22986388206481934 -0.1658673733472824
0.18948276340961456 -0.41294702887535095 -0.022867240011692047
0.17450712621212006 0.1421256959438324 -0.09424377977848053
0.20646731555461884 -0.168484628200531 -0.12202148884534836
0.214853897690773 -0.2513362467288971 0.06819073110818863
0.0018130093812942505 0.5638242363929749 -0.010706257075071335
0.13707493245601654 0.3734244704246521 0.027115046977996826
0.2232169508934021 -0.24148571491241455 -0.0046080052852630615
-0.09021761268377304 0.35125303268432617 -0.16271674633026123
-0.061899349093437195 -0.42097634077072144 -0.16693425178527832
-0.12704698741436005 0.40017566084861755 -0.014889247715473175
-0.22366106510162354 -0.2739906311035156 0.005920525640249252
0.20212894678115845 -0.02550584077835083 -0.0349014513194561
0.1522786170244217 -0.009914372116327286 -0.1690395027399063
0.08980050683021545 0.056207530200481415 0.1798543632030487
-0.05797388404607773 -0.18041464686393738 0.2535387873649597
0.09855891764163971 0.46651774644851685 -0.16527213156223297
0.20496633648872375 -0.32134655117988586 0.008242743089795113
-0.1190422773361206 0.5177727937698364 -0.00019474700093269348
-0.10796700417995453 -0.19038212299346924 0.22366034984588623
-0.12961818277835846 0.3702029585838318 -0.022726882249116898
0.16681954264640808 0.12238851934671402 0.0007835030555725098
-0.08996618539094925 0.5566098093986511 -0.14405561983585358
0.08893540501594543 0.009246359579265118 0.19564926624298096
-0.19685806334018707 -0.038742776960134506 -0.16733169555664062
0.161820188164711 -0.004859276115894318 -0.16771195828914642
0.06271901726722717 0.03521955758333206 0.1939825862646103
0.002864692360162735 0.56351637840271 -0.008605115115642548
0.0158456489443779 -0.3570123314857483 0.25788575410842896
-0.05895182490348816 0.37215983867645264 -0.17029449343681335
