-0.16374529898166656 -0.2827063500881195 0.17418277263641357
-0.056361839175224304 -0.3780554234981537 0.24180912971496582
-0.16476725041866302 -0.01028885692358017 0.11202260106801987
0.1484455019235611 -0.40798017382621765 0.13546296954154968
-0.18551859259605408 -0.4113173186779022 0.07541664689779282
0.09305066615343094 -0.37931275367736816 -0.19938968122005463
-0.040799330919981 -0.16117331385612488 -0.17087750136852264
-0.026976384222507477 -0.39390620589256287 -0.20514462888240814
0.21073593199253082 -0.10811787843704224 -0.07688777893781662
-0.21979807317256927 -0.157006174325943 -0.050412219017744064
-0.20428577065467834 -0.19367936253547668 0.06760949641466141
-0.01723170280456543 -0.029377009719610214 -0.18020941317081451
0.07138726115226746 0.5484787225723267 0.05077463388442993
0.12184140086174011 0.11489714682102203 0.12202359735965729
0.1474960893392563 0.436140239238739 -0.1014675498008728
-0.1271255761384964 0.41386550664901733 -0.04603343829512596
0.07052714377641678 -0.41184648871421814 0.05644012615084648
0.17473286390304565 -0.41692331433296204 -0.12557730078697205
0.1798357516527176 0.04720032587647438 0.08905418962240219
0.14614291489124298 -0.34777987003326416 0.192701518535614
-0.1831543743610382 0.030791688710451126 0.004618518985807896
0.03068157471716404 0.4326326549053192 0.12206825613975525
-0.0999678522348404 0.20023894309997559 0.218697652220726
-0.22282817959785461 -0.21644383668899536 -0.008094457909464836
0.10658176243305206 0.3255136013031006 0.1966053694486618
-0.019069377332925797 0.04589119553565979 -0.18015174567699432
-0.13142456114292145 0.3005620241165161 -0.03144558146595955
0.20585361123085022 -0.052695851773023605 -0.05585404112935066
0.052469562739133835 -0.4125053882598877 0.09750227630138397
-0.021565333008766174 -0.41402068734169006 -0.10745410621166229
-0.015066586434841156 -0.11700543761253357 -0.1760183870792389
-0.04389095678925514 -0.017670869827270508 -0.17980192601680756
0.058217853307724 0.43185362219810486 0.07478252798318863
-0.1564408391714096 -0.161908820271492 -0.16748172044754028
0.11710726469755173 0.49688720703125 0.03987453132867813
0.16776840388774872 0.037027593702077866 -0.16717739403247833
0.17550362646579742 -0.17204105854034424 0.14241686463356018
-0.11460186541080475 0.03003264218568802 -0.17928780615329742
0.13735230267047882 0.3241771161556244 0.026412811130285263
-0.013358443975448608 -0.4160403609275818 -0.15323537588119507
-0.02707356959581375 -0.1795503795146942 -0.1684223860502243
-0.02551870234310627 -0.10372748970985413 0.24058197438716888
-0.19404849410057068 0.023341696709394455 -0.17109975218772888
0.09039964526891708 0.22437940537929535 0.23701170086860657
0.04740201681852341 -0.41261476278305054 0.17664749920368195
-0.029543131589889526 0.15044449269771576 -0.17782215774059296
-0.20223534107208252 -0.411812424659729 -0.12642329931259155
-0.16583693027496338 -0.20155541598796844 0.16881732642650604
0.15026085078716278 0.37983962893486023 -0.14606377482414246
-0.017465267330408096 0.07016703486442566 -0.18058496713638306
-0.09974172711372375 -0.2546845078468323 -0.17244461178779602
0.10562340170145035 -0.4074716567993164 -0.02262702025473118
0.013698291033506393 0.11664780974388123 0.21570008993148804
0.06315046548843384 -0.4128853976726532 -0.009444531053304672
-0.20115824043750763 0.08246009051799774 -0.11045361310243607
-0.016282640397548676 -0.31311020255088806 -0.1945698857307434
-0.15138347446918488 -0.3606325685977936 0.1746978759765625
0.12398375570774078 0.5286310911178589 -0.07302136719226837
0.08179982751607895 0.3383047580718994 -0.16718639433383942
-0.1484096199274063 0.08790049701929092 0.10234229266643524
0.04804592579603195 0.2560506761074066 0.24787597358226776
0.11405424773693085 -0.2939907908439636 -0.17802205681800842
0.21050730347633362 -0.3193851411342621 -0.08347589522600174
0.05809681862592697 0.5566902756690979 -0.15370450913906097
-0.12637487053871155 0.36992454528808594 -0.016580522060394287
-0.06858008354902267 0.07009358704090118 0.18129578232765198
-0.1541016548871994 -0.05762823671102524 -0.17782260477542877
-0.0325569286942482 -0.20647193491458893 -0.16872592270374298
0.1577826291322708 -0.25145605206489563 -0.13847580552101135
0.13430240750312805 0.1533501148223877 -0.16000133752822876
0.12750685214996338 0.2923283576965332 0.15543413162231445
-0.10956896841526031 0.48532041907310486 0.04395553842186928
0.18764621019363403 0.06352739036083221 0.04612566530704498
-0.12955227494239807 0.1733883023262024 -0.11987124383449554
0.15739217400550842 -0.0919194296002388 0.1761440485715866
0.06436669826507568 -0.4123067557811737 0.0614851750433445
-0.03141908347606659 0.14774802327156067 0.24438519775867462
0.07841489464044571 0.18298402428627014 -0.17142316699028015
0.21784934401512146 -0.3134412467479706 -0.05262768641114235
-0.1440458744764328 -0.38668954372406006 -0.2014375627040863
-0.08423459529876709 -0.22939833998680115 -0.1667383909225464
-0.11084438860416412 0.4748459756374359 -0.15811365842819214
-0.1328672468662262 0.0482991561293602 -0.17978185415267944
0.09919892996549606 -0.3548433184623718 -0.19549120962619781
-0.11145717650651932 0.014204910025000572 0.17476855218410492
0.13834434747695923 -0.40739864110946655 0.02763468027114868
-0.03424525260925293 0.391963392496109 -0.16873766481876373
-0.18584126234054565 0.14448422193527222 -0.14510129392147064
-0.07896004617214203 0.5557661056518555 0.0017681382596492767
-0.04671880975365639 0.5618880391120911 -0.0028197690844535828
0.019555099308490753 0.34778186678886414 -0.1704605221748352
0.027166731655597687 0.5639939904212952 0.04495953023433685
0.09699952602386475 0.519754946231842 0.056971561163663864
-0.05845058336853981 0.432259202003479 -0.16711027920246124
0.18353141844272614 0.07430976629257202 -0.00897417776286602
0.07362805306911469 -0.29206326603889465 -0.18465469777584076
-0.014432236552238464 -0.3680117130279541 -0.20422865450382233
-0.06770382076501846 0.5610417723655701 -0.007933788001537323
-0.12136388570070267 0.43754255771636963 0.03316328674554825
0.17183256149291992 -0.38726940751075745 0.10055150091648102
0.10664578527212143 0.1596604734659195 0.2129054069519043
-0.1183050274848938 0.42267754673957825 0.04272636026144028
-0.09300755709409714 -0.4150976240634918 -0.008486690931022167
-0.21616998314857483 -0.16521523892879486 -0.04038907587528229
-0.12450049072504044 0.43036383390426636 0.019739948213100433
0.025197725743055344 -0.2944161593914032 -0.18915344774723053
-0.15320125222206116 0.2979087829589844 -0.14900220930576324
-0.054326437413692474 0.38363683223724365 0.12050998210906982
-0.05964896082878113 -0.11167939752340317 -0.17698021233081818
-0.09179608523845673 0.18465784192085266 0.2269555777311325
-0.07953649759292603 -0.37246090173721313 -0.2058921605348587
0.06888502836227417 0.039841484278440475 0.19177086651325226
0.045499540865421295 -0.3040139079093933 -0.1901746392250061
0.21090750396251678 -0.3354830741882324 -0.030794858932495117
0.21292231976985931 -0.34741634130477905 -0.11590519547462463
0.057031743228435516 -0.4075670540332794 -0.048086293041706085
0.1280200332403183 0.1963852494955063 -0.029140472412109375
0.10296528786420822 -0.408342570066452 0.057015690952539444
-0.02245108038187027 -0.4097573757171631 -0.06311729550361633
0.12179028242826462 -0.08539330959320068 0.20423854887485504
-0.1633894294500351 -0.41270211338996887 -0.015279827639460564
0.06667008996009827 -0.41087794303894043 -0.025741390883922577
0.13713178038597107 0.14779090881347656 -0.054800353944301605
0.03267795592546463 -0.40841665863990784 0.09577655792236328
0.1253265142440796 0.24119780957698822 0.18640367686748505
0.06982957571744919 0.34970569610595703 0.22048577666282654
0.0615810751914978 0.37326502799987793 -0.169560506939888
0.06554964184761047 0.4522610306739807 0.05547338351607323
0.08327574282884598 0.11301080137491226 -0.17558592557907104
0.1363978087902069 0.3899877667427063 0.04315027594566345
0.058656301349401474 -0.41848284006118774 0.05786721780896187
0.1818196028470993 -0.04662998020648956 0.10208497941493988
-0.14890532195568085 -0.14186494052410126 0.17899437248706818
0.21085166931152344 -0.33331483602523804 -0.11790282279253006
0.04003637284040451 0.44351422786712646 0.09345804899930954
-0.12691698968410492 0.23380881547927856 0.021610993891954422
0.08910609036684036 -0.4148936867713928 -0.13528797030448914
-0.18677210807800293 -0.08422086387872696 -0.0052367644384503365
0.12840664386749268 0.14994178712368011 0.019425664097070694
0.16304051876068115 -0.10264857113361359 0.17292878031730652
-0.12503863871097565 0.40334683656692505 0.03435572609305382
0.0659731775522232 0.23244182765483856 0.24263083934783936
0.11709528416395187 -0.2437308430671692 -0.15628264844417572
0.1148020550608635 0.014771196991205215 -0.17379741370677948
0.1350925713777542 0.4544684886932373 -0.0072247982025146484
0.18681976199150085 -0.06876271963119507 0.06661969423294067
0.0070213861763477325 0.18025684356689453 -0.17528410255908966
-0.09129257500171661 0.09768921136856079 0.15170635282993317
0.14138981699943542 0.469279021024704 -0.051909103989601135
-0.1094583049416542 0.5385622382164001 0.007868434302508831
0.07627135515213013 -0.4104055166244507 0.02130582556128502
0.2111586034297943 -0.1152520477771759 -0.07287229597568512
0.18239553272724152 0.1500585675239563 -0.13117703795433044
-0.0428406186401844 0.36690381169319153 0.15061534941196442
-0.007360704243183136 -0.2585524916648865 0.25983622670173645
0.07608681172132492 -0.07918119430541992 0.22742381691932678
-0.12754575908184052 0.23741461336612701 0.011048179119825363
-0.1690080612897873 -0.2802644968032837 -0.15537029504776
-0.017141811549663544 -0.4208514094352722 -0.1374819427728653
0.042577024549245834 0.12165439873933792 0.2167678028345108
0.02525326982140541 0.3984745442867279 -0.16908219456672668
0.21185432374477386 -0.22623534500598907 -0.09780540317296982
-0.09305736422538757 -0.3314438760280609 -0.19726262986660004
0.07360835373401642 0.17936617136001587 0.2532326877117157
-0.0850713849067688 0.36991092562675476 -0.16771332919597626
0.001973334001377225 0.4063940644264221 0.1798200011253357
-0.03671547397971153 0.3517504036426544 -0.16958075761795044
-0.12766745686531067 0.39204373955726624 -0.01651407778263092
0.07534325867891312 0.5428617596626282 -0.16109512746334076
0.21106204390525818 -0.33905482292175293 -0.1160588338971138
-0.1316288560628891 0.16488006711006165 -0.13144834339618683
-0.22016477584838867 -0.19017674028873444 -0.03945932909846306
0.2196180522441864 -0.19231829047203064 -0.048284322023391724
0.05988607928156853 -0.41215670108795166 0.2338901311159134
-0.19230252504348755 -0.08099467307329178 -0.16987065970897675
0.01152854785323143 -0.40995869040489197 -0.073393315076828
-0.011323370039463043 -0.1823500096797943 0.2568593919277191
0.0970984548330307 -0.4118528664112091 -0.10737821459770203
-0.057852063328027725 0.04543851315975189 -0.18188458681106567
0.21859240531921387 -0.19983285665512085 0.00777808204293251
0.21379129588603973 -0.2610064744949341 0.06586290150880814
-0.046359460800886154 -0.4110366404056549 -0.16178125143051147
0.13563939929008484 0.13239683210849762 0.023384254425764084
-0.031912147998809814 0.2674587070941925 -0.1734914630651474
0.1111486405134201 -0.16518674790859222 0.24171513319015503
-0.2094954550266266 -0.2886977791786194 0.08149036020040512
0.01841041073203087 -0.40778887271881104 0.047018684446811676
0.11740712821483612 -0.4033201336860657 0.05367513746023178
-0.1909811943769455 -0.12190400063991547 -0.015695441514253616
-0.12175852805376053 0.12722241878509521 -0.17829477787017822
0.1499405801296234 0.30344343185424805 -0.10195186734199524
0.15441513061523438 -0.09231126308441162 0.179033100605011
-0.04355235770344734 0.5101580023765564 0.09065582603216171
-0.029864240437746048 -0.31135430932044983 -0.19488263130187988
0.038674112409353256 0.3750418722629547 0.22214162349700928
-0.07296182215213776 -0.16265453398227692 0.24573244154453278
-0.2207057625055313 -0.22624951601028442 0.013662269338965416
-0.1572171449661255 -0.2366008460521698 -0.15138162672519684
-0.20374862849712372 -0.40294086933135986 0.026376061141490936
-0.08054192364215851 -0.1614667922258377 -0.1709441989660263
0.21920527517795563 -0.18242399394512177 -0.041099511086940765
0.10141009092330933 -0.42398601770401 -0.12383473664522171
0.12268369644880295 0.1854187548160553 -0.14661888778209686
0.1879873126745224 0.046069614589214325 0.0414336659014225
0.1869426965713501 -0.39830830693244934 0.026060955598950386
-0.12170147895812988 -0.4133574068546295 -0.028503090143203735
-0.12601488828659058 0.26171839237213135 0.09081123024225235
0.14081226289272308 0.3376968204975128 -0.15743295848369598
-0.12856778502464294 -0.41269344091415405 0.13488063216209412
-0.12518832087516785 0.45756855607032776 0.0028260238468647003
-0.09430767595767975 -0.4183466136455536 -0.18987256288528442
0.16881370544433594 -0.3244360685348511 -0.1667332798242569
0.18647250533103943 -0.05347270518541336 0.0569005161523819
-0.08127424865961075 0.39479032158851624 0.0949534997344017
0.12933394312858582 -0.26992326974868774 -0.16435781121253967
0.19932198524475098 0.10772928595542908 -0.12333938479423523
-0.1278606355190277 0.39780697226524353 -0.024386249482631683
0.2212454378604889 -0.2147802710533142 -0.029912732541561127
0.07269953191280365 0.356702983379364 -0.16834311187267303
-0.1976134181022644 -0.0016732513904571533 -0.16901469230651855
-0.1268225759267807 0.3733011484146118 -0.018887262791395187
-0.11685393750667572 -0.4106177091598511 0.12176786363124847
0.146199569106102 0.46741974353790283 -0.15346792340278625
-0.18541133403778076 -0.41139885783195496 0.08994986116886139
-0.08206750452518463 -0.09044158458709717 -0.1771896481513977
0.028111563995480537 0.055013258010149 0.19424037635326385
0.03619958460330963 0.3433162569999695 -0.16966193914413452
0.18231120705604553 -0.4127408266067505 -0.04199991375207901
-0.08518722653388977 -0.06344747543334961 -0.17823809385299683
0.11992126703262329 -0.4135059714317322 0.07513043284416199
-0.0977611243724823 0.5503207445144653 -0.15549513697624207
-0.10341809689998627 0.13464610278606415 -0.1782122105360031
-0.1247776448726654 0.22955477237701416 0.0791882574558258
0.10853922367095947 -0.4110291600227356 -0.03873324766755104
-0.1231103166937828 0.21306607127189636 0.13508149981498718
0.20757947862148285 -0.09137818217277527 -0.09872022271156311
-0.15188392996788025 -0.11639461666345596 -0.17229971289634705
-0.01858462579548359 0.5641794800758362 0.02713216468691826
-0.08684081584215164 0.19626620411872864 -0.17354483902454376
-0.12265651673078537 0.5218246579170227 -0.07233236730098724
0.14468099176883698 -0.2456130087375641 -0.1442699134349823
0.21614915132522583 -0.1830110400915146 -0.10214199125766754
0.07402312010526657 -0.40599411725997925 -0.045468151569366455
0.006174670532345772 0.5671296119689941 -0.12022192776203156
-0.2285800278186798 -0.2524670958518982 -0.09099453687667847
0.0577220544219017 -0.27572429180145264 -0.18172655999660492
-0.06397063285112381 -0.16509097814559937 -0.17016728222370148
-0.18495018780231476 -0.37185370922088623 0.1123839020729065
0.13155993819236755 0.15947432816028595 -0.08188238739967346
-0.14944152534008026 -0.17336994409561157 -0.16575805842876434
0.03967374190688133 -0.3362296223640442 -0.1969902515411377
0.1369033306837082 0.4124235212802887 -0.004766128957271576
-0.14723119139671326 -0.3324645161628723 0.19228985905647278
-0.039336588233709335 0.5628819465637207 -0.007652547210454941
0.18212053179740906 0.11358723789453506 -0.0236298106610775
0.10608267784118652 0.07098795473575592 0.16582843661308289
0.0314921960234642 0.3803667724132538 0.22558721899986267
0.00807260349392891 0.5630533695220947 0.050633013248443604
-0.08471691608428955 0.45505329966545105 -0.16366253793239594
-0.07793267071247101 0.3231157958507538 0.1993546485900879
-0.1446600705385208 0.1369219571352005 -0.05448099970817566
-0.21544651687145233 -0.07936091721057892 -0.1403687596321106
0.06552745401859283 -0.41464465856552124 -0.15818548202514648
-0.01412535086274147 0.16364383697509766 0.2576417028903961
-0.11314450204372406 0.12003330886363983 0.07802194356918335
0.1980164796113968 -0.3713703751564026 0.02968025952577591
0.15258029103279114 0.3081648647785187 -0.125718891620636
-0.1275765597820282 0.38546520471572876 0.003799945116043091
0.12934154272079468 -0.4153708219528198 -0.08390464633703232
0.21841266751289368 -0.17920753359794617 -0.06450814008712769
-0.11796264350414276 0.05553166940808296 0.15540985763072968
-0.1956695169210434 -0.2391137182712555 -0.13591110706329346
0.05557975918054581 0.43375420570373535 0.07662153244018555
-0.11670850217342377 0.3866252899169922 0.06526964902877808
0.21429619193077087 -0.2843877971172333 0.06651923805475235
-0.019222676753997803 0.5625770688056946 0.04030796140432358
-0.1013856828212738 -0.41764867305755615 -0.02004803717136383
-0.20891925692558289 -0.2868638336658478 0.08166715502738953
0.19495536386966705 -0.22721216082572937 0.12827341258525848
0.03807045519351959 0.13521277904510498 0.2274254411458969
-0.2175992727279663 -0.13601204752922058 -0.14123927056789398
-0.19905981421470642 -0.35089778900146484 0.075047068297863
-0.11483154445886612 0.536899745464325 -0.000324007123708725
0.12576189637184143 -0.3615274727344513 0.19328486919403076
-0.2077149599790573 -0.08847178518772125 -0.0323522612452507
0.1353212594985962 -0.41665029525756836 0.07855479419231415
0.02657889947295189 -0.4099641740322113 0.0158066488802433
0.11237171292304993 -0.17973285913467407 0.23905225098133087
-0.1852787882089615 0.06957907229661942 -0.01518985629081726
0.06326016783714294 -0.026405982673168182 0.21099485456943512
0.21633651852607727 -0.18130943179130554 0.004005602560937405
0.026523839682340622 0.4742247760295868 0.07438677549362183
0.03938981890678406 0.4292508363723755 0.11309190094470978
0.07163971662521362 0.29486432671546936 0.21171686053276062
0.15277893841266632 0.3079361617565155 -0.08706024289131165
-0.05036642774939537 -0.045121930539608 -0.17786306142807007
-0.22080959379673004 -0.23307698965072632 0.018422383815050125
-0.12704162299633026 0.3611333966255188 0.023728063330054283
-0.0035178568214178085 0.3410871922969818 0.2390286922454834
-0.21592766046524048 -0.27932843565940857 0.05648179352283478
0.2207937240600586 -0.2318076491355896 -0.07823313772678375
0.018775738775730133 0.4982239305973053 0.09379379451274872
0.1885916292667389 -0.09230463206768036 0.01886781118810177
-0.18606585264205933 -0.3288399875164032 0.13216695189476013
-0.05015457794070244 -0.17063091695308685 0.25535476207733154
-0.17556345462799072 -0.14750416576862335 0.11492356657981873
0.1321640908718109 -0.1732580065727234 0.2243558168411255
-0.1969721019268036 -0.19214017689228058 0.0931638851761818
-0.2258683741092682 -0.21899613738059998 -0.08148829638957977
-0.17892315983772278 0.08804193884134293 0.035174690186977386
0.21738608181476593 -0.17446282505989075 -0.09787513315677643
-0.04786847531795502 0.3323217034339905 -0.17017027735710144
0.17997711896896362 0.0836256742477417 0.07031728327274323
-0.13119088113307953 0.35724273324012756 -0.028140172362327576
0.08740300685167313 -0.40632256865501404 0.07761427760124207
0.0997435599565506 0.1991768479347229 0.23610296845436096
-0.061527885496616364 -0.04033021628856659 0.21561670303344727
0.12289120256900787 -0.42242997884750366 -0.10126082599163055
0.12378457188606262 -0.3555206060409546 -0.19101479649543762
-0.19665174186229706 -0.00560685433447361 -0.17049863934516907
-0.19447852671146393 -0.17625683546066284 0.08224537968635559
0.05760672315955162 -0.06959874927997589 -0.17416702210903168
0.002291237935423851 0.3824281692504883 0.23286838829517365
0.050444021821022034 0.043209925293922424 -0.177472323179245
0.10898998379707336 0.19129250943660736 -0.1622270792722702
0.172556072473526 -0.325875848531723 -0.16570702195167542
0.1421896517276764 -0.2133709043264389 -0.14482755959033966
0.13067637383937836 0.4856807589530945 -0.054933447390794754
-0.2005874365568161 -0.17429973185062408 -0.016750255599617958
-0.17728492617607117 -0.03795089200139046 0.09246944636106491
0.13204827904701233 -0.0836060494184494 0.19765117764472961
0.20009268820285797 -0.02668740414083004 -0.013832779601216316
-0.053328655660152435 0.4377124607563019 -0.16679887473583221
-0.10155362635850906 -0.1509186327457428 0.22465527057647705
-0.012806551530957222 0.4315796196460724 0.12460199743509293
0.19361676275730133 0.08793586492538452 -0.03737499192357063
0.12352678179740906 0.3548182547092438 -0.1659272015094757
-0.20482051372528076 0.03596332296729088 -0.12243558466434479
-0.03780766949057579 0.5622295141220093 -0.012673266232013702
0.22052575647830963 -0.2185882031917572 -0.08084332942962646
0.13237527012825012 -0.07931786775588989 0.1971687376499176
0.18849687278270721 -0.2379358410835266 -0.11851487308740616
0.12496812641620636 -0.2033451795578003 0.23655371367931366
0.07747665047645569 -0.17811459302902222 0.2516041100025177
-0.12168794125318527 -0.20533525943756104 0.22279614210128784
0.14301525056362152 0.3675489127635956 -0.16006948053836823
0.10032634437084198 -0.4143265187740326 -0.11849211901426315
0.1694178283214569 -0.41703522205352783 -0.06928090751171112
0.13571828603744507 0.35384297370910645 0.053754523396492004
-0.04793117567896843 0.5628834962844849 -0.021511930972337723
0.1276879459619522 0.2566685676574707 0.1785287708044052
0.07608184963464737 -0.039736099541187286 0.21762824058532715
0.012079749256372452 0.17007264494895935 -0.1753339320421219
-0.11280837655067444 0.1423504650592804 -0.1726519763469696
-0.12792912125587463 0.3491925299167633 -0.04888470098376274
-0.1096591055393219 0.10814535617828369 0.10469739884138107
0.10693828016519547 0.17395178973674774 0.2258978635072708
-0.1314179003238678 0.4051080644130707 -0.15939319133758545
0.12574554979801178 0.1354377716779709 0.09144991636276245
-0.06791996955871582 -0.3876008987426758 -0.2075955718755722
0.08688873052597046 0.3507629632949829 -0.16696272790431976
-0.13639861345291138 0.44434216618537903 -0.15284913778305054
0.013252295553684235 0.5604777932167053 0.06231444701552391
0.1058603823184967 0.26368069648742676 -0.16174179315567017
0.05655008181929588 0.18476785719394684 0.25605443120002747
0.12707766890525818 0.23156043887138367 0.18528780341148376
0.051727816462516785 0.30292367935180664 0.21348194777965546
0.17405056953430176 -0.17451395094394684 0.14680777490139008
-0.10650278627872467 -0.2093210220336914 0.23642683029174805
0.20785197615623474 -0.3683745861053467 -0.02004918083548546
0.17323344945907593 0.10693027079105377 0.0726989135146141
-0.11626346409320831 -0.2196328043937683 0.22477412223815918
-0.12464211881160736 0.31134462356567383 0.11191823333501816
0.12475219368934631 -0.3525350093841553 0.19648917019367218
9.011849761009216e-05 0.11212330311536789 0.2071790099143982
-0.11718692630529404 0.3148723840713501 -0.16846345365047455
0.07394380122423172 -0.1434856653213501 0.2461194545030594
0.09802334010601044 -0.1359444558620453 0.23513568937778473
-0.0712483674287796 -0.4008333086967468 0.06812331825494766
0.10983189940452576 0.5464284420013428 -0.13385149836540222
0.11590521037578583 -0.14536194503307343 -0.16223368048667908
-0.12259218841791153 0.29899755120277405 0.1366785317659378
-0.09378567337989807 -0.4112400710582733 0.14661426842212677
0.22145318984985352 -0.28761225938796997 -0.008114656433463097
0.05678120255470276 -0.40050867199897766 0.2420007288455963
-0.08686959743499756 -0.4119332730770111 -0.0013499651104211807
-0.1568821668624878 -0.41872355341911316 -0.06764553487300873
-0.0044856444001197815 -0.09206780046224594 -0.176086887717247
-0.1497538536787033 -0.06043219566345215 -0.17684195935726166
-0.1827288568019867 -0.13546989858150482 -0.16708922386169434
-0.09173212945461273 -0.4156644940376282 -0.01234055869281292
0.15915657579898834 -0.2689254879951477 -0.14691710472106934
0.204382985830307 0.06581485271453857 -0.07565547525882721
0.10734065622091293 0.5480881333351135 -0.1378069967031479
0.19143760204315186 -0.3428663909435272 0.06094023212790489
-0.16907986998558044 -0.16463884711265564 0.13976919651031494
0.009648121893405914 -0.38179609179496765 -0.20539623498916626
0.06549602001905441 -0.3901039958000183 0.24358181655406952
-0.03498707711696625 0.39772874116897583 -0.16922086477279663
0.11792407929897308 0.17117270827293396 0.20404784381389618
0.009532444179058075 0.29724565148353577 -0.17229107022285461
0.10724357515573502 0.27841201424598694 0.1986689269542694
-0.09056492149829865 -0.4200393259525299 -0.06212742626667023
-0.22555707395076752 -0.25808942317962646 -0.005391980521380901
-0.16790619492530823 -0.16530537605285645 0.14464417099952698
0.01999911293387413 0.3660338222980499 -0.16968832910060883
-0.047983136028051376 0.39672502875328064 -0.16845771670341492
0.03509726747870445 0.10274121165275574 -0.1766381412744522
0.08266910910606384 0.3677784204483032 0.1347864270210266
0.1463622897863388 -0.18857303261756897 -0.15114538371562958
0.06382477283477783 -0.38918131589889526 0.24377483129501343
0.13460572063922882 0.2928942143917084 0.11922123283147812
0.19884097576141357 -0.18628545105457306 0.09149587899446487
0.06719330698251724 -0.1640695035457611 0.2505403161048889
0.18554209172725677 0.050369247794151306 0.018491089344024658
-0.1452963799238205 0.41302818059921265 -0.14667512476444244
-0.1690206229686737 -0.09581559896469116 -0.17184120416641235
-0.09064152836799622 0.03915931284427643 0.18006053566932678
-0.18203240633010864 -0.03014378249645233 0.07682844996452332
-0.15569882094860077 -0.18249937891960144 0.1806894689798355
0.07741245627403259 0.1295907199382782 0.2025604546070099
0.18598128855228424 0.11068110167980194 -0.15727244317531586
-0.15558165311813354 -0.20082588493824005 0.18356582522392273
0.21099095046520233 -0.11891266703605652 -0.06037592142820358
-0.048168931156396866 -0.062069591134786606 -0.17949031293392181
0.035443015396595 0.21010896563529968 0.25964444875717163
-0.06702091544866562 0.5304694771766663 -0.16105502843856812
-0.06591141223907471 0.3437826335430145 0.17662359774112701
-0.21479730308055878 -0.077206552028656 -0.14530931413173676
-0.012630194425582886 -0.11372575163841248 0.24367766082286835
-0.12766309082508087 0.36465558409690857 -0.054416436702013016
-0.1343861073255539 -0.2738233506679535 0.21594490110874176
0.040239013731479645 -0.14655908942222595 0.248734712600708
0.11033928394317627 -0.4135834872722626 -0.07100129127502441
0.02789250575006008 -0.17356045544147491 0.2496662437915802
-0.0610007643699646 0.06449786573648453 0.1859552413225174
-0.2039865255355835 0.023062696680426598 -0.15197905898094177
-0.1711551696062088 0.0005803816020488739 0.09522704780101776
-0.020556550472974777 0.4149817228317261 -0.16994404792785645
-0.20348867774009705 -0.10499130934476852 -0.02592061646282673
-0.038976192474365234 -0.35706138610839844 -0.20380546152591705
-0.12380018830299377 0.49112215638160706 -0.006810404360294342
-0.21357515454292297 -0.06833206117153168 -0.13193771243095398
-0.05905564874410629 0.3502081334590912 -0.1695234626531601
-0.15990228950977325 0.31234821677207947 -0.13992641866207123
0.16231375932693481 -0.3188721537590027 0.17705821990966797
0.0271286740899086 0.004244163632392883 -0.1786905974149704
-0.2258847951889038 -0.24092185497283936 -0.07277093827724457
-0.13110895454883575 0.1355864703655243 -0.031234361231327057
-0.2025751918554306 -0.40558984875679016 -0.15137681365013123
-0.11771020293235779 0.54738450050354 -0.114935502409935
-0.05009695142507553 -0.31268271803855896 -0.19615177810192108
-0.11308031529188156 -0.04380679875612259 0.18871977925300598
0.21029748022556305 -0.31151458621025085 0.02095705084502697
0.06147287040948868 0.24396546185016632 0.24251696467399597
-0.08528687059879303 -0.06962178647518158 0.21302326023578644
-0.18642155826091766 -0.03630086034536362 0.03819107636809349
-0.14411495625972748 0.002464771270751953 0.14556853473186493
0.2137010246515274 -0.34001392126083374 -0.11110296100378036
-0.02726166695356369 0.3102048933506012 0.22721821069717407
0.18576478958129883 -0.09255267679691315 0.0766056552529335
0.09202870726585388 0.5708286762237549 -0.06627421081066132
0.1392887830734253 -0.18341562151908875 -0.1530180424451828
-0.12262420356273651 0.5236697196960449 -0.07158838212490082
0.21943975985050201 -0.1974361687898636 -0.052586860954761505
-0.08535037934780121 -0.4131857752799988 0.2061442881822586
0.21766719222068787 -0.3486616313457489 -0.10723855346441269
-0.11757052689790726 -0.40475255250930786 0.0769224688410759
-0.18269449472427368 0.010400354862213135 0.055804841220378876
0.11740502715110779 -0.3976115882396698 0.056752972304821014
0.06311938166618347 0.570864200592041 -0.09504114091396332
0.09728045761585236 -0.3945900797843933 -0.20026174187660217
-0.18864686787128448 -0.07407912611961365 -0.013024821877479553
0.12940575182437897 0.1642594337463379 -0.11670371890068054
0.12103090435266495 0.07644908875226974 0.15617163479328156
-0.08125155419111252 0.5332213640213013 -0.1602548062801361
-0.02108577825129032 0.2145916223526001 -0.17492316663265228
0.052887484431266785 -0.4128968119621277 0.053117454051971436
0.18765456974506378 -0.41664019227027893 -0.15559500455856323
0.11100541055202484 -0.1742633581161499 0.23781520128250122
0.16370533406734467 0.09921883791685104 0.10020709037780762
0.11702420562505722 -0.4126872718334198 -0.10555537045001984
-0.08816777169704437 0.033916957676410675 0.18315944075584412
0.03678493946790695 -0.10252678394317627 -0.17453663051128387
0.17010030150413513 0.15786375105381012 -0.14189131557941437
-0.14308495819568634 0.3671967089176178 -0.09372300654649734
-0.11018270254135132 0.5382097959518433 0.004566889256238937
0.1766485571861267 0.04620765894651413 0.09737519174814224
0.12774057686328888 0.12850406765937805 0.07920633256435394
0.014935433864593506 -0.4035978317260742 0.029764536768198013
0.12435244023799896 0.3481486439704895 0.11614113301038742
0.08282613009214401 0.5559831261634827 0.026598922908306122
-0.13978096842765808 -0.41916441917419434 -0.10812043398618698
0.21644292771816254 -0.25249069929122925 0.0634438768029213
0.12739884853363037 -0.41370129585266113 0.10217233002185822
-0.0018490906804800034 0.2674233913421631 0.22813448309898376
0.2104879915714264 -0.3072865605354309 0.06486956030130386
0.20714503526687622 -0.3098542392253876 0.07426504790782928
-0.039362162351608276 0.49916499853134155 0.08946177363395691
-0.18511970341205597 0.006932572927325964 0.028487134724855423
-0.19614605605602264 -0.3079040050506592 -0.14450256526470184
0.2028338462114334 0.047376420348882675 -0.09000781923532486
0.17396984994411469 0.06394260376691818 -0.16864782571792603
-0.19947482645511627 -0.40341916680336 0.07789075374603271
-0.12367000430822372 0.20722198486328125 0.08228002488613129
-0.09236204624176025 -0.41568201780319214 -0.03757365420460701
0.17495813965797424 -0.27240344882011414 -0.13576646149158478
-0.0275974590331316 0.44226372241973877 0.09101052582263947
0.13035637140274048 0.33433300256729126 0.11354319751262665
-0.031470946967601776 -0.1975952386856079 -0.1672595739364624
0.010842859745025635 -0.2890506088733673 0.2640310227870941
0.10459127277135849 -0.25779762864112854 -0.16817234456539154
0.19358085095882416 -0.3511509299278259 0.04770773649215698
-0.12566843628883362 0.3359104096889496 0.07078532129526138
0.15869320929050446 -0.1995229572057724 -0.14504745602607727
-0.007698621600866318 0.2167925238609314 0.2536402940750122
0.19750255346298218 -0.293842077255249 -0.11451080441474915
-0.06795394420623779 -0.23136469721794128 0.2549726366996765
-0.1272406280040741 0.3785853087902069 0.033008672297000885
-0.09992430359125137 0.42221599817276 -0.16378755867481232
0.21841077506542206 -0.2572284936904907 0.053407736122608185
-0.156419575214386 -0.41873133182525635 -0.06330149620771408
-0.15007977187633514 -0.4164368212223053 -0.19574974477291107
-0.03537796437740326 -0.414254367351532 -0.16386979818344116
-0.15567633509635925 0.10171355307102203 0.06991651654243469
0.15526795387268066 -0.35507601499557495 0.1545390486717224
-0.21049006283283234 -0.04460137337446213 -0.11632977426052094
0.18168802559375763 0.05280910059809685 0.07997807115316391
0.1276654154062271 0.22088180482387543 -0.058443132787942886
-0.09987525641918182 -0.4174448847770691 -0.19232304394245148
0.08722860366106033 -0.06123635917901993 0.21806564927101135
-0.007328227162361145 -0.41467323899269104 -0.1540636122226715
0.11858905106782913 0.3189932405948639 0.1573721468448639
0.08681242167949677 0.4930794835090637 0.07346397638320923
0.03493272885680199 0.06987187266349792 -0.17814241349697113
0.1865367740392685 -0.2268529236316681 -0.12258496135473251
-0.19832082092761993 -0.08361771702766418 -0.1672152280807495
-0.040545254945755005 0.040993206202983856 0.195229634642601
0.13111229240894318 -0.40786924958229065 0.16085782647132874
-0.11464974284172058 0.07828676700592041 0.14932593703269958
-0.1988498568534851 -0.1091935858130455 -0.16460978984832764
0.06603293120861053 0.18508563935756683 0.25698918104171753
0.059111930429935455 0.13152509927749634 0.2158854752779007
0.01984671875834465 -0.41345953941345215 0.21407267451286316
0.14058463275432587 -0.21846145391464233 0.22487594187259674
-0.10190240293741226 0.4682394862174988 0.053012557327747345
-0.05437031388282776 0.43633320927619934 -0.16678445041179657
0.030129851773381233 0.12450709193944931 0.22245903313159943
0.11583474278450012 -0.34039488434791565 -0.18963244557380676
0.008064623922109604 -0.25158601999282837 -0.17934033274650574
-0.0004948712885379791 -0.18477943539619446 -0.16722573339939117
-0.20363686978816986 -0.014658436179161072 -0.04425043240189552
0.18659837543964386 0.031181933358311653 -0.00867969449609518
0.0005550608038902283 0.453892320394516 -0.16813941299915314
-0.04099588468670845 -0.002437969669699669 0.2113380879163742
-0.03642537072300911 0.4565691649913788 0.06444328278303146
-0.07986804842948914 0.37266257405281067 -0.1674894243478775
-0.1858399659395218 -0.06177673861384392 0.047694187611341476
-0.16360343992710114 -0.3685353398323059 -0.19125190377235413
0.1236259862780571 -0.4140041470527649 -0.0005583353340625763
0.08955083787441254 0.01705877110362053 -0.17477287352085114
0.005479354411363602 0.156819149851799 0.257915735244751
-0.2169632464647293 -0.22747041285037994 0.03443862497806549
0.19577203691005707 -0.33111560344696045 0.07770828157663345
0.04595181345939636 -0.41286370158195496 0.18500788509845734
0.0028530657291412354 0.21016186475753784 0.258459210395813
0.11290575563907623 -0.4145539104938507 -0.10235434770584106
-0.18457162380218506 -0.0032521728426218033 0.025122957304120064
0.12562192976474762 0.1385049670934677 0.08989271521568298
0.21836134791374207 -0.36580008268356323 -0.11605645716190338
0.21842063963413239 -0.3627306818962097 -0.11254754662513733
0.09313732385635376 -0.00654994323849678 0.20111984014511108
0.18629850447177887 -0.041814155876636505 0.06994134187698364
0.12832489609718323 0.19706276059150696 -0.02560131624341011
-0.17908047139644623 -0.09160768985748291 -0.17065095901489258
0.11503323167562485 0.11682599782943726 0.13543136417865753
-0.1119370236992836 -0.2815512716770172 0.23550136387348175
-0.05591181293129921 0.45694711804389954 -0.1669922024011612
0.19535917043685913 0.004827532451599836 -0.018514826893806458
0.10739060491323471 -0.4153253734111786 -0.1139782965183258
-0.1301479935646057 0.3764767050743103 -0.02521975338459015
0.0357310026884079 0.3760485053062439 0.22784779965877533
-0.11542676389217377 -0.002908775582909584 0.1758245825767517
-0.06473011523485184 0.46381625533103943 -0.1666111946105957
-0.11681046336889267 0.20436227321624756 0.19432416558265686
0.03526817634701729 -0.21377092599868774 -0.16742151975631714
0.13130976259708405 0.14645367860794067 -0.02465417981147766
-0.18519265949726105 -0.030229108408093452 0.0043262699618935585
0.061373014003038406 -0.061566419899463654 -0.17559996247291565
0.15045695006847382 0.4546118974685669 -0.14120416343212128
0.21291831135749817 -0.3859022557735443 -0.13976512849330902
0.10263588279485703 0.5660802125930786 -0.06206715106964111
0.08465778827667236 -0.016131296753883362 0.20742088556289673
-0.14695881307125092 -0.22574886679649353 0.19751621782779694
0.11098852753639221 0.3222157061100006 0.16233029961585999
0.14703090488910675 -0.1695939302444458 -0.15353526175022125
0.11083859950304031 -0.2061287760734558 0.24339520931243896
-0.037831880152225494 0.23582370579242706 0.2469860315322876
0.10970516502857208 -0.18464818596839905 0.23383831977844238
-0.04706143960356712 0.5590817928314209 0.030307510867714882
0.18683533370494843 0.08767480403184891 0.024904776364564896
0.13408143818378448 0.14127662777900696 -0.017651613801717758
-0.12558327615261078 0.2745889723300934 0.09096278995275497
0.21468769013881683 -0.320061057806015 -0.04740731418132782
0.1949230432510376 -0.29794180393218994 -0.12285049259662628
-0.20854243636131287 -0.08291816711425781 -0.034959420561790466
-0.19555942714214325 -0.22218400239944458 0.10942137986421585
0.20391309261322021 -0.4108560383319855 -0.14916382730007172
0.04926125705242157 0.3075297474861145 0.21897029876708984
-0.12065109610557556 0.18557876348495483 -0.034247104078531265
-0.10536666959524155 0.34772706031799316 0.12333644181489944
-0.0939653143286705 0.1298452615737915 -0.17988792061805725
-0.21189729869365692 -0.09256245195865631 -0.0483606681227684
0.17696478962898254 0.15204066038131714 -0.1233411431312561
-0.2092408686876297 -0.36054113507270813 0.011294439435005188
-0.05088561028242111 -0.4001178443431854 -0.20759317278862
-0.16677351295948029 -0.4131355583667755 0.09909380972385406
0.08286798745393753 0.11869081854820251 0.18091747164726257
-0.06769518554210663 0.36632755398750305 -0.16764672100543976
-0.16002745926380157 -0.1411902755498886 -0.16966521739959717
0.05708754435181618 -0.16916412115097046 0.25544795393943787
-0.20354609191417694 -0.22931024432182312 -0.13254885375499725
-0.018224500119686127 -0.4130696952342987 -0.157376229763031
-0.1156487688422203 0.5404132604598999 -0.02692951261997223
0.13631297647953033 0.35662490129470825 0.04237978160381317
0.21872097253799438 -0.36232173442840576 -0.11349241435527802
0.1202411875128746 -0.4060381352901459 -0.19752882421016693
0.2107788324356079 -0.32934871315956116 -0.10861817002296448
-0.19969484210014343 0.0026203766465187073 -0.1666633039712906
0.0438845269382 0.2733808755874634 0.22301837801933289
-0.10457092523574829 -0.22629614174365997 -0.16254614293575287
0.11171325296163559 -0.4123726189136505 0.08992082625627518
0.07787886261940002 -0.24995028972625732 -0.17097528278827667
0.06778668612241745 -0.14737415313720703 -0.1665101796388626
0.12730292975902557 -0.29075193405151367 0.22301439940929413
-0.11426248401403427 -0.4164751470088959 -0.020639266818761826
-0.10232508927583694 0.0071787163615226746 0.1828794628381729
-0.010122202336788177 -0.4160778224468231 -0.10531952232122421
0.15505988895893097 0.34807074069976807 -0.10475358366966248
0.07782826572656631 -0.41104695200920105 0.061953622847795486
-0.06435706466436386 -0.41465601325035095 0.10092614591121674
0.11726263165473938 -0.3976973295211792 -0.19883644580841064
-0.2122904658317566 -0.23972418904304504 0.07031005620956421
0.18535611033439636 -0.3416499197483063 -0.16360493004322052
0.01195530965924263 0.23128099739551544 0.25202563405036926
0.1757427453994751 -0.06409735977649689 0.13014920055866241
0.17553290724754333 0.05576983839273453 0.09722854942083359
0.09398393332958221 -0.38717377185821533 -0.19912299513816833
-0.1567501574754715 0.36124423146247864 -0.1390487402677536
-0.17329686880111694 -0.04258880764245987 0.10161077231168747
-0.00929524376988411 0.05922093987464905 0.19471582770347595
0.07687058299779892 -0.1652100384235382 0.24819552898406982
-0.07274894416332245 0.09518074244260788 -0.1817123144865036
-0.016217302531003952 -0.2961277961730957 -0.19154855608940125
-0.14062491059303284 -0.4125779867172241 0.11721020191907883
0.024421054869890213 -0.4165993928909302 -0.08915159106254578
0.20451314747333527 -0.02564333565533161 -0.08208809792995453
0.021686382591724396 0.5617280006408691 0.052372630685567856
-0.21431617438793182 -0.39027008414268494 -0.10926195234060287
-0.15582327544689178 0.33358192443847656 -0.1138601154088974
0.21797561645507812 -0.2545792758464813 0.05500131845474243
-0.10581789165735245 -0.2920721769332886 -0.1852884143590927
0.029908422380685806 0.5691259503364563 -0.14119139313697815
0.07940736413002014 0.5703719258308411 -0.10793706774711609
0.12703216075897217 -0.16885700821876526 -0.15934248268604279
0.12798309326171875 0.177620530128479 -0.11797834932804108
-0.15905289351940155 0.31764644384384155 -0.12326276302337646
-0.19170193374156952 0.1256614327430725 -0.1628107726573944
0.13291777670383453 0.4852748513221741 -0.01230345293879509
0.17390789091587067 -0.3235347270965576 0.13916492462158203
0.22454582154750824 -0.25478145480155945 -0.02419119141995907
0.15409626066684723 -0.3437429666519165 0.17506535351276398
0.07825735211372375 -0.40994343161582947 0.04422018304467201
0.18439187109470367 -0.4048879146575928 0.037753231823444366
-0.0023035071790218353 -0.18801367282867432 0.2622310221195221
0.21732740104198456 -0.24922873079776764 -0.08329928666353226
-0.017103541642427444 -0.4065788984298706 0.06978297978639603
0.13338054716587067 0.24993498623371124 0.0800761803984642
0.12321779131889343 -0.3591591417789459 0.19529759883880615
-0.0021444521844387054 0.12098544836044312 -0.17806309461593628
0.2221354991197586 -0.2724767327308655 0.0223102867603302
0.13709893822669983 -0.4157869815826416 0.08273401856422424
0.02151307463645935 0.08850443363189697 0.18606187403202057
0.08215059340000153 0.3343832194805145 0.2140597403049469
0.12494098395109177 -0.4115026593208313 0.03533181920647621
-0.03363180160522461 0.46163874864578247 0.06767193228006363
0.124964140355587 0.2808418869972229 0.16976818442344666
-0.1233404353260994 0.2097616195678711 -0.07423075288534164
-0.17566268146038055 -0.12414237856864929 0.11908828467130661
-0.044207725673913956 0.11496961116790771 0.19679152965545654
0.12769483029842377 0.15005742013454437 0.060912102460861206
0.12872430682182312 0.30113306641578674 0.13882257044315338
-0.1849200427532196 -0.13419926166534424 -0.16688239574432373
-0.14307460188865662 -0.28237462043762207 0.20316347479820251
-0.18279141187667847 -0.41654661297798157 0.03743000328540802
0.1864604949951172 -0.0481642447412014 0.06267119944095612
-0.05995018407702446 -0.023356489837169647 -0.17864632606506348
0.17658941447734833 -0.17641988396644592 0.13833580911159515
0.06195564195513725 -0.13113854825496674 0.2436865121126175
0.08272144198417664 0.3052721619606018 0.21302618086338043
-0.08540936559438705 -0.4144054353237152 0.1855197697877884
0.07663283497095108 -0.002668004482984543 0.2046753168106079
-0.06892310827970505 0.06704776734113693 -0.1812404841184616
-0.15438659489154816 0.3351154327392578 -0.10853744298219681
-0.12093229591846466 0.2054828554391861 0.18185928463935852
0.1700620949268341 -0.3545515537261963 -0.18081755936145782
-0.038708969950675964 0.14182928204536438 -0.17858313024044037
0.1873047798871994 -0.28206416964530945 -0.12206491082906723
0.1952894777059555 -0.18339864909648895 0.09307616204023361
-0.10185213387012482 0.4976053833961487 0.05264567956328392
0.007105004042387009 -0.4181276261806488 -0.0920591801404953
0.1251688301563263 -0.21609631180763245 -0.14964406192302704
0.1523701399564743 0.36272135376930237 -0.11217742413282394
-0.1845831573009491 -0.003425225615501404 0.024721916764974594
0.20322370529174805 -0.027142394334077835 -0.036142390221357346
-0.1758633702993393 -0.2310408651828766 0.15378594398498535
-0.11077531427145004 0.41624754667282104 -0.16380667686462402
0.13945041596889496 -0.16308137774467468 -0.1583896279335022
-0.20961502194404602 -0.19199995696544647 0.044221073389053345
-0.15685181319713593 -0.036471471190452576 0.13515564799308777
-0.029311243444681168 0.5647463202476501 -0.09894019365310669
-0.1244969591498375 0.29557135701179504 0.12808357179164886
-0.015835648402571678 0.19334501028060913 0.2592812478542328
-0.19655773043632507 -0.4169314503669739 -0.12263762950897217
-0.016496073454618454 0.04129388928413391 0.19931642711162567
-0.027651730924844742 0.21246293187141418 0.25119102001190186
0.12900681793689728 0.14826425909996033 0.012277863919734955
0.07188306748867035 -0.035919710993766785 0.21449358761310577
0.08996273577213287 -0.11621400713920593 0.233537495136261
-0.21157459914684296 -0.19926407933235168 0.04620839282870293
-0.10885778069496155 0.5250121355056763 0.025411587208509445
-0.1051691547036171 -0.4199661612510681 -0.05912492424249649
0.16173121333122253 -0.22402594983577728 -0.1363486498594284
-0.03184422105550766 0.5610314011573792 0.029613124206662178
-0.09236794710159302 0.11146153509616852 0.139433816075325
0.13115127384662628 0.2272205352783203 0.08046474307775497
-0.11174994707107544 -0.07359877973794937 -0.17674700915813446
-0.13052304089069366 0.15543656051158905 -0.09009552001953125
0.2089373618364334 -0.39744722843170166 -0.043536920100450516
0.0735529214143753 0.45896464586257935 0.05873582139611244
-0.1186695247888565 0.5159032940864563 -0.09548453241586685
0.12290961295366287 -0.4155530035495758 -0.12784406542778015
0.11643778532743454 0.5102924108505249 -0.15180647373199463
-0.12724590301513672 0.45274442434310913 -0.025594383478164673
0.12549787759780884 -0.19968479871749878 0.2324870228767395
0.2239496409893036 -0.23747238516807556 0.011401238851249218
-0.180124431848526 0.1298278123140335 -0.1614050418138504
-0.054287105798721313 0.07131624221801758 0.18570557236671448
-0.13299602270126343 -0.30327296257019043 0.2185208946466446
-0.0500875748693943 0.43209147453308105 -0.16739527881145477
-0.04278111457824707 0.37931951880455017 0.1297420859336853
-0.09182638674974442 0.5507439970970154 0.0017181634902954102
0.08691897988319397 0.2551245391368866 0.22975043952465057
-0.08594097197055817 0.08030208945274353 0.16972841322422028
-0.21552994847297668 -0.08296045660972595 -0.140764519572258
0.0936456024646759 -0.379894882440567 0.2204263061285019
0.20275987684726715 -0.3057476878166199 0.08658341318368912
-0.007615160197019577 -0.17195133864879608 -0.1698191612958908
-0.15475508570671082 -0.4159999489784241 0.07831830531358719
0.13805322349071503 -0.172004833817482 -0.15671980381011963
0.13506369292736053 0.44176506996154785 -0.018877021968364716
-0.01998784765601158 -0.41768181324005127 -0.03549277409911156
0.16900093853473663 -0.17316514253616333 -0.14899124205112457
-0.21173401176929474 -0.3162781596183777 -0.08765186369419098
-0.02168843150138855 -0.4212104380130768 -0.1364700347185135
-0.008213181048631668 0.16682568192481995 -0.17583882808685303
-0.12858550250530243 0.33691444993019104 0.019434239715337753
0.2209739238023758 -0.2779748737812042 -0.044985901564359665
-0.12751446664333344 0.3003746271133423 0.03842734172940254
0.054388515651226044 -0.4134412705898285 0.10925684124231339
0.12192773073911667 0.11695123463869095 0.1112503930926323
-0.04369603469967842 0.3203043043613434 0.22637204825878143
0.07678856700658798 -0.23902630805969238 -0.168328657746315
-0.02588023990392685 -0.29843297600746155 -0.19161154329776764
0.11459295451641083 -0.413686066865921 -0.10190925002098083
0.16477537155151367 -0.41039982438087463 0.027893729507923126
0.1314251571893692 0.22738376259803772 0.08880876749753952
0.0770021453499794 0.563815712928772 0.018502656370401382
0.22057265043258667 -0.26779964566230774 -0.04975496232509613
-0.2053615152835846 0.01557897962629795 -0.15578317642211914
-0.06559045612812042 -0.17783306539058685 0.24918349087238312
0.0530724972486496 -0.41323357820510864 -0.0034080445766448975
-0.0968211442232132 0.45955923199653625 0.05260126292705536
0.09349514544010162 -0.41485029458999634 -0.1027722880244255
0.16418209671974182 -0.3430165648460388 0.1466270387172699
0.1365257352590561 0.3358064889907837 0.0770203247666359
0.026093432679772377 0.5673728585243225 -0.019544091075658798
