0.15329477190971375 -0.4171385169029236 -0.1700570434331894
-0.18829289078712463 -0.41787874698638916 0.04336614906787872
0.11111005395650864 -0.21008718013763428 0.2479655146598816
0.13251900672912598 0.27692559361457825 -0.08856570720672607
0.19448336958885193 -0.405129075050354 0.005128905177116394
0.18074922263622284 -0.030279109254479408 0.10615238547325134
0.19998809695243835 -0.3462403118610382 0.009989302605390549
0.13901770114898682 0.012621801346540451 0.1683991253376007
0.1448899805545807 -0.15574540197849274 -0.15817824006080627
-0.07660651206970215 0.28759002685546875 0.21337999403476715
-0.10306328535079956 0.5527658462524414 -0.14523135125637054
0.10297156125307083 -0.026507370173931122 -0.1736481487751007
-0.09084965288639069 -0.33112484216690063 0.237444669008255
0.03660816699266434 0.31604844331741333 0.231620654463768
0.08591766655445099 -0.09761355817317963 0.2290126085281372
-0.11089257150888443 -0.4145124554634094 0.13575910031795502
-0.03854982927441597 0.05862560123205185 0.19466760754585266
-0.20461508631706238 -0.362881064414978 0.026632346212863922
0.15429525077342987 0.33318042755126953 -0.11951768398284912
-0.12356504797935486 0.4072902202606201 -0.01995961368083954
-0.059253498911857605 -0.1651020497083664 -0.17138420045375824
0.014484528452157974 -0.26322391629219055 -0.17906811833381653
0.17891497910022736 -0.41428065299987793 0.034766823053359985
-0.22578230500221252 -0.2589569091796875 -0.04941558092832565
0.034189656376838684 0.5683894753456116 -0.00010907300747931004
0.21407359838485718 -0.30647310614585876 0.03217943757772446
0.1633138209581375 -0.41932785511016846 -0.16001783311367035
-0.07779881358146667 0.5558188557624817 0.01939755119383335
-0.024069607257843018 -0.028872085735201836 0.22249388694763184
0.09032857418060303 0.11457204818725586 0.1790546029806137
0.1004728153347969 0.1709006130695343 0.2390586882829666
0.020054351538419724 0.19590303301811218 0.2621276080608368
0.19147518277168274 -0.3755822479724884 0.05285346880555153
-0.20760509371757507 -0.018055938184261322 -0.12579350173473358
-0.20305396616458893 -0.10450974106788635 -0.15955092012882233
-0.19016006588935852 -0.24167156219482422 -0.13898715376853943
-0.06017066165804863 0.027723759412765503 -0.182267427444458
0.19429463148117065 -0.41327324509620667 -0.0330379419028759
0.08586744219064713 0.5010923743247986 -0.16364596784114838
0.16153694689273834 -0.3472030758857727 -0.17817629873752594
0.13250237703323364 0.16319188475608826 -0.08532146364450455
-0.11623916029930115 0.17802958190441132 0.14733295142650604
-0.1583583503961563 -0.18249154090881348 -0.16101409494876862
-0.07527151703834534 -0.41425061225891113 -0.20313690602779388
0.15161241590976715 -0.18025672435760498 -0.1523313820362091
-0.2166191041469574 -0.13060104846954346 -0.1100071370601654
-0.06627316027879715 -0.16840355098247528 -0.17095302045345306
-0.19304481148719788 -0.2251112163066864 -0.1398238241672516
0.14402052760124207 -0.41756266355514526 -0.1548580378293991
-0.02659362182021141 -0.18291231989860535 -0.16802723705768585
0.13287146389484406 0.20819155871868134 0.17890897393226624
0.12132810056209564 0.1220875233411789 0.14131984114646912
0.19418039917945862 -0.4120945930480957 -0.023083217442035675
0.21979938447475433 -0.371991366147995 -0.12199515849351883
-0.15234382450580597 0.35762012004852295 -0.11091267317533493
0.19956083595752716 0.11821456253528595 -0.12011715769767761
-0.20525716245174408 0.035375334322452545 -0.13666130602359772
0.09540478885173798 -0.02851135842502117 0.20970256626605988
0.10504145920276642 -0.41328614950180054 -0.09702376276254654
0.21399842202663422 -0.38750991225242615 -0.13750478625297546
-0.11171655356884003 -0.10853944718837738 -0.17275573313236237
0.02424289658665657 0.015726536512374878 -0.17866800725460052
0.1439887434244156 0.08638505637645721 0.13748346269130707
-0.19584311544895172 -0.37356796860694885 0.0682382881641388
0.17478516697883606 0.11539566516876221 0.009551320225000381
0.175315260887146 -0.164964497089386 0.15046924352645874
0.1325954645872116 -0.38914042711257935 0.18123410642147064
0.01050790399312973 0.5691820979118347 -0.13495205342769623
0.19776667654514313 -0.4083857536315918 -0.01161377876996994
0.1129293218255043 0.42852121591567993 -0.16233153641223907
0.14509546756744385 -0.4200645983219147 -0.15614065527915955
0.13215573132038116 0.22216542065143585 0.1130303218960762
0.1351899951696396 0.06041591987013817 0.15702472627162933
-0.08945008367300034 0.05542133003473282 -0.180659219622612
-0.012822922319173813 0.3414372205734253 0.24691006541252136
-0.08173120021820068 0.10567394644021988 0.15760675072669983
-0.04984840750694275 -0.41660276055336 0.19709613919258118
-0.06113896518945694 0.4100882411003113 0.08668316155672073
0.08623075485229492 0.005472244694828987 0.20285840332508087
-0.051967281848192215 0.40864819288253784 0.08930537849664688
-0.1873648762702942 -0.06081432104110718 -0.17109201848506927
-0.044488757848739624 -0.011908287182450294 0.2146347612142563
0.07811170071363449 -0.42161622643470764 0.030917547643184662
-0.010976193472743034 0.41284212470054626 0.1630817949771881
-0.036104120314121246 0.5637566447257996 -0.04018547758460045
-0.19994959235191345 0.11967185884714127 -0.1317216008901596
-0.20888356864452362 -0.054121360182762146 -0.0861995741724968
-0.2268378883600235 -0.29095911979675293 -0.06361593306064606
-0.1245405450463295 0.22419767081737518 0.07474790513515472
0.1868050992488861 -0.04780763015151024 0.054953113198280334
-0.11053012311458588 0.2801837623119354 0.17405152320861816
-0.06023775413632393 -0.4175577461719513 -0.015847939997911453
0.06068200618028641 0.08347223699092865 0.1920727789402008
0.11542011797428131 0.14769664406776428 0.16127854585647583
0.03946195915341377 -0.3588400185108185 0.2638426423072815
0.04319187253713608 -0.4147820472717285 0.2227763682603836
-0.0666210949420929 -0.17217065393924713 -0.1690552830696106
0.02605539560317993 0.5141081809997559 -0.16556786000728607
0.16308754682540894 0.09124082326889038 0.11745372414588928
0.01633829064667225 0.5686061978340149 -0.022991880774497986
0.19367575645446777 -0.41268789768218994 -0.023959608748555183
0.08146606385707855 -0.409339040517807 -0.020869888365268707
0.1813836246728897 -0.40258967876434326 0.058271896094083786
-0.17864926159381866 -0.14104557037353516 0.10475373268127441
-0.16726592183113098 -0.32373788952827454 -0.16897469758987427
-0.09189020097255707 0.4517672061920166 -0.15948399901390076
-0.08997656404972076 0.02258516103029251 -0.18050269782543182
-0.04598892480134964 0.1471843123435974 0.24388350546360016
0.039552345871925354 -0.3441583514213562 0.2639416456222534
-0.1513083577156067 -0.418467253446579 -0.028832219541072845
0.15980982780456543 -0.3615007698535919 -0.18518558144569397
-0.2039634883403778 0.03300229087471962 -0.1490592658519745
-0.07861402630805969 -0.17610478401184082 -0.16852879524230957
-0.15798655152320862 0.1278112828731537 -0.024927454069256783
0.13661012053489685 -0.40957358479499817 -0.0025639538653194904
0.05486292019486427 0.3173094093799591 0.22884640097618103
-0.12819808721542358 0.35525596141815186 0.021545063704252243
0.13424237072467804 0.4668194353580475 -0.006880737841129303
-0.18449200689792633 -0.14123904705047607 0.0859794095158577
0.12785857915878296 0.21998465061187744 -0.06641147285699844
0.1426624357700348 -0.2759290933609009 -0.1600273847579956
-0.07622533291578293 0.0578807070851326 -0.18063493072986603
0.20265480875968933 -0.05172427371144295 -0.025621213018894196
0.15436527132987976 -0.22018082439899445 -0.1392143815755844
0.06518194079399109 0.567086398601532 -0.0935736745595932
0.1382802575826645 -0.009530028328299522 0.17386563122272491
0.1585473120212555 -0.4149940013885498 -0.03901083394885063
-0.09661541134119034 -0.10401144623756409 -0.1748111993074417
0.02799851819872856 0.023331470787525177 -0.17811861634254456
0.195675790309906 -0.2887829840183258 -0.11201551556587219
0.1389203667640686 0.3193262815475464 0.10772252082824707
0.00994451716542244 -0.3312341272830963 -0.19572901725769043
0.021774567663669586 -0.3696414530277252 0.26378512382507324
-0.04319168999791145 0.42046302556991577 -0.16899579763412476
0.20499007403850555 -0.029469778761267662 -0.0720900222659111
0.140193909406662 0.35156935453414917 0.007912874221801758
0.06938271969556808 -0.3915316164493561 0.2431311011314392
-0.1260019987821579 -0.41556301712989807 0.13683095574378967
-0.058518800884485245 -0.4209534525871277 -0.1793746054172516
0.023006347939372063 0.3864971101284027 0.22413979470729828
-0.12570559978485107 -0.15073756873607635 -0.16952435672283173
0.13688011467456818 -0.41391631960868835 0.1436731368303299
0.09180621057748795 0.5549326539039612 -0.1464753895998001
-0.19911432266235352 -0.2162877321243286 -0.1414802223443985
0.07198940217494965 0.05929598957300186 -0.1759386509656906
-0.09209802746772766 0.5472689867019653 0.028277510777115822
0.18875406682491302 -0.41446107625961304 -0.020968014374375343
0.10783538967370987 0.5127211213111877 -0.15806633234024048
-0.2021891474723816 -0.41084203124046326 -0.17381694912910461
-0.22407570481300354 -0.25417107343673706 0.015841025859117508
-0.10205825418233871 0.08261542022228241 0.1555843949317932
0.10802309215068817 0.22994190454483032 -0.1520853042602539
-0.0670957863330841 -0.312854528427124 -0.19402870535850525
0.1197931244969368 0.152563214302063 0.15482226014137268
0.13540956377983093 0.06719286739826202 -0.17347753047943115
0.18126708269119263 -0.36876460909843445 0.08458323776721954
-0.06786932051181793 -0.08515794575214386 0.2239760458469391
0.13564294576644897 0.10564042627811432 0.13057249784469604
0.033624522387981415 -0.1319662630558014 -0.17248596251010895
-0.2190869152545929 -0.20819097757339478 0.012112416326999664
0.1288268268108368 0.186599463224411 0.05220791697502136
0.21139436960220337 -0.32654184103012085 -0.06540291756391525
0.18293750286102295 -0.08981592208147049 0.11377287656068802
0.14117993414402008 -0.08712361752986908 0.1944831758737564
-0.1581842303276062 -0.41779038310050964 -0.08772978186607361
-0.035065602511167526 0.37098467350006104 0.1642075926065445
-0.20403431355953217 -0.06466750800609589 -0.16301700472831726
0.0015846267342567444 0.038001321256160736 -0.1805138736963272
0.18592506647109985 0.12072399258613586 -0.04112214595079422
0.11979468911886215 -0.4117835462093353 0.05696999281644821
0.1804915964603424 -0.23608888685703278 0.1734117567539215
-0.08540575206279755 0.48064351081848145 -0.1601732224225998
-0.17261426150798798 -0.16783209145069122 0.14133718609809875
0.10625821352005005 0.4275871813297272 0.05973396822810173
0.2228410840034485 -0.25011828541755676 -0.07551094889640808
-0.02191208302974701 -0.25885242223739624 -0.1801549792289734
-0.11160869151353836 -0.42254048585891724 -0.09259319305419922
-0.1128372922539711 0.15233691036701202 0.11461201310157776
-0.20101331174373627 0.11419624835252762 -0.12307319045066833
-0.029990294948220253 0.31923261284828186 -0.17105171084403992
-0.19527968764305115 0.1160445436835289 -0.08434812724590302
0.20002657175064087 -0.3463844060897827 0.02523796632885933
-0.03837304934859276 0.2764337658882141 -0.1716589331626892
0.19478824734687805 0.11691062897443771 -0.1473410576581955
0.09527445584535599 -0.028882993385195732 0.21009592711925507
0.06184960901737213 0.4449107050895691 0.07008326053619385
-0.1439513862133026 -0.17294767498970032 0.19434338808059692
-0.2066035121679306 -0.004605439957231283 -0.08148571103811264
-0.18554973602294922 0.09599073231220245 -0.029254768043756485
-0.18351386487483978 -0.05179602652788162 0.07161656767129898
0.12486256659030914 -0.42372265458106995 -0.1296062469482422
-0.18189933896064758 0.06832032650709152 0.02442345768213272
-0.052767425775527954 0.1902332603931427 0.25569212436676025
0.007929876446723938 -0.41591504216194153 -0.13444387912750244
0.06472119688987732 -0.31733670830726624 -0.19130884110927582
-0.17999902367591858 0.010606947354972363 0.06395401060581207
0.08929650485515594 -0.41754448413848877 0.036455169320106506
-0.14332735538482666 0.28558406233787537 -0.12019569426774979
0.1557064652442932 -0.2296563684940338 -0.13701005280017853
-0.20162978768348694 -0.4022873044013977 0.057454176247119904
0.1292712241411209 0.2327294498682022 -0.0425918884575367
0.13476361334323883 0.28204038739204407 -0.0028503313660621643
0.2132214605808258 -0.1311878263950348 -0.043829839676618576
-0.04604756832122803 -0.0039009638130664825 -0.18048502504825592
0.054719794541597366 0.370776891708374 -0.1689475178718567
0.21221604943275452 -0.3874063193798065 -0.04450187459588051
-0.21002057194709778 -0.06056494265794754 -0.1339564323425293
0.1324106603860855 0.23596149682998657 0.08633887767791748
0.0042422437109053135 0.5667659044265747 -0.054541222751140594
-0.06509274989366531 -0.09645793586969376 -0.17714066803455353
-0.22590263187885284 -0.23623324930667877 -0.049850862473249435
0.12671531736850739 -0.39674168825149536 -0.19793209433555603
0.2176179587841034 -0.15901319682598114 -0.09458338469266891
-0.07081346213817596 0.008145557716488838 0.2006564438343048
0.21248383820056915 -0.39138734340667725 -0.12992452085018158
0.1922483593225479 -0.12951213121414185 -0.14660152792930603
-0.18288631737232208 0.06341557204723358 -0.17440226674079895
-0.2106347531080246 -0.329556941986084 0.03334846720099449
-0.2047193944454193 -0.01923256367444992 -0.057544857263565063
0.10467135906219482 -0.08158018440008163 0.22068017721176147
-0.11908601969480515 0.18664750456809998 0.1601165533065796
0.08391264081001282 -0.4057479798793793 0.04888726770877838
-0.04278493672609329 0.28317105770111084 -0.1728355437517166
0.12125445157289505 0.513611376285553 0.026684284210205078
0.15324968099594116 0.1381203681230545 -0.02583545632660389
0.026528848335146904 0.3032354712486267 -0.17089363932609558
-0.13139648735523224 0.16009990870952606 -0.11760856211185455
-0.12857210636138916 0.3205956220626831 -0.002057880163192749
0.027340935543179512 0.40542516112327576 0.17249056696891785
0.08380072563886642 -0.4191914498806 0.03355274721980095
0.10679979622364044 0.32512497901916504 0.17911498248577118
0.061342522501945496 0.5455728769302368 -0.1631331443786621
0.028228558599948883 -0.3716030418872833 0.26258647441864014
-0.1845335215330124 -0.03991127759218216 0.055651213973760605
-0.08054575324058533 -0.17012514173984528 0.2418900430202484
0.12141149491071701 0.15604791045188904 0.14203675091266632
-0.12720121443271637 0.26369982957839966 0.0719020739197731
-0.08370468020439148 -0.2037423551082611 -0.16102629899978638
-0.22165338695049286 -0.3165314197540283 -0.044345203787088394
0.06289452314376831 0.5386617183685303 0.06973877549171448
0.13448286056518555 0.008030939847230911 0.17271725833415985
-0.11054391413927078 0.5616887807846069 -0.08458471298217773
0.22066201269626617 -0.25313523411750793 0.0403369776904583
0.13619758188724518 0.2709454596042633 0.10856986045837402
-0.18261446058750153 -0.049419697374105453 0.08796906471252441
-0.05015689879655838 0.4503641128540039 -0.1646365076303482
0.18249669671058655 -0.417055606842041 -0.012655836530029774
-0.1275465041399002 0.2978481948375702 -0.024226978421211243
-0.0959433764219284 -0.41465792059898376 0.15014638006687164
0.13327822089195251 0.25115546584129333 0.1833946853876114
0.07068368792533875 -0.4117187559604645 0.18535910546779633
0.12043289840221405 -0.41764429211616516 -0.12461166083812714
0.13863873481750488 0.3211837410926819 0.07347345352172852
0.0025970563292503357 -0.17418256402015686 0.26115697622299194
-0.12471677362918854 0.4485107958316803 -0.02145257219672203
-0.03439316153526306 -0.19527849555015564 -0.166951522231102
0.20220650732517242 0.007107376586645842 -0.11562933027744293
-0.043943487107753754 0.4291840195655823 -0.16876229643821716
-0.20684625208377838 -0.3643946349620819 0.014714214950799942
0.08910208195447922 0.24951569736003876 -0.16816799342632294
-0.1269969344139099 0.4009578824043274 0.0035945847630500793
0.13792550563812256 -0.414285808801651 0.1414535939693451
0.2148716300725937 -0.3374243974685669 -0.09315206855535507
-0.039500895887613297 0.5631415247917175 -0.012034367769956589
0.16828151047229767 -0.16024942696094513 0.18543140590190887
-0.005489083006978035 0.1443231999874115 -0.1765940636396408
-0.20528553426265717 0.01238783448934555 -0.14684511721134186
0.13505911827087402 0.40725603699684143 -0.038200899958610535
0.04455232620239258 -0.3903001546859741 0.25669220089912415
-0.17558234930038452 -0.20367386937141418 -0.15472127497196198
-0.07603301107883453 -0.12458312511444092 -0.17453987896442413
-0.017406802624464035 -0.41945505142211914 -0.18374808132648468
0.07599923759698868 0.5617021322250366 0.015710819512605667
0.03961200639605522 -0.4126063883304596 0.24691560864448547
0.13783077895641327 0.3476667106151581 0.048865508288145065
-0.12744641304016113 0.3168562948703766 -0.039427321404218674
-0.01395714096724987 0.48047661781311035 0.08370155096054077
0.11568550765514374 0.01077845599502325 0.187457874417305
-0.08792595565319061 -0.015750430524349213 0.19732122123241425
0.13204696774482727 0.21646566689014435 0.028298968449234962
-0.22059366106987 -0.19158883392810822 -0.04585599526762962
0.22127243876457214 -0.29199111461639404 -0.018391171470284462
-0.11755715310573578 0.16899296641349792 0.10032187402248383
-0.18992102146148682 -0.3487444221973419 0.09894631803035736
0.14718009531497955 0.303546667098999 -0.10414007306098938
-0.010746926069259644 0.4596638083457947 -0.1672879159450531
-0.182080939412117 -0.015314217656850815 0.051153529435396194
-0.1411733478307724 -0.41405531764030457 0.10711909830570221
-0.11777804791927338 0.5020781755447388 0.018207643181085587
0.06605289876461029 -0.39031729102134705 0.24538002908229828
0.08877924084663391 0.566406786441803 -0.05165772885084152
0.09161363542079926 0.24015900492668152 -0.168282151222229
0.13279959559440613 0.23039092123508453 0.09454077482223511
-0.19557581841945648 -0.03030862845480442 -0.16875869035720825
0.04950672760605812 -0.4116787314414978 0.07200580835342407
0.08515764027833939 -0.015092376619577408 0.21010588109493256
0.09240435063838959 -0.4177042841911316 0.036961983889341354
0.16751651465892792 -0.024677932262420654 0.1395556628704071
-0.11222606897354126 0.5531392097473145 -0.11884601414203644
-0.08041360229253769 0.5588321089744568 0.01609763130545616
-0.15283073484897614 -0.05722831189632416 -0.1763085126876831
0.20104914903640747 0.0031220465898513794 -0.032926928251981735
-0.17972417175769806 0.08124842494726181 0.030597545206546783
0.13174346089363098 0.24850709736347198 -0.014456700533628464
-0.08612276613712311 0.3455282747745514 -0.167389377951622
-0.08334316313266754 0.5611353516578674 -0.14832435548305511
0.09917154163122177 -0.4035385847091675 0.022144418209791183
-0.1409175992012024 0.29493409395217896 -0.1461421251296997
0.16750848293304443 -0.1745433807373047 -0.14942680299282074
0.21552273631095886 -0.23956935107707977 0.06366966664791107
-0.11984670907258987 0.5186824798583984 -0.0017235241830348969
-0.0727614164352417 -0.39119574427604675 -0.20714378356933594
-0.12384295463562012 0.4087604880332947 -0.029678910970687866
-0.11716108024120331 0.10487823933362961 -0.18030449748039246
0.14903347194194794 -0.01751425862312317 0.16608765721321106
0.015771448612213135 -0.1782820075750351 -0.16627950966358185
0.13890689611434937 -0.4160304665565491 0.09346894919872284
0.10369916260242462 0.4318704605102539 0.05797038599848747
0.1316303014755249 0.29002615809440613 -0.14358001947402954
-0.07533514499664307 0.44330018758773804 -0.1635875105857849
-0.07150898873806 -0.4151495397090912 -0.18058335781097412
0.06889670342206955 -0.3852558732032776 0.24462510645389557
-0.04377247020602226 0.21948036551475525 -0.17520439624786377
-0.13199619948863983 -0.202055424451828 0.2129872739315033
-0.009973489679396152 0.47944176197052 0.08318363130092621
0.12856066226959229 0.1697523593902588 0.027554376050829887
-0.02011406049132347 -0.41444140672683716 -0.15262764692306519
0.11631400138139725 -0.41395044326782227 0.10747797787189484
0.12904635071754456 -0.3966711759567261 -0.19885088503360748
0.16422274708747864 -0.1585274040699005 -0.15349769592285156
0.07659466564655304 -0.41753003001213074 0.031823836266994476
0.11269086599349976 0.13979466259479523 -0.1724940836429596
0.05711884796619415 -0.4174133837223053 -0.12963081896305084
-0.1166473925113678 0.16193267703056335 0.0976756289601326
0.17584742605686188 0.14249774813652039 -0.06553514301776886
-0.0637677013874054 0.46770212054252625 0.06598551571369171
0.15166647732257843 -0.1301063597202301 0.19870062172412872
-0.19688591361045837 -0.1876087486743927 0.04662537947297096
-0.17331819236278534 -0.16076982021331787 0.1324651837348938
-0.06722316145896912 0.23849967122077942 0.2391054630279541
0.09592811018228531 -0.4148766100406647 0.03442465141415596
0.08063951134681702 -0.16770495474338531 0.2501847445964813
-0.19271345436573029 -0.31456178426742554 -0.14827832579612732
0.012905232608318329 0.13853007555007935 0.250779390335083
-0.10199049860239029 -0.42478805780410767 -0.151361882686615
-0.17775748670101166 0.07024728506803513 -0.17628519237041473
-0.1416676938533783 -0.15098193287849426 -0.16873037815093994
0.143484428524971 0.15520578622817993 -0.10964527726173401
0.183643639087677 -0.11990915238857269 0.05587686598300934
0.11764474213123322 -0.4156050980091095 0.11692214757204056
0.2026389241218567 -0.3389021158218384 -0.14344283938407898
0.11701419949531555 -0.13505646586418152 -0.16631650924682617
0.2124885618686676 -0.38693416118621826 -0.04658326506614685
-0.2007274329662323 0.10715976357460022 -0.14732792973518372
0.13415634632110596 -0.40975016355514526 0.03728964552283287
0.18816909193992615 -0.37767481803894043 0.06533019244670868
0.129307359457016 -0.03960573673248291 0.19333435595035553
-0.11821393668651581 0.308980792760849 0.1442672610282898
0.0940028503537178 -0.4127084016799927 0.028585992753505707
-0.09710516780614853 0.3578793406486511 0.12413427233695984
-0.11997748166322708 0.14098374545574188 0.01047254353761673
-0.05144425109028816 0.43066704273223877 -0.1663210391998291
-0.18397627770900726 -0.06463803350925446 0.0752674788236618
-0.0989995151758194 0.13845665752887726 0.15609851479530334
0.11530990898609161 -0.4078214466571808 0.04903072118759155
-0.14184656739234924 -0.39962634444236755 0.1758597195148468
0.17724940180778503 -0.0054789576679468155 0.11097096651792526
0.11358428001403809 -0.41458433866500854 -0.12192428112030029
0.20467698574066162 0.04510021582245827 -0.061810389161109924
0.08379106223583221 -0.41799357533454895 -0.1584857553243637
-0.07392702251672745 0.48290765285491943 0.07495632767677307
-0.12688833475112915 0.35019391775131226 -0.018551543354988098
-0.12678386270999908 0.258566677570343 -0.11203064024448395
0.1886460930109024 -0.025589916855096817 0.04262328892946243
-0.15704873204231262 0.14111189544200897 -0.07234571874141693
0.2188805490732193 -0.2530006170272827 -0.07913635671138763
0.08979102224111557 -0.048912473022937775 0.2188834249973297
0.212279811501503 -0.38104474544525146 -0.03327375650405884
-0.11998838186264038 0.18847233057022095 0.1301901936531067
-0.0816301703453064 0.34694769978523254 -0.16767685115337372
0.07613740861415863 0.2665432393550873 -0.16925592720508575
-0.05759579315781593 -0.4222726821899414 -0.19198691844940186
-0.1114712581038475 0.03522506356239319 -0.18117333948612213
-0.017071060836315155 0.2969908118247986 -0.17343126237392426
-0.20553193986415863 -0.0009118588641285896 -0.08110392093658447
-0.17723748087882996 -0.35080838203430176 0.1307065784931183
0.15275362133979797 -0.13257843255996704 0.19833531975746155
-0.11897245049476624 0.49370330572128296 0.02077605575323105
0.13708685338497162 0.30793172121047974 0.058142438530921936
-0.04952961206436157 0.3453373610973358 -0.16888180375099182
0.09863480180501938 -0.41417843103408813 0.0379372239112854
-0.20930157601833344 -0.05377926677465439 -0.10307116061449051
0.12429679930210114 -0.20257675647735596 0.23453669250011444
0.1826694756746292 -0.41074612736701965 0.024768028408288956
-0.09188436716794968 0.11482856422662735 0.14466840028762817
0.12868912518024445 0.15695428848266602 -0.053511105477809906
0.12158820033073425 -0.41462987661361694 -0.1315266489982605
0.1868809014558792 0.017125731334090233 0.05374143272638321
-0.21466685831546783 -0.37693873047828674 -0.03369687497615814
-0.1027122437953949 -0.20028571784496307 -0.1612565964460373
-0.10688063502311707 -0.41830870509147644 -0.026879649609327316
-0.2116020917892456 -0.36043113470077515 -0.05512674152851105
-0.0075395479798316956 0.060272835195064545 0.19949381053447723
0.21755245327949524 -0.3406268358230591 -0.12377625703811646
0.13284076750278473 0.23325665295124054 0.0031712017953395844
0.10227212309837341 -0.4149892330169678 -0.09326407313346863
-0.07901369035243988 0.3465207815170288 -0.1683238297700882
0.20320308208465576 0.01614863984286785 -0.10617673397064209
0.2040816843509674 -0.3271716833114624 0.028779618442058563
-0.11972890049219131 -0.10282726585865021 -0.17246219515800476
0.15286403894424438 0.3033517003059387 -0.11132486164569855
-0.032526321709156036 -0.20007821917533875 -0.16575008630752563
-0.06925810128450394 -0.08686703443527222 0.22418487071990967
0.01789223775267601 0.3751322031021118 0.2390696406364441
0.1627003699541092 -0.3597528636455536 -0.18420371413230896
-0.035189367830753326 -0.4169118404388428 -0.19369733333587646
0.0776037946343422 0.539271891117096 -0.1585933119058609
-0.10215409845113754 0.12074421346187592 0.11684350669384003
0.13999280333518982 -0.4173773229122162 0.10215884447097778
0.21521182358264923 -0.15080365538597107 -0.07227043062448502
-0.1823529750108719 0.012877069413661957 0.004913896322250366
-0.05656513199210167 0.057777874171733856 0.18999874591827393
-0.1756030172109604 -0.05440204590559006 -0.1723688691854477
0.044724561274051666 -0.2583572566509247 -0.17446961998939514
-0.004319839179515839 -0.1433403342962265 -0.1726113110780716
0.12577120959758759 0.16264192759990692 0.14431902766227722
0.13550004363059998 0.27348893880844116 0.13841837644577026
-0.021072573959827423 0.33610862493515015 0.24175812304019928
-0.11980608105659485 0.5145617723464966 -0.0001549459993839264
-0.16291113197803497 -0.14492499828338623 0.1568785309791565
-0.055252790451049805 -0.19804829359054565 0.25628426671028137
-0.025604944676160812 0.43577462434768677 -0.1666208654642105
-0.19851639866828918 -0.1679631620645523 -0.0061086323112249374
-0.07861893624067307 0.4647062122821808 -0.16094572842121124
-0.13416673243045807 -0.10215841978788376 0.1858813315629959
-0.10185788571834564 0.28679320216178894 0.18140636384487152
0.22434508800506592 -0.23425298929214478 -0.001648981124162674
-0.1262061446905136 0.2859041094779968 0.08676555752754211
-0.028900671750307083 0.5629072785377502 -0.03983183577656746
0.18540015816688538 -0.08899348229169846 0.10122454911470413
0.1411415934562683 -0.26247403025627136 -0.1540454626083374
0.11527590453624725 0.4198122024536133 -0.16225366294384003
-0.0503961443901062 -0.3616572916507721 -0.20408770442008972
0.13730661571025848 0.28578513860702515 -0.1011195182800293
0.09052994102239609 -0.416746586561203 0.032798074185848236
0.02492353692650795 0.1712094247341156 -0.17485621571540833
-0.037142738699913025 0.32808831334114075 -0.16999253630638123
-0.15795263648033142 -0.42182934284210205 -0.16895419359207153
-0.22630023956298828 -0.2704280912876129 -0.05605560168623924
0.015554861165583134 0.5670367479324341 -0.037040408700704575
0.1221376433968544 0.5173854231834412 0.013095997273921967
-0.11956244707107544 0.2005712389945984 0.16770793497562408
-0.12096068263053894 0.1859922856092453 0.0012538619339466095
0.10565643012523651 -0.4117460548877716 -0.11346131563186646
0.12277066707611084 -0.19273032248020172 -0.15244396030902863
0.20333407819271088 -0.018369633704423904 -0.038866497576236725
0.1325075626373291 0.28597211837768555 -0.04357454553246498
0.13813689351081848 0.3020573854446411 0.08120695501565933
-0.1253431886434555 0.2960968315601349 0.1203862652182579
0.13116230070590973 0.20546264946460724 0.03463238477706909
0.20349648594856262 0.09363836795091629 -0.1169137954711914
-0.12438349425792694 0.44190096855163574 -0.05887940153479576
0.1264384239912033 0.12509378790855408 0.09565037488937378
-0.1286490261554718 0.3185794949531555 0.040768954902887344
0.038618698716163635 0.5682251453399658 -0.14179831743240356
0.06263754516839981 -0.1798974573612213 -0.16189774870872498
0.09106700122356415 0.13630621135234833 0.2046431005001068
0.010734230279922485 -0.41444310545921326 0.15931585431098938
0.13375407457351685 -0.01661183312535286 0.1802758276462555
-0.04795122146606445 -0.41369158029556274 -0.04661039635539055
-0.023287702351808548 0.30324435234069824 0.22913408279418945
0.08091696351766586 0.07129058986902237 -0.17469486594200134
0.13627266883850098 0.29080700874328613 0.022973444312810898
0.09792709350585938 0.23876991868019104 -0.1652437448501587
-0.1229856014251709 0.07841789722442627 0.14241580665111542
-0.12692871689796448 0.03957056254148483 0.15655957162380219
-0.044523850083351135 -0.21048365533351898 -0.16315139830112457
-0.1828797459602356 -0.0012004934251308441 0.009908674284815788
0.13129213452339172 -0.20756682753562927 0.23221363127231598
0.03997107595205307 -0.42318838834762573 -0.17983612418174744
0.010592617094516754 0.20514757931232452 0.26474350690841675
-0.13279375433921814 0.39614030718803406 -0.15113556385040283
0.12897266447544098 0.15425777435302734 -0.041655294597148895
0.10811011493206024 -0.40344738960266113 0.05074532702565193
-0.14819657802581787 -0.04688245430588722 -0.1753203272819519
0.025597907602787018 0.3767187297344208 0.2520188093185425
-0.20453515648841858 -0.360074907541275 0.029102832078933716
-0.04792347550392151 0.43565812706947327 -0.16739170253276825
-0.121487557888031 0.4904276430606842 0.015328485518693924
-0.019319474697113037 -0.11008982360363007 -0.17650309205055237
0.15759718418121338 -0.3544386327266693 0.15321028232574463
0.14867942035198212 -0.42064428329467773 -0.0848265290260315
-0.1833438277244568 0.090336874127388 -0.01558435708284378
-0.18250329792499542 -0.042964961379766464 -0.17095023393630981
-0.06918207556009293 -0.08839090913534164 -0.17713701725006104
0.13579101860523224 0.2949131727218628 0.019321128726005554
0.023266546428203583 0.37203121185302734 0.24281181395053864
-0.028177792206406593 0.48289594054222107 0.07917575538158417
-0.031041357666254044 0.5217682719230652 0.08981054276227951
-0.0874377116560936 0.5596289038658142 -0.011898230761289597
-0.17790676653385162 -0.26391658186912537 0.15248259902000427
-0.13631515204906464 -0.3672800064086914 -0.19503739476203918
0.11337639391422272 -0.1452505886554718 0.23162327706813812
-0.09692246466875076 -0.3176901936531067 -0.19217120110988617
0.14053794741630554 -0.233586385846138 -0.14149148762226105
0.19649049639701843 0.12659813463687897 -0.10666552931070328
-0.1875484138727188 -0.3093380331993103 0.12896403670310974
0.19071026146411896 -0.35289138555526733 0.06009891629219055
-0.21307021379470825 -0.33952662348747253 0.015016190707683563
0.006001181900501251 0.3869943618774414 0.22628054022789001
0.18068276345729828 -0.039813168346881866 -0.15850473940372467
0.22179149091243744 -0.2696722149848938 -0.06156099960207939
-0.17928269505500793 -0.000825236551463604 0.07119175791740417
-0.2087790071964264 -0.016575077548623085 -0.09218177199363708
0.07256647199392319 -0.3832365572452545 -0.20195052027702332
-0.027798624709248543 -0.19512225687503815 -0.1664300560951233
-0.21186929941177368 -0.3325112760066986 -0.002766251564025879
-0.20586854219436646 -0.4058859348297119 -0.09074540436267853
-0.0031072869896888733 -0.17909470200538635 -0.16782590746879578
-0.18984481692314148 -0.10753992944955826 -0.16563351452350616
0.15025456249713898 0.42707154154777527 -0.11674462258815765
-0.07628841698169708 0.5060427784919739 0.07591639459133148
-0.1806674301624298 -0.35806816816329956 0.11823734641075134
0.09538097679615021 0.3429085910320282 -0.16782547533512115
0.08624419569969177 0.4395124614238739 0.06107817962765694
-0.08602387458086014 0.09940369427204132 0.15251155197620392
-0.022911977022886276 0.5625845193862915 -0.039907969534397125
0.11128827184438705 -0.412447065114975 -0.05073458328843117
-0.06685203313827515 0.10616244375705719 -0.1800585687160492
-0.021292293444275856 0.12598925828933716 -0.1781545877456665
-0.008049706928431988 0.5667005777359009 -0.018871616572141647
0.1900206059217453 -0.04197289049625397 -0.1532704383134842
-0.12632201611995697 0.2776513397693634 -0.05789727717638016
0.18688663840293884 -0.04535637050867081 -0.15208956599235535
0.18816174566745758 -0.015764225274324417 0.03838901221752167
-0.04426736384630203 -0.4121926426887512 0.16492688655853271
-0.12175370752811432 0.21411541104316711 0.17504630982875824
0.13458314538002014 -0.4135226905345917 0.14653372764587402
-0.15753550827503204 -0.41788914799690247 -0.08897332847118378
-0.056770406663417816 -0.1676214635372162 -0.17094074189662933
-0.0796951875090599 0.22917422652244568 0.22987833619117737
-0.07583678513765335 0.565204381942749 -0.11057449132204056
-0.14040492475032806 -0.41329482197761536 0.03920391574501991
-0.09590661525726318 0.08181575685739517 0.16457964479923248
-0.2162533700466156 -0.21996349096298218 0.04459209740161896
0.0757727399468422 -0.13092799484729767 0.2437242716550827
-0.19645825028419495 -0.30565929412841797 0.11127747595310211
-0.1481322944164276 0.15212830901145935 -0.1091729924082756
-0.12311088293790817 0.13510240614414215 0.026938017457723618
0.11126205325126648 -0.4223330616950989 -0.11516071856021881
-0.19777758419513702 -0.18102864921092987 -0.14971347153186798
0.0010470449924468994 0.5288124680519104 0.09318707883358002
-0.1979280263185501 0.10675222426652908 -0.07863256335258484
0.12572476267814636 -0.20610761642456055 0.23218441009521484
-0.18122215569019318 0.0029540229588747025 0.01902848854660988
0.1888783723115921 -0.36625969409942627 0.0651504397392273
-0.11834743618965149 0.5390803813934326 -0.07502712309360504
0.08576496690511703 -0.2592759430408478 -0.16874906420707703
0.07935303449630737 -0.4174058735370636 0.02660718746483326
0.06473857164382935 0.021655496209859848 0.202988862991333
-0.2141478955745697 -0.17089895904064178 -0.1368369162082672
-0.03648052364587784 -0.1990799605846405 -0.16714827716350555
-0.03051328845322132 0.2862517237663269 -0.17298294603824615
-0.227223739027977 -0.24858814477920532 -0.07077574729919434
-0.04046732187271118 -0.19346147775650024 -0.1670217663049698
0.21386852860450745 -0.3909391760826111 -0.05953217297792435
-0.0014528855681419373 -0.4184592664241791 -0.05203620716929436
-0.1861274242401123 0.06311176717281342 -0.01058494858443737
-0.11729524284601212 0.3878975510597229 0.0655987486243248
-0.22046102583408356 -0.2504834234714508 0.028821256011724472
-0.09627939760684967 0.5583664178848267 -0.03244974836707115
0.08246219158172607 -0.4092486798763275 0.007501944899559021
-0.17831601202487946 0.14777463674545288 -0.12544941902160645
-0.21680040657520294 -0.38649559020996094 -0.06541302800178528
-0.048052750527858734 -0.07203265279531479 0.23049266636371613
-0.07387151569128036 0.006219750270247459 0.19979077577590942
0.09745508432388306 -0.40628424286842346 0.04654580354690552
-0.04405846446752548 0.5618484020233154 -0.019475582987070084
-0.12904183566570282 0.27921006083488464 -0.005846451967954636
-0.05939251929521561 0.4372961223125458 -0.16594457626342773
0.002202533185482025 0.5670246481895447 -0.13897405564785004
-0.12701007723808289 0.09643436223268509 0.11220049858093262
0.20769013464450836 -0.3427028954029083 -0.1288379430770874
0.10893552005290985 0.1333329677581787 -0.1741865873336792
0.20496632158756256 0.003366827964782715 -0.05655398964881897
0.12882432341575623 0.4531417489051819 0.04034387320280075
-0.0742960050702095 0.11589184403419495 -0.17964297533035278
-0.050178803503513336 0.43500784039497375 -0.167811319231987
-0.10235613584518433 -0.2865026593208313 -0.18068481981754303
0.1167168840765953 -0.17277944087982178 0.2400963306427002
0.13947883248329163 0.14483514428138733 -0.04156871140003204
0.20553649961948395 -0.031407278031110764 -0.07872160524129868
-0.14550916850566864 -0.06581384688615799 -0.17644751071929932
-0.1571473926305771 -0.4161839485168457 0.10399457812309265
0.21843872964382172 -0.3674246668815613 -0.12475146353244781
0.13145489990711212 0.25223761796951294 0.1834554523229599
-0.05486202985048294 0.3370761275291443 0.22759078443050385
-0.12234945595264435 0.4912532567977905 -0.0008575962856411934
0.07613889873027802 -0.41814887523651123 0.033804938197135925
0.06982959061861038 0.22904953360557556 0.24777142703533173
0.1787686049938202 -0.15461355447769165 0.13704144954681396
-0.11986513435840607 0.5104153156280518 0.000722832977771759
0.1377825140953064 0.35767462849617004 -0.017204441130161285
0.04646936058998108 0.5380969643592834 0.08005915582180023
-0.12602271139621735 0.26550060510635376 -0.08397245407104492
-0.06335242837667465 -0.415569543838501 0.014516415074467659
-0.14254195988178253 -0.044708382338285446 -0.17562083899974823
0.044799186289310455 -0.41503357887268066 0.2219671756029129
0.20046323537826538 0.004349935799837112 -0.03665316104888916
0.11098873615264893 -0.08489054441452026 0.21675580739974976
-0.09699903428554535 0.08549578487873077 0.157435342669487
-0.12279953807592392 0.5060399770736694 -0.027677170932292938
0.21788275241851807 -0.17800620198249817 -0.08904677629470825
0.14592334628105164 -0.41562795639038086 -0.18719691038131714
-0.16157737374305725 0.09076257050037384 -0.17887131869792938
-0.058115795254707336 0.3852425813674927 -0.16897380352020264
0.08682906627655029 0.41811737418174744 0.07826877385377884
-0.1969442218542099 -0.3152831792831421 0.1112491711974144
0.14312432706356049 0.0008207522332668304 0.16611507534980774
-0.09822754561901093 0.4372585117816925 -0.16404873132705688
0.09164129197597504 0.2463822364807129 0.23675288259983063
-0.1659669131040573 0.07150445878505707 -0.17921969294548035
-0.15532608330249786 -0.01861034333705902 0.1332695186138153
0.1184995025396347 0.3605457544326782 0.12318285554647446
0.1584623008966446 -0.0283693578094244 0.15728290379047394
0.08425675332546234 0.3976442217826843 0.10388894379138947
-0.027974769473075867 0.5650513172149658 -0.13977260887622833
0.17299562692642212 0.12066739052534103 0.006188537925481796
-0.11970600485801697 0.04792531579732895 -0.18034137785434723
0.1363704353570938 0.2894172966480255 0.04463266581296921
-0.024988852441310883 -0.1864771693944931 -0.16737323999404907
-0.009666044265031815 0.1518697738647461 0.25959518551826477
0.125947967171669 -0.4223068952560425 -0.13378439843654633
0.11410319805145264 -0.42110535502433777 -0.11165102571249008
0.12871310114860535 0.18533660471439362 0.0773438811302185
0.11939310282468796 0.5249607563018799 0.024783045053482056
-0.11514078825712204 0.19097992777824402 0.18563611805438995
-0.22580456733703613 -0.2634887397289276 -0.000532638281583786
-0.16342224180698395 -0.3068423867225647 -0.16521959006786346
-0.19182439148426056 -0.4187523126602173 0.011256367899477482
0.0798419937491417 0.26216232776641846 -0.16943825781345367
0.18958692252635956 -0.17455190420150757 0.10915280878543854
0.1402374505996704 0.29027101397514343 -0.09914974123239517
0.1267150342464447 0.2927761971950531 0.18110892176628113
0.029382795095443726 0.04926645755767822 -0.17807498574256897
0.13185812532901764 0.45976752042770386 -0.08312451839447021
-0.20228850841522217 0.09444954991340637 -0.1051860898733139
-0.11293818056583405 -0.3051256239414215 0.23076319694519043
-0.16995295882225037 0.13119855523109436 -0.06974632292985916
-0.144598588347435 -0.29352259635925293 0.19598488509655
0.13645164668560028 -0.0392761193215847 0.18719451129436493
0.13688518106937408 0.4591050148010254 -0.03096984326839447
0.010890662670135498 0.5676844120025635 -0.018481392413377762
0.013571543619036674 0.19098392128944397 0.262852281332016
0.14255838096141815 0.15337730944156647 -0.16588346660137177
0.15336330235004425 0.30761778354644775 -0.0925789400935173
-0.13126808404922485 0.06540433317422867 0.1393696367740631
0.15475572645664215 -0.18317259848117828 -0.14946603775024414
0.16083358228206635 -0.3499329686164856 0.15551310777664185
0.06876402348279953 -0.4225015938282013 -0.17149482667446136
0.20446395874023438 -0.14325055480003357 -0.13058583438396454
0.12918582558631897 0.16934233903884888 0.012967046350240707
0.16091176867485046 -0.36629876494407654 -0.1851101964712143
0.06572940945625305 -0.012580636888742447 0.21228431165218353
0.06427246332168579 -0.4029476046562195 -0.20245841145515442
-0.0851769968867302 0.5554419159889221 0.02125624008476734
0.012861177325248718 -0.4124498665332794 0.21821683645248413
0.025899190455675125 0.4609737694263458 0.08926963061094284
0.017200052738189697 0.4247647225856781 0.14631254971027374
-0.20139631628990173 0.11101499199867249 -0.1421291083097458
-0.04991360753774643 -0.1780306100845337 -0.16934753954410553
0.13863985240459442 0.3553466796875 0.02906903252005577
-0.140182226896286 0.055428534746170044 -0.1792968362569809
0.21274980902671814 -0.3857369124889374 -0.04223586618900299
0.0638839453458786 -0.41059044003486633 0.22289779782295227
0.09295880794525146 0.5668927431106567 -0.09175120294094086
0.17726320028305054 -0.21076282858848572 -0.13576842844486237
0.026362460106611252 0.5160872340202332 -0.16546420753002167
-0.12302488088607788 -0.42000970244407654 -0.09967292100191116
0.13818152248859406 -0.11341649293899536 0.20451895892620087
0.06195315718650818 0.3572629690170288 0.17146176099777222
-0.12802568078041077 0.3158898949623108 -0.01661727949976921
0.21460160613059998 -0.3285633325576782 -0.059317316859960556
0.05106531083583832 0.5579218864440918 -0.15621301531791687
-0.08849745988845825 -0.18513090908527374 0.24407514929771423
-0.06560879945755005 0.4401817321777344 -0.16525086760520935
-0.07181723415851593 0.5604468584060669 0.010212581604719162
-0.19775916635990143 -0.3561129868030548 0.0686834380030632
0.15473097562789917 0.1556279957294464 -0.15214064717292786
-0.21786844730377197 -0.39035236835479736 -0.07792127132415771
0.11622890830039978 -0.2591688632965088 -0.1623314619064331
-0.07675279676914215 0.544657289981842 0.05072305351495743
-0.12843811511993408 0.3064257800579071 0.034606557339429855
0.08083483576774597 0.4920666515827179 -0.16413189470767975
0.1847718060016632 0.14198805391788483 -0.10840223729610443
-0.0037581250071525574 0.4741284251213074 -0.16601073741912842
-0.019889984279870987 0.508251965045929 0.09729663282632828
0.13685770332813263 -0.38043344020843506 0.1719895750284195
-0.0750650018453598 -0.18054050207138062 0.24601960182189941
-0.18120433390140533 0.029160473495721817 0.008042478933930397
0.0049707405269145966 0.097592294216156 -0.17796973884105682
0.09549013525247574 0.1896931678056717 0.24437779188156128
0.007388703525066376 0.5682430863380432 -0.1380130797624588
0.06675155460834503 0.19297660887241364 0.258309543132782
-0.16875678300857544 -0.30948182940483093 0.16282418370246887
0.12828777730464935 0.1760522425174713 0.020594395697116852
-0.10310240089893341 -0.07153937220573425 0.20460806787014008
-0.14469195902347565 0.15369023382663727 -0.11213687062263489
-0.062482573091983795 0.5628885626792908 -0.008945900946855545
0.13238854706287384 0.21108780801296234 0.17935316264629364
0.19053609669208527 -0.2328481823205948 -0.12151236832141876
-0.12435632944107056 0.22241494059562683 0.07702530920505524
0.22137953341007233 -0.2681421935558319 0.04033869132399559
0.1292823702096939 0.18695122003555298 0.03193403780460358
-0.09479624778032303 0.4684593677520752 0.05041759833693504
-0.1950593739748001 -0.40679314732551575 0.04702723026275635
-0.022870983928442 -0.17285040020942688 -0.16952252388000488
-0.13223183155059814 -0.42256373167037964 -0.14578647911548615
0.14740432798862457 -0.4001011848449707 0.1529574990272522
0.18420501053333282 -0.06871353834867477 0.10100775957107544
-0.020314643159508705 -0.18551236391067505 -0.16838350892066956
-0.09128890186548233 0.45847466588020325 -0.15805579721927643
0.08294147998094559 0.5248890519142151 -0.159380704164505
-0.010659180581569672 0.15357321500778198 0.2596522271633148
0.17415544390678406 0.12101924419403076 0.028401320800185204
-0.16644638776779175 -0.4215947687625885 -0.15282584726810455
-0.11986033618450165 0.1908685564994812 0.1068013459444046
-0.16539452970027924 -0.3494285047054291 0.15354666113853455
0.2169884890317917 -0.38022419810295105 -0.12903164327144623
0.08273488283157349 0.1806933879852295 0.25425228476524353
0.014631163328886032 -0.41385379433631897 -0.20271489024162292
-0.22531549632549286 -0.22424614429473877 -0.018656134605407715
-0.21992793679237366 -0.3186244070529938 -0.003998135682195425
-0.16678690910339355 -0.19509416818618774 0.16600605845451355
-0.06977593153715134 -0.14771923422813416 -0.17277684807777405
0.08319967985153198 -0.4185509979724884 0.035762108862400055
-0.1059064194560051 0.5361522436141968 0.016803013160824776
-0.05047634243965149 0.041136518120765686 -0.18159905076026917
-0.21055355668067932 -0.32047969102859497 0.061346396803855896
0.22467593848705292 -0.2698224186897278 0.010350794531404972
0.19204697012901306 -0.10766583681106567 0.03309740871191025
-0.035666536539793015 -0.009359050542116165 -0.18262679874897003
0.042141158133745193 0.5406069159507751 0.08256755769252777
-0.14821188151836395 0.2904491722583771 -0.13585035502910614
-0.02584344893693924 -0.3246866464614868 0.2571098804473877
0.1371927112340927 -0.20091299712657928 -0.14706796407699585
0.13176533579826355 0.22107602655887604 0.20162880420684814
0.0662112683057785 0.1217603012919426 0.20202083885669708
0.020375512540340424 -0.1719295084476471 -0.16728857159614563
0.214751735329628 -0.2554236054420471 0.07379335165023804
0.21673879027366638 -0.37020623683929443 -0.12849381566047668
-0.19909599423408508 0.11628761142492294 -0.12329698354005814
0.1608324646949768 -0.10267441719770432 0.1813155561685562
-0.11578927934169769 0.03305470943450928 -0.18048708140850067
-0.003690678859129548 0.5650469064712524 -0.038921814411878586
0.07703512907028198 -0.2805563509464264 -0.17903578281402588
0.13873541355133057 0.3588932454586029 0.007554732263088226
0.06706739962100983 0.5647872090339661 0.016251694411039352
0.19448532164096832 -0.1871541440486908 0.09534076601266861
-0.16314727067947388 0.05582358315587044 -0.17785044014453888
-0.014333594590425491 0.43476545810699463 -0.1681692898273468
0.0908319503068924 -0.4058038592338562 0.06475546211004257
0.011605842038989067 0.2619440257549286 0.24083900451660156
0.07736091315746307 -0.03321853652596474 0.21106985211372375
-0.06520093977451324 -0.4224095642566681 -0.17289233207702637
-0.21845053136348724 -0.21300794184207916 0.025305870920419693
-0.015381895005702972 -0.41237789392471313 0.022138267755508423
-0.10098385810852051 -0.1938130110502243 -0.16232024133205414
0.18398761749267578 -0.23684589564800262 -0.12471973150968552
-0.031112320721149445 -0.3233308792114258 0.2540179491043091
-0.027606423944234848 0.4278258681297302 -0.16664521396160126
0.18703053891658783 0.08538729697465897 0.0532933846116066
-0.12215717136859894 0.5057380795478821 -0.03283267095685005
0.16717417538166046 -0.07167331874370575 0.1567395031452179
0.1401589810848236 0.09831530600786209 0.13158012926578522
-0.2220894694328308 -0.23907485604286194 0.02013290300965309
0.20516464114189148 -0.4057765007019043 -0.035011839121580124
-0.11572036147117615 0.0499383881688118 0.16128066182136536
0.038626886904239655 -0.2555873394012451 -0.17462077736854553
-0.08512818068265915 0.474662721157074 -0.1613767147064209
-0.12425461411476135 0.22342665493488312 0.10920216143131256
-0.1843433827161789 -0.16931968927383423 0.0679703801870346
0.12888386845588684 0.23932795226573944 -0.04045269265770912
0.09232666343450546 0.5697293281555176 -0.0830383151769638
0.07914820313453674 0.13577166199684143 0.21550598740577698
-0.05792272463440895 -0.4196259081363678 -0.16791997849941254
