-0.12915270030498505 0.2970818877220154 -0.0380932055413723
-0.06699088215827942 -0.09384626895189285 -0.17754264175891876
0.12564507126808167 -0.20687749981880188 0.23025158047676086
0.13727517426013947 -0.3316176235675812 0.20733259618282318
0.10365711152553558 -0.4188843071460724 -0.10904721170663834
-0.17658686637878418 0.14522023499011993 -0.11555497348308563
-0.024284007027745247 -0.21572421491146088 -0.1688045859336853
-0.17544950544834137 0.1379292905330658 -0.14802171289920807
-0.009294532239437103 -0.32031846046447754 -0.19572463631629944
0.07012324780225754 0.010333092883229256 0.20022958517074585
0.18711605668067932 -0.04254642128944397 0.056383922696113586
-0.01818663254380226 0.5086031556129456 0.09596448391675949
0.1657182276248932 -0.33840063214302063 0.1532989740371704
0.13432548940181732 0.30520763993263245 -0.02319253608584404
0.21595974266529083 -0.29171690344810486 0.04705090820789337
-0.1910545974969864 0.09431535750627518 -0.04527566581964493
0.1356968730688095 0.4015975296497345 0.028646722435951233
-0.1261320263147354 0.44878387451171875 -0.06046641618013382
-0.05672665312886238 0.337661474943161 0.2042819708585739
-0.19723592698574066 0.11979153752326965 -0.12475568056106567
0.021143771708011627 0.13574695587158203 0.22734031081199646
-0.2101641297340393 -0.05948439985513687 -0.15468262135982513
0.10085799545049667 -0.17301686108112335 -0.16262862086296082
0.039569269865751266 0.5667346119880676 -0.11629511415958405
-0.11733030527830124 0.5239574313163757 0.010719392448663712
0.08867593109607697 -0.4215359389781952 -0.11462049931287766
0.10140198469161987 -0.4066448509693146 0.06942649930715561
-0.16288402676582336 -0.4151384234428406 0.0031623169779777527
0.13871541619300842 0.3308122158050537 0.0885598286986351
-0.18600547313690186 -0.11550423502922058 0.045983269810676575
-0.2072271704673767 -0.23169627785682678 0.07260386645793915
-0.12980639934539795 0.2834959924221039 -0.04842499643564224
-0.11749675869941711 0.20261594653129578 -0.11805105209350586
0.1349187195301056 -0.3762054741382599 -0.19561786949634552
-0.1013808399438858 -0.1277368664741516 0.21761007606983185
-0.17062582075595856 0.060319215059280396 0.06689148396253586
-0.018071668222546577 0.3415199816226959 -0.1695968359708786
0.22377920150756836 -0.23896661400794983 0.0017274720594286919
-0.20904138684272766 -0.392084538936615 -0.08973617106676102
0.2134368121623993 -0.3075914680957794 -0.08138693124055862
-0.06375862658023834 -0.3864888846874237 -0.20756958425045013
0.16887517273426056 -0.224084734916687 -0.13649055361747742
0.12900470197200775 0.47460660338401794 -0.03284909203648567
0.11151667684316635 0.39481252431869507 -0.16289116442203522
-0.2193910926580429 -0.1418183594942093 -0.07658778876066208
-0.03810109943151474 -0.21318146586418152 -0.16462334990501404
0.0744575560092926 -0.06639941781759262 0.2241184115409851
-0.20058698952198029 -0.18490959703922272 -0.1481352299451828
-0.030049841850996017 0.5627102851867676 -0.03317088261246681
-0.2011234015226364 -0.2927025556564331 0.09848885238170624
-0.06757675856351852 -0.41186287999153137 0.18690219521522522
0.1329689621925354 0.4432329833507538 -0.0005612894892692566
0.21647730469703674 -0.37201881408691406 -0.1251847743988037
-0.04691189527511597 0.33259356021881104 0.22794412076473236
0.0765126645565033 -0.19192826747894287 0.25374940037727356
-0.12254948168992996 0.5005571842193604 0.007015300914645195
-0.06639429926872253 -0.17515656352043152 -0.1690986454486847
0.18438254296779633 0.03686635196208954 0.018903318792581558
-0.02310807630419731 0.08729715645313263 0.19068340957164764
0.08363637328147888 -0.009270504117012024 0.20088420808315277
0.05036221444606781 -0.21341845393180847 -0.16340509057044983
0.0003933180123567581 -0.2566986382007599 -0.1794092357158661
-0.046033844351768494 -0.40773719549179077 0.048111189156770706
-0.09260079264640808 0.10769138485193253 0.14474643766880035
-0.023774459958076477 0.43437981605529785 -0.166836217045784
0.015220126137137413 -0.33627641201019287 -0.19816207885742188
-0.13219444453716278 -0.4193570613861084 -0.015467505902051926
0.20987606048583984 -0.21046823263168335 0.07360868155956268
0.16739317774772644 -0.2213098108768463 -0.13749153912067413
0.20441986620426178 -0.004015540704131126 -0.10448984801769257
0.15035420656204224 -0.3117954134941101 -0.16996699571609497
0.13567116856575012 0.2695445120334625 0.09763375669717789
-0.19670121371746063 -0.40131017565727234 0.056478101760149
-0.22529613971710205 -0.19363482296466827 -0.07075999677181244
-0.07644416391849518 0.173638254404068 0.24044105410575867
0.11755605041980743 0.5393498539924622 -0.05616934970021248
-0.08556777983903885 0.5547435283660889 -0.1519336998462677
-0.18534986674785614 -0.4159373939037323 -0.17501433193683624
-0.167308509349823 0.14025872945785522 -0.17239910364151
0.15657539665699005 0.12410944700241089 0.015686649829149246
0.11588402092456818 -0.2826944589614868 0.23503394424915314
-0.015794821083545685 -0.191062331199646 -0.16732101142406464
-0.10662370920181274 -0.4245702922344208 -0.14999091625213623
0.21590261161327362 -0.1945207417011261 -0.0966525673866272
-0.2251381278038025 -0.2568444013595581 -0.016421224921941757
-0.08659183233976364 -0.14089438319206238 0.2298111468553543
-0.010282236151397228 0.5652477145195007 -0.016460401937365532
-0.03371444717049599 0.1505032479763031 0.24237607419490814
-0.09278073906898499 0.5552271604537964 -0.15262189507484436
-0.1432570368051529 0.04375296086072922 -0.17848354578018188
0.03448086977005005 -0.05149739235639572 0.2243877798318863
0.06777741014957428 0.5462435483932495 0.05780098959803581
0.03329668566584587 0.37666434049606323 0.2110344022512436
-0.17185810208320618 0.12959569692611694 -0.07170966267585754
-0.030492229387164116 0.5613442063331604 -0.032480284571647644
-0.18564178049564362 -0.15783630311489105 0.06174498051404953
-0.006433179602026939 0.22362558543682098 0.25744372606277466
0.07936824858188629 0.22338470816612244 0.24113568663597107
0.13270583748817444 0.24335074424743652 0.17545995116233826
-0.12722264230251312 0.3654431402683258 0.032772187143564224
0.07024781405925751 -0.3930116891860962 -0.20471885800361633
0.02936781384050846 0.35909920930862427 0.2402348518371582
-0.11940428614616394 -0.4203818738460541 -0.09265090525150299
-0.12411803752183914 0.22674453258514404 0.12854330241680145
0.2149335741996765 -0.2413260042667389 0.06630241125822067
-0.0750737190246582 -0.10496686398983002 -0.17683768272399902
-0.023756366223096848 0.377312034368515 0.2044442892074585
0.2127217799425125 -0.39197152853012085 -0.13338549435138702
-0.20973573625087738 -0.18747076392173767 -0.010759645141661167
0.12633974850177765 0.41618117690086365 -0.028498321771621704
-0.11476854979991913 -0.3758789002895355 0.20278209447860718
-0.2028619349002838 -0.23852650821208954 -0.13025054335594177
-0.2019280046224594 0.04375797510147095 -0.07024145126342773
0.1472744345664978 -0.36639559268951416 -0.19067417085170746
-0.17170006036758423 -0.30982255935668945 0.15638452768325806
0.03449587523937225 0.3474063277244568 0.24023014307022095
-0.12628516554832458 0.426144003868103 -0.018735509365797043
0.12534384429454803 0.19268891215324402 0.20227600634098053
0.11852791905403137 -0.18785656988620758 0.2354321926832199
0.07354852557182312 -0.4203954339027405 0.042598895728588104
-0.08649256825447083 -0.4183539152145386 -0.17372441291809082
0.20434358716011047 -0.29488083720207214 0.09232921153306961
0.07439350336790085 -0.4091240167617798 0.06953500211238861
-0.06556330621242523 0.4054105579853058 -0.16644041240215302
-0.0762389525771141 -0.10171462595462799 -0.1770390272140503
-0.18374262750148773 -0.2695012092590332 0.13966986536979675
0.18283843994140625 -0.41165414452552795 0.025597408413887024
-0.21849535405635834 -0.1273065209388733 -0.12138693034648895
0.22568796575069427 -0.266804575920105 -0.03494584187865257
-0.11677027493715286 -0.23975294828414917 -0.16138345003128052
-0.1760217249393463 -0.3371927738189697 0.14367318153381348
-0.19992907345294952 -0.18299748003482819 0.021574679762125015
0.19849605858325958 -0.0355687290430069 -0.13296151161193848
0.1899643987417221 -0.35842186212539673 0.05883145332336426
-0.18070460855960846 0.08124510198831558 0.017555709928274155
-0.027599254623055458 0.5631511211395264 -0.09656087309122086
0.08105511218309402 -0.41608649492263794 0.036789558827877045
-0.07651061564683914 -0.22025851905345917 -0.16472335159778595
0.11021260917186737 -0.41288870573043823 0.13381101191043854
0.21585743129253387 -0.3541611135005951 -0.06497776508331299
-0.21044959127902985 -0.37221822142601013 -0.010248176753520966
-0.02377011999487877 0.5663006901741028 -0.13197706639766693
-0.048840317875146866 -0.1824655532836914 -0.16841110587120056
-0.20442000031471252 0.02749771624803543 -0.07875022292137146
0.08823342621326447 -0.4137791097164154 0.041708964854478836
0.09326128661632538 0.31914839148521423 0.18850219249725342
-0.2222590297460556 -0.2010333240032196 -0.03155285865068436
-0.1232287660241127 -0.4120551645755768 0.030481457710266113
0.020067855715751648 -0.3989991545677185 0.24872049689292908
-0.17612776160240173 -0.27302730083465576 -0.1481814682483673
-0.12757082283496857 0.27459973096847534 -0.02663879096508026
-0.02726251631975174 0.20014001429080963 0.25852856040000916
0.1307399421930313 0.23591382801532745 0.0027121827006340027
-0.18138380348682404 -0.06604333966970444 0.08261270821094513
-0.0772460550069809 -0.42047983407974243 -0.03630097582936287
0.061007846146821976 0.10557927936315536 0.18624360859394073
-0.12795086205005646 0.3903025984764099 0.0006863772869110107
0.13257022202014923 0.33133089542388916 -0.02437542751431465
0.17899547517299652 -0.15978138148784637 0.12998996675014496
-0.05311167985200882 -0.19000574946403503 -0.16907009482383728
-0.18095259368419647 -0.07097042351961136 0.08093418926000595
0.016496874392032623 -0.32255321741104126 0.2613784074783325
0.15611878037452698 0.03378664329648018 0.1387707144021988
0.07415640354156494 -0.4182440936565399 0.03847850486636162
-0.03942772373557091 0.29129984974861145 -0.1722860485315323
0.21964117884635925 -0.22678782045841217 0.046872712671756744
-0.012440241873264313 -0.3186679780483246 0.2601696252822876
0.1364041566848755 0.3532051742076874 0.020453743636608124
0.08971644937992096 -0.4166658818721771 -0.09775960445404053
0.08574920892715454 -0.41650518774986267 0.041483744978904724
0.10322694480419159 -0.1702524721622467 0.23641909658908844
-0.09404250979423523 -0.4153206944465637 -0.20412977039813995
-0.14022931456565857 -0.04209921136498451 0.16162827610969543
0.14155660569667816 0.1299639642238617 0.042553968727588654
0.1265053004026413 0.18683552742004395 -0.0355624221265316
0.1528346836566925 0.37722063064575195 -0.1183292418718338
-0.13081343472003937 0.3185780644416809 -0.035547878593206406
0.0020416676998138428 0.5654676556587219 -0.13022497296333313
0.0882520079612732 -0.14049312472343445 0.23655471205711365
0.06961333006620407 -0.41913601756095886 0.03395995497703552
0.16270500421524048 -0.07935894280672073 0.16466505825519562
-0.13088004291057587 0.29490503668785095 -0.03405458480119705
0.15291912853717804 -0.4172111451625824 -0.05663566291332245
-0.0827765166759491 0.2011924535036087 0.23774570226669312
-0.04155131056904793 0.2939702570438385 -0.17140936851501465
-0.08180718868970871 0.3584722578525543 0.13326048851013184
0.08381791412830353 -0.03209401294589043 0.2097831666469574
0.11799608170986176 0.2711300551891327 0.19245311617851257
0.003849998116493225 0.5590025186538696 -0.1512136459350586
0.19751033186912537 -0.40709033608436584 -0.011157624423503876
-0.08156490325927734 -0.42029884457588196 -0.1932251751422882
-0.0867258608341217 0.29676491022109985 -0.16667714715003967
0.11279846727848053 -0.4092057943344116 0.16261622309684753
-0.09860660135746002 0.07535067200660706 -0.18081286549568176
0.19458676874637604 -0.13624750077724457 0.015119869261980057
-0.1423678994178772 0.40534844994544983 -0.150248184800148
0.20683759450912476 -0.04012608528137207 -0.05606355518102646
0.092584028840065 -0.41360047459602356 0.05084071680903435
0.03717682510614395 0.06120913848280907 0.19176465272903442
0.05771331489086151 0.12441890686750412 -0.1734098494052887
-0.03587716817855835 0.40335696935653687 -0.167771115899086
-0.12155397236347198 0.2202494740486145 -0.0628606528043747
0.12775906920433044 0.1486257016658783 0.04953883960843086
-0.1872507929801941 -0.4176367521286011 -0.04855252429842949
0.14859208464622498 -0.24562004208564758 -0.14083367586135864
0.08197604864835739 0.2549939453601837 -0.1687445491552353
0.01678970269858837 0.19252872467041016 -0.17361190915107727
0.21912701427936554 -0.2854061424732208 0.03887675702571869
-0.22551986575126648 -0.2846093475818634 -0.07200447469949722
0.06469440460205078 0.29379159212112427 0.21360614895820618
0.19735844433307648 -0.4003233313560486 0.0020822081714868546
0.044818975031375885 -0.4151338040828705 0.1615668535232544
0.1332201361656189 -0.02061913162469864 0.18074394762516022
-0.1829969584941864 -0.41693833470344543 -0.17336632311344147
0.1879989504814148 -0.24806536734104156 0.1384185552597046
-0.18309614062309265 -0.2857464551925659 -0.14659841358661652
0.16146628558635712 -0.06267990171909332 0.16016602516174316
0.055778566747903824 0.030389396473765373 0.19840508699417114
0.10759823769330978 -0.18666015565395355 0.23816868662834167
0.13579919934272766 0.3911067247390747 -0.06313851475715637
0.09434822201728821 0.23824822902679443 -0.16625931859016418
0.048728857189416885 -0.03923165798187256 0.22134773433208466
0.06364469230175018 0.04904773086309433 0.18792328238487244
0.0001255124807357788 -0.3398818373680115 -0.2007831186056137
-0.08889590203762054 0.3608928918838501 0.12698356807231903
0.18442858755588531 -0.24621760845184326 -0.12185878306627274
0.20277726650238037 -0.35860535502433777 0.001744973473250866
-0.13810551166534424 -0.34281253814697266 -0.19136279821395874
0.15247273445129395 0.4127340018749237 -0.11002529412508011
-0.07275693118572235 -0.41876059770584106 -0.1930619776248932
0.019313346594572067 0.5174376964569092 0.09849635511636734
0.18640655279159546 -0.055875033140182495 0.07375820726156235
0.12023325264453888 -0.09191648662090302 -0.1689877212047577
0.03572637215256691 0.3873577117919922 -0.16740179061889648
0.1938544511795044 -0.014101475477218628 -0.15695598721504211
0.20142684876918793 0.06456898152828217 -0.14178651571273804
-0.10824272036552429 0.041853636503219604 -0.18062560260295868
0.2020912766456604 0.09862881153821945 -0.07394560426473618
-0.2251850813627243 -0.20236888527870178 -0.08674594759941101
0.12923607230186462 -0.1892804205417633 0.2289910465478897
0.15542688965797424 -0.07848452031612396 0.17497336864471436
0.0963994637131691 -0.4202037751674652 -0.11777280271053314
0.014172099530696869 0.4064572751522064 -0.1672133356332779
-0.2093295007944107 -0.3188396990299225 0.06475657224655151
-0.06432351469993591 0.4354825019836426 -0.1655595898628235
-0.16552339494228363 -0.420133501291275 -0.044044628739356995
0.10551786422729492 -0.40735793113708496 -0.012243939563632011
0.12981608510017395 0.4770713150501251 0.009064342826604843
-0.04848271235823631 -0.19910842180252075 -0.16856148838996887
0.18113861978054047 -0.16645772755146027 0.12071309238672256
-0.04046154022216797 0.1750403344631195 -0.1775107979774475
-0.12395815551280975 0.5051863193511963 0.006606973707675934
0.12496424466371536 0.18034589290618896 0.16497208178043365
0.13662505149841309 0.28724420070648193 0.07345893234014511
0.0900128111243248 -0.4119241535663605 0.03893892839550972
0.0842851847410202 -0.4192870259284973 0.04851666837930679
0.10076556354761124 0.23422469198703766 -0.16310229897499084
0.1271429806947708 -0.41106703877449036 0.03796800225973129
-0.06391970068216324 -0.16985702514648438 -0.16942885518074036
-0.1804063320159912 0.07669948786497116 0.02995099499821663
0.13407781720161438 0.26102685928344727 0.1309879571199417
-0.06028355285525322 -0.1584530472755432 -0.17264734208583832
-0.18142731487751007 -0.42098283767700195 -0.07189250737428665
-0.17961947619915009 -0.4231528341770172 -0.08090099692344666
0.008123490959405899 -0.3337908983230591 -0.19838152825832367
0.0939260870218277 0.2485143542289734 -0.1682279258966446
-0.06748153269290924 0.5626263618469238 -0.004489582031965256
0.09080463647842407 -0.19142723083496094 -0.15791048109531403
0.18495960533618927 -0.04455532878637314 0.04993476718664169
-0.12493292987346649 0.08291856944561005 -0.1797395944595337
-0.1555309295654297 0.12334442138671875 -0.17750972509384155
-0.20671121776103973 -0.05622505024075508 -0.16211512684822083
-0.1301644891500473 0.30631035566329956 -0.02100326120853424
0.20300395786762238 0.034866657108068466 -0.10166755318641663
0.006390072405338287 -0.4146783649921417 0.15899749100208282
-0.19184139370918274 -0.21524454653263092 -0.14599847793579102
-0.03597456216812134 0.21888333559036255 0.25232478976249695
-0.12588563561439514 -0.30486541986465454 -0.18005910515785217
0.21799269318580627 -0.16759005188941956 -0.05910102277994156
-0.10831073671579361 -0.030863430351018906 0.18887868523597717
-0.06392955780029297 0.019644446671009064 -0.18176625669002533
-0.14845062792301178 -0.37863269448280334 -0.19784516096115112
-0.2016778290271759 -0.3141798973083496 -0.12435178458690643
0.043426111340522766 -0.373841792345047 -0.20467697083950043
0.1825239211320877 -0.17107081413269043 0.11879336833953857
0.17607952654361725 0.06437640637159348 0.08966343849897385
0.13135786354541779 0.2394411265850067 0.15884935855865479
-0.14061804115772247 0.15724430978298187 -0.12097424268722534
0.07749224454164505 -0.41917887330055237 0.04221736639738083
0.01575154811143875 0.5516651272773743 0.07526111602783203
0.16232678294181824 -0.21661046147346497 -0.1408652365207672
0.024578534066677094 0.396862655878067 0.18034064769744873
-0.052323803305625916 0.40935537219047546 -0.16766509413719177
0.1349172741174698 -0.2342492789030075 -0.14333641529083252
0.08535722643136978 -0.41229942440986633 -0.04910311847925186
-0.023886363953351974 -0.4153454899787903 -0.13546615839004517
-0.2000856101512909 0.013886615633964539 -0.06009142845869064
-0.12279487401247025 0.21846626698970795 0.1269054412841797
0.1810985654592514 -0.41612592339515686 -0.017990313470363617
0.14775268733501434 -0.13596020638942719 0.20230557024478912
-0.18931084871292114 -0.09065767377614975 0.006687460467219353
0.05065973848104477 -0.1694791316986084 0.2602858245372772
0.0338599719107151 0.1667395681142807 0.25806745886802673
0.1320209950208664 0.25304311513900757 0.00899692252278328
0.19899849593639374 -0.36181336641311646 0.01841394230723381
0.049762800335884094 0.363328754901886 0.17227576673030853
-0.06578061729669571 0.42387089133262634 -0.165496364235878
0.013208046555519104 -0.33901745080947876 0.25914260745048523
0.09181888401508331 -0.4120565354824066 0.038931842893362045
-0.09964799880981445 0.3789660632610321 -0.1646214872598648
-0.22025863826274872 -0.16011784970760345 -0.07406237721443176
-0.21409618854522705 -0.21791896224021912 -0.12736962735652924
0.0527215451002121 0.2210521101951599 0.2510491609573364
-0.06058238819241524 0.4186840355396271 -0.165891632437706
0.07159721851348877 -0.41779544949531555 0.032981500029563904
-0.1365472823381424 0.42527294158935547 -0.08595936000347137
-0.12668420374393463 0.28701263666152954 0.13041403889656067
0.1292828768491745 0.22735190391540527 0.18191157281398773
0.08759956806898117 -0.4183233678340912 0.04378595948219299
-0.08694735914468765 0.03310432285070419 0.18279796838760376
-0.21771760284900665 -0.37739551067352295 -0.08452299982309341
-0.12491311877965927 0.24712306261062622 0.11517202109098434
0.11842124909162521 0.17452940344810486 0.2088881880044937
0.07294255495071411 -0.4171133041381836 -0.0741645023226738
-0.07779397070407867 0.07202626764774323 0.17580823600292206
-0.206601083278656 -0.3815285265445709 0.019599977880716324
0.13703961670398712 0.30728310346603394 0.06605047732591629
0.1275927871465683 0.17664963006973267 0.032183557748794556
0.1292882263660431 0.20079219341278076 0.18531738221645355
-0.1144661232829094 0.5436312556266785 -0.026815395802259445
0.027326656505465508 0.36321577429771423 0.23804302513599396
0.13231083750724792 0.05526696518063545 0.15647239983081818
0.010188132524490356 0.566422700881958 -0.009123999625444412
0.17984254658222198 -0.16293980181217194 0.1323750764131546
-0.2143692970275879 -0.09108512103557587 -0.12477876245975494
-0.09176387637853622 0.550536572933197 0.02348746731877327
-0.12893046438694 0.30845656991004944 -0.05371411144733429
0.21377098560333252 -0.34633174538612366 -0.07784343510866165
-0.10979455709457397 0.0500546395778656 -0.1805477738380432
0.17775338888168335 -0.2852672040462494 0.15975937247276306
0.04084046930074692 0.23118989169597626 0.257909893989563
-0.08787304162979126 -0.16268761456012726 0.23528598248958588
-0.041649237275123596 0.3503809869289398 0.2226075679063797
-0.01933428645133972 0.37877535820007324 0.2161899209022522
-0.14595963060855865 0.38686567544937134 -0.08558095991611481
-0.07148396968841553 0.18107011914253235 -0.1754441261291504
-0.1312015801668167 0.047003790736198425 0.1449911892414093
0.09321774542331696 -0.409541517496109 0.051883574575185776
0.1529545783996582 0.28748491406440735 -0.11112486571073532
-0.10870620608329773 0.08381977677345276 -0.18017694354057312
-0.12471271306276321 0.36797234416007996 -0.013233259320259094
-0.05460802838206291 -0.4184846580028534 -0.18883591890335083
0.10488871484994888 -0.4219001233577728 -0.10774198174476624
0.14005409181118011 -0.41720902919769287 -0.17428041994571686
0.13503004610538483 0.3479864299297333 -0.1606265902519226
0.10849368572235107 0.2293725311756134 -0.1506071388721466
0.11157557368278503 -0.40876418352127075 0.052327897399663925
-0.1216534897685051 0.051900867372751236 0.15187089145183563
-0.026591669768095016 0.4044443964958191 0.1323280781507492
0.06010505557060242 -0.42135822772979736 -0.16245631873607635
-0.12752391397953033 0.31489092111587524 0.0071726590394973755
-0.050722815096378326 -0.03916944935917854 0.21678227186203003
0.11267859488725662 0.2319004237651825 0.21709080040454865
-0.04869666323065758 -0.3873579800128937 -0.20752973854541779
-0.12703442573547363 0.2857076823711395 -0.030485190451145172
0.0927065908908844 -0.4053351581096649 0.0530971959233284
-0.1228298470377922 0.5083469748497009 -0.04008049890398979
0.12060803174972534 0.15312163531780243 0.11022993177175522
0.18651676177978516 -0.04826798290014267 0.06473711878061295
-0.14043235778808594 0.3736324906349182 -0.07254421710968018
0.17486688494682312 -0.1481848806142807 0.14686009287834167
-0.045949921011924744 0.35583052039146423 0.19569170475006104
-0.11874983459711075 -0.2734273076057434 -0.1736244410276413
0.1860305666923523 -0.41138967871665955 -0.010618221946060658
0.16525393724441528 -0.41970545053482056 -0.14584776759147644
0.00779309868812561 0.1011933833360672 -0.17711256444454193
0.07203629612922668 -0.41727346181869507 0.042892713099718094
-0.004598638042807579 0.5495908856391907 0.08008051663637161
-0.2034910023212433 -0.38951313495635986 0.0018681678920984268
0.17990683019161224 0.13546307384967804 -0.06457796692848206
0.02820558100938797 -0.3507983982563019 0.2564087510108948
0.027760382741689682 0.466936856508255 -0.1661454290151596
0.2102620005607605 -0.202492818236351 0.07223398238420486
0.0752628967165947 -0.415459007024765 0.0416073277592659
0.11460031569004059 0.11737283319234848 0.1401919424533844
-0.09979589283466339 -0.19623133540153503 0.2388947606086731
0.21605563163757324 -0.14984577894210815 -0.04605702683329582
0.1757516711950302 -0.1811145842075348 0.14788493514060974
0.1331779956817627 0.24256865680217743 0.15218853950500488
-0.18862926959991455 -0.41886669397354126 -0.15342801809310913
-0.126529261469841 0.38379472494125366 0.03834370896220207
-0.07579418271780014 0.42842158675193787 -0.16460824012756348
-0.06547021865844727 0.4244050681591034 -0.16568347811698914
0.13432317972183228 -0.3867681622505188 0.17137673497200012
0.019206229597330093 0.1033540666103363 0.20125454664230347
0.024764709174633026 0.41226065158843994 0.1512194275856018
-0.21854948997497559 -0.1314592957496643 -0.10862578451633453
0.07181430608034134 -0.4107406735420227 0.02965347282588482
0.1932455599308014 -0.29673635959625244 0.12250039726495743
-0.08771757036447525 -0.41844531893730164 -0.1679571270942688
0.15465661883354187 -0.1385163962841034 0.1955910325050354
0.03535894304513931 -0.4245130717754364 -0.1814800351858139
0.07093391567468643 0.17921990156173706 0.2560065686702728
0.10121594369411469 -0.005734509322792292 0.1944470852613449
-0.12101501226425171 0.5239243507385254 -0.02548941969871521
-0.18400676548480988 -0.14129939675331116 0.08744986355304718
-0.04132508859038353 0.3279374837875366 -0.1699344515800476
-0.09867792576551437 0.5423563122749329 0.02486507035791874
-0.19298964738845825 -0.3815614879131317 0.08428005874156952
0.04433105140924454 -0.4121544063091278 0.23942625522613525
0.030602186918258667 0.5679105520248413 -0.12223872542381287
0.13684183359146118 0.27448946237564087 -0.08978374302387238
0.08848791569471359 0.26197004318237305 0.21647125482559204
-0.12695874273777008 0.31631335616111755 0.032797254621982574
-0.08164618909358978 0.0033066049218177795 -0.18036958575248718
-0.009871240705251694 -0.035564977675676346 0.2199047952890396
0.05848008394241333 0.5213667154312134 0.08213306963443756
-0.1055796891450882 0.431788831949234 -0.15986356139183044
0.12512578070163727 0.5036886930465698 -0.07191760838031769
0.0255033690482378 0.4215333163738251 0.13065122067928314
-0.051637399941682816 0.4052894115447998 -0.16691160202026367
-0.15182898938655853 -0.07237840443849564 -0.17534089088439941
0.005255755037069321 0.5614420771598816 -0.15501485764980316
0.01892511174082756 0.4650285840034485 -0.1673235297203064
-0.12137582153081894 -0.41702890396118164 -0.019592657685279846
0.10265830159187317 0.025616534054279327 0.1849174052476883
0.042150404304265976 0.3725421130657196 0.20760861039161682
-0.08454446494579315 0.5290361046791077 -0.16167989373207092
0.15378569066524506 -0.06676769256591797 0.1720413714647293
-0.024405669420957565 0.4348844587802887 -0.16792000830173492
0.14769630134105682 -0.4157412648200989 0.11517836153507233
0.058622095733881 0.3208131194114685 0.22353047132492065
-0.1886698454618454 -0.3271141052246094 -0.16070403158664703
-0.016383282840251923 0.505957841873169 0.0953439325094223
0.18411096930503845 0.03220523148775101 0.004065770655870438
-0.003677826374769211 0.10439363867044449 -0.17659126222133636
0.13718296587467194 0.2739686369895935 -0.06740966439247131
-0.16678094863891602 -0.41784217953681946 -0.1697171926498413
0.0923757329583168 -0.41679489612579346 -0.10657763481140137
0.1071687638759613 0.16384828090667725 0.2156609445810318
0.08730511367321014 -0.41061779856681824 0.026193633675575256
0.08256978541612625 -0.37803593277931213 -0.20344877243041992
0.13083304464817047 0.21653962135314941 0.06429976969957352
0.20233644545078278 -0.37934431433677673 0.009994320571422577
0.11959575116634369 0.15653523802757263 0.1554742306470871
-0.1749992072582245 -0.41464129090309143 -0.18019026517868042
-0.106810063123703 -0.33726343512535095 -0.1976650357246399
-0.18412573635578156 -0.06268581748008728 0.06611460447311401
0.10908252745866776 -0.4201098084449768 -0.14952099323272705
-0.1328767091035843 0.0068977270275354385 0.15479084849357605
-0.11780570447444916 0.48813551664352417 0.03752739727497101
0.19061903655529022 -0.4143993854522705 -0.021472718566656113
-0.20305906236171722 0.07716085016727448 -0.16584007441997528
0.20766998827457428 -0.05389269068837166 -0.08373846113681793
0.12677735090255737 0.18643568456172943 0.0888608917593956
0.08732375502586365 -0.10290643572807312 0.22595429420471191
0.13332466781139374 0.260204553604126 -0.0023695454001426697
0.0952279344201088 -0.19607774913311005 0.24854378402233124
-0.12737812101840973 0.24618101119995117 0.14449474215507507
-0.04483656957745552 0.38927456736564636 0.1205182746052742
0.17436540126800537 0.13702936470508575 -0.053056102246046066
-0.04479248821735382 0.05388613045215607 0.19161775708198547
-0.10982076823711395 -0.33306175470352173 0.22505614161491394
-0.1954048126935959 -0.34052774310112 0.09318089485168457
0.1359826773405075 0.30256322026252747 0.04569430649280548
-0.17877154052257538 0.14233382046222687 -0.12936760485172272
0.10900728404521942 0.08390748500823975 0.16258041560649872
0.13102063536643982 0.3760848641395569 -0.16582052409648895
-0.12709398567676544 0.25013187527656555 -0.0028861258178949356
-0.12635274231433868 0.3595839738845825 -0.02958833798766136
-0.09503985941410065 0.09566651284694672 0.15388274192810059
0.0664486438035965 0.3832091689109802 -0.16655029356479645
0.21254536509513855 -0.3924160301685333 -0.079510897397995
-0.22660744190216064 -0.23012596368789673 -0.049141775816679
-0.04367219656705856 -0.01878315582871437 -0.18114309012889862
-0.0404214933514595 -0.4125031530857086 0.13483045995235443
-0.16024820506572723 0.04548816755414009 0.10207416117191315
-0.20866847038269043 -0.027570148929953575 -0.1464720070362091
-0.1679495871067047 -0.02795221284031868 0.10835850983858109
0.06435365974903107 0.0012348610907793045 0.2062513381242752
0.1160283014178276 -0.07466131448745728 0.20806613564491272
0.13027818500995636 0.14917446672916412 -0.04740916192531586
-0.2093648612499237 -0.24555529654026031 0.06575536727905273
-0.032223958522081375 0.1462068408727646 0.2357962727546692
0.20404791831970215 -0.009589135646820068 -0.11046112328767776
-0.14476417005062103 0.10557505488395691 0.06485605239868164
-0.05557394027709961 0.06411661952733994 0.18606629967689514
0.08454391360282898 -0.11144634336233139 0.23053407669067383
0.1067022830247879 -0.42192938923835754 -0.10754093527793884
-0.10493413358926773 -0.41950908303260803 -0.13932201266288757
0.017589271068572998 0.5663578510284424 -0.008149499073624611
0.03347541391849518 0.34557732939720154 0.24065536260604858
-0.07889905571937561 0.45270535349845886 -0.16409416496753693
-0.03579779714345932 0.36209315061569214 0.2141202986240387
0.013700392097234726 -0.41322198510169983 0.17992639541625977
0.20690803229808807 -0.06946241110563278 -0.06310047209262848
-0.10556381195783615 -0.2759488523006439 -0.17857690155506134
0.21263185143470764 -0.36028429865837097 -0.12986987829208374
0.18430158495903015 -0.4119069576263428 0.029543437063694
0.0971595048904419 -0.40544772148132324 0.052126046270132065
-0.09700512886047363 0.10009262710809708 0.1479242742061615
-0.18790410459041595 -0.27620843052864075 0.13069352507591248
0.18190447986125946 0.08097326755523682 0.06251198053359985
0.0906873345375061 -0.04000799357891083 0.20952413976192474
0.13699224591255188 0.31971660256385803 0.04854040592908859
0.07309146970510483 0.4308583736419678 0.06417695432901382
0.05692590773105621 -0.41310209035873413 0.14182843267917633
0.22368654608726501 -0.2613941431045532 -0.04604237154126167
0.22062116861343384 -0.20898646116256714 -0.07952135056257248
0.009229078888893127 0.5394333600997925 -0.163216233253479
0.2122240960597992 -0.33545035123825073 -0.11143796145915985
-0.12616899609565735 0.2657510042190552 0.07823794335126877
0.005767952650785446 0.10418792814016342 0.2027703821659088
0.15483427047729492 -0.3771522343158722 -0.19082529842853546
0.10532179474830627 0.17344677448272705 0.2337018996477127
0.1284525841474533 0.2821035385131836 0.13186980783939362
-0.06926533579826355 0.3670663833618164 -0.16681799292564392
-0.08264495432376862 -0.011353932321071625 0.19738733768463135
-0.21993374824523926 -0.255759596824646 0.024838056415319443
-0.101657934486866 0.18394866585731506 0.21963906288146973
-0.0709243193268776 -0.17476263642311096 -0.17252221703529358
0.08567734062671661 -0.41222134232521057 0.023227930068969727
-0.04606820270419121 0.561529815196991 -0.017919249832630157
0.08619411289691925 -0.12716738879680634 0.23485895991325378
-0.03775486722588539 -0.19955474138259888 -0.1666766256093979
-0.18522346019744873 -0.054174602031707764 0.0485609732568264
0.15687061846256256 -0.4163661301136017 -0.04479531571269035
0.03634187579154968 0.07819147408008575 0.18849335610866547
0.20285481214523315 0.05323770269751549 -0.11524218320846558
-0.20783880352973938 -0.04117695614695549 -0.17041803896427155
-0.03661308437585831 -0.1116882935166359 0.23941631615161896
-0.08260533213615417 0.44283008575439453 0.05855274200439453
0.01801343634724617 -0.41342756152153015 0.11253523081541061
0.16410353779792786 0.1449892818927765 -0.09240426123142242
0.21908488869667053 -0.17636661231517792 -0.05427303910255432
0.08569670468568802 0.16061635315418243 -0.1719704270362854
-0.08289869129657745 0.553109347820282 0.016703590750694275
0.1938256174325943 -0.40373069047927856 -0.012757666409015656
0.1784685254096985 -0.41277486085891724 0.039713241159915924
0.18286122381687164 -0.41639041900634766 -0.010661167092621326
-0.19059185683727264 -0.41914528608322144 -0.026371991261839867
-0.11503707617521286 0.16399236023426056 0.1287299543619156
0.11373491585254669 -0.426746129989624 -0.11707303673028946
-0.15271015465259552 -0.4144900143146515 -0.0607350692152977
0.1020120307803154 -0.40650931000709534 0.05294876918196678
0.08739888668060303 -0.02098783850669861 0.20341408252716064
0.1978919953107834 -0.21239827573299408 0.11243518441915512
0.08147712051868439 -0.40751251578330994 0.19917388260364532
-0.1019432321190834 -0.1722341775894165 -0.16738246381282806
-0.02930118888616562 -0.2085750848054886 -0.16806992888450623
-0.1630713939666748 -0.14123447239398956 -0.1697777360677719
0.06706158816814423 0.12886002659797668 0.20835217833518982
-0.060200005769729614 -0.19237980246543884 -0.16750270128250122
0.17103658616542816 0.1143515333533287 0.025364458560943604
-0.0568169467151165 -0.0314151756465435 -0.18132050335407257
-0.20791614055633545 -0.36738210916519165 0.016865398734807968
-0.10209207236766815 0.383634477853775 0.09107622504234314
-0.12499208748340607 0.22388619184494019 -0.027433060109615326
0.22616873681545258 -0.2550341784954071 -0.02081964537501335
-0.20359006524085999 -0.09973761439323425 -0.16221387684345245
-0.15864306688308716 -0.15487372875213623 0.16631221771240234
0.03381497412919998 -0.4115927219390869 0.24234071373939514
-0.06703224033117294 0.3849215805530548 -0.16577443480491638
0.06381210684776306 -0.4211634397506714 -0.1590428501367569
-0.11137919127941132 -0.272898405790329 0.2313963919878006
0.2126314789056778 -0.10729603469371796 -0.05911532789468765
0.10688149929046631 -0.16369818150997162 0.2359585016965866
-0.14783014357089996 0.07684306055307388 0.10297226160764694
-0.09616175293922424 0.5618312358856201 -0.1321585774421692
0.16221457719802856 -0.25444158911705017 -0.13536329567432404
0.12526707351207733 0.4598914384841919 -0.16234056651592255
-0.08053292334079742 0.4357907772064209 -0.16494321823120117
0.13131025433540344 0.21944253146648407 0.024259675294160843
0.008051753044128418 0.41920235753059387 0.14609597623348236
0.0233389213681221 0.5647797584533691 -0.14655819535255432
-0.04755105450749397 -0.19724571704864502 0.2606416344642639
0.17108993232250214 -0.0634446069598198 0.13735443353652954
0.10105857998132706 -0.4034595191478729 0.05464499816298485
-0.025480519980192184 0.09321297705173492 -0.17831829190254211
0.06783262640237808 -0.19240713119506836 0.25596266984939575
-0.1922788918018341 -0.24755236506462097 0.12025049328804016
0.0838211178779602 -0.4096968173980713 0.01292039267718792
0.13226811587810516 -0.1910773664712906 0.22605405747890472
0.13425596058368683 0.24389027059078217 0.14626547694206238
0.029100019484758377 0.3910059630870819 0.18276919424533844
0.13087855279445648 -0.014184697531163692 0.180105060338974
0.18842536211013794 0.12733608484268188 -0.06659523397684097
0.21938788890838623 -0.29961517453193665 0.02669598162174225
0.1852622628211975 -0.032630421221256256 0.07761521637439728
0.2237251251935959 -0.26825428009033203 -0.009093486703932285
0.2097768783569336 -0.20736169815063477 0.07939443737268448
-0.18248729407787323 0.043725430965423584 0.007956884801387787
0.18101970851421356 -0.20744912326335907 0.15010690689086914
-0.041687458753585815 0.5619884729385376 -0.037514910101890564
0.19416451454162598 -0.1858610212802887 0.103639155626297
0.04563974589109421 -0.41638636589050293 -0.0664585530757904
-0.046839192509651184 -0.14752210676670074 -0.17354385554790497
0.013251358643174171 -0.25478070974349976 -0.17888766527175903
-0.03426530957221985 0.4933452904224396 0.08650829643011093
-0.14446036517620087 0.42212098836898804 -0.14079992473125458
0.10380870848894119 -0.4240912199020386 -0.11265131086111069
0.08289647847414017 -0.4144115447998047 0.038008470088243484
0.18468576669692993 0.05458265542984009 0.02513306401669979
-0.007183239795267582 0.565016508102417 -0.022068988531827927
-0.14139576256275177 -0.19090266525745392 0.19740837812423706
0.12718458473682404 -0.3922024369239807 0.17701834440231323
0.15796804428100586 0.31840211153030396 -0.10923829674720764
0.1806149184703827 0.04874022305011749 0.08374962210655212
0.19812199473381042 0.10753196477890015 -0.061112672090530396
0.20310398936271667 -0.006726043298840523 -0.11259011179208755
-0.14072594046592712 -0.40179112553596497 0.16978400945663452
0.16887223720550537 0.11580386012792587 0.015137366950511932
0.12966082990169525 0.25786566734313965 0.18018068373203278
0.1863233745098114 -0.4090122878551483 -0.011878002434968948
0.20412170886993408 -0.024740956723690033 -0.07243800908327103
-0.014754846692085266 -0.25550687313079834 -0.18072287738323212
-0.1136590838432312 -0.4154832363128662 -0.030739780515432358
-0.19186143577098846 -0.34185001254081726 0.09902604669332504
0.20318159461021423 -0.22430194914340973 0.10218560695648193
-0.11624985933303833 0.1625213772058487 0.11615820229053497
0.12635624408721924 0.49989140033721924 0.010414302349090576
0.13749240338802338 0.36344385147094727 0.0014395564794540405
0.0072257257997989655 0.31262660026550293 0.22666557133197784
-0.1213943138718605 0.20132245123386383 0.1206972748041153
0.13470520079135895 0.14384710788726807 -0.04319419339299202
0.10923010855913162 -0.4145408272743225 0.040775369852781296
0.011256898753345013 -0.25493985414505005 -0.1792442500591278
0.15535038709640503 -0.4103134870529175 0.04168938845396042
-0.08265028893947601 0.43263718485832214 -0.16336803138256073
-0.12537620961666107 0.2338722199201584 -0.03144136071205139
0.18971815705299377 -0.40653902292251587 0.004369970411062241
0.13763129711151123 0.3340425491333008 0.0677657350897789
0.18419553339481354 0.11325180530548096 -0.043509598821401596
-0.12751957774162292 0.2757047116756439 -0.0503319650888443
0.18107646703720093 -0.28248199820518494 0.15520109236240387
-0.06832626461982727 0.40259483456611633 -0.16587470471858978
0.14719633758068085 -0.3824402987957001 0.1501411497592926
0.006183817982673645 -0.32477936148643494 0.26135146617889404
0.19076569378376007 -0.283422589302063 0.12917223572731018
0.19695307314395905 -0.4034595787525177 -0.005233314819633961
-0.04568669945001602 0.44082111120224 0.06303935497999191
0.018011607229709625 0.0009125694632530212 -0.17789342999458313
-0.21261784434318542 -0.3800138831138611 -0.043291375041007996
-0.14723524451255798 -0.07906699180603027 -0.17448705434799194
0.1088160052895546 -0.1753479540348053 0.2397221028804779
-0.0853220671415329 0.53550124168396 -0.1606055349111557
-0.08310697972774506 -0.17719736695289612 0.24051320552825928
-0.1760992854833603 -0.4151977300643921 -0.0028579270001500845
-0.06827133148908615 -0.0870572105050087 -0.17761483788490295
-0.060982562601566315 -0.2398359775543213 0.2525807321071625
-0.11343219876289368 0.1843959391117096 0.1852257400751114
-0.009014416486024857 0.006937466561794281 0.20801196992397308
-0.20093688368797302 -0.4163663983345032 0.02143421210348606
0.15369340777397156 0.2888185679912567 -0.10813770443201065
-0.13835959136486053 0.02742781490087509 0.14335685968399048
0.0819866806268692 -0.41739320755004883 0.04168203845620155
-0.009197789244353771 0.45925480127334595 0.09576454013586044
0.08028264343738556 -0.41875559091567993 0.032241806387901306
-0.1813332587480545 -0.3495473563671112 0.12063717842102051
0.015895191580057144 0.37736889719963074 -0.16970467567443848
-0.12965995073318481 0.029164418578147888 -0.1792493611574173
0.027523843571543694 0.3613968789577484 0.24207383394241333
-0.1425667703151703 -0.09114795178174973 0.16898640990257263
-0.19175636768341064 -0.3557775318622589 -0.16476856172084808
0.04223752021789551 0.4767589867115021 -0.16553884744644165
0.0001976117491722107 0.10594910383224487 0.20196731388568878
-0.15995828807353973 -0.1432940512895584 0.1614832729101181
-0.10374925285577774 0.142802432179451 0.1467856466770172
-0.03309585899114609 -0.24839405715465546 -0.17725518345832825
0.07710878551006317 -0.419164776802063 0.03946719691157341
-0.04423115774989128 0.2716836929321289 -0.17287051677703857
0.1336691528558731 0.404956191778183 0.054062094539403915
0.08669999986886978 0.28278693556785583 0.20942360162734985
0.12793466448783875 0.17664490640163422 -0.06785798817873001
-0.05839090049266815 0.21228209137916565 -0.17390696704387665
-0.07428175210952759 -0.21321837604045868 0.25369906425476074
-0.0896456316113472 0.3362883925437927 -0.16752278804779053
0.19671769440174103 -0.4027175009250641 -0.004910822957754135
0.09583653509616852 0.4717648923397064 0.06285135447978973
-0.05169036239385605 0.04150864854454994 0.19273431599140167
0.09624330699443817 -0.413593053817749 0.031212255358695984
-0.04028352349996567 0.2924365997314453 -0.17029333114624023
0.1661173552274704 -0.16182465851306915 0.18265654146671295
-0.1587214320898056 -0.019936583936214447 0.12518328428268433
0.1336403787136078 0.11814671009778976 0.07066628336906433
-0.1479455530643463 -0.38240760564804077 0.17338235676288605
0.10986068844795227 -0.15465855598449707 -0.16492998600006104
0.11422984302043915 -0.05028041452169418 0.2015756368637085
0.03656194359064102 0.18844498693943024 -0.17206242680549622
-0.027148380875587463 -0.4146960973739624 -0.2019159346818924
-0.11648924648761749 0.1659538596868515 0.11698904633522034
0.09659573435783386 -0.039666421711444855 0.2070014476776123
0.08141025900840759 -0.4184378683567047 0.03679187595844269
-0.06537409126758575 0.5618016719818115 0.005154429003596306
-0.2279071807861328 -0.2662436366081238 -0.06368961185216904
0.11109500378370285 -0.16183078289031982 0.2351168394088745
-0.08208775520324707 -0.4166485369205475 -0.16955243051052094
0.060791585594415665 -0.1752985417842865 -0.16485004127025604
-0.18096722662448883 0.08039355278015137 -0.0039022602140903473
0.07794953882694244 -0.41291922330856323 0.043623775243759155
-0.14842411875724792 0.1345047503709793 -0.04293327406048775
0.12643185257911682 0.18928609788417816 0.09013497829437256
0.11199799180030823 -0.4219106137752533 -0.11978790909051895
0.20034079253673553 0.08890441805124283 -0.10583380609750748
-0.16157394647598267 -0.41839197278022766 -0.030187882483005524
-0.05755019187927246 0.5343866944313049 0.07085864990949631
-0.09437145292758942 -0.14647206664085388 0.22634930908679962
-0.21621960401535034 -0.33664023876190186 -0.010920990258455276
0.17611545324325562 -0.4189710319042206 -0.12928354740142822
-0.03539583459496498 -0.20324546098709106 -0.16633430123329163
0.10450799018144608 -0.4143387973308563 -0.07934914529323578
-0.024547385051846504 0.10008418560028076 0.1899574100971222
0.1026039719581604 -0.26633691787719727 -0.169612318277359
-0.057186566293239594 0.5142185091972351 -0.1641763150691986
0.21815426647663116 -0.34664204716682434 -0.09205708652734756
0.1284622699022293 0.2580135464668274 -0.028944410383701324
-0.05039110779762268 -0.12469197809696198 0.24053680896759033
-0.20525281131267548 -0.29109418392181396 0.0883914977312088
-0.20302672684192657 -0.0757826641201973 -0.1678203046321869
0.09071257710456848 0.24706721305847168 -0.16724736988544464
-0.033367838710546494 -0.22970688343048096 0.2583554685115814
0.2009243667125702 -0.3982493281364441 -0.00446719117462635
0.09584631025791168 -0.08657220005989075 0.21985894441604614
-0.17363570630550385 -0.04879900813102722 0.09891927242279053
-0.20076848566532135 0.10962946712970734 -0.1124010756611824
-0.03876080736517906 -0.21341557800769806 -0.16450302302837372
0.08141075074672699 -0.4135953187942505 0.032904818654060364
0.2046992927789688 -0.37123310565948486 0.00329680647701025
0.08817236870527267 -0.03227757290005684 0.21057258546352386
-0.1084931492805481 -0.11301249265670776 -0.17321673035621643
0.1303928792476654 0.4588983654975891 -0.019273214042186737
0.20675669610500336 -0.203294575214386 0.07960285991430283
-0.10063980519771576 -0.27372685074806213 0.23895874619483948
-0.2252245545387268 -0.28540799021720886 0.011175021529197693
0.13062745332717896 0.17575298249721527 -0.0859321653842926
-0.11486365646123886 0.15238061547279358 0.10392767190933228
-0.1310233771800995 -0.41524213552474976 0.14190801978111267
0.16037793457508087 -0.4122200310230255 -0.02387412078678608
-0.0996897965669632 0.0872301533818245 0.15190769731998444
-0.1350029706954956 -0.3990185558795929 0.18051087856292725
-0.038875408470630646 -0.20091399550437927 -0.16729016602039337
0.07432869076728821 -0.41913414001464844 0.03624926134943962
-0.09592791646718979 0.4401714503765106 -0.16294962167739868
-0.22181633114814758 -0.3079913556575775 0.01630493625998497
-0.05310133472084999 0.20344193279743195 0.2527322471141815
-0.02002463862299919 0.4097195267677307 -0.16713963449001312
-0.08962452411651611 -0.42016270756721497 -0.17380551993846893
-0.017756860703229904 0.4976886212825775 0.09290047734975815
-0.045083269476890564 -0.408119797706604 0.05940396338701248
0.047425396740436554 0.5472354888916016 0.06522072106599808
-0.0887690931558609 -0.41991880536079407 -0.19249151647090912
0.14063787460327148 -0.2808513343334198 -0.161905437707901
-0.17193667590618134 0.060658592730760574 -0.1780734658241272
-0.07943903654813766 0.42655855417251587 -0.16487039625644684
-0.16302233934402466 0.12209581583738327 -0.0373905673623085
0.12455226480960846 0.31471019983291626 0.14889957010746002
0.18441233038902283 -0.37777936458587646 0.07188724726438522
0.10251237452030182 -0.4115922152996063 -0.04560275375843048
-0.1063571348786354 0.1451062560081482 0.13799020648002625
-0.08099976927042007 0.020186811685562134 -0.18138951063156128
0.04623609408736229 -0.40134790539741516 0.24317476153373718
-0.033290546387434006 0.02838488668203354 -0.18149831891059875
0.16866819560527802 -0.24158456921577454 0.18601539731025696
0.1342414915561676 0.26106902956962585 0.04882174730300903
-0.05886611342430115 0.43561550974845886 -0.1662253886461258
-0.037244975566864014 0.0224806796759367 0.20064975321292877
0.11254911124706268 -0.20098476111888885 0.23870393633842468
-0.1070941835641861 -0.191920667886734 0.22828273475170135
0.2044767290353775 -0.03216313570737839 -0.0723109245300293
0.029704060405492783 0.0744507908821106 0.1885019838809967
-0.12551935017108917 0.3745931386947632 -0.0070585645735263824
0.20307642221450806 0.02264145016670227 -0.10550738871097565
0.07196249812841415 -0.4202158451080322 0.032684650272130966
-0.017708756029605865 -0.3876649737358093 0.2483668327331543
0.029884032905101776 -0.04888320714235306 -0.17641161382198334
-0.15197961032390594 -0.4192230701446533 -0.024225041270256042
0.20070889592170715 0.0917225033044815 -0.11547838151454926
-0.12530682981014252 0.32232949137687683 -0.0486576072871685
-0.09102407097816467 0.08581528067588806 0.16313321888446808
0.1287085860967636 0.20223717391490936 0.06779038906097412
-0.1830199509859085 -0.047157999128103256 0.07322431355714798
-0.18718916177749634 -0.3031291663646698 0.12956418097019196
-0.09385847300291061 -0.37226444482803345 0.21841666102409363
-0.12442438304424286 0.4328601360321045 -0.01872497797012329
0.10666995495557785 -0.19894099235534668 0.24240435659885406
0.09775624424219131 0.4897116422653198 0.06759365648031235
0.01899154670536518 0.2024601250886917 0.25799787044525146
