0.04915286973118782 -0.41176608204841614 0.20078611373901367
-0.10932229459285736 0.06542722135782242 0.1585385948419571
0.18377290666103363 -0.11494377255439758 0.10152601450681686
-0.03423512727022171 0.07694842666387558 -0.18157102167606354
0.12138032913208008 -0.18836535513401031 0.23621831834316254
-0.12080921977758408 0.515477180480957 -0.04635549709200859
0.19548511505126953 -0.3991442918777466 0.014744061045348644
-0.11963538080453873 0.31797415018081665 -0.025065850466489792
-0.15098513662815094 -0.06179326772689819 -0.17455795407295227
-0.12616892158985138 0.24735116958618164 -0.03250019624829292
0.13144242763519287 0.08483538031578064 0.14745131134986877
0.08418569713830948 0.415657103061676 0.08181656152009964
-0.0020016059279441833 0.10379812866449356 0.19618751108646393
0.048527613282203674 -0.4126371443271637 0.03310256451368332
0.1922135204076767 -0.4078422486782074 0.0006523784250020981
-0.16702736914157867 -0.3749980926513672 0.1400585025548935
-0.024316634982824326 0.34004005789756775 0.23938585817813873
0.12397561967372894 0.07763712853193283 0.15636761486530304
0.07396790385246277 -0.4189532697200775 -0.14698752760887146
-0.15668705105781555 -0.06698131561279297 -0.17477115988731384
0.0827886089682579 -0.1525261253118515 0.2487122267484665
0.13067731261253357 -0.4181099236011505 -0.14781160652637482
0.023388750851154327 0.4210678040981293 0.1388682872056961
0.1977754831314087 -0.3485499322414398 -0.15869265794754028
-0.04719720035791397 -0.35916468501091003 -0.2055159956216812
-0.20796369016170502 -0.022747056558728218 -0.11317913979291916
0.12135104835033417 0.1428675502538681 0.12361714988946915
-0.02113370969891548 0.4910317361354828 0.08883964270353317
0.18523062765598297 -0.10838974267244339 0.07329970598220825
0.20503249764442444 -0.3994736075401306 -0.15971790254116058
-0.22701266407966614 -0.2182188481092453 -0.06053604185581207
-0.15301862359046936 -0.07202267646789551 -0.17390531301498413
0.2030264139175415 -0.37183958292007446 0.008037477731704712
-0.028130192309617996 -0.12059313803911209 0.24501539766788483
-0.04366971552371979 -0.2081719934940338 0.26182982325553894
0.14032745361328125 0.041205309331417084 0.15822714567184448
-0.015706196427345276 -0.4074317216873169 0.0569717213511467
0.1284051090478897 0.5052869915962219 0.0005081146955490112
0.20489366352558136 -0.40542036294937134 -0.15464213490486145
0.1337544173002243 -0.042340561747550964 0.19003941118717194
-0.03406510502099991 0.550403356552124 -0.15993307530879974
-0.05185192450881004 0.19770479202270508 0.25218501687049866
0.13208013772964478 0.2542113661766052 0.1477411389350891
0.08185958117246628 -0.37470775842666626 -0.20198717713356018
-0.0888085663318634 0.12911415100097656 -0.1807890683412552
0.09352191537618637 -0.42509639263153076 -0.12975725531578064
0.03763996809720993 -0.4154148995876312 0.10603894293308258
0.02066696248948574 0.16355162858963013 0.26128503680229187
-0.04960174858570099 0.4411394000053406 -0.16798503696918488
-0.07072623074054718 0.13890457153320312 -0.1801661252975464
0.1956169754266739 -0.12190514802932739 -0.1420501172542572
0.10230329632759094 -0.4092203974723816 0.04167337715625763
0.03742405027151108 -0.327662855386734 0.26373744010925293
0.11954981833696365 0.5363308191299438 0.010751638561487198
-0.20310340821743011 -0.2624198794364929 -0.12268988788127899
0.1409313827753067 -0.18505893647670746 0.2205055058002472
-0.08603662252426147 0.4781384766101837 -0.1645106077194214
-0.02126629278063774 0.13051989674568176 -0.17986229062080383
0.17607922852039337 -0.4192609488964081 -0.11733128875494003
-0.058592263609170914 0.5384343266487122 -0.1599525809288025
0.20336337387561798 0.10923636704683304 -0.11319520324468613
-0.21080248057842255 -0.09620984643697739 -0.05693284422159195
0.019941188395023346 -0.18770553171634674 -0.1657976657152176
-0.0010829521343111992 0.2709696292877197 -0.17342525720596313
-0.01470436155796051 0.0433899387717247 -0.1825629025697708
0.10204838961362839 -0.40643078088760376 0.06412447243928909
0.14983561635017395 -0.41480958461761475 -0.18858757615089417
-0.1246492862701416 0.28332534432411194 0.1312427669763565
0.10421255230903625 0.07688538730144501 0.1706794649362564
-0.2248644232749939 -0.254281610250473 -0.06846736371517181
-0.05703050643205643 -0.1740415096282959 -0.1682368516921997
0.10141348838806152 0.1509218066930771 0.21000532805919647
0.08140221238136292 -0.1743408739566803 0.2527194619178772
-0.2147146314382553 -0.17307281494140625 -0.13605335354804993
0.2024756669998169 0.051617927849292755 -0.062050532549619675
-0.053267911076545715 0.4079044461250305 0.0907963290810585
0.0295272134244442 -0.19947268068790436 -0.162408709526062
0.21991045773029327 -0.2544466555118561 0.04988667741417885
0.038162995129823685 -0.17126192152500153 -0.167002335190773
-0.02181198075413704 0.391160786151886 -0.16883091628551483
0.13032963871955872 0.5063523650169373 -0.013482727110385895
-0.22322581708431244 -0.24217458069324493 0.0023709386587142944
-0.09470097720623016 -0.3824690878391266 -0.2071860134601593
0.1052616536617279 0.16682828962802887 -0.16922058165073395
0.16955356299877167 -0.10768972337245941 -0.15887895226478577
-0.12680453062057495 0.3266465663909912 0.019770734012126923
-0.045251987874507904 0.031862594187259674 -0.18208064138889313
0.1898341178894043 -0.3698943555355072 0.06091686338186264
0.06960964947938919 -0.3659890592098236 -0.20099131762981415
0.20316290855407715 -0.0016448907554149628 -0.07588846236467361
0.1340051293373108 -0.044612813740968704 0.19097495079040527
0.10342302918434143 0.0977533608675003 -0.17677782475948334
-0.026724165305495262 0.527250349521637 -0.16459275782108307
0.09254965931177139 -0.41097599267959595 0.18464991450309753
-0.0342508889734745 0.41187503933906555 0.10987377911806107
-0.20868311822414398 -0.05721167474985123 -0.14960473775863647
0.12388966977596283 0.1147504672408104 0.1202034056186676
0.01557854562997818 0.09327146410942078 0.18820837140083313
-0.12355516105890274 0.23034736514091492 0.15064699947834015
-0.20942731201648712 -0.051185477524995804 -0.09340853244066238
-0.12705038487911224 0.28235870599746704 0.04552201181650162
-0.11873114109039307 0.4420153498649597 -0.15996521711349487
0.03437618911266327 0.5695840716362 -0.13885337114334106
0.11719746142625809 -0.3199913203716278 -0.18545067310333252
-1.6182661056518555e-05 0.5264521241188049 0.10006018728017807
0.15461181104183197 -0.16643428802490234 0.20200714468955994
-0.12307767570018768 -0.4080880880355835 -0.20330576598644257
0.17181730270385742 0.0963711068034172 0.07001405954360962
-0.08000753819942474 0.5198837518692017 -0.16229434311389923
0.1264660358428955 0.15457123517990112 0.02242942526936531
0.16904014348983765 -0.2066689431667328 -0.14025993645191193
-0.15637773275375366 0.03952612355351448 0.10771787911653519
-0.05282283574342728 -0.39997950196266174 0.23128274083137512
0.13065530359745026 0.21754451096057892 0.04026897996664047
-0.07080472260713577 0.023177698254585266 -0.18309400975704193
-0.1477104127407074 -0.15700677037239075 -0.16563744843006134
0.1311841756105423 0.24139954149723053 -0.003732297569513321
0.11001352220773697 0.4898466169834137 0.05530709773302078
0.12776897847652435 0.18680554628372192 0.032598692923784256
0.19476500153541565 -0.29682937264442444 0.11795029789209366
-0.05491403117775917 0.25001782178878784 -0.1726502925157547
-0.15627969801425934 -0.42248469591140747 -0.0946539044380188
-0.10455028712749481 0.10511438548564911 -0.18220075964927673
0.19801968336105347 0.02026146650314331 -0.028722822666168213
0.04085491970181465 0.5428558588027954 0.08044521510601044
0.136099711060524 0.35224369168281555 0.05765090882778168
0.056313902139663696 0.5694285035133362 -0.10180148482322693
0.09479023516178131 0.18865647912025452 0.24257208406925201
0.21587342023849487 -0.24377135932445526 0.06201348453760147
0.09763432294130325 -0.40849560499191284 0.04259274899959564
0.1347597986459732 -0.06283167004585266 -0.16954948008060455
0.17491069436073303 -0.09845893085002899 0.14537210762500763
-0.053816407918930054 -0.024738162755966187 -0.1800977736711502
-0.12222921848297119 0.22661012411117554 0.13055375218391418
-0.08879199624061584 0.09808135032653809 0.1474609673023224
-0.16064253449440002 -0.4166620373725891 0.06021876260638237
-0.020432107150554657 0.2387768030166626 0.2394205927848816
-0.20077788829803467 -0.25638893246650696 -0.12807220220565796
0.10198669135570526 -0.20321068167686462 0.251018762588501
0.1824074238538742 -0.03538847714662552 0.09571903198957443
0.05272272229194641 0.17507581412792206 -0.17430640757083893
0.07101079076528549 0.5703526735305786 -0.09246297180652618
0.04034942761063576 -0.4147966206073761 0.12556537985801697
0.18489183485507965 -0.40269091725349426 0.045062609016895294
0.2011413276195526 -0.3038807511329651 -0.11429545283317566
0.12294917553663254 -0.05546333268284798 0.20108774304389954
0.17376413941383362 0.004023060202598572 0.11878266930580139
-0.10789613425731659 0.5459491610527039 -0.1148291826248169
-0.04413159564137459 -0.20080871880054474 -0.16757835447788239
-0.027452297508716583 -0.28847625851631165 0.26088130474090576
-0.10408346354961395 0.28350022435188293 0.17953631281852722
-0.12590444087982178 0.42840930819511414 -0.027083657681941986
0.13639597594738007 0.29723453521728516 0.041251689195632935
-0.18463504314422607 -0.04257052019238472 0.05116717517375946
0.13055355846881866 0.14364802837371826 0.020117271691560745
0.16497676074504852 -0.345941960811615 -0.17842049896717072
0.08063911646604538 -0.4127219617366791 0.029091574251651764
0.11737660318613052 -0.16376924514770508 0.234083354473114
0.22197724878787994 -0.2002679854631424 -0.02166842296719551
-0.07277168333530426 0.4475511610507965 -0.16606390476226807
-0.14523111283779144 -0.3942743241786957 -0.19953463971614838
0.12533462047576904 -0.20097970962524414 0.23675960302352905
-0.19872279465198517 0.09299193322658539 -0.09810434281826019
0.04652413725852966 0.5216177105903625 0.08708558231592178
0.0868409052491188 -0.41260549426078796 0.03318067267537117
0.10179810971021652 -0.19533754885196686 0.24958708882331848
0.2017691284418106 0.09911254793405533 -0.06373858451843262
0.14653612673282623 0.1514115035533905 -0.09483422338962555
-0.11861522495746613 0.1936616152524948 -0.12038037180900574
-0.06922908872365952 -0.17059649527072906 0.24655836820602417
0.19262999296188354 -0.2911457121372223 -0.1203807070851326
0.14552360773086548 -0.18007487058639526 -0.15193742513656616
-0.13769561052322388 -0.4132721424102783 -0.04575158283114433
0.18502922356128693 -0.0960891991853714 0.09413187950849533
0.19168365001678467 -0.10516983270645142 0.03384530171751976
0.22494232654571533 -0.2442496418952942 -0.02886996977031231
-0.0976603552699089 0.49229127168655396 0.05383956804871559
-0.10166583210229874 -0.1890144646167755 -0.16143709421157837
-0.12408910691738129 0.21002116799354553 0.028959859162569046
0.12991231679916382 0.5034184455871582 -0.07515759766101837
0.04012123495340347 0.5668699145317078 -0.0017284974455833435
0.12370719015598297 0.4813525080680847 0.03925282508134842
-0.12308873981237411 0.5073044300079346 -0.11096055805683136
-0.11385545134544373 -0.0037291888147592545 0.17465555667877197
0.18268559873104095 0.06792595982551575 0.004616120830178261
0.05873136967420578 -0.12874764204025269 -0.17189112305641174
0.037684086710214615 -0.17798757553100586 -0.1651836335659027
-0.07146560400724411 -0.42529404163360596 -0.1537315547466278
-0.005391266196966171 -0.4169076085090637 0.014914652332663536
0.03512207046151161 0.34360501170158386 -0.1717192530632019
-0.15073654055595398 0.35134997963905334 -0.13510866463184357
0.1815599799156189 -0.1811278909444809 -0.14198067784309387
-0.09444724768400192 0.14677312970161438 0.18185453116893768
0.1862150877714157 -0.40438854694366455 0.040404483675956726
-0.05177738890051842 0.27113643288612366 0.22050581872463226
-0.11495661735534668 -0.32450610399246216 0.22905874252319336
-0.17648623883724213 0.08725231140851974 0.030796770006418228
0.08392074704170227 -0.04584650695323944 0.21432863175868988
-0.17747807502746582 0.09125122427940369 -0.012101652100682259
-0.20740990340709686 -0.2780660390853882 -0.10973445326089859
0.08487018942832947 0.22108767926692963 0.24475321173667908
-0.07086504995822906 -0.12373144179582596 -0.17538726329803467
0.14493826031684875 -0.1652487814426422 -0.15781332552433014
0.12766782939434052 0.23525205254554749 -0.06395122408866882
0.21892407536506653 -0.26404860615730286 0.043332621455192566
0.1347620189189911 -0.40257203578948975 0.1682906448841095
0.10678409785032272 -0.4139638841152191 -0.10974631458520889
0.07325656712055206 -0.11503314971923828 0.239619642496109
-0.21630828082561493 -0.2859295904636383 0.043878886848688126
-0.1186327263712883 -0.29957684874534607 0.22568778693675995
-0.20119526982307434 -0.40879493951797485 0.015178792178630829
-0.121611587703228 0.270907461643219 -0.12037132680416107
0.0963125079870224 -0.4123314619064331 -0.07293274998664856
0.033224210143089294 -0.4062451720237732 0.24391120672225952
-0.20945075154304504 -0.08967017382383347 -0.05351041257381439
-0.009339628741145134 -0.21346572041511536 -0.17023727297782898
0.1789565086364746 -0.35353726148605347 -0.17361585795879364
-0.19531816244125366 -0.3010810613632202 0.11006941646337509
0.14172779023647308 -0.21311408281326294 0.22557024657726288
-0.028933169320225716 0.5569546222686768 0.06383013725280762
-0.02182319387793541 -0.17431680858135223 0.2619330883026123
0.06796904653310776 0.06346587836742401 0.18847472965717316
0.15394119918346405 0.4095555543899536 -0.11550778150558472
-0.2119477093219757 -0.16953465342521667 -0.04627951607108116
0.13274212181568146 -0.03142824023962021 0.1877492219209671
0.1323642134666443 0.2335890382528305 0.03742930665612221
-0.123378224670887 0.343097060918808 0.07680712640285492
0.034874413162469864 -0.4160323441028595 -0.18174949288368225
0.18676632642745972 -0.01866084709763527 0.0531688928604126
-0.029521862044930458 0.4282718002796173 -0.16760385036468506
0.16931530833244324 -0.03005053475499153 0.13840827345848083
-0.1712542474269867 -0.2700951397418976 -0.1529284417629242
0.16746076941490173 -0.259908527135849 -0.13545018434524536
0.026412401348352432 0.40313994884490967 0.17843253910541534
-0.12095539271831512 0.26822149753570557 -0.05008973553776741
-0.08415932208299637 0.30300191044807434 -0.16918344795703888
0.2171398401260376 -0.3751088082790375 -0.13301347196102142
-0.08716864138841629 0.15850339829921722 0.21759146451950073
-0.10834493488073349 0.1883736252784729 -0.15770860016345978
0.1317034214735031 -0.15471911430358887 -0.1627890020608902
-0.018855005502700806 -0.13314028084278107 -0.17395401000976562
-0.11439452320337296 0.14759311079978943 0.09190747886896133
0.13887788355350494 0.003796897828578949 0.17049163579940796
0.09201786667108536 -0.03540540859103203 0.21148784458637238
0.08420993387699127 0.14235325157642365 0.22092925012111664
-0.12991106510162354 0.30381202697753906 -0.06905756890773773
-0.0874229371547699 -0.11602957546710968 -0.1743202656507492
0.11314176023006439 -0.26423001289367676 -0.16753938794136047
-0.07939109206199646 0.1498103141784668 -0.17912523448467255
0.1448223888874054 0.13008154928684235 0.006109945476055145
-0.004063740372657776 0.39745479822158813 -0.1678272932767868
0.20972169935703278 -0.39954817295074463 -0.08104480803012848
0.07117938250303268 0.3000885248184204 0.2217818796634674
0.17545416951179504 0.11042942106723785 -0.0033038463443517685
-0.14177855849266052 0.4055664539337158 -0.15162914991378784
0.19273516535758972 -0.3489891290664673 0.05076083540916443
-0.12077353894710541 0.3028102219104767 -0.02284328266978264
0.12696164846420288 0.12149299681186676 0.10446751862764359
0.19292457401752472 0.04736918956041336 -0.1602795124053955
-0.06312201172113419 -0.41822850704193115 -0.19427312910556793
-0.2155529409646988 -0.11964652687311172 -0.09048989415168762
0.09820689260959625 -0.4128815531730652 0.046330153942108154
0.12813083827495575 0.21303288638591766 0.19731895625591278
0.21989324688911438 -0.2956090271472931 -0.01692359521985054
0.0678643137216568 0.2974950075149536 -0.16991069912910461
0.1275854855775833 0.15634441375732422 -0.02580241486430168
0.03320205211639404 0.3610522150993347 0.2418822944164276
-0.05093807727098465 0.38014528155326843 0.12737828493118286
0.12214336544275284 -0.4184938967227936 -0.10311426222324371
-0.09512334316968918 0.1190190389752388 0.14215195178985596
0.18277251720428467 -0.12359602749347687 0.10300096124410629
-0.0769946426153183 0.04071890935301781 0.18552593886852264
0.22363635897636414 -0.2795839309692383 -0.04164659604430199
0.22000503540039062 -0.18837668001651764 -0.08015291392803192
0.12772797048091888 -0.2062775194644928 0.23920290172100067
-0.12415903061628342 0.2682459056377411 0.13615302741527557
0.09096156805753708 0.2934739887714386 -0.1657244712114334
-0.07627514749765396 0.019634835422039032 -0.18219034373760223
0.1731947809457779 0.11545205116271973 0.004068220034241676
0.09845376014709473 -0.4131696820259094 -0.10707443952560425
-0.006191987544298172 0.4040045738220215 -0.1675064116716385
0.21887876093387604 -0.28920426964759827 -0.020198708400130272
-0.12453426420688629 0.28464794158935547 -0.13796894252300262
0.20433233678340912 0.00267650093883276 -0.055900633335113525
0.1787213683128357 0.03496439754962921 0.08953703939914703
-0.05946175009012222 0.4488169252872467 -0.1666623055934906
0.14204643666744232 -0.4150719940662384 -0.1781814992427826
-0.09584511071443558 -0.3883523643016815 -0.20661167800426483
-0.11814358830451965 -0.14723971486091614 -0.1700064092874527
-0.11740071326494217 0.5396437048912048 -0.07031169533729553
0.1979275941848755 0.07978574186563492 -0.1368778496980667
-0.0806659683585167 -0.35967978835105896 0.22786857187747955
-0.15573295950889587 -0.4108482897281647 0.0956633985042572
0.05837728828191757 0.04639776051044464 0.19293928146362305
-0.21693603694438934 -0.22863608598709106 -0.11448802053928375
0.13735584914684296 0.1454784870147705 -0.01000729575753212
-0.22562485933303833 -0.24596184492111206 -0.07270677387714386
-0.04793034493923187 0.3748411536216736 -0.16963520646095276
-0.16516807675361633 -0.14678418636322021 -0.1668696105480194
0.1331571340560913 0.47484758496284485 -0.016819708049297333
0.14511138200759888 0.2891717851161957 -0.10862426459789276
-0.11609547585248947 -0.3341454565525055 -0.19564013183116913
0.09155132621526718 0.34443917870521545 0.1543448269367218
0.1355271190404892 0.2623681128025055 -0.0023641660809516907
-0.14059782028198242 -0.3556157052516937 -0.19384078681468964
-0.11901777982711792 -0.4093920588493347 -0.20206543803215027
-0.14530448615550995 0.13440512120723724 -0.03912381827831268
-0.18560829758644104 -0.07183526456356049 0.005537762772291899
0.13232378661632538 0.23956412076950073 0.016445990651845932
0.13583049178123474 0.2824488878250122 0.002318844199180603
-0.12705591320991516 0.4104495942592621 -0.023529384285211563
0.18224230408668518 -0.3411788046360016 -0.16605828702449799
0.1758299022912979 0.07990177720785141 0.08284014463424683
0.09510066360235214 -0.4248960316181183 -0.1250457763671875
-0.06842651963233948 -0.10548973828554153 -0.17527315020561218
0.05359315499663353 0.5512977838516235 0.059699904173612595
0.1710933893918991 -0.3595643639564514 -0.18300102651119232
-0.024919316172599792 0.292349636554718 0.22570277750492096
0.0949341207742691 -0.41735902428627014 -0.12299937009811401
0.07267320156097412 0.13972757756710052 0.22260682284832
-0.15471524000167847 -0.41522181034088135 0.07013777643442154
-0.12378646433353424 0.4049476683139801 -0.032286636531353
-0.09699520468711853 -0.20072773098945618 0.23557765781879425
0.18720725178718567 -0.23540769517421722 0.1492941826581955
0.2112043797969818 -0.28720253705978394 0.07674137502908707
-0.05225326493382454 -0.1808389127254486 -0.1706002801656723
0.1867184340953827 -0.18940502405166626 0.1359058916568756
0.18566745519638062 0.07031819224357605 0.04836267605423927
-0.024733945727348328 0.37249496579170227 0.21276764571666718
-0.03207016363739967 0.024196915328502655 -0.18279893696308136
0.13537514209747314 0.16380882263183594 -0.14477360248565674
-0.02985851652920246 0.4541534185409546 0.07611451297998428
0.13017137348651886 0.20861366391181946 0.03716086596250534
-0.12094742059707642 0.3572176992893219 -0.036179590970277786
0.09647299349308014 -0.0472816526889801 0.21316741406917572
-0.12354841828346252 0.23577676713466644 0.11766010522842407
-0.2112443894147873 -0.3649572432041168 -0.016357015818357468
-0.06892826408147812 -0.17511150240898132 -0.16856709122657776
0.11512137949466705 0.22102415561676025 0.223601832985878
0.13657653331756592 0.3144056499004364 -0.041504621505737305
-0.17157799005508423 -0.42036646604537964 -0.0696815550327301
-0.20945294201374054 -0.37154021859169006 -0.006804957985877991
-0.11138030141592026 0.5424695611000061 0.0033095180988311768
-0.10786628723144531 -0.41233566403388977 -0.20019325613975525
0.20251093804836273 0.12205322086811066 -0.11481724679470062
0.10568492114543915 0.5618250370025635 -0.054669979959726334
0.07483093440532684 -0.41696640849113464 0.040065258741378784
0.10631464421749115 -0.4087701141834259 0.03905363380908966
0.05007515847682953 0.1055949330329895 -0.17703469097614288
-0.21391986310482025 -0.32806387543678284 0.015740470960736275
-0.03546103462576866 0.562304675579071 -0.03687812387943268
0.10101288557052612 -0.4103894829750061 0.03871503472328186
-0.2148398607969284 -0.34177258610725403 -0.051135607063770294
-0.12356063723564148 0.4876101315021515 -0.07406455278396606
-0.10529810190200806 -0.4132949113845825 -0.0016904547810554504
-0.18699654936790466 -0.089111328125 0.041068702936172485
0.030928442254662514 -0.17330190539360046 0.26326653361320496
0.1281391680240631 0.13939137756824493 0.07081000506877899
-0.18075397610664368 -0.3950250446796417 -0.19340400397777557
0.10981908440589905 -0.17112243175506592 0.23858560621738434
-0.10276798158884048 -0.4120945930480957 -0.05781816691160202
-0.10220159590244293 0.48341700434684753 -0.16239731013774872
-0.08135917782783508 0.44492024183273315 -0.16500689089298248
-0.12382878363132477 0.33706915378570557 -0.0672001987695694
-0.09567796438932419 0.3663334548473358 0.11431895941495895
-0.19353340566158295 0.030818652361631393 -0.035012420266866684
-0.0758303850889206 -0.07876834273338318 -0.1776287704706192
0.20396415889263153 0.01660018227994442 -0.15007483959197998
-0.07574649155139923 0.5616741180419922 0.010019572451710701
-0.1253550499677658 0.2490982711315155 0.14945927262306213
0.19128654897212982 -0.41896146535873413 -0.01600038632750511
0.017631134018301964 0.3153863251209259 -0.17175528407096863
0.13747994601726532 0.3112550675868988 0.04045512154698372
-0.10861826688051224 0.04398159682750702 -0.1808823198080063
-0.013079099357128143 0.34705373644828796 0.24365709722042084
-0.11070245504379272 0.1335812211036682 0.09744471311569214
0.028962338343262672 0.5689122080802917 -0.066383957862854
0.11446601152420044 -0.4077092409133911 0.021977536380290985
-0.07311080396175385 0.447374165058136 -0.16617557406425476
0.131495401263237 0.3994090259075165 -0.01746337115764618
0.08752426505088806 -0.4213126599788666 -0.14557425677776337
-0.0030854716897010803 -0.10494141280651093 0.24270188808441162
-0.0654631033539772 -0.34074196219444275 0.2413584291934967
0.026650698855519295 0.401288241147995 0.1813885122537613
0.08390317857265472 0.09769199788570404 -0.17683003842830658
-0.11821798980236053 0.43402862548828125 0.03678663447499275
0.13789348304271698 0.320708304643631 0.04476947337388992
0.19425301253795624 0.12493794411420822 -0.08259882032871246
0.11731824278831482 -0.17549960315227509 -0.15720953047275543
0.19931650161743164 -0.24564334750175476 -0.11174951493740082
-0.03914182260632515 -0.2905291020870209 -0.1909463107585907
0.13203129172325134 0.4850015640258789 -0.024547606706619263
-0.20639213919639587 -0.18355190753936768 -0.033582720905542374
-0.0015085600316524506 -0.41063326597213745 0.056664030998945236
0.00019986554980278015 0.00015193596482276917 0.21178707480430603
-0.09063909202814102 -0.1613745391368866 0.2324371486902237
0.06818042695522308 -0.01708100736141205 0.2111695408821106
0.1850806176662445 -0.11248357594013214 0.07131819427013397
0.09393245726823807 -0.4187585711479187 -0.12426307797431946
-0.13820266723632812 0.13624076545238495 -0.04467269778251648
0.11664262413978577 -0.17871718108654022 0.2403370887041092
0.0028067678213119507 -0.3859837055206299 0.255998432636261
-0.06674347817897797 0.562739908695221 -0.0018910272046923637
-0.12067076563835144 -0.012357581406831741 0.17052698135375977
0.06564468145370483 0.2804794907569885 -0.16980226337909698
-0.22278951108455658 -0.23897702991962433 -0.10362967103719711
-0.10323546081781387 0.4836919903755188 0.05005450174212456
-0.12084018439054489 0.4851646423339844 0.02138364315032959
-0.1203908771276474 0.24728113412857056 -0.07108382880687714
-0.13645823299884796 0.06906215101480484 0.1257789433002472
-0.020643699914216995 0.40441611409187317 0.15457867085933685
-0.08348388969898224 -0.09419579803943634 -0.17600803077220917
0.1704656183719635 -0.40919360518455505 -0.1864808052778244
-0.06019120663404465 0.14219093322753906 -0.18017014861106873
-0.20167255401611328 -0.2584060728549957 -0.12496974319219589
-0.04945918917655945 -0.1898048222064972 0.25889450311660767
-0.06268183887004852 0.40154463052749634 -0.168308824300766
0.030323445796966553 0.5674757361412048 -0.14282973110675812
-0.20704200863838196 -0.1557345986366272 -0.14815166592597961
0.07794003188610077 0.5712149143218994 -0.08005177229642868
0.1718531847000122 0.1051974818110466 -0.16775758564472198
0.1291627436876297 0.24848751723766327 0.17345669865608215
-0.17391853034496307 -0.12192707508802414 -0.1690971702337265
0.07992905378341675 0.4304867088794708 0.06777165085077286
0.1312999576330185 -0.18566492199897766 0.22847630083560944
0.09998316317796707 -0.13709361851215363 0.2393762469291687
0.1842915117740631 0.06962503492832184 0.013770163990557194
-0.11531320959329605 0.5270301103591919 0.004021860659122467
0.10317457467317581 -0.4111865162849426 -0.11400400102138519
-0.07771340012550354 0.2001350224018097 -0.17489922046661377
0.1667390912771225 -0.41667699813842773 -0.05066598951816559
-0.10895072668790817 0.5354954600334167 0.009390189312398434
0.17877638339996338 0.06851515918970108 0.08072970062494278
-0.13864591717720032 -0.41894686222076416 -0.06203075498342514
0.16616076231002808 0.009093357250094414 0.1332314908504486
-0.07159530371427536 -0.04255923628807068 -0.17898084223270416
0.20770075917243958 -0.19877567887306213 -0.11913613975048065
0.01535545289516449 0.07606758922338486 0.193762868642807
-0.13255220651626587 -0.3422543406486511 0.20143111050128937
-0.1571984440088272 -0.41944336891174316 0.013976378366351128
-0.2205961048603058 -0.2496039718389511 0.01852806657552719
-0.0033666789531707764 -0.2979501187801361 0.26374682784080505
-0.14125420153141022 -0.2357093095779419 0.20230302214622498
0.12257230281829834 -0.21514035761356354 0.2319963574409485
0.13178198039531708 0.4756981134414673 -0.047146692872047424
-0.18202468752861023 -0.01146138645708561 0.05094866454601288
-0.010732805356383324 0.17477947473526 -0.1775619238615036
0.12415383011102676 0.1939241588115692 0.20298455655574799
-0.11375778913497925 -0.21036265790462494 0.22807377576828003
0.0861063078045845 -0.4154861271381378 0.031835127621889114
0.096971794962883 0.23177164793014526 0.23488390445709229
-0.03767809271812439 0.36275970935821533 0.21450486779212952
0.2089197337627411 -0.07148497551679611 -0.07228169590234756
0.1455240249633789 -0.21344053745269775 0.22038163244724274
-0.14767196774482727 -0.4179075062274933 0.009299918077886105
0.21125240623950958 -0.4002213478088379 -0.11788851022720337
0.016447369009256363 -0.4104948043823242 0.09604363143444061
-0.22296437621116638 -0.22511138021945953 -0.0031293146312236786
0.1589304357767105 0.013602286577224731 -0.16934378445148468
-0.03452249988913536 0.23741617798805237 0.23943938314914703
0.2219754010438919 -0.20991653203964233 -0.05020119249820709
-0.11396412551403046 -0.08528399467468262 -0.1757773458957672
-0.15382149815559387 0.10789115726947784 0.0555587038397789
-0.09234187006950378 -0.20477774739265442 0.24230220913887024
-0.12181057035923004 0.09926903992891312 0.11472820490598679
0.16089126467704773 -0.13773618638515472 0.1903589367866516
0.14341650903224945 -0.3493761122226715 0.19566446542739868
0.16607007384300232 -0.41634681820869446 0.034259308129549026
0.17511625587940216 -0.41907092928886414 -0.1346322000026703
0.20283015072345734 -0.17034034430980682 0.07765141129493713
0.12756069004535675 0.13432545959949493 0.07574200630187988
-0.033416397869586945 0.41675207018852234 0.10292115807533264
0.12057501822710037 0.2970896065235138 0.185193732380867
0.12253741174936295 0.4218645691871643 0.060909852385520935
0.00891309604048729 -0.4176868498325348 -0.180921733379364
0.14686769247055054 -0.4149549901485443 -0.1773686707019806
0.14225070178508759 0.43003788590431213 -0.16010628640651703
0.08843863755464554 0.1656806766986847 -0.17376665771007538
-0.18028831481933594 0.14640656113624573 -0.13687768578529358
-0.2124863564968109 -0.3713851869106293 -0.034373633563518524
-0.0973372608423233 0.10623408854007721 0.12999707460403442
0.07916367053985596 -0.14454808831214905 -0.16760191321372986
-0.09533461183309555 -0.14923608303070068 0.22621144354343414
-0.19760631024837494 -0.2695567011833191 0.10549001395702362
-0.10507692396640778 -0.17691943049430847 -0.1637517660856247
0.13367187976837158 0.2488766610622406 0.10378748178482056
-0.03281816095113754 0.5671494007110596 -0.13366472721099854
-0.07058177143335342 0.08502636104822159 0.17470619082450867
-0.06638004630804062 0.2786131799221039 0.218967467546463
0.15027718245983124 0.30611568689346313 -0.10145598649978638
-0.20450548827648163 0.04942694678902626 -0.13079409301280975
-0.088849276304245 0.2001558542251587 -0.1719362884759903
-0.11624350398778915 -0.3783941864967346 0.20318767428398132
0.11032267659902573 -0.046562559902668 0.2055506557226181
0.18525831401348114 -0.05486825853586197 0.04855334013700485
0.19678768515586853 -0.06477196514606476 0.017036447301506996
0.20152300596237183 0.1094152107834816 -0.11033719033002853
-0.08704528212547302 0.10498585551977158 -0.18203873932361603
0.07620616257190704 0.011412963271141052 -0.17672261595726013
-0.18584200739860535 -0.2918270528316498 -0.14714787900447845
0.1659345030784607 -0.01305137574672699 0.1422622948884964
0.12348123639822006 0.3087797462940216 -0.15605293214321136
0.12895353138446808 0.49876126646995544 0.0056379735469818115
-0.12639039754867554 0.4062603712081909 -0.02129720151424408
0.13323332369327545 0.1101391613483429 0.12286986410617828
-0.005390403792262077 0.21347834169864655 0.260883092880249
0.14041878283023834 -0.2732550799846649 -0.1586403250694275
0.19842854142189026 -0.04993291199207306 -0.15165306627750397
-0.1157989501953125 0.5417943596839905 -0.07858996093273163
0.09391266107559204 -0.4116106331348419 -0.06278449296951294
-0.16592636704444885 -0.2848597764968872 0.16933631896972656
0.13198421895503998 0.24980399012565613 -0.07805303484201431
-0.11959289759397507 0.15696249902248383 -0.03887145593762398
-0.22592614591121674 -0.27181556820869446 -0.043283045291900635
-0.11041110008955002 0.15107116103172302 -0.17355474829673767
0.10267752408981323 0.04921708256006241 0.17822638154029846
-0.10103508830070496 -0.4131833612918854 -0.20057742297649384
0.13578477501869202 0.31696009635925293 0.12096846103668213
0.12478073686361313 0.18253889679908752 0.13549384474754333
-0.15515545010566711 0.1348627805709839 -0.049499042332172394
0.13188287615776062 -0.03568491339683533 0.18772554397583008
0.007175661623477936 -0.025901012122631073 -0.18130725622177124
-0.1121138483285904 0.15034517645835876 0.11036786437034607
0.19708962738513947 -0.25798556208610535 -0.10865433514118195
-0.06910712271928787 -0.1583406925201416 -0.1709371656179428
0.1759054809808731 -0.32793453335762024 0.14416611194610596
0.10350953042507172 -0.15769433975219727 0.23742780089378357
-0.06883591413497925 0.004744984209537506 -0.18182846903800964
0.20090806484222412 -0.18704769015312195 0.09965004771947861
-0.12191949039697647 0.45873165130615234 -0.051631730049848557
0.018713131546974182 0.5548720359802246 0.07351262122392654
-0.024826735258102417 0.5621457695960999 -0.03539823368191719
0.08082292228937149 0.029150791466236115 -0.17650198936462402
0.16836397349834442 0.15090790390968323 -0.14946018159389496
0.1519584059715271 -0.22563175857067108 -0.13918274641036987
0.1463518887758255 -0.4140932857990265 0.09055335819721222
0.1185460239648819 -0.04659797623753548 0.20107294619083405
0.22528696060180664 -0.2460336685180664 -0.03762960061430931
-0.12312452495098114 0.3334539830684662 -0.0246519073843956
0.13442696630954742 0.4504382908344269 0.006213784217834473
0.21080392599105835 -0.10314103215932846 -0.08911595493555069
-0.11980658769607544 0.18558168411254883 -0.015219904482364655
0.045351773500442505 0.0030223242938518524 0.21289990842342377
-0.01685335859656334 0.07697504758834839 -0.18053419888019562
0.10948731005191803 -0.4242512583732605 -0.11794786900281906
0.13603940606117249 0.2908920645713806 0.11887940019369125
0.11266759037971497 -0.41095632314682007 -0.03381725028157234
-0.20024816691875458 -0.23516297340393066 0.09130607545375824
0.17777416110038757 0.06313979625701904 0.0856797844171524
-0.11081881076097488 0.43376317620277405 -0.1622181087732315
0.031404245644807816 0.16114234924316406 0.25799325108528137
0.09835521876811981 0.29398998618125916 -0.1640102118253708
-0.02071521431207657 0.41920989751815796 -0.16807249188423157
0.19555747509002686 -0.2514503300189972 -0.11293497681617737
0.05223872512578964 -0.2787550687789917 -0.1839088499546051
-0.12719576060771942 0.342868447303772 0.020025040954351425
0.096623994410038 -0.12936469912528992 0.23635409772396088
-0.020793553441762924 0.5061275959014893 0.09399078041315079
-0.11952688544988632 0.2671966552734375 -0.08722288906574249
-0.022572528570890427 0.5671142935752869 -0.12914298474788666
0.08579146862030029 -0.06599397957324982 0.22085121273994446
0.04970833659172058 -0.2687276005744934 -0.18025922775268555
0.14983132481575012 -0.3486112058162689 0.18610705435276031
0.13008417189121246 0.16846264898777008 -0.08860905468463898
-0.12532185018062592 0.4499625861644745 -0.023152809590101242
-0.10121843218803406 0.09934870153665543 0.1340164691209793
-0.07629361003637314 0.07242144644260406 -0.18173542618751526
-0.20583833754062653 0.006375225260853767 -0.13234230875968933
0.1292407512664795 -0.1994108259677887 0.2371392697095871
0.19472257792949677 0.12326982617378235 -0.09175553172826767
-0.11696762591600418 0.17334873974323273 0.09680823981761932
0.15248480439186096 -0.3591799736022949 0.16022369265556335
-0.07027650624513626 -0.09362627565860748 -0.1761152148246765
0.13943418860435486 -0.3682527542114258 0.1874433159828186
-0.09206195175647736 0.11064909398555756 0.1382351964712143
0.07018812745809555 0.440474271774292 0.06487111747264862
-0.21760812401771545 -0.13966059684753418 -0.11432827264070511
-0.2075171321630478 -0.030911799520254135 -0.09969796240329742
0.05880551412701607 0.18659335374832153 -0.17361165583133698
0.13951103389263153 -0.17529168725013733 -0.15591201186180115
-0.051729775965213776 -0.18512970209121704 0.2539806663990021
0.14215882122516632 0.2893576920032501 -0.07915613800287247
-0.063918337225914 0.29674649238586426 -0.16995660960674286
-0.11965218186378479 0.1874404400587082 -0.026205703616142273
0.2121671885251999 -0.23839989304542542 0.07897867262363434
-0.19599896669387817 0.055634744465351105 -0.05865364894270897
0.12236326187849045 0.16442812979221344 0.11553449928760529
-0.21078577637672424 -0.08046871423721313 -0.14904296398162842
0.103175587952137 -0.40749019384384155 0.04300016164779663
0.22131019830703735 -0.2719256579875946 0.0354023352265358
0.061605751514434814 0.5681977868080139 -3.9868056774139404e-05
-0.2182849645614624 -0.22346368432044983 0.024045482277870178
0.18868272006511688 -0.012342039495706558 0.016399500891566277
0.13336390256881714 0.2113235592842102 0.1858063042163849
0.07534528523683548 -0.16311311721801758 0.24941754341125488
0.14247964322566986 0.4882928431034088 -0.13886438310146332
0.14847010374069214 -0.40828466415405273 -0.19434182345867157
-0.06661063432693481 -0.16676980257034302 -0.16929404437541962
-0.21271853148937225 -0.14689327776432037 -0.14331138134002686
-0.18292172253131866 -0.41837894916534424 0.011952221393585205
-0.03300365433096886 0.4466836452484131 0.06558050960302353
-0.06091102585196495 -0.20196503400802612 0.2547689378261566
0.0682634711265564 -0.39712589979171753 0.2424446940422058
0.1564304232597351 0.0034848004579544067 0.15043751895427704
0.006113998591899872 -0.3220233619213104 0.26081737875938416
0.0866842269897461 -0.4139874279499054 -0.13028910756111145
0.03244903311133385 0.5555179715156555 0.05900052934885025
-0.2021082192659378 0.02207333780825138 -0.1489248424768448
0.04693269729614258 -0.3772909641265869 0.2565126121044159
0.18739566206932068 0.023871926590800285 0.05338270589709282
-0.20114359259605408 0.01612863503396511 -0.07169137895107269
0.19368627667427063 -0.40366047620773315 0.00242717657238245
-0.07623966038227081 0.40477052330970764 -0.16768451035022736
0.2213679403066635 -0.2045026272535324 -0.05821428820490837
-0.18470916152000427 -0.024550244212150574 0.013709675520658493
0.13172899186611176 -0.07582046836614609 0.19868133962154388
0.12899090349674225 0.25372961163520813 -0.09076608717441559
0.13491716980934143 0.2843703627586365 -0.045861050486564636
-0.19692525267601013 -0.22199824452400208 -0.13865438103675842
0.10518249869346619 0.11522654443979263 0.1568123698234558
0.07449515908956528 -0.4186576306819916 -0.14328941702842712
-0.06452129781246185 -0.3998379111289978 0.2276742160320282
0.12989233434200287 -0.4087722897529602 0.035748422145843506
0.09712548553943634 -0.4033437967300415 0.04294724017381668
0.22393248975276947 -0.28051942586898804 0.014605335891246796
-0.11906745284795761 0.5004346370697021 -0.1494077444076538
0.042443908751010895 -0.4111059606075287 0.03291111811995506
-0.06992173194885254 0.3965340554714203 -0.16762983798980713
0.12924343347549438 -0.40627321600914 0.1690640151500702
-0.006904415786266327 -0.40944164991378784 0.005821779370307922
0.20336216688156128 0.04922228306531906 -0.08958661556243896
-0.04342641308903694 0.5635890364646912 0.011101320385932922
0.16065186262130737 -0.23587918281555176 0.2023930549621582
0.040912926197052 -0.0831591784954071 0.2349652200937271
-0.032579414546489716 -0.04109968617558479 -0.1814090609550476
0.13313108682632446 0.4643575847148895 0.010162845253944397
-0.12641291320323944 0.3157746195793152 0.0321563258767128
0.10837487876415253 -0.40062186121940613 0.05671112984418869
0.16909798979759216 -0.20911461114883423 -0.14004580676555634
-0.12165087461471558 -0.18471549451351166 -0.15985795855522156
0.21261100471019745 -0.10689043998718262 -0.115345299243927
0.12961436808109283 -0.4165447950363159 0.14075875282287598
0.20335149765014648 -0.33744215965270996 -0.1410822570323944
0.0583832673728466 0.3907169699668884 -0.1691189706325531
0.12890900671482086 0.17429184913635254 -0.09687820076942444
-0.11980151385068893 -0.3951859474182129 -0.20659610629081726
0.2209477573633194 -0.2889866828918457 0.024489421397447586
0.1584111601114273 -0.1535954475402832 -0.1554226130247116
0.17875608801841736 -0.4192172884941101 -0.13186755776405334
-0.03265923634171486 0.14236648380756378 0.23780274391174316
-0.18654556572437286 -0.1540008932352066 0.027893539518117905
0.10036712884902954 -0.41023752093315125 -0.11799418926239014
-0.12300518155097961 0.23168087005615234 0.16149964928627014
-0.190748929977417 -0.4123880863189697 -0.18543100357055664
-0.1552063524723053 0.00023347139358520508 -0.17772844433784485
-0.09272654354572296 0.3453666865825653 -0.1681213080883026
0.04037363827228546 0.3999665677547455 0.15380476415157318
0.21093831956386566 -0.37432023882865906 -0.03124704770743847
0.04170434921979904 0.32126742601394653 -0.17184972763061523
0.12065425515174866 -0.4108305871486664 0.09445115923881531
-0.1681104451417923 -0.41141170263290405 0.10109858959913254
-0.12321764975786209 -0.41834554076194763 -0.18555240333080292
0.12575460970401764 0.17001868784427643 -0.04131385684013367
-0.20065538585186005 -0.3481884002685547 0.0709189623594284
0.13599520921707153 0.325322687625885 0.07651618123054504
0.033445727080106735 -0.2166568636894226 -0.16639630496501923
0.20649076998233795 -0.324489951133728 0.02065325155854225
-0.035011112689971924 -0.12067319452762604 -0.17563354969024658
0.15015120804309845 0.4148440957069397 -0.13690750300884247
0.047936808317899704 0.41607046127319336 -0.16923730075359344
0.1463874727487564 -0.416625052690506 -0.0769275426864624
-0.07213401794433594 0.5330222845077515 0.05852963775396347
-0.125068798661232 0.4029937982559204 -0.01122407615184784
-0.22538404166698456 -0.24023886024951935 -0.08285267651081085
0.20278899371623993 0.07223585247993469 -0.08975178748369217
0.1471889317035675 -0.18844370543956757 -0.15009960532188416
-0.12493612617254257 0.29040518403053284 0.10139618813991547
-0.059459030628204346 0.1646692305803299 0.2416752427816391
-0.012431660667061806 0.3883538842201233 0.20598256587982178
-0.10444721579551697 -0.27361172437667847 0.23526474833488464
-0.21062970161437988 -0.19089777767658234 -0.03988002613186836
-0.2221524566411972 -0.3051672875881195 -0.04557158797979355
0.0643761157989502 -0.002496127039194107 0.20954006910324097
-0.030493391677737236 0.5038504004478455 0.08881879597902298
-0.18342246115207672 0.04350779950618744 0.021551158279180527
-0.14386840164661407 0.34587562084198 -0.09575100988149643
0.19929400086402893 -0.2639181315898895 -0.11071454733610153
-0.1622820347547531 -0.417593777179718 -0.041888028383255005
-0.2269846498966217 -0.22253985702991486 -0.05749984458088875
-0.21161815524101257 -0.06385509669780731 -0.12855921685695648
0.01652452163398266 0.5685921311378479 -0.011395063251256943
0.2047721892595291 -0.20359183847904205 0.09698255360126495
0.13482289016246796 -0.41674497723579407 -0.1605527400970459
0.05599656701087952 0.3589058816432953 0.17922379076480865
-0.16494131088256836 -0.1836380809545517 -0.16025885939598083
0.009787756949663162 0.43221771717071533 -0.1690656691789627
0.22123046219348907 -0.20429518818855286 -0.0682280957698822
0.09005444496870041 -0.09648354351520538 0.22507716715335846
-0.17523491382598877 -0.11437859386205673 -0.16953489184379578
-0.08122669160366058 0.04612215608358383 -0.1812639683485031
-0.11779240518808365 -0.16208142042160034 0.2135496437549591
0.0509827584028244 0.38154512643814087 0.16444101929664612
-0.12258756160736084 -0.37651845812797546 0.19612349569797516
-0.11492251604795456 0.21252961456775665 -0.120364248752594
-0.020482715219259262 -0.4099234342575073 0.007123803719878197
-0.16194403171539307 -0.07889474928379059 0.13675501942634583
0.14719989895820618 -0.3385555148124695 0.20441487431526184
0.12942153215408325 0.20203030109405518 0.04013461619615555
0.12657062709331512 0.5057926177978516 -0.07168380916118622
0.17006245255470276 0.13761752843856812 -0.06966347992420197
-0.2141522914171219 -0.1661178022623062 -0.05288657546043396
0.2149048149585724 -0.2308354377746582 -0.0965871512889862
0.17986612021923065 -0.4130679965019226 -0.020747452974319458
-0.1922248750925064 -0.3134744167327881 0.1202012449502945
0.17153525352478027 -0.34431734681129456 -0.1729981005191803
-0.2203262895345688 -0.23056960105895996 -0.10989595949649811
-0.034824538975954056 0.04905162751674652 0.19563443958759308
-0.071356862783432 0.5100062489509583 0.07290986180305481
-0.16425807774066925 0.01718343421816826 -0.17756301164627075
-0.20117098093032837 0.03068160079419613 -0.07584881782531738
-0.03272724151611328 -0.41721874475479126 -0.18401256203651428
-0.12282637506723404 0.32192328572273254 -0.049528349190950394
-0.021948812529444695 0.45534488558769226 0.0889841765165329
0.031931642442941666 -0.35451433062553406 0.2611960470676422
0.1500910371541977 0.30807673931121826 -0.09900785982608795
-0.2027963399887085 0.05432711914181709 -0.09493140876293182
-0.21266980469226837 -0.3722609281539917 -0.09885840117931366
-0.01852641999721527 0.39176249504089355 0.17873622477054596
-0.2146490216255188 -0.11529074609279633 -0.09994927793741226
-0.10910776257514954 -0.034314945340156555 0.18604561686515808
-0.044179677963256836 -0.22615797817707062 0.2608985900878906
0.02843557298183441 0.5601179003715515 -0.15455591678619385
0.10408979654312134 -0.4117897152900696 0.03671654686331749
0.17086029052734375 -0.19279533624649048 -0.1449500173330307
0.20080606639385223 -0.3318576514720917 0.0471879206597805
0.10397951304912567 -0.4126092791557312 -0.11306319385766983
-0.039150867611169815 -0.29534658789634705 -0.1917053908109665
0.06206558644771576 0.3601871132850647 0.1663329005241394
-0.04377185180783272 0.4224849343299866 -0.16856203973293304
0.024380045011639595 0.34439244866371155 -0.17096512019634247
0.11030074208974838 0.058243025094270706 -0.17535816133022308
0.06378021836280823 0.30049610137939453 0.21848957240581512
0.11182454228401184 -0.4026733636856079 0.025035310536623
-0.12250024080276489 0.46149563789367676 -0.036838348954916
-0.03169414401054382 -0.36722347140312195 0.2494889795780182
-0.19286301732063293 -0.1153281182050705 -0.011564228683710098
0.12786054611206055 0.26019424200057983 -0.1309342086315155
0.14747552573680878 0.3209076225757599 -0.09110881388187408
0.008616920560598373 0.5150001049041748 0.1010446846485138
-0.1691371202468872 -0.23658210039138794 0.16576233506202698
-0.09778881818056107 0.5476011037826538 0.023703496903181076
0.13589967787265778 -0.10572947561740875 0.20275229215621948
-0.1070735827088356 -0.20714157819747925 0.2353740632534027
0.12638449668884277 0.16929477453231812 0.07734675705432892
0.21011894941329956 -0.08218789845705032 -0.12219075858592987
-0.16437624394893646 -0.13509705662727356 -0.167817160487175
0.052635934203863144 -0.08221057057380676 0.23430965840816498
0.12505367398262024 -0.41241490840911865 0.09748969972133636
-0.12586772441864014 0.3822375237941742 -0.0036678873002529144
-0.1840314418077469 -0.36079496145248413 0.10919332504272461
0.03995226323604584 0.3742259442806244 0.20449243485927582
0.19843095541000366 -0.3350975215435028 0.05087171867489815
-0.030787844210863113 0.48820942640304565 -0.16637980937957764
-0.20004649460315704 -0.2586561143398285 0.10068890452384949
0.015626229345798492 -0.41469696164131165 0.02449556067585945
-0.11062604933977127 -0.07930934429168701 0.19570747017860413
0.1508139818906784 0.3970106840133667 -0.13445894420146942
0.09675763547420502 -0.11518925428390503 0.22940300405025482
0.1357795000076294 0.3000442683696747 0.12360263615846634
-0.0460527166724205 -0.03586983308196068 -0.1804993748664856
-0.1278907209634781 0.4786984324455261 -0.047317150980234146
-0.05527991056442261 0.28609323501586914 -0.17036786675453186
0.1370248645544052 -0.17194628715515137 0.2212444394826889
0.21950294077396393 -0.1772492527961731 -0.0576409175992012
0.21196410059928894 -0.30374106764793396 0.054341740906238556
-0.2114441692829132 -0.24470917880535126 0.06451261043548584
0.18244986236095428 -0.07492797821760178 0.10702569037675858
-0.02074260264635086 0.1043788343667984 0.1966547816991806
-0.06741245090961456 0.34749090671539307 -0.16944700479507446
-0.12258261442184448 -0.3310931324958801 -0.19190125167369843
-0.19876959919929504 -0.4146365821361542 -0.0995628759264946
0.1493632048368454 0.30928167700767517 -0.10225296765565872
0.11536680161952972 -0.40766480565071106 0.08154436945915222
0.012407726608216763 0.20377343893051147 -0.17649999260902405
-0.07328271865844727 0.41434091329574585 -0.16543717682361603
0.22075973451137543 -0.2936221659183502 0.006490116938948631
-0.1207403913140297 0.45636627078056335 0.02797102928161621
