0.12824086844921112 0.1915208250284195 0.0035618096590042114
-0.008249424397945404 0.08293228596448898 -0.179558664560318
-0.009764796122908592 -0.03330368921160698 0.22272416949272156
0.1339440941810608 -0.4186917245388031 -0.002621673047542572
0.20672163367271423 -0.1988188475370407 0.08987592905759811
0.11413812637329102 0.05624151974916458 0.1710585504770279
0.22023361921310425 -0.36838412284851074 -0.09666703641414642
-0.08999132364988327 0.34929370880126953 0.139494389295578
-0.09360866993665695 0.29356199502944946 -0.1685030311346054
0.16470827162265778 0.11250434070825577 0.05239422991871834
-0.14187616109848022 -0.2662292718887329 -0.16463272273540497
-0.1190088614821434 0.15139168500900269 0.01023949310183525
-0.12589147686958313 -0.011396229267120361 -0.17765800654888153
0.02209295704960823 -0.42054325342178345 -0.1944148987531662
0.1665920615196228 -0.13940611481666565 0.1812705248594284
-0.008180102333426476 0.43366995453834534 0.12333983182907104
-0.0996711254119873 -0.03414670377969742 -0.1792384535074234
-0.11837434768676758 0.17443735897541046 0.15389777719974518
0.03875131160020828 0.3775521218776703 0.21292179822921753
0.18280984461307526 -0.3425736129283905 0.11364258080720901
-0.08149382472038269 0.5642097592353821 -0.08767922222614288
0.16698524355888367 -0.4105951189994812 -0.01021634042263031
-0.010034045204520226 0.028093982487916946 0.20570121705532074
-0.08664336800575256 -0.3487112522125244 -0.2031242400407791
-0.017904076725244522 0.45007115602493286 0.09511325508356094
0.09230722486972809 -0.4115849435329437 0.13295775651931763
0.02364771068096161 0.1436528116464615 0.25124433636665344
0.12049291282892227 -0.008119363337755203 0.1901712715625763
-0.2123275250196457 -0.0740833654999733 -0.0823974683880806
0.12873362004756927 0.20567193627357483 0.0013984031975269318
-0.12063242495059967 -0.4092887341976166 0.14526641368865967
0.16022057831287384 -0.1833827793598175 0.1924036145210266
-0.22352135181427002 -0.23501767218112946 -0.016885582357645035
0.002200208604335785 0.15132339298725128 0.2574648857116699
-0.17592790722846985 0.09877975285053253 0.02149132266640663
0.048124220222234726 -0.09216354787349701 -0.1746273785829544
0.13349752128124237 0.45584315061569214 -0.002916943281888962
-0.01443413458764553 0.5661373734474182 0.006618869956582785
0.20392946898937225 -0.013067444786429405 -0.08757119625806808
0.185537651181221 0.049472376704216 0.04013242572546005
0.20513592660427094 -0.0531686469912529 -0.08107130974531174
0.03704473748803139 0.3841583728790283 0.198568195104599
0.00376355042681098 0.3911197781562805 0.21602807939052582
-0.1278812289237976 0.2487301379442215 0.07548508048057556
0.20098291337490082 -0.3653641939163208 0.02763328142464161
0.20362122356891632 0.025219567120075226 -0.09904789924621582
0.010486729443073273 -0.24586179852485657 0.26243114471435547
-0.2155516892671585 -0.10740309953689575 -0.08892600983381271
0.14840568602085114 0.1459130495786667 -0.07254338264465332
0.036578744649887085 0.33995524048805237 0.23221716284751892
-0.041458625346422195 -0.16918134689331055 -0.169912189245224
0.17308180034160614 -0.12566913664340973 0.155092254281044
0.07135938853025436 0.3492739498615265 0.1861012727022171
0.18551881611347198 0.08362728357315063 0.04334161803126335
0.2213985025882721 -0.21977432072162628 -0.06037493795156479
0.1998036950826645 -0.33789771795272827 0.0055984449572861195
0.1936085820198059 -0.1574312299489975 0.08592434227466583
-0.021436311304569244 0.33631888031959534 -0.17091774940490723
0.15233749151229858 0.3011748790740967 -0.07939164340496063
-0.18308548629283905 -0.3101680874824524 0.12933513522148132
-0.026290785521268845 -0.40030235052108765 -0.20858271420001984
0.1595177948474884 -0.3679279088973999 -0.18861563503742218
-0.14846071600914001 -0.3939739465713501 0.16694778203964233
0.07577051222324371 0.0904499739408493 -0.17530108988285065
-0.15550214052200317 -0.26757103204727173 0.18307361006736755
0.11665113270282745 0.5488730669021606 -0.008301470428705215
-0.1013304591178894 -0.3877512216567993 0.21458905935287476
0.21743972599506378 -0.3752298355102539 -0.11947121471166611
0.05315082520246506 0.011313976719975471 0.2049301117658615
-0.12661468982696533 0.22083459794521332 0.07194148004055023
-0.13412171602249146 0.33076801896095276 -0.05345471575856209
0.15829648077487946 0.15430693328380585 -0.13326457142829895
0.18111015856266022 -0.03386292979121208 0.1011335551738739
0.001197783276438713 -0.4094621241092682 0.011344235390424728
-0.09635785967111588 -0.4114841818809509 0.11015063524246216
0.19899162650108337 -0.41069409251213074 -0.028146794065833092
-0.17498159408569336 -0.16905267536640167 0.12743882834911346
0.09568499028682709 0.1991313397884369 0.23877990245819092
0.04511084407567978 0.3238919973373413 -0.17099474370479584
0.21327412128448486 -0.14553935825824738 -0.025091134011745453
-0.04564015567302704 0.5656171441078186 -0.028288956731557846
0.20817598700523376 -0.4019249975681305 -0.06616067886352539
0.1766822636127472 -0.35461246967315674 0.10472436249256134
0.1290280669927597 0.09789188951253891 0.14469978213310242
-0.20612436532974243 -0.08266518265008926 -0.03294099122285843
-0.1647515892982483 -0.3189833462238312 -0.1739576905965805
-0.07819830626249313 0.4947056174278259 0.07689974457025528
0.10596472024917603 -0.19257736206054688 0.24741555750370026
-0.18721088767051697 -0.29535597562789917 0.12760262191295624
-0.21653060615062714 -0.13399441540241241 -0.1117141917347908
0.05168560892343521 0.18810440599918365 0.2598980963230133
-0.003377716988325119 -0.19464972615242004 0.25990983843803406
-0.10634225606918335 0.18297550082206726 0.2189641147851944
0.015181041322648525 0.5669656991958618 -0.0153048075735569
0.14740122854709625 -0.22608068585395813 0.21890126168727875
-0.18752510845661163 -0.4101839065551758 0.008696341887116432
-0.02474699541926384 0.3275124430656433 -0.17145268619060516
0.21870973706245422 -0.252162903547287 -0.08152264356613159
-0.1972218155860901 0.04054098203778267 -0.04175915569067001
0.21123139560222626 -0.12564857304096222 -0.08017469197511673
0.06924000382423401 0.10664694011211395 -0.17569373548030853
0.12061972171068192 -0.09422057867050171 -0.16778269410133362
0.16505886614322662 -0.21426428854465485 0.18789571523666382
0.18655695021152496 -0.41311001777648926 -0.0045902361162006855
0.03332241624593735 -0.059475742280483246 0.2272387593984604
-0.19342739880084991 -0.41640064120292664 -0.15202005207538605
-0.0006265714764595032 0.37593328952789307 -0.16911228001117706
0.10537423938512802 -0.33955487608909607 -0.19179873168468475
0.16786393523216248 -0.17880192399024963 0.17439714074134827
-0.007801251485943794 0.11016310751438141 0.20412035286426544
0.18404226005077362 0.07422978430986404 0.02119464986026287
0.20938259363174438 -0.4007352590560913 -0.1497073620557785
-0.18581750988960266 -0.05951999872922897 0.04833513870835304
0.12955911457538605 -0.10578550398349762 0.20921242237091064
-0.1454809010028839 0.09095385670661926 0.1055811196565628
0.06954342126846313 -0.005408037453889847 0.20680326223373413
-0.16662244498729706 -0.2499602735042572 0.17171697318553925
0.20054373145103455 -0.08213313668966293 0.006201638840138912
0.2028505653142929 -0.36174893379211426 0.009924618527293205
-0.12454891204833984 0.31053951382637024 0.12407805770635605
-0.11678838729858398 0.551341712474823 -0.09990185499191284
-0.08952558040618896 0.370136022567749 -0.16820558905601501
-0.19297407567501068 0.13644705712795258 -0.1115560233592987
0.1376202404499054 -0.4143301248550415 -0.041598737239837646
0.15274164080619812 0.3004806339740753 -0.09130606800317764
0.07021433115005493 -0.416581928730011 -0.1477520912885666
-0.02441822923719883 0.2939426898956299 -0.17279364168643951
0.20050278306007385 0.057891517877578735 -0.1260397583246231
0.07291588932275772 0.5698809027671814 -0.062404926866292953
0.17910024523735046 0.009468436241149902 0.09838149696588516
0.1856018304824829 -0.06311747431755066 0.08046392351388931
0.19818845391273499 -0.3519490659236908 0.022381704300642014
0.14867332577705383 0.40195906162261963 -0.07095704972743988
-0.2191469967365265 -0.29213258624076843 -0.07120281457901001
0.011521060019731522 0.27754420042037964 -0.173149973154068
-0.19633767008781433 0.13724717497825623 -0.13515308499336243
0.18530793488025665 -0.04730134457349777 0.039189841598272324
-0.14538569748401642 -0.3994682729244232 -0.2034628689289093
-0.22217905521392822 -0.21983999013900757 -0.1106642335653305
0.006563812494277954 0.45962953567504883 0.08984462916851044
-0.08303365856409073 -0.40047353506088257 0.21631476283073425
0.0325678214430809 0.10813220590353012 0.20017126202583313
-0.12672212719917297 0.4259395897388458 -0.0036879517138004303
-0.06300029903650284 -0.41905808448791504 -0.19293083250522614
-0.205564945936203 -0.19161133468151093 0.06326349824666977
0.213636115193367 -0.1554122120141983 -0.0157010480761528
0.01421232521533966 0.3169165253639221 -0.17191582918167114
0.20246195793151855 0.040710125118494034 -0.10664691776037216
0.14955441653728485 -0.2258644551038742 -0.13991288840770721
0.13609062135219574 0.3073497712612152 -0.022960614413022995
-0.17860428988933563 -0.4082601070404053 -0.01094076782464981
0.057374902069568634 -0.4143877625465393 0.07002534717321396
0.00077858567237854 0.5583129525184631 -0.14796116948127747
0.10462579131126404 -0.1864960789680481 0.2491345852613449
0.16469858586788177 -0.3633442223072052 0.1241517961025238
0.1510440856218338 0.3140275776386261 -0.05560392513871193
0.18697169423103333 0.02197376638650894 0.05233030393719673
-0.08161120116710663 -0.4078493118286133 0.1905946135520935
0.13000139594078064 -0.4205192029476166 -0.08570995181798935
0.20540328323841095 -0.2341662347316742 0.10426566749811172
-0.09315967559814453 -0.2725217044353485 -0.1807156652212143
0.20506396889686584 -0.38702499866485596 0.0007975306361913681
-0.05051558464765549 -0.2371184378862381 -0.17560428380966187
0.027084847912192345 -0.3430060148239136 0.2638768255710602
0.010138232260942459 -0.10385200381278992 0.24314849078655243
-0.029158350080251694 0.4718469977378845 0.07554344087839127
0.12532657384872437 0.19127197563648224 -0.04893654212355614
0.03271104767918587 -0.17389656603336334 0.25082093477249146
0.18067176640033722 0.11604738235473633 0.02583584375679493
0.11883565783500671 0.3318769633769989 0.14152401685714722
0.07426466792821884 0.43508896231651306 -0.16669133305549622
-0.186472088098526 -0.14194566011428833 0.025574633851647377
-0.039841458201408386 -0.18844996392726898 0.25768449902534485
0.13471248745918274 -0.18150249123573303 0.2222556620836258
0.07437671720981598 -0.3606853485107422 -0.19980604946613312
-0.10366988927125931 -0.04740194231271744 0.19549623131752014
-0.21379537880420685 -0.3741055130958557 -0.0481877438724041
0.19616425037384033 -0.4008146822452545 -0.174020916223526
0.20397160947322845 -0.037360385060310364 -0.02021828107535839
-0.13529397547245026 0.3657413125038147 -0.0770164355635643
0.2026853710412979 -0.02252802811563015 -0.10081641376018524
0.04292537271976471 -0.05213390663266182 0.22625423967838287
0.1861162930727005 -0.016826778650283813 0.07544784247875214
0.03505532443523407 -0.06415915489196777 0.2283398061990738
0.19801393151283264 -0.15290457010269165 0.02472754195332527
-0.0024135177955031395 0.33695656061172485 0.2337915301322937
0.1024399921298027 -0.41553547978401184 -0.10935664921998978
0.05522415041923523 -0.4118322432041168 -0.07708034664392471
0.027596183121204376 0.10485995560884476 0.195797860622406
-0.10650672018527985 0.2361319661140442 0.20879435539245605
-0.12479927390813828 0.24439115822315216 0.16010965406894684
0.04767056182026863 0.20792725682258606 0.26006466150283813
-0.048606351017951965 0.5173245668411255 0.086412712931633
0.21219582855701447 -0.27711689472198486 0.09168514609336853
-0.1226264238357544 0.2460625171661377 -0.10282337665557861
-0.08524248003959656 -0.18965788185596466 -0.1640663743019104
0.08748861402273178 -0.4183032512664795 -0.14261211454868317
-0.15358997881412506 0.3397698998451233 -0.15077809989452362
0.18526436388492584 0.053712986409664154 0.053440529853105545
-0.07529415190219879 0.19302470982074738 -0.17577581107616425
-0.040641576051712036 0.3063621520996094 -0.1721593737602234
0.1883922964334488 0.08795329183340073 -0.009788701310753822
0.04959736764431 -0.40571916103363037 -0.03519649803638458
0.15215721726417542 0.3022688329219818 -0.07076320052146912
0.14824934303760529 0.3648258447647095 -0.11878841370344162
-0.19738523662090302 -0.2179664671421051 0.0983932837843895
-0.1392904818058014 0.1441548764705658 -0.1737051159143448
0.07879570871591568 0.24683353304862976 -0.17019569873809814
-0.1174992173910141 -0.41270118951797485 -0.2029840648174286
0.19216887652873993 -0.3873996138572693 0.0488259382545948
-0.11671166121959686 0.13612858951091766 0.0701938197016716
-0.005886442959308624 -0.4152916669845581 0.13730859756469727
-0.04293043166399002 -0.4111611843109131 -0.04235423356294632
-0.010402634739875793 -0.41309574246406555 0.19044969975948334
-0.006046818569302559 0.5669160485267639 0.007469023112207651
0.1345520168542862 0.30570727586746216 -0.014660246670246124
0.06420620530843735 -0.24071940779685974 -0.1704176813364029
0.21376192569732666 -0.3460911214351654 -0.11202988773584366
0.09249309450387955 0.4451367259025574 -0.1652243584394455
-0.13152272999286652 0.07064084708690643 0.13609136641025543
0.04451523721218109 0.20149743556976318 -0.17390836775302887
0.02205449715256691 -0.4110122323036194 -0.13346460461616516
-0.22130480408668518 -0.3086264133453369 -0.016659336164593697
-0.0901312530040741 0.014027055352926254 0.1874457746744156
0.04902332276105881 -0.10715362429618835 0.2422686517238617
0.07342435419559479 0.036337994039058685 0.19693487882614136
-0.1250746101140976 0.2633826434612274 -0.0994875431060791
0.12994807958602905 0.2098299264907837 0.08965925872325897
-0.17657919228076935 -0.3713623285293579 0.1300150603055954
-0.22432522475719452 -0.24210196733474731 -0.009499454870820045
-0.12178638577461243 0.5040412545204163 -0.14259083569049835
-0.044234760105609894 -0.10112474858760834 -0.17783232033252716
-0.08974913507699966 0.41431695222854614 0.07094556838274002
-0.11781179904937744 0.5298569202423096 0.00014806166291236877
-0.10541066527366638 0.10627109557390213 0.11955386400222778
0.05293231084942818 -0.41217392683029175 0.07183147966861725
0.10898236185312271 0.160948246717453 0.2165769338607788
-0.11499784141778946 0.10427926480770111 0.10743019729852676
0.18496330082416534 -0.26527735590934753 -0.11224187910556793
0.1371987909078598 0.34642332792282104 0.023136060684919357
-0.22601056098937988 -0.2646104097366333 -0.013157768175005913
0.04099268838763237 0.4469168484210968 0.0746956542134285
0.19845201075077057 -0.1904216706752777 0.11139898002147675
0.07231363654136658 -0.21288377046585083 -0.15761026740074158
0.1029382199048996 -0.21583320200443268 -0.15351973474025726
0.07698509097099304 -0.41050806641578674 0.01851954683661461
-0.040969036519527435 -0.40993186831474304 0.1857633739709854
-0.20574191212654114 -0.2983340919017792 -0.1288575381040573
-0.15169203281402588 -0.42008382081985474 -0.16464293003082275
-0.18137127161026 -0.36190032958984375 0.11884547024965286
0.14982447028160095 0.41008588671684265 -0.13884305953979492
-0.03462595492601395 -0.11942312866449356 0.2419767677783966
-0.02565734088420868 -0.25791141390800476 -0.1826794445514679
-0.21009820699691772 -0.37182173132896423 0.0041445475071668625
-0.10360328108072281 0.5607476830482483 -0.05214102938771248
-0.14947277307510376 0.07105524837970734 0.1148451641201973
0.17695850133895874 -0.41801077127456665 -0.03421974927186966
-0.12792964279651642 0.26752516627311707 -0.10161793977022171
-0.16632182896137238 -0.4055663049221039 0.10885466635227203
0.040140558034181595 -0.41284218430519104 0.1325724720954895
0.20577207207679749 -0.17504872381687164 0.07593772560358047
-0.08456737548112869 0.5634288191795349 -0.009324036538600922
0.1731562465429306 0.1486481875181198 -0.14687666296958923
-0.13200907409191132 0.46010151505470276 -0.07850982248783112
-0.2130952626466751 -0.13568297028541565 -0.04207644611597061
0.12538541853427887 0.220682293176651 -0.11475539952516556
0.201513409614563 -0.013385352678596973 -0.01770317554473877
0.11874467879533768 0.1754300445318222 0.21415233612060547
-0.21400947868824005 -0.33714115619659424 -0.004243816249072552
0.0018033012747764587 -0.355972021818161 -0.20469404757022858
0.18545213341712952 0.08888595551252365 0.040226709097623825
0.06564654409885406 0.23146787285804749 0.24617254734039307
-0.08518306910991669 -0.15373565256595612 -0.17221897840499878
-0.22448566555976868 -0.2930188775062561 -0.025437362492084503
-0.12380678206682205 0.1989438831806183 0.09250117838382721
-0.1040305569767952 0.07032457739114761 0.16205894947052002
0.0040169358253479 -0.24343915283679962 -0.17861229181289673
0.21428732573986053 -0.3836117088794708 -0.131438747048378
-0.07347001880407333 -0.06813541799783707 -0.1767248511314392
-0.04960844665765762 0.4113500416278839 -0.1677655428647995
-0.2121243178844452 -0.224154531955719 -0.12633490562438965
0.06905068457126617 -0.016702480614185333 0.2097141295671463
-0.124077707529068 0.3539201617240906 -0.03583269566297531
0.19152916967868805 -0.02250024490058422 0.015359981916844845
-0.12259884178638458 0.1917128562927246 -0.09765326976776123
0.04855608940124512 -0.40235188603401184 0.24648529291152954
-0.04100161790847778 0.22156843543052673 0.24945786595344543
0.13807137310504913 -0.07512107491493225 0.19365258514881134
-0.03239947557449341 0.08824986964464188 0.1895253211259842
0.035476770251989365 0.30072131752967834 0.22014690935611725
-0.18517616391181946 -0.03000391647219658 0.01297781616449356
0.05934572219848633 0.2943607270717621 -0.1701226383447647
-0.1283048391342163 -0.18799415230751038 0.2113068699836731
0.1841505467891693 0.06443030387163162 0.05084218457341194
-0.11445993185043335 0.471854567527771 -0.15942975878715515
-0.16478565335273743 -0.42063167691230774 -0.07717880606651306
-0.10790111124515533 0.06042320281267166 -0.18085044622421265
0.1333002746105194 0.41278842091560364 -0.040984783321619034
-0.11938128620386124 0.15174725651741028 -0.020121682435274124
-0.11603359878063202 0.033938661217689514 -0.17956581711769104
0.1657513529062271 -0.3566204011440277 -0.18158477544784546
0.14879195392131805 -0.29964345693588257 -0.1682809740304947
0.16325892508029938 -0.15410761535167694 0.19044119119644165
-0.06987393647432327 0.07519984245300293 -0.18224255740642548
0.034986015409231186 -0.41266363859176636 0.010166050866246223
0.09226919710636139 0.07997029274702072 0.17545974254608154
0.19217947125434875 0.121214859187603 -0.03966887295246124
-0.06862182915210724 -0.020972594618797302 -0.18058395385742188
-0.14150762557983398 -0.3571365475654602 0.18629293143749237
0.06099475175142288 0.027273692190647125 0.19877305626869202
-0.0001033339649438858 0.28349485993385315 0.22223052382469177
0.002389902248978615 0.5635184049606323 0.061030756682157516
-0.0345349982380867 -0.41860657930374146 -0.06927309930324554
0.21230393648147583 -0.3283516466617584 -0.04235514998435974
-0.20543137192726135 -0.021788794547319412 -0.06383152306079865
0.14950329065322876 -0.3653302490711212 0.17342442274093628
-0.20223839581012726 0.038486089557409286 -0.11548325419425964
0.19951920211315155 0.09573535621166229 -0.12458354979753494
0.22626668214797974 -0.27735480666160583 -0.0024317456409335136
0.1709820032119751 -0.2985876202583313 -0.15234355628490448
0.12588536739349365 0.4892146587371826 0.02437610924243927
-0.1494140475988388 -0.4124835729598999 0.07330358028411865
0.14622411131858826 -0.24106186628341675 0.21898721158504486
0.15098130702972412 0.40750592947006226 -0.09382061660289764
0.20040814578533173 -0.3993806838989258 0.001663627102971077
-0.10694965720176697 -0.41398853063583374 0.06506981700658798
0.19110418856143951 -0.2885645031929016 -0.11340019106864929
-0.02964385226368904 0.035148508846759796 -0.1800832897424698
0.21229307353496552 -0.33155661821365356 -0.09971824288368225
-0.18622663617134094 -0.3594104051589966 0.10705964267253876
-0.12100446969270706 0.30298876762390137 0.1451699286699295
0.2010941356420517 0.08573239296674728 -0.110110342502594
0.04763457179069519 -0.40998879075050354 -0.09694738686084747
-0.12923750281333923 0.32137760519981384 0.0076101236045360565
-0.17929305136203766 0.07478635758161545 -0.002317618578672409
0.03985138237476349 -0.3910903334617615 -0.20647311210632324
-0.12331523001194 -0.41826149821281433 0.010675681754946709
0.0434330590069294 0.3786580562591553 0.18676522374153137
0.07503104954957962 -0.4098937213420868 -0.10411307960748672
0.21340225636959076 -0.2572377920150757 0.07771201431751251
0.09789706021547318 0.5661510229110718 -0.079233817756176
0.19429898262023926 -0.33454981446266174 -0.15096035599708557
-0.1180230900645256 0.5368793606758118 0.005130123347043991
-0.11749065667390823 0.42014235258102417 0.04231540113687515
0.11953136324882507 -0.4172816574573517 -0.08028911054134369
0.08425358682870865 -0.412861704826355 -0.034379467368125916
0.22062347829341888 -0.24976855516433716 -0.07527875900268555
-0.11217447370290756 0.14009256660938263 0.12335269153118134
0.05965714156627655 -0.41112616658210754 0.03548112139105797
-0.08229458332061768 -0.16497159004211426 -0.1709989607334137
-0.20577071607112885 -0.4015812277793884 -0.15281514823436737
-0.08672180771827698 0.5406427383422852 0.04685061797499657
0.21599823236465454 -0.3150135278701782 -0.01788526400923729
0.12651893496513367 0.5123667120933533 -0.0014411285519599915
0.039356786757707596 -0.2752648890018463 -0.18326158821582794
-0.20105312764644623 0.019500259310007095 -0.05262816324830055
-0.12237333506345749 0.20495960116386414 0.1616830676794052
-0.19834379851818085 -0.2667252719402313 -0.12911351025104523
0.19239486753940582 -0.2547071874141693 0.14105980098247528
0.2195035219192505 -0.22648985683918 -0.0805119201540947
-0.14805452525615692 0.06652545928955078 -0.1797799915075302
0.2130807340145111 -0.1306837499141693 -0.07206200808286667
0.1328331083059311 0.11918138712644577 0.07586362957954407
-0.10543728619813919 -0.1658591777086258 0.22649240493774414
0.15509136021137238 -0.412500262260437 -0.03983847424387932
0.040450308471918106 -0.4167175889015198 0.11396647244691849
0.15878212451934814 -0.41001302003860474 -0.0479273647069931
0.19405634701251984 -0.11520418524742126 -0.14383962750434875
0.11377079039812088 0.1435183584690094 0.17386342585086823
0.037577204406261444 0.568379819393158 0.010027135722339153
-0.025067657232284546 0.4137834906578064 0.1302546113729477
0.07840605080127716 0.2867988646030426 0.20716503262519836
0.034362442791461945 -0.19758956134319305 -0.16267356276512146
0.1934969425201416 -0.17838284373283386 0.11697570979595184
-0.11521162837743759 0.47835680842399597 0.03857605904340744
0.13304701447486877 0.4898349940776825 -0.07611209899187088
0.22309310734272003 -0.2620229423046112 0.03747015446424484
0.06015719473361969 0.5680223703384399 -0.08327095210552216
-0.09869182109832764 -0.37666353583335876 -0.2050119936466217
0.20720507204532623 -0.17067615687847137 0.06801047921180725
0.013135960325598717 0.12713810801506042 0.2268289029598236
-0.09743045270442963 0.5434471964836121 0.03497674688696861
-0.11797676235437393 0.3180612325668335 0.14361989498138428
0.13280408084392548 0.32678651809692383 -0.014688108116388321
0.1805330067873001 -0.4174721837043762 -0.1128678023815155
-0.108705073595047 -0.19751819968223572 0.22716987133026123
0.1752629578113556 -0.1661827266216278 0.14745692908763885
0.2104092836380005 -0.33669808506965637 -0.12762592732906342
-0.11475839465856552 -0.048024266958236694 0.18820060789585114
0.21749942004680634 -0.3566233515739441 -0.11942087858915329
-0.21286094188690186 -0.07762780785560608 -0.09095009416341782
-0.12413058429956436 -0.11823670566082001 0.19906878471374512
0.05995214730501175 0.4689325988292694 -0.16632471978664398
0.0821186974644661 -0.410047709941864 -0.13221991062164307
-0.11934033036231995 0.17565104365348816 0.11416274309158325
0.09156668931245804 0.28716278076171875 0.20370523631572723
-0.09344799071550369 0.13876207172870636 -0.17809151113033295
0.12599211931228638 0.2519643306732178 -0.050242554396390915
0.04499457776546478 0.2535112202167511 -0.17225608229637146
0.10959476232528687 0.4833775758743286 0.05418084189295769
-0.07601157575845718 0.18522712588310242 -0.1763031929731369
-0.13179056346416473 0.08596111834049225 0.13350674510002136
-0.019232790917158127 -0.42218029499053955 -0.11572220176458359
0.21186652779579163 -0.12949515879154205 -0.03886165842413902
-0.13227827847003937 -0.1782151758670807 0.20539675652980804
0.1009293720126152 0.056813888251781464 0.17798739671707153
-0.13612687587738037 0.3163438141345978 -0.05514149367809296
0.043240737169981 -0.4129059910774231 0.1796901971101761
0.06207513064146042 -0.4143825173377991 0.04422563686966896
-0.18504168093204498 -0.4100119471549988 0.05974189192056656
-0.21661271154880524 -0.34669145941734314 -0.01585441455245018
0.11643773317337036 0.29556888341903687 0.1783670037984848
0.12194384634494781 -0.08110523968935013 0.2093767374753952
0.14692501723766327 0.49220412969589233 -0.11260893940925598
0.11809712648391724 -0.41209298372268677 -0.10822156071662903
-0.10375579446554184 0.13519592583179474 -0.176682248711586
0.057305727154016495 0.4770074486732483 -0.1671684980392456
0.09993748366832733 0.11040984839200974 0.16236987709999084
-0.18245334923267365 -0.08378135412931442 0.08415795117616653
-0.10206857323646545 0.00483337789773941 -0.1798376739025116
-0.17489099502563477 -0.40516018867492676 0.09210362285375595
-0.10269331187009811 0.55572110414505 0.0012988429516553879
-0.10497201979160309 -0.37661024928092957 0.2151714265346527
-0.02802429161965847 0.37006574869155884 -0.1685267686843872
0.061172377318143845 -0.3916901648044586 -0.20590204000473022
0.0694352462887764 0.1274118423461914 0.2069409042596817
0.05437098443508148 0.5684078335762024 0.0015918593853712082
0.02759087085723877 0.5676345825195312 -0.06328117847442627
0.05467068776488304 0.37140652537345886 0.14595356583595276
0.015088550746440887 -0.4070891737937927 -0.03232886642217636
0.14510026574134827 0.32611939311027527 -0.11260660737752914
0.19859139621257782 0.0893365740776062 -0.06747764348983765
0.1527211219072342 -0.04547840729355812 -0.1676492691040039
-0.15018393099308014 -0.11892972886562347 -0.1718069165945053
-0.0473453514277935 0.2914165258407593 0.21128541231155396
-0.06465038657188416 0.5637051463127136 -0.009272538125514984
0.08589276671409607 -0.4138149321079254 0.042452871799468994
0.12436956912279129 -0.2580014765262604 0.22987109422683716
-0.02671200782060623 -0.25860023498535156 -0.18285946547985077
0.04202519729733467 -0.2015375792980194 -0.16227635741233826
0.06562178581953049 0.0476132407784462 0.19480614364147186
0.13686424493789673 0.3024142384529114 0.08225218206644058
-0.17691224813461304 -0.17158398032188416 0.13328227400779724
0.10171286761760712 -0.42061877250671387 -0.14732390642166138
-0.18596473336219788 0.08057194948196411 -0.015128536149859428
-0.1958332657814026 0.11125030368566513 -0.07775449007749557
-0.07552780956029892 0.5535136461257935 0.04508635029196739
-0.18429647386074066 -0.1502341777086258 0.007093674037605524
0.05211767554283142 0.19978486001491547 0.25708937644958496
-0.18624785542488098 -0.05457129329442978 0.03558291122317314
0.10375592857599258 0.3282141387462616 0.18878376483917236
0.08678305149078369 -0.03568876534700394 -0.17432762682437897
-0.03912608325481415 -0.3966563940048218 0.24103659391403198
0.2095617800951004 -0.3183235228061676 0.010288216173648834
0.16784118115901947 -0.12381622195243835 -0.15713901817798615
0.12405660003423691 0.18012164533138275 0.2049652487039566
-0.12666679918766022 -0.18833079934120178 0.2122068703174591
-0.20569664239883423 -0.001054396852850914 -0.1327645182609558
0.11642877012491226 -0.40666675567626953 0.022381387650966644
-0.200520858168602 -0.3759385347366333 -0.1651262789964676
-0.09886974096298218 -0.14244867861270905 0.22469286620616913
0.20336505770683289 -0.40884506702423096 -0.06703367829322815
0.02760903909802437 -0.14747309684753418 -0.170994371175766
-0.044105254113674164 0.10737434774637222 -0.18062327802181244
0.060644373297691345 -0.408945232629776 -0.0032891258597373962
0.10761390626430511 0.5540975332260132 -0.10156361758708954
0.00480816513299942 -0.1734006106853485 -0.16839119791984558
0.12654703855514526 0.19383658468723297 -0.09399251639842987
-0.08502551168203354 -0.41085320711135864 0.10603103786706924
0.0711766928434372 0.48159804940223694 0.07762840390205383
-0.08181775361299515 0.4005470871925354 -0.16679060459136963
0.16657528281211853 -0.021757377311587334 0.14358466863632202
0.1854514628648758 -0.4002071022987366 0.04382489621639252
-0.11641216278076172 -0.3282133936882019 0.22344641387462616
0.031712718307971954 0.40535029768943787 0.1522461622953415
-0.03969689831137657 0.24124975502490997 0.246522456407547
-0.08632239699363708 0.3347379267215729 -0.1691592037677765
0.17356708645820618 0.08967185765504837 0.08448324352502823
-0.18210090696811676 -0.10870611667633057 -0.1695430725812912
0.15928205847740173 -0.3736664950847626 -0.19002461433410645
-0.012607148848474026 0.5666946768760681 -0.009414490312337875
0.17781639099121094 -0.04954143986105919 -0.16027016937732697
0.13700610399246216 -0.4052024483680725 0.005592159926891327
-0.2007717341184616 0.09247788786888123 -0.11698343604803085
-0.1208367645740509 0.19509798288345337 -0.08170945197343826
-0.0009735263884067535 -0.41295167803764343 0.10618991404771805
-0.12591959536075592 0.46271365880966187 -0.019172538071870804
-0.16329939663410187 0.08655566722154617 0.0796813815832138
0.014572001993656158 0.35369211435317993 0.23860859870910645
0.22139105200767517 -0.252890944480896 -0.07023539394140244
-0.01755381189286709 0.09085782617330551 0.18831609189510345
0.00826006755232811 -0.37499064207077026 0.251338928937912
0.21571308374404907 -0.24522866308689117 0.07936346530914307
0.02896474488079548 -0.4112491011619568 -0.07948702573776245
-0.12912338972091675 -0.4145202934741974 0.05227718502283096
-0.19583885371685028 -0.034848541021347046 -0.020928438752889633
-0.16597482562065125 -0.20686236023902893 0.16416196525096893
-0.1607256531715393 0.08816441893577576 0.0840529054403305
0.13529472053050995 0.2464572787284851 0.17021599411964417
0.16241079568862915 0.08335423469543457 -0.17060720920562744
0.02371944859623909 0.4153085947036743 0.14830639958381653
0.09964644908905029 0.5607681274414062 -0.0012488029897212982
0.2121105045080185 -0.32843121886253357 -0.04907596856355667
0.038753755390644073 -0.14713847637176514 0.2527371048927307
0.12925153970718384 0.2090912014245987 0.15623430907726288
0.039344027638435364 0.18870866298675537 0.25950750708580017
-0.20910106599330902 -0.20461632311344147 0.05037686973810196
0.05045492574572563 0.3979310989379883 0.11965872347354889
-0.126895934343338 0.28670406341552734 0.1084405779838562
0.1269105076789856 -0.3057408630847931 0.2275766283273697
0.20238541066646576 0.0310184545814991 -0.1082710325717926
-0.16766729950904846 0.08419536054134369 0.07153494656085968
-0.08318248391151428 0.3421266973018646 -0.16952939331531525
-0.13692118227481842 -0.3654663860797882 -0.19921207427978516
0.0157838836312294 -0.4139719307422638 -0.1313498616218567
0.023469090461730957 -0.036276478320360184 0.2174280285835266
0.13051998615264893 -0.24732187390327454 0.23333829641342163
-0.12252168357372284 0.15819284319877625 -0.07621844857931137
0.056471943855285645 -0.16764496266841888 0.24898135662078857
0.1859232634305954 0.04456412047147751 0.0034265797585248947
0.013528881594538689 0.56597900390625 -0.056488897651433945
0.18351368606090546 0.03712037205696106 -0.15843355655670166
-0.10313098132610321 -0.08465427160263062 0.20601440966129303
0.192008376121521 -0.19280968606472015 0.13297311961650848
-0.22123362123966217 -0.1949053406715393 -0.09987331926822662
0.1863902062177658 -0.014330435544252396 0.03374685347080231
-0.037287987768650055 0.38359227776527405 0.1376715749502182
0.11872975528240204 -0.4121970236301422 -0.04542705416679382
0.20075871050357819 -0.3356853723526001 0.04552871733903885
0.17887556552886963 0.04967307671904564 -0.16349175572395325
-0.12472039461135864 0.4664797782897949 0.010237276554107666
0.1700056493282318 -0.2194269895553589 0.1818011999130249
0.164719820022583 0.09308076649904251 -0.16891531646251678
0.04571811482310295 0.12824547290802002 0.22574202716350555
-0.12686625123023987 0.3698754906654358 -0.0397161990404129
-0.07724890112876892 0.5512298941612244 -0.1540694236755371
-0.07442149519920349 -0.4142526686191559 0.002701384946703911
-0.21011537313461304 -0.08107885718345642 -0.04659281298518181
-0.0452113002538681 -0.19889119267463684 0.2574435770511627
0.13994339108467102 0.14281021058559418 -0.022679325193166733
-0.16029353439807892 -0.1597851663827896 0.1613733172416687
-0.10489591956138611 -0.3395593762397766 0.22405169904232025
0.12703388929367065 -0.4080587327480316 0.06580470502376556
-0.030201155692338943 -0.4189496338367462 -0.09497532248497009
-0.18448899686336517 -0.37959325313568115 -0.18657515943050385
0.13699159026145935 0.3397831618785858 0.023184213787317276
0.090790294110775 0.29766756296157837 0.20763936638832092
0.18230710923671722 -0.11912758648395538 0.11577416211366653
0.12645205855369568 -0.26966017484664917 -0.16353625059127808
0.12677261233329773 0.17075572907924652 0.06961172819137573
0.18458245694637299 0.029830992221832275 0.0760408565402031
0.1361280083656311 -0.3508988618850708 -0.19162535667419434
-0.12644381821155548 0.3390132784843445 0.07357640564441681
0.12325851619243622 -0.16545510292053223 0.22956524789333344
0.006081996485590935 0.4030202031135559 0.18904316425323486
-0.20402812957763672 0.002719312906265259 -0.15885037183761597
-0.2144908607006073 -0.3456854224205017 -0.08569946140050888
-0.12222487479448318 0.19019848108291626 -0.004436444491147995
0.05673547834157944 -0.04529229551553726 0.22084391117095947
0.0675293505191803 0.2773711681365967 -0.16989445686340332
0.05252004414796829 0.20849119126796722 0.2597392201423645
-0.006756410002708435 -0.14451003074645996 0.25308558344841003
-0.13536223769187927 0.39874061942100525 -0.06277754157781601
-0.0397949293255806 0.3649351894855499 0.16535386443138123
0.0018404163420200348 0.5466487407684326 -0.15567049384117126
-0.21446824073791504 -0.1892692893743515 0.008263860829174519
0.0885530337691307 0.09010261297225952 -0.17632006108760834
-0.06402634084224701 -0.36959606409072876 0.23881414532661438
0.1987522691488266 0.11967700719833374 -0.10722144693136215
-0.0878649577498436 0.5623926520347595 -0.01924816146492958
-0.010291317477822304 -0.4119757413864136 -0.020910190418362617
-0.017992498353123665 -0.40815144777297974 0.07611791044473648
-0.20361433923244476 0.018679548054933548 -0.07494636625051498
0.039309434592723846 -0.4238266944885254 -0.12080226838588715
0.021062813699245453 0.4769285321235657 -0.16705039143562317
0.003932559862732887 0.24349889159202576 -0.17375579476356506
-0.08856849372386932 0.20869390666484833 0.23278222978115082
0.1634838581085205 -0.3786061406135559 -0.18933537602424622
0.17678393423557281 0.002423657104372978 0.10870344191789627
-0.05182315781712532 0.17894265055656433 -0.17569538950920105
0.09474973380565643 0.26860398054122925 -0.16564494371414185
-0.21719400584697723 -0.11884817481040955 -0.10947898030281067
-0.12318892031908035 0.08875620365142822 0.13880577683448792
-0.05194046348333359 -0.22301219403743744 -0.17002129554748535
-0.11784368008375168 0.16258136928081512 0.1201561763882637
0.028480393812060356 0.5022192001342773 0.09497082978487015
-0.016234589740633965 -0.40981245040893555 0.11362258344888687
-0.20554271340370178 -0.17811334133148193 0.050143949687480927
0.10612610727548599 0.057991206645965576 0.17495709657669067
0.018259018659591675 -0.02148541249334812 0.21441695094108582
0.1171547919511795 0.08558627218008041 0.15847931802272797
-0.1609453409910202 -0.3880494236946106 0.15343745052814484
-0.03554726764559746 -0.41446101665496826 0.010095275938510895
-0.08035190403461456 -0.16264235973358154 -0.17099757492542267
0.07202866673469543 -0.08251480758190155 0.22896267473697662
-0.027476955205202103 0.056233927607536316 -0.18024460971355438
0.2102186232805252 -0.12429838627576828 -0.015275504440069199
-0.21283002197742462 -0.3661099672317505 -0.11320902407169342
-0.028377598151564598 0.06978607177734375 0.19367416203022003
0.002610664814710617 0.10723679512739182 0.20036737620830536
0.12943719327449799 -0.3583034873008728 -0.19286197423934937
-0.18594126403331757 -0.04363424703478813 0.031705647706985474
0.03099338337779045 0.5128675699234009 0.09828054904937744
0.17955602705478668 -0.08750038594007492 0.12455005943775177
-0.022945355623960495 0.1360667496919632 0.23164494335651398
0.0518733374774456 -0.12776196002960205 -0.1731279045343399
-0.21755531430244446 -0.30957627296447754 -0.05567965656518936
0.14849872887134552 -0.3345069885253906 0.2057526409626007
0.12083284556865692 0.1702670454978943 0.18908792734146118
0.12862567603588104 0.4779359996318817 0.011871963739395142
0.2100384682416916 -0.19167780876159668 -0.11056489497423172
0.09158211201429367 0.06782907992601395 0.1780875325202942
0.13447168469429016 0.15839974582195282 -0.13326086103916168
-0.2081453800201416 -0.31474071741104126 0.0594354048371315
0.1040550246834755 0.3263835608959198 0.1844351440668106
0.06211831048130989 -0.4122021794319153 0.03740962967276573
0.11257842183113098 -0.018366290256381035 0.19505366683006287
0.21482791006565094 -0.35557159781455994 -0.1099427118897438
0.06743186712265015 0.3498099446296692 0.20496755838394165
0.13242033123970032 0.43466565012931824 -0.06345249712467194
0.09534139931201935 -0.41391438245773315 -0.10905567556619644
0.03617211803793907 0.04650985449552536 0.19769570231437683
0.17947514355182648 -0.4140908420085907 -0.006813790649175644
-0.21826554834842682 -0.32908308506011963 -0.04918530210852623
-0.1296720951795578 -0.3552370071411133 -0.1985713094472885
-0.1895628124475479 -0.2994460165500641 -0.14827781915664673
0.20357300341129303 -0.033115897327661514 -0.041483573615550995
-0.11093458533287048 -0.4042421281337738 0.08508187532424927
0.17237937450408936 -0.053075291216373444 0.13658621907234192
0.22319453954696655 -0.23963114619255066 -0.023379795253276825
-0.20126377046108246 -0.1876353621482849 0.07370106130838394
-0.18342113494873047 -0.36610156297683716 -0.18012240529060364
0.045895129442214966 0.1078728660941124 0.1967860758304596
-0.12978658080101013 0.2833845615386963 -0.04870329052209854
-0.007900133728981018 0.5036199688911438 0.09838088601827621
-0.15072764456272125 0.31573039293289185 -0.10616786777973175
-0.19668225944042206 0.015207309275865555 -0.024334700778126717
-0.0042638350278139114 0.5638117790222168 0.04395095258951187
-0.12782704830169678 -0.08958396315574646 -0.1735120713710785
-0.02104901149868965 0.07125403732061386 -0.17940554022789001
-0.05439994856715202 -0.4148252308368683 0.0261759664863348
-0.20975230634212494 -0.21712620556354523 0.05487207695841789
-0.12956874072551727 -0.0558779239654541 0.1786309778690338
0.20425142347812653 -0.3980644643306732 -0.016390157863497734
-0.0835585817694664 0.3237478733062744 0.18928015232086182
0.075182244181633 -0.4156685471534729 0.09793081879615784
0.15631137788295746 -0.271464467048645 -0.148407444357872
0.18407803773880005 -0.010374398902058601 0.08553025126457214
0.1362777054309845 0.36327433586120605 0.07673534005880356
0.13548403978347778 -0.22194230556488037 -0.14530013501644135
-0.15374821424484253 0.3452514410018921 -0.1302918940782547
0.14594431221485138 0.47773638367652893 -0.1421811282634735
0.1569928228855133 -0.4203551411628723 -0.13388967514038086
0.03561604022979736 0.10976330190896988 0.20254509150981903
0.12784798443317413 0.33238741755485535 0.13565964996814728
0.1973973959684372 -0.35087066888809204 0.020971374586224556
-0.19412702322006226 0.021617069840431213 -0.1709641069173813
0.009572342038154602 -0.42051807045936584 -0.11638660728931427
-0.133337140083313 -0.41117966175079346 0.0646757259964943
-0.01790676638484001 0.5626412630081177 0.04596852511167526
0.19065216183662415 0.1308242231607437 -0.08369460701942444
0.1256527602672577 0.17943653464317322 0.19160962104797363
0.11845474690198898 0.549278199672699 -0.014805160462856293
-0.06554937362670898 0.14151883125305176 -0.1782243698835373
-0.18409894406795502 -0.37760505080223083 0.10795321315526962
-0.07725551724433899 -0.058032840490341187 -0.17771190404891968
-0.1401834934949875 -0.4133354425430298 0.04841158911585808
0.1984006017446518 0.03149062395095825 -0.035457734018564224
0.1356925666332245 0.3592449426651001 0.08275394141674042
0.14799486100673676 -0.36506912112236023 0.17600329220294952
0.024437610059976578 -0.4120568335056305 -0.07867395132780075
0.05051432549953461 0.36283251643180847 0.19985243678092957
0.20090551674365997 -0.3421099781990051 0.0029101399704813957
0.12485016137361526 0.15219946205615997 0.09617075324058533
0.08088523149490356 0.061210863292217255 0.1877390295267105
0.12738515436649323 -0.1923045963048935 0.23055636882781982
-0.13937149941921234 0.1574801504611969 -0.12451418489217758
0.1859593540430069 -0.11246064305305481 0.09442497789859772
0.1237993910908699 0.1419420689344406 0.11523464322090149
-0.1346411556005478 -0.19239500164985657 0.20635008811950684
-0.06954628229141235 0.37695398926734924 -0.16785742342472076
-0.03671298176050186 0.28516992926597595 0.21449580788612366
-0.07151487469673157 0.15003317594528198 -0.17768803238868713
-0.09612004458904266 0.2905147075653076 0.1877443641424179
0.14367736876010895 -0.415343314409256 -0.049338337033987045
-0.02412315271794796 -0.40735065937042236 0.10012780874967575
-0.019149843603372574 0.33004727959632874 0.23034419119358063
-0.19294698536396027 -0.17205901443958282 0.08766555041074753
-0.18393251299858093 -0.24764108657836914 0.1372847557067871
0.17564508318901062 -0.1748831868171692 0.1539071798324585
0.08051101118326187 -0.41232916712760925 0.11304451525211334
-0.10283970832824707 0.031594015657901764 -0.18004179000854492
-0.10547315329313278 0.32567405700683594 0.14959993958473206
-0.13506822288036346 0.4013238251209259 -0.0638204887509346
0.12734484672546387 0.4855167269706726 0.014477986842393875
0.1687711626291275 0.10439662635326385 0.07875499874353409
0.18530882894992828 -0.33297210931777954 0.12546107172966003
-0.03263062983751297 0.42815646529197693 -0.16726654767990112
-0.041623808443546295 -0.2675238251686096 0.25961387157440186
-0.12159597873687744 0.23256617784500122 -0.0517854280769825
-0.1263287514448166 0.25640591979026794 0.1265375018119812
0.1220288947224617 0.5347409248352051 -0.04445170238614082
0.04757819324731827 0.5532558560371399 0.0650930181145668
-0.046644873917102814 0.07773727923631668 -0.1810714304447174
-0.10556917637586594 -0.410783052444458 0.07225010544061661
-0.17324526607990265 -0.36066389083862305 0.13442189991474152
0.20085617899894714 -0.3809337615966797 -0.14834143221378326
0.22257070243358612 -0.2234991192817688 0.002600865438580513
-0.1896790862083435 -0.4051210880279541 0.06214502826333046
-0.12769505381584167 0.25140130519866943 0.06400986015796661
-0.03837744891643524 -0.03110443614423275 0.21614663302898407
0.2222522795200348 -0.2968001961708069 -0.0035340534523129463
-0.10508864372968674 0.06518739461898804 0.16407141089439392
-0.21347402036190033 -0.18008294701576233 -0.029139582067728043
-0.16368404030799866 0.07358318567276001 -0.17950354516506195
0.1814950406551361 0.11584866791963577 0.018384575843811035
-0.12329556047916412 0.2823264002799988 0.1561926305294037
0.18656325340270996 -0.12294312566518784 -0.14817631244659424
0.10795760154724121 0.326724648475647 0.161089688539505
-0.12472754716873169 -0.1782856285572052 0.21067894995212555
-0.202768474817276 -0.16387809813022614 -0.026604872196912766
-0.07566492259502411 -0.28934723138809204 0.24633391201496124
-0.14681826531887054 0.08467008918523788 0.11101898550987244
-0.19568553566932678 -0.2996821999549866 0.10690851509571075
0.03358061611652374 0.5666153430938721 -0.11896791309118271
-0.13857898116111755 0.015996120870113373 -0.17839467525482178
0.1859324872493744 -0.08294174075126648 0.05175337940454483
0.055174753069877625 -0.4142478406429291 -0.10864078253507614
-0.04140797257423401 -0.19359120726585388 -0.16745229065418243
0.20872323215007782 -0.13469481468200684 -0.12252816557884216
0.12918315827846527 -0.35499337315559387 -0.19256126880645752
0.13011233508586884 0.22842532396316528 -0.009818479418754578
0.0492534376680851 0.4876788258552551 0.08575752377510071
-0.19084389507770538 -0.055598653852939606 -0.018854007124900818
0.07268689572811127 0.5668905377388 -0.12605172395706177
-0.08574756234884262 -0.3999442160129547 0.21569325029850006
-0.11069221794605255 -0.2227068990468979 -0.1617904007434845
-0.1944977045059204 0.03093940019607544 -0.02521728165447712
0.0078074634075164795 -0.19540935754776 -0.1642610728740692
-0.12021485716104507 -0.40966829657554626 0.13114739954471588
-0.12245210260152817 0.1823052018880844 0.048277296125888824
0.05684138461947441 0.00048397481441497803 -0.1768847107887268
0.19366110861301422 -0.1935996413230896 0.12807291746139526
0.09607664495706558 0.34304893016815186 0.15508775413036346
-0.02769206091761589 0.4818887710571289 -0.1670471876859665
-0.1850835084915161 -0.026890184730291367 0.024759165942668915
0.03684617951512337 0.04974660277366638 0.19537672400474548
0.13347022235393524 0.38675007224082947 -0.16421954333782196
-0.06109422445297241 0.05968618392944336 -0.18176868557929993
0.1455414891242981 -0.416949987411499 0.057275447994470596
0.10575082898139954 0.0038998108357191086 0.19154687225818634
0.20278283953666687 0.0014995671808719635 -0.06487762182950974
0.055388372391462326 -0.4114627540111542 0.1727445125579834
-0.021391451358795166 0.2817051112651825 0.22200435400009155
-0.033161357045173645 0.16685184836387634 -0.17640803754329681
-0.2109159678220749 -0.05327611416578293 -0.10821474343538284
0.09893619269132614 0.45259737968444824 0.052803993225097656
-0.022307664155960083 -0.4176448881626129 -0.15665017068386078
0.11124331504106522 -0.32004135847091675 0.22300854325294495
-0.0992981418967247 0.37184053659439087 0.10942216217517853
-0.04222492501139641 0.17207419872283936 -0.17567826807498932
0.2134970724582672 -0.3610261082649231 -0.1251583695411682
-0.12090301513671875 0.5237733125686646 -0.06887365877628326
0.149898961186409 -0.24920673668384552 -0.14038193225860596
-0.07971689105033875 0.5187069773674011 0.06724725663661957
0.02496623434126377 0.5679276585578918 -0.0019752811640501022
-0.13049395382404327 0.34708037972450256 -0.04743034765124321
-0.1715615689754486 -0.1751382201910019 0.15509110689163208
0.07388990372419357 0.3290570080280304 0.21516472101211548
-0.11632388085126877 0.24463212490081787 0.1941613256931305
0.18571577966213226 -0.12359338253736496 0.07058071345090866
-0.20668645203113556 -0.40474921464920044 -0.0662718117237091
-0.14003893733024597 -0.20270849764347076 0.2000254988670349
-0.19876651465892792 0.09470497071743011 -0.09074324369430542
-0.021086443215608597 0.5145320296287537 0.09959641844034195
-0.2143627554178238 -0.08091787248849869 -0.1428312361240387
0.20882751047611237 -0.09938433766365051 -0.040479667484760284
-0.19528652727603912 0.0752791091799736 -0.1651630699634552
0.08604767173528671 -0.239485502243042 -0.16580897569656372
0.02225974202156067 -0.42073607444763184 -0.11553864926099777
-0.0058134980499744415 -0.2822354733943939 0.2567172348499298
0.19167019426822662 0.0860031321644783 -0.015349941328167915
-0.1263229101896286 0.2435149848461151 -0.02072591334581375
0.20881463587284088 -0.13288332521915436 -0.12303422391414642
-0.032858893275260925 -0.40694722533226013 0.20892570912837982
-0.07405553758144379 -0.15882201492786407 -0.17112496495246887
0.18449559807777405 0.049928463995456696 0.011039383709430695
