0.05367698892951012 0.13118858635425568 0.21219214797019958
-0.06991468369960785 -0.17062653601169586 -0.16898125410079956
0.2155386507511139 -0.3875194191932678 -0.05507170781493187
-0.12563124299049377 0.04008922725915909 -0.18040673434734344
-0.12014340609312057 0.5244778394699097 0.008755296468734741
0.12616929411888123 0.16160602867603302 -0.037079088389873505
0.03663328289985657 -0.357981413602829 0.2577302157878876
-0.12058386951684952 0.4739539325237274 0.017989493906497955
-0.0066390931606292725 0.13492104411125183 -0.17743746936321259
0.0349130779504776 -0.38044753670692444 -0.2044602483510971
-0.22130244970321655 -0.196915864944458 -0.045198678970336914
-0.20781123638153076 0.012898780405521393 -0.12749972939491272
0.20218132436275482 0.02908947505056858 -0.06358727812767029
-0.08166016638278961 0.3611287474632263 -0.1686980426311493
-0.037831731140613556 -0.38851219415664673 -0.20767344534397125
-0.07734633982181549 0.40349292755126953 -0.16632552444934845
-0.153153657913208 -0.023236356675624847 0.136874720454216
-0.19970066845417023 -0.18657201528549194 0.03418003395199776
0.13048051297664642 -0.15739181637763977 -0.16053970158100128
-0.127865269780159 -0.16411767899990082 -0.16604548692703247
-0.18372021615505219 -0.14991258084774017 0.07726225256919861
-0.1804969608783722 0.09220540523529053 0.017774546518921852
-0.07270883023738861 -0.1066884845495224 0.22704289853572845
-0.2077198475599289 -0.02255990169942379 -0.15437856316566467
-0.04483206942677498 -0.18419180810451508 -0.16866326332092285
0.14466680586338043 0.42524459958076477 -0.09189571440219879
0.1370955854654312 0.3880217373371124 0.020843669772148132
-0.039241909980773926 0.2926447093486786 -0.1717682182788849
0.21264763176441193 -0.3900349736213684 -0.04867009073495865
0.10645221173763275 -0.4130200743675232 -0.038891904056072235
0.13517744839191437 0.30737540125846863 0.03880805894732475
0.1857191026210785 0.05918215960264206 0.016067665070295334
0.12291392683982849 -0.40673163533210754 0.019115258008241653
0.07433727383613586 -0.16002944111824036 0.2484738975763321
-0.19926318526268005 0.00010485202074050903 -0.16751086711883545
0.18308961391448975 0.1349470466375351 -0.13249899446964264
-0.2194889634847641 -0.14112037420272827 -0.06260509043931961
-0.12819433212280273 0.3076663017272949 0.012530767358839512
0.008285120129585266 -0.05654211342334747 -0.17812848091125488
-0.20595937967300415 -0.24826917052268982 0.09096184372901917
-0.058083027601242065 0.07213816791772842 0.1851063072681427
0.19929932057857513 -0.328658789396286 0.06420596688985825
0.037682488560676575 -0.20656554400920868 -0.16236163675785065
-0.2133931815624237 -0.3972359895706177 -0.08951222896575928
0.18782728910446167 0.05223444104194641 0.03903016448020935
0.12670814990997314 0.18301360309123993 0.10689391940832138
0.16505023837089539 0.14477571845054626 -0.08684878051280975
0.12237876653671265 -0.07389579713344574 0.20383545756340027
-0.20873817801475525 -0.38375964760780334 -0.0046205297112464905
0.018551187589764595 0.422084242105484 0.14443439245224
0.11031101644039154 0.5489992499351501 -0.13203807175159454
-0.054602786898612976 0.15996964275836945 -0.1791812628507614
-0.036097314208745956 -0.17827537655830383 0.25745242834091187
-0.052823349833488464 0.4243701100349426 -0.16818545758724213
-0.18096694350242615 0.08289768546819687 0.01676999032497406
-0.009401211515069008 0.4340190887451172 0.12016966938972473
-0.06315892934799194 -0.16507574915885925 -0.17139160633087158
-0.002747580409049988 -0.037872686982154846 0.22041304409503937
-0.13899493217468262 -0.3910650312900543 0.17779402434825897
0.1834976226091385 -0.09863267838954926 0.04291201010346413
-0.21917545795440674 -0.15376582741737366 -0.11509886384010315
0.1507270783185959 -0.14816026389598846 0.20653007924556732
-0.025314226746559143 -0.2931348383426666 0.2581576406955719
-0.12480837106704712 -0.3593083322048187 0.19582919776439667
-0.19499269127845764 -0.3719950318336487 -0.1724288910627365
0.1003521978855133 0.5646117925643921 -0.010972276329994202
0.04775197058916092 0.36010295152664185 0.22620108723640442
0.0005516707897186279 -0.2882547378540039 0.25932255387306213
-0.2139299064874649 -0.08105833828449249 -0.14365355670452118
0.21260783076286316 -0.29939204454421997 0.0686149150133133
-0.18098486959934235 -0.05339352786540985 -0.1742936670780182
0.08195985853672028 -0.41520461440086365 0.03254825249314308
0.2138189673423767 -0.34771957993507385 -0.12132994830608368
-0.18598201870918274 -0.20415915548801422 0.12372900545597076
0.2223701775074005 -0.21334531903266907 -0.004774237051606178
-0.17179124057292938 0.04259145259857178 0.07267288118600845
0.00920078344643116 0.40203529596328735 0.17855983972549438
-0.22062329947948456 -0.14148180186748505 -0.06557756662368774
-0.20846405625343323 -0.008061625063419342 -0.11963492631912231
-0.12306138128042221 0.22533898055553436 0.1084594875574112
0.08367802202701569 0.01910340040922165 0.19303815066814423
-0.09930788725614548 -0.113161101937294 -0.17288897931575775
-0.09662401676177979 0.33900293707847595 -0.16806648671627045
0.21437154710292816 -0.3212946951389313 -0.09736453741788864
-0.11482302844524384 0.21188479661941528 0.18814091384410858
0.1943405568599701 -0.4112158417701721 -0.008561011403799057
-0.12270712852478027 0.19647295773029327 0.051925163716077805
0.1510343998670578 0.36630409955978394 -0.12723009288311005
0.21627889573574066 -0.17602625489234924 -0.10055118799209595
0.1368425041437149 -0.16151995956897736 -0.1585395634174347
0.18524694442749023 -0.11051325500011444 0.10503973066806793
-0.10525975376367569 0.2510116398334503 0.19640406966209412
-0.11887931078672409 0.5221098065376282 0.012894747778773308
0.17924600839614868 -0.14024333655834198 0.13829432427883148
0.18317323923110962 0.044122058898210526 0.07746580243110657
-0.18462957441806793 -0.004713088274002075 0.020378388464450836
-0.13307161629199982 0.27922025322914124 -0.061591215431690216
-0.1222517117857933 0.21900245547294617 0.14854559302330017
-0.08526230603456497 0.10123826563358307 0.15034839510917664
-0.05026185140013695 -0.16962744295597076 -0.16991809010505676
0.07124965637922287 0.5687452554702759 -0.09525047242641449
0.05965727940201759 0.0867246612906456 0.1854112297296524
0.18605564534664154 -0.11228270828723907 0.04844187945127487
-0.08238127827644348 -0.41920891404151917 -0.20291760563850403
-0.1255532056093216 0.2368353009223938 0.07260165363550186
-0.10806314647197723 0.177186980843544 0.2013600468635559
-0.20974671840667725 -0.3135800063610077 -0.10501480102539062
-0.0636749193072319 -0.08263964205980301 -0.1784200370311737
-0.1692356914281845 0.15274013578891754 -0.15936534106731415
-0.13031162321567535 -0.14751216769218445 0.19961968064308167
-0.10283160209655762 0.0771310031414032 -0.1816728264093399
-0.20968729257583618 -0.03280027210712433 -0.1280789077281952
0.2017642706632614 0.04888162389397621 -0.10942250490188599
-0.11673819273710251 0.16837865114212036 0.108932264149189
0.0874069556593895 -0.4159906208515167 0.03703221678733826
-0.1241115927696228 -0.22011834383010864 0.2160441130399704
0.1427120417356491 -0.41839009523391724 -0.15486866235733032
-0.008731961250305176 0.1543416678905487 0.2537473142147064
0.07451274991035461 0.47835540771484375 -0.16579991579055786
0.14295822381973267 -0.372872531414032 -0.19254550337791443
-0.21641522645950317 -0.20476219058036804 0.0431441105902195
0.12578603625297546 0.2859592139720917 -0.13556940853595734
-0.2256810963153839 -0.25013378262519836 -0.05635960400104523
0.005070190876722336 -0.4112536907196045 0.10283326357603073
0.13451510667800903 0.2769868075847626 0.04787515476346016
0.06877599656581879 -0.10667279362678528 0.2325459122657776
0.10690485686063766 -0.16679921746253967 0.24173778295516968
-0.14091545343399048 0.16217970848083496 -0.13808616995811462
0.19998905062675476 -0.014355875551700592 -0.15391740202903748
-0.12075664848089218 0.5142765641212463 -0.0791861042380333
-0.0021444037556648254 -0.4143558442592621 -0.043387893587350845
-0.20651686191558838 0.0179000087082386 -0.1349889487028122
0.13326390087604523 0.41240090131759644 0.05827593058347702
0.17049628496170044 -0.06647015362977982 0.14900092780590057
-0.0437566339969635 -0.16117343306541443 -0.17039859294891357
-0.03461519628763199 -0.3057617247104645 0.25527095794677734
0.04957355558872223 -0.4095064699649811 0.13583606481552124
-0.21322686970233917 -0.2730388045310974 0.07506445050239563
0.21557298302650452 -0.1571330428123474 -0.09084458649158478
-0.12397213280200958 0.5174584984779358 -0.06485898792743683
0.13252763450145721 0.24632875621318817 0.060335785150527954
-0.1927611231803894 -0.3883914649486542 0.08119446039199829
0.0724412053823471 -0.416532039642334 0.03479679301381111
0.03875533491373062 -0.13444823026657104 -0.17092908918857574
0.0143042653799057 -0.4203368127346039 -0.1888304054737091
0.188235342502594 -0.1514846533536911 0.060084838420152664
-0.21274727582931519 -0.3395881950855255 0.020958993583917618
-0.101408451795578 0.12593349814414978 0.13832229375839233
0.10557229816913605 -0.4080500602722168 -0.01516539417207241
0.13035959005355835 0.22444114089012146 0.07816380262374878
-0.22174760699272156 -0.2515028119087219 0.020646583288908005
0.22461187839508057 -0.24242748320102692 -0.018686890602111816
-0.11869660764932632 -0.3442843556404114 -0.19692830741405487
-0.08279091119766235 -0.1664879024028778 0.23772042989730835
-0.11993832886219025 0.1910300999879837 0.12502220273017883
0.07205942273139954 -0.4117021858692169 0.025015495717525482
0.13422471284866333 0.26436957716941833 0.052620869129896164
0.09588509798049927 0.40780094265937805 0.08395376056432724
0.21959683299064636 -0.18674978613853455 -0.0005373060703277588
0.1707995980978012 -0.1661698818206787 0.17568935453891754
-0.13569986820220947 -0.42064517736434937 -0.12762358784675598
0.12187711894512177 -0.17052729427814484 -0.15792632102966309
-0.18426679074764252 -0.0001821480691432953 -0.003973080776631832
-0.2207641303539276 -0.13059590756893158 -0.06003189831972122
0.20778010785579681 -0.208937868475914 0.09076979011297226
0.20711500942707062 -0.31894785165786743 0.002079637721180916
0.20912301540374756 -0.2066180408000946 0.081319659948349
-0.12915922701358795 -0.3990483582019806 -0.20317289233207703
-0.1359824538230896 0.2792113125324249 -0.12496234476566315
0.1254582703113556 0.19007599353790283 -0.03926552087068558
0.11135900020599365 0.08309438079595566 0.15922658145427704
0.014980100095272064 0.14241985976696014 0.2466769516468048
-0.06825995445251465 -0.33058956265449524 0.24095438420772552
0.0006487928330898285 0.013926489278674126 0.20724104344844818
0.19812048971652985 -0.41433343291282654 -0.024313949048519135
-0.16708755493164062 0.1454596370458603 -0.11428730934858322
0.11549302190542221 0.12179143726825714 0.1293070763349533
-0.2029743790626526 -0.1308356523513794 -0.023384874686598778
0.008196428418159485 0.5339091420173645 0.09414687007665634
-0.05805943161249161 0.5635194778442383 -0.005087960511445999
0.132607564330101 0.24831564724445343 -0.02054143324494362
0.2172839492559433 -0.18423913419246674 -0.0823855847120285
-0.20913854241371155 -0.018008572980761528 -0.10689375549554825
0.06096287816762924 -0.1529041826725006 0.25285327434539795
0.09259962290525436 -0.18335896730422974 0.25038379430770874
0.11002472043037415 -0.3386352062225342 0.2287013828754425
0.07944725453853607 -0.4194120764732361 0.03553299605846405
-0.0328180193901062 0.5272462964057922 -0.16283267736434937
0.15778465569019318 -0.1970376968383789 -0.14687423408031464
0.09786056727170944 0.23055700957775116 -0.1625455617904663
0.18885722756385803 0.031011199578642845 0.05416649580001831
0.13753865659236908 0.3438143730163574 0.055161330848932266
-0.1584368646144867 -0.2811756730079651 0.181454598903656
-0.12595295906066895 -0.19342249631881714 0.2142224907875061
0.07845154404640198 -0.4160248637199402 0.03338806331157684
-0.01874534972012043 0.20892885327339172 0.26159220933914185
0.18205009400844574 0.10522592812776566 0.05883049592375755
-0.06072976812720299 -0.41846492886543274 -0.14608442783355713
-0.005301576107740402 0.5621552467346191 0.05407233536243439
0.163217231631279 -0.157292440533638 0.19350355863571167
-0.10768622159957886 0.05602765083312988 -0.18126654624938965
0.19751110672950745 0.01770787499845028 -0.12427502870559692
-0.17186425626277924 -0.15199550986289978 -0.1677437424659729
-0.04451076686382294 -0.411965936422348 -0.004508486017584801
-0.18915827572345734 -0.39348629117012024 -0.18149814009666443
0.09258098900318146 -0.4176584780216217 -0.1534838229417801
-0.20986150205135345 -0.03824637457728386 -0.1355629414319992
-0.18314990401268005 0.01623421721160412 0.03284141421318054
0.12014322727918625 0.17247924208641052 0.17167538404464722
-0.0036947131156921387 0.24037322402000427 0.25143563747406006
0.12728703022003174 0.19703000783920288 -0.03179524466395378
0.12755143642425537 0.1768123060464859 0.07002726197242737
-0.19458921253681183 -0.40447333455085754 0.06667283177375793
0.06296101957559586 0.5197789072990417 -0.16497379541397095
0.0765206515789032 -0.41947245597839355 -0.0891273096203804
-0.1596136838197708 0.1573653519153595 -0.132322758436203
-0.17531169950962067 0.020617816597223282 -0.17718708515167236
-0.07731898128986359 -0.13378039002418518 -0.17448559403419495
0.0454438142478466 0.19573527574539185 0.258670449256897
0.1354547142982483 0.2970106303691864 0.03974611684679985
0.21193519234657288 -0.3341691195964813 -0.12229984998703003
-0.010665584355592728 0.3355560302734375 0.23766747117042542
0.13080471754074097 0.4843112528324127 -0.03115057200193405
0.07171482592821121 0.0901656523346901 0.18482524156570435
-0.1516718864440918 0.3715928792953491 -0.10783840715885162
-0.05781305953860283 0.41172149777412415 -0.1674301028251648
0.1305631399154663 0.26079997420310974 0.003274057060480118
0.08058612048625946 0.26448068022727966 -0.16936270892620087
0.1438961774110794 -0.31608423590660095 0.20799429714679718
-0.07522089779376984 0.04060061275959015 -0.18304474651813507
-0.06402052938938141 -0.1741372048854828 0.24984945356845856
-0.1031382828950882 0.16482406854629517 0.18807868659496307
-0.06325891613960266 -0.09094260632991791 -0.17802929878234863
-0.021384481340646744 0.20432209968566895 0.26322704553604126
0.22079585492610931 -0.28157156705856323 0.032855790108442307
-0.10528725385665894 -0.02057683654129505 0.18659982085227966
-0.1192551702260971 0.16732214391231537 0.010958213359117508
0.22363848984241486 -0.24557960033416748 -0.040923140943050385
-0.028199858963489532 0.5198566317558289 -0.16555261611938477
-0.040020652115345 -0.41091760993003845 0.15300783514976501
-0.09521162509918213 0.5408353209495544 0.03491450101137161
-0.059754885733127594 0.5534873008728027 -0.1564822643995285
0.2189568430185318 -0.3433607816696167 -0.09573870897293091
0.05197319760918617 -0.3915421962738037 0.24794434010982513
0.15787935256958008 -0.38047608733177185 -0.19265593588352203
-0.10629141330718994 0.006271002814173698 0.17805850505828857
-0.07013056427240372 0.4470978379249573 0.05435016378760338
0.11522065103054047 -0.2013077586889267 0.23594245314598083
0.08413703739643097 -0.19594895839691162 -0.15554487705230713
0.1373758614063263 0.32427486777305603 0.08386623114347458
0.05784730240702629 0.4319975972175598 -0.16766750812530518
0.08040495961904526 0.49599960446357727 0.07855790108442307
0.16468635201454163 -0.4146890342235565 -0.0026465454138815403
-0.1612968146800995 -0.2599825859069824 -0.1511964350938797
0.13245612382888794 0.24714389443397522 0.06036935746669769
0.14282895624637604 -0.08662834763526917 0.19242306053638458
0.06546131521463394 0.12184746563434601 0.1954280138015747
-0.0030593564733862877 0.5684656500816345 -0.013474855571985245
0.08831031620502472 -0.4146077334880829 -0.12593413889408112
0.1062643900513649 -0.16990843415260315 0.24116799235343933
-0.11213068664073944 0.09599963575601578 0.13870418071746826
0.13329124450683594 0.2724209129810333 0.12625449895858765
0.1314801126718521 0.47173646092414856 0.012354031205177307
0.1947755366563797 0.06645458191633224 -0.12099449336528778
-0.08229589462280273 0.13106001913547516 -0.17965592443943024
-0.13680821657180786 -0.4181170165538788 -0.0195968858897686
-0.18318992853164673 0.03520980104804039 0.012889997102320194
0.2105153650045395 -0.18461301922798157 0.03057195618748665
-0.21959495544433594 -0.3210594952106476 0.008012782782316208
-0.13732317090034485 0.0843513160943985 0.11379381269216537
0.11854826658964157 -0.4206198751926422 -0.11578068882226944
0.216682568192482 -0.3892940878868103 -0.12150335311889648
-0.09293155372142792 -0.2638449966907501 -0.1743430644273758
-0.08842632919549942 -0.4192296862602234 -0.16469316184520721
-0.09734448790550232 0.04855313152074814 -0.18168286979198456
-0.04588077962398529 -0.3644891083240509 0.24285386502742767
-0.08461228758096695 0.08136661350727081 -0.1816045194864273
0.1160072311758995 -0.41629767417907715 -0.12188131362199783
-0.21223744750022888 -0.09393668174743652 -0.15576280653476715
0.12671010196208954 0.45473888516426086 0.04260746389627457
0.058764852583408356 -0.15240129828453064 0.25193125009536743
-0.1066761314868927 -0.414639413356781 -0.019270209595561028
0.09831346571445465 0.23107637465000153 0.2322363704442978
-0.1022535040974617 0.10452085733413696 0.13881175220012665
0.11938130110502243 0.5253201127052307 0.023020174354314804
-0.030818283557891846 0.4606318473815918 -0.1671874225139618
0.1374834030866623 0.15494796633720398 -0.09922663867473602
-0.05268895998597145 -0.40474721789360046 0.05639994889497757
-0.07349136471748352 0.0001785680651664734 0.20083551108837128
0.019754350185394287 -0.35450801253318787 0.25918883085250854
-0.17251712083816528 0.014963663183152676 0.0794086754322052
0.21393515169620514 -0.33634108304977417 -0.11527705192565918
0.13258735835552216 0.29991164803504944 -0.050259172916412354
-0.11941555887460709 0.5235123038291931 -0.008852317929267883
-0.0381193570792675 -0.024624964222311974 0.2150735855102539
0.12884293496608734 0.20707769691944122 0.11461731046438217
0.10555073618888855 0.4876529276371002 0.060898635536432266
-0.06315933167934418 -0.08603154867887497 0.22558990120887756
0.09757167845964432 0.43810227513313293 -0.16508091986179352
0.0041564106941223145 -0.3629128336906433 -0.2045220583677292
0.176825150847435 -0.14651697874069214 0.14212524890899658
-0.21085889637470245 -0.0475395992398262 -0.09467986971139908
0.060510117560625076 0.09388737380504608 0.1869516223669052
-0.0020180039573460817 0.5663652420043945 -0.07333007454872131
0.1650666892528534 0.14545832574367523 -0.07927209138870239
-0.11725984513759613 0.18279005587100983 0.17081403732299805
0.11512985825538635 -0.4183230996131897 -0.11945920437574387
-0.11724984645843506 -0.4132991135120392 0.15262016654014587
0.1476513147354126 -0.4155496656894684 -0.1716109812259674
-0.1177348643541336 0.10113046318292618 0.11642081290483475
0.035079456865787506 0.3340201675891876 0.24085044860839844
0.1400151401758194 -0.219399094581604 0.2267366200685501
-0.019492244347929955 0.5644813179969788 -0.002021118998527527
-0.03894888609647751 0.39703553915023804 0.12598776817321777
0.12229518592357635 0.18061339855194092 0.17293521761894226
0.06691606342792511 -0.05954158306121826 0.22367368638515472
-0.024324005469679832 0.2535138428211212 -0.17365756630897522
0.1677660048007965 -0.32354065775871277 0.16994497179985046
0.0019482150673866272 -0.11912310123443604 0.24273863434791565
-0.02744848094880581 -0.20378397405147552 -0.16352859139442444
-0.04210226610302925 0.5640669465065002 -0.02609362080693245
-0.1843065470457077 0.05018242076039314 0.025634195655584335
0.10727714002132416 -0.4084533452987671 0.029462214559316635
-0.10974448919296265 -0.41666892170906067 -0.05049344152212143
0.13140761852264404 0.29545050859451294 0.15419405698776245
0.08817411214113235 -0.10953353345394135 0.23107552528381348
-0.1812983751296997 0.08414798974990845 0.010331068187952042
-0.11045219004154205 0.04767288267612457 -0.18153908848762512
-0.2287912368774414 -0.3001062870025635 -0.007906042039394379
-0.20861700177192688 -0.016514485701918602 -0.10080207139253616
0.13312049210071564 0.2572060823440552 0.041916485875844955
0.019429881125688553 0.4929923415184021 0.09101301431655884
-0.21947000920772552 -0.24731601774692535 0.03421572968363762
-0.013752225786447525 -0.23205523192882538 -0.1739339828491211
0.13451141119003296 0.29796549677848816 0.11722370237112045
-0.10082495212554932 -0.41528651118278503 -0.011480428278446198
0.18804726004600525 -0.33648422360420227 0.08854442834854126
-0.225433811545372 -0.25392279028892517 -0.0036290064454078674
0.20160728693008423 0.0453755147755146 -0.08687438815832138
-0.08498458564281464 0.4591423571109772 0.05787860229611397
-0.1317003220319748 -0.10912308841943741 -0.17320992052555084
0.17202842235565186 0.09848654270172119 0.07527337223291397
0.10374598205089569 -0.15968027710914612 0.23909935355186462
0.13021191954612732 0.4903950095176697 -0.03510062396526337
0.19963207840919495 -0.16132795810699463 -0.12957096099853516
0.13607802987098694 0.40455949306488037 -0.031744591891765594
-0.06174903362989426 0.4287760555744171 -0.16633795201778412
0.1523948609828949 0.027756821364164352 -0.16877156496047974
-0.04050539806485176 -0.20951128005981445 0.2606547772884369
0.13579770922660828 -0.4229753613471985 -0.09137821197509766
0.08430403470993042 -0.4131758213043213 -0.14686593413352966
0.1489250361919403 -0.4146568477153778 -0.19022013247013092
-0.10997225344181061 0.18142442405223846 0.18782556056976318
0.03413502499461174 0.3406423032283783 0.24353814125061035
0.08952538669109344 0.2684418559074402 0.21329735219478607
0.11504223942756653 -0.39125871658325195 -0.19856534898281097
0.16891565918922424 -0.00481165386736393 0.13365867733955383
-0.06980946660041809 -0.14053770899772644 -0.17357541620731354
0.2148549109697342 -0.25066444277763367 0.07324178516864777
-0.016078680753707886 -0.1073063462972641 -0.17553648352622986
0.13530659675598145 0.27610650658607483 0.10108006745576859
0.05372883006930351 0.5425959229469299 0.07278813421726227
0.15964777767658234 0.014028865844011307 -0.16707652807235718
0.18412423133850098 -0.056745223701000214 0.09794973582029343
-0.1265990287065506 0.2618774175643921 -0.11273914575576782
-0.11464859545230865 0.04111902415752411 -0.1809171587228775
-0.06038130819797516 0.5299160480499268 -0.1609516590833664
0.15704335272312164 0.16077664494514465 -0.13005560636520386
-0.033754996955394745 0.04071338474750519 -0.18136420845985413
-0.14047834277153015 0.07097051292657852 0.12103446573019028
0.22284038364887238 -0.21695901453495026 0.0002591889351606369
0.13101127743721008 -0.11179203540086746 0.2083573341369629
-0.11478568613529205 0.19022494554519653 0.18185245990753174
0.19893692433834076 -0.4064589738845825 -0.05192079022526741
-0.21283669769763947 -0.2451581358909607 0.06316046416759491
-0.20260795950889587 -0.314776211977005 -0.12704886496067047
0.0807609111070633 -0.4144853353500366 -0.059655945748090744
0.04697944223880768 0.1866161823272705 0.25555098056793213
-0.027712523937225342 0.29021507501602173 -0.1734951287508011
0.0006411885842680931 0.5659863948822021 -0.0910165011882782
-0.11157666146755219 0.03317241370677948 -0.1818363219499588
-0.10242623835802078 -0.27913007140159607 -0.17751477658748627
-0.10094669461250305 0.012528895400464535 0.18047860264778137
0.035934463143348694 0.06965718418359756 -0.17611680924892426
-0.05954711139202118 0.41277211904525757 -0.16720989346504211
-0.12012987583875656 0.5389374494552612 -0.08322203159332275
0.13517823815345764 -0.0004852358251810074 0.17432966828346252
-0.1542162150144577 -0.1666765958070755 -0.16478411853313446
-0.10306232422590256 0.16161935031414032 0.18321625888347626
-0.1602327525615692 -0.014477115124464035 -0.17610405385494232
0.10606361925601959 -0.016170132905244827 -0.17358718812465668
0.14659437537193298 -0.1587262898683548 -0.15607741475105286
-0.13652589917182922 -0.411116361618042 0.07857143878936768
-0.1941453069448471 -0.31430327892303467 0.1146853044629097
-0.08794918656349182 -0.41935816407203674 -0.17491163313388824
-0.12619930505752563 0.23153135180473328 0.16536854207515717
0.09829281270503998 -0.41787493228912354 -0.09714077413082123
0.034480150789022446 0.3446199297904968 0.2415730208158493
0.09474766999483109 0.17564478516578674 0.23747862875461578
-0.12431006133556366 0.22488628327846527 -0.04311854764819145
-0.20620401203632355 0.022821497172117233 -0.14173804223537445
0.017918579280376434 -0.13999679684638977 -0.17029066383838654
-0.21342691779136658 -0.08862990140914917 -0.08847058564424515
-0.1682363748550415 0.15011900663375854 -0.16264334321022034
0.18464070558547974 -0.41826191544532776 -0.10059279948472977
0.03304138779640198 0.4605177342891693 0.07911603152751923
-0.032148126512765884 0.4319562017917633 -0.1661570966243744
-0.12551024556159973 0.337577223777771 0.06279625743627548
0.20890796184539795 -0.24157100915908813 -0.10344414412975311
0.06319837272167206 0.5679171681404114 -0.08584941178560257
0.10509872436523438 -0.08672815561294556 -0.17054475843906403
0.07995254546403885 -0.4198509752750397 0.0358455628156662
0.12204609811306 0.18639889359474182 0.1984059363603592
-0.1308469921350479 0.47302621603012085 -0.05818886682391167
-0.11749545484781265 0.18947215378284454 0.16587208211421967
0.12441486120223999 -0.11277632415294647 -0.1664145588874817
0.01623871922492981 -0.35799741744995117 0.26015982031822205
-0.18351329863071442 0.009270546957850456 0.03752211108803749
-0.021042507141828537 0.47047165036201477 0.07928328216075897
0.12410639226436615 0.17817485332489014 0.1646076887845993
0.17986615002155304 0.010605746880173683 0.09550100564956665
0.09521244466304779 -0.4134519398212433 -0.08237428218126297
0.12751442193984985 -0.35428446531295776 -0.19168683886528015
-0.04791542887687683 -0.41516995429992676 -0.19230039417743683
0.203274205327034 -0.40649929642677307 -0.04698766767978668
0.11520060896873474 -0.4216732382774353 -0.11844609677791595
-0.2121548354625702 -0.07530371844768524 -0.09649942070245743
0.18063311278820038 -0.16184261441230774 0.12589558959007263
-0.03013257496058941 -0.1693592071533203 0.2565743625164032
-0.17662450671195984 -0.06260520219802856 0.08929985761642456
-0.19720546901226044 -0.3540908992290497 0.07134588062763214
0.13694213330745697 0.34972959756851196 0.03007408231496811
0.12726163864135742 0.1832064837217331 0.019403710961341858
-0.06881730258464813 -0.08223371207714081 -0.17656491696834564
0.002737864851951599 -0.1338007003068924 0.24901066720485687
-0.16720156371593475 -0.2815028429031372 0.16907763481140137
-0.04690830409526825 -0.41634440422058105 -0.13358363509178162
0.13979005813598633 -0.16612258553504944 -0.15754136443138123
-0.2198108434677124 -0.2641040086746216 0.03375435993075371
-0.12313432991504669 0.22782692313194275 0.13045114278793335
0.21058271825313568 -0.09345421940088272 -0.05671202391386032
0.2006717026233673 -0.25679510831832886 0.10610932111740112
-0.14625316858291626 -0.06029703468084335 -0.17577217519283295
0.01024617999792099 0.40573468804359436 -0.16875743865966797
0.1787523478269577 -0.4169040620326996 -0.156881645321846
0.07957324385643005 -0.41626089811325073 0.04410915821790695
-0.06602075695991516 0.3877084255218506 -0.1669423133134842
-0.12421658635139465 0.2273554503917694 0.06510968506336212
0.14865420758724213 -0.37485605478286743 -0.19241540133953094
0.16572555899620056 -0.4194449782371521 -0.09564987570047379
-0.1011701226234436 0.05861727148294449 -0.1810472458600998
-0.07309149205684662 -0.4179927706718445 -0.2011769562959671
0.12921541929244995 0.4989136755466461 -0.03335250914096832
-0.2086241990327835 -0.042716220021247864 -0.15385113656520844
-0.2049919217824936 -0.19475719332695007 0.04079395905137062
-0.0013779476284980774 0.04572325944900513 -0.17973613739013672
0.18618178367614746 -0.024431034922599792 0.01744985394179821
0.22416949272155762 -0.26071155071258545 -0.020209122449159622
-0.05284421890974045 -0.41991904377937317 -0.18221482634544373
0.07622568309307098 0.4302728474140167 0.06978189200162888
-0.06550507247447968 -0.16324906051158905 -0.17000405490398407
-0.21710149943828583 -0.2692253291606903 0.05360442399978638
0.15611575543880463 0.32887956500053406 -0.09273824095726013
-0.012537043541669846 0.40013477206230164 -0.16889187693595886
0.08831371366977692 -0.024701548740267754 0.20602095127105713
-0.09784058481454849 -0.3350503444671631 -0.19811350107192993
0.025903776288032532 -0.07119034975767136 -0.17535585165023804
0.021041901782155037 0.44213399291038513 0.10863009840250015
-0.024770863354206085 -0.34075331687927246 0.25544360280036926
-0.1314125806093216 0.3747246265411377 -0.0233900286257267
-0.21104948222637177 -0.1905723363161087 -0.012640627101063728
0.11005257815122604 -0.1611417531967163 0.23957866430282593
-0.03555883467197418 -0.4138152003288269 -0.194300577044487
0.08175647258758545 -0.17070125043392181 0.2477971911430359
0.19176629185676575 -0.18564096093177795 0.10841568559408188
-0.05879591405391693 0.12513917684555054 0.19848638772964478
-0.10090363770723343 -0.42152139544487 -0.1508544385433197
-0.10105394572019577 -0.4098457992076874 -0.07681742310523987
-0.2270626425743103 -0.24005362391471863 -0.06465689837932587
0.09840185195207596 0.5643764138221741 -0.009448207914829254
-0.18355467915534973 -0.031935885548591614 0.06081531196832657
-0.028251411393284798 0.4515744149684906 -0.16692043840885162
0.17623232305049896 0.07268030941486359 0.0954485684633255
-0.21884311735630035 -0.20228978991508484 -0.020533494651317596
0.15409301221370697 0.3568980097770691 -0.11949339509010315
0.08969394117593765 -0.4087181091308594 -0.0029152855277061462
-0.056506894528865814 -0.04429877921938896 0.21772165596485138
-0.036558009684085846 -0.1782364845275879 -0.1688639521598816
-0.18014885485172272 -0.4243641197681427 -0.09536437690258026
0.15591150522232056 -0.4165489077568054 -0.17599356174468994
0.12577460706233978 0.25913330912590027 -0.07882082462310791
0.1369199901819229 0.3216587007045746 0.1036103144288063
0.04744165390729904 0.27814826369285583 0.22187727689743042
-0.09667418152093887 0.13215820491313934 -0.1784624308347702
0.18885058164596558 0.08548764139413834 0.026222139596939087
0.14695115387439728 0.30055373907089233 -0.10822094976902008
0.016685379669070244 0.5408355593681335 0.08907724916934967
-0.025909509509801865 -0.2070845067501068 -0.16426263749599457
0.2112366408109665 -0.38342055678367615 -0.03639939799904823
0.08978679776191711 0.28365761041641235 0.21314293146133423
-0.04917294159531593 0.5028576254844666 0.08855560421943665
0.13548243045806885 0.27381643652915955 0.10016175359487534
-0.14103326201438904 -0.27757957577705383 0.20422683656215668
-0.00020135566592216492 0.4499298930168152 0.10414894670248032
-0.015118161216378212 0.34526920318603516 0.24272364377975464
0.09131976962089539 0.010898810811340809 0.19607532024383545
-0.19043684005737305 -0.4183823764324188 0.007348465267568827
0.19094201922416687 -0.3518133759498596 0.06386829912662506
-0.05663997679948807 -0.21779967844486237 -0.16515322029590607
0.10936987400054932 -0.14068306982517242 -0.16310188174247742
-0.07838921248912811 -0.11810056120157242 0.22717460989952087
0.18740485608577728 0.04740782827138901 0.0523902028799057
-0.08917346596717834 -0.3434077501296997 0.23230516910552979
-0.11525821685791016 0.17207421362400055 0.13754040002822876
0.04001209884881973 -0.13398854434490204 -0.1709710955619812
-0.12122508138418198 0.18991394340991974 -0.021385248750448227
0.03993130475282669 0.5695704817771912 -0.014781590551137924
0.22374191880226135 -0.24579785764217377 -0.062090784311294556
-0.05416681617498398 0.3833567798137665 0.11745859682559967
0.17477789521217346 -0.3768158257007599 0.10313300788402557
-0.02497819811105728 -0.11291560530662537 0.2415231615304947
-0.2273850291967392 -0.27396804094314575 -0.015430507250130177
0.07890809327363968 -0.4205096662044525 0.04575708508491516
-0.0897250771522522 -0.19292908906936646 -0.1641513705253601
-0.11806891858577728 0.16887149214744568 0.07745122909545898
-0.11847339570522308 -0.08573943376541138 -0.17420460283756256
0.027936793863773346 0.3397167921066284 -0.1692364513874054
-0.1847228854894638 -0.053517065942287445 0.03788464143872261
-0.12218905985355377 0.48930174112319946 -0.07102608680725098
-0.18595097959041595 -0.09466773271560669 0.06929109990596771
0.0438481941819191 0.07355286926031113 0.18915976583957672
0.017077863216400146 0.04746405780315399 -0.17836233973503113
0.1867501437664032 -0.036189965903759 0.07028580456972122
-0.1199260875582695 -0.30802732706069946 0.22453024983406067
-0.027536023408174515 -0.2685626149177551 -0.18291287124156952
0.1638236939907074 -0.3407744765281677 -0.17694325745105743
0.0625709593296051 -0.060399580746889114 0.22292234003543854
-0.14172784984111786 -0.3036366105079651 0.20312123000621796
-0.008173272013664246 0.5650748014450073 -0.13711777329444885
-0.21913711726665497 -0.15357044339179993 -0.11455706506967545
0.1324814409017563 0.309109091758728 0.12192059308290482
0.09204067289829254 -0.2163863480091095 -0.15539409220218658
-0.06314876675605774 0.5638344883918762 -0.0004882737994194031
0.18257828056812286 -0.41355839371681213 0.03239191323518753
-0.04356275871396065 0.019869007170200348 -0.18214623630046844
0.12350136041641235 -0.4150804579257965 0.07643674314022064
-0.05207383632659912 0.3887779712677002 0.12058430910110474
0.12097713351249695 -0.4156211316585541 0.12312716245651245
-0.18140359222888947 -0.24174530804157257 -0.14285659790039062
-0.06576009094715118 0.035979241132736206 -0.1827172189950943
0.09238754212856293 0.27831435203552246 0.20844264328479767
-0.0739615187048912 -0.13629359006881714 -0.1742784082889557
-0.1670512557029724 -0.15682579576969147 0.1427541971206665
0.09832122921943665 0.5507998466491699 -0.1508553922176361
0.21462829411029816 -0.33883222937583923 -0.08912956714630127
0.16482867300510406 -0.3683997392654419 0.1272437572479248
0.1628941297531128 0.02459542453289032 0.1368316113948822
0.08330580592155457 -0.41170746088027954 0.032150015234947205
0.0009548744419589639 0.5654067993164062 -0.030888143926858902
0.10017908364534378 0.23218506574630737 -0.1608399897813797
-0.21792860329151154 -0.22783172130584717 0.046359218657016754
0.11427433788776398 -0.2833535075187683 -0.17250889539718628
-0.20708025991916656 -0.0035815443843603134 -0.10948854684829712
-0.21239908039569855 -0.22272688150405884 0.0596122220158577
0.21206647157669067 -0.2759791314601898 0.08136409521102905
0.13096772134304047 0.22983688116073608 0.10742911696434021
0.11639057099819183 -0.417274534702301 -0.12228050082921982
0.17235827445983887 -0.12633205950260162 0.1607942432165146
0.18488709628582 -0.3666694164276123 0.08061710000038147
-0.162223681807518 0.042876921594142914 -0.1779104769229889
-0.2246687412261963 -0.25695857405662537 0.0020561330020427704
0.21880927681922913 -0.17839643359184265 -0.06260517239570618
0.11719340085983276 0.5508435964584351 -0.00874803215265274
0.07866520434617996 0.5682272911071777 -0.08516758680343628
-0.10011637955904007 -0.12058684229850769 0.21549098193645477
-0.16761240363121033 -0.1848098635673523 -0.16089574992656708
-0.12022289633750916 -0.4195469915866852 -0.09354014694690704
0.08422145992517471 0.4415145814418793 0.06091448664665222
-0.040363017469644547 0.05724798142910004 0.19211699068546295
-0.023119423538446426 0.17711536586284637 0.25930944085121155
0.1874825805425644 0.03572243079543114 0.03099561110138893
0.07174638658761978 -0.0902034342288971 0.23049002885818481
0.071864552795887 -0.41687697172164917 0.03813498467206955
0.18561658263206482 0.012060405686497688 0.017004456371068954
0.04623482748866081 0.1225024089217186 -0.1749255210161209
0.14940796792507172 -0.4143873453140259 -0.18164095282554626
-0.21657665073871613 -0.10329258441925049 -0.10941833257675171
-0.021898657083511353 0.4010825753211975 0.16844235360622406
-0.06837360560894012 0.09110213071107864 0.17191064357757568
0.00010003193165175617 0.5661599040031433 -0.02173173427581787
0.09321137517690659 -0.12928113341331482 0.23612818121910095
0.11626632511615753 -0.4202614724636078 -0.11471489071846008
0.21409057080745697 -0.28592297434806824 0.0680694654583931
-0.07498566806316376 0.5503984689712524 0.043418217450380325
-0.009486496448516846 -0.41135409474372864 0.20188474655151367
0.18470269441604614 -0.37834396958351135 0.07526278495788574
-0.20755165815353394 -0.1860007643699646 -0.146299347281456
-0.1780247539281845 0.04647400975227356 0.049494415521621704
0.07357866317033768 -0.419829398393631 0.03621285408735275
0.12717126309871674 0.29494571685791016 -0.15170061588287354
0.10107214003801346 0.024913959205150604 -0.17500048875808716
0.08614897727966309 0.14925336837768555 0.22429662942886353
0.07982005923986435 0.23415830731391907 0.2400035411119461
0.19154423475265503 0.13324733078479767 -0.0796545147895813
0.2121022492647171 -0.360796719789505 -0.03612017631530762
0.10947336256504059 -0.40895113348960876 -0.014667827636003494
0.08946187794208527 -0.07420305162668228 -0.1724991500377655
-0.22499963641166687 -0.18888768553733826 -0.058672867715358734
-0.13052250444889069 0.029958873987197876 -0.1787949651479721
0.2014283686876297 -0.002988804131746292 -0.1165437176823616
-0.1569957435131073 -0.41796866059303284 -0.04445132613182068
0.151664137840271 0.30247950553894043 -0.13240496814250946
0.08593536168336868 -0.4149955213069916 0.024705518037080765
0.10056871920824051 0.19394367933273315 -0.16518297791481018
0.2220892459154129 -0.2681550681591034 0.03085581213235855
-0.12731000781059265 0.3249085545539856 0.034174054861068726
0.011868154630064964 -0.15558136999607086 0.2590123414993286
0.11521261930465698 -0.4075447618961334 0.01304115355014801
0.2154495120048523 -0.33752259612083435 -0.08840157836675644
0.1887160986661911 -0.03823104873299599 0.060464005917310715
0.13769470155239105 0.34100890159606934 0.06373359262943268
-0.07972285896539688 0.09586292505264282 0.16536612808704376
0.09717069566249847 0.316619873046875 -0.1644374430179596
0.08136028051376343 0.4200698435306549 0.08011715114116669
-0.12770874798297882 0.4458557665348053 -0.07343892753124237
-0.16555961966514587 0.0028454484418034554 0.1001318097114563
-0.12976016104221344 0.09341926872730255 -0.180948868393898
0.07111617922782898 0.20574423670768738 0.25410664081573486
-0.09561160951852798 0.14678138494491577 -0.1764424443244934
0.005481384694576263 0.03937406837940216 -0.17988958954811096
-0.0753527358174324 0.11548351496458054 -0.1805584728717804
-0.17065899074077606 0.03972247987985611 0.07746273279190063
0.09077130258083344 0.4020143151283264 0.09027589857578278
0.21532273292541504 -0.2594957947731018 0.06835482269525528
0.03477372229099274 -0.35357561707496643 0.2579060196876526
-0.03190482407808304 0.36985015869140625 0.21146605908870697
0.07597614824771881 0.21552611887454987 0.24925217032432556
-0.16582533717155457 -0.3759271204471588 -0.18991795182228088
0.0015980023890733719 0.5671928524971008 -0.1100812777876854
0.09676684439182281 -0.40694162249565125 0.047752074897289276
-0.020226329565048218 -0.4208598732948303 -0.1924307644367218
0.048990942537784576 -0.20365877449512482 -0.15950152277946472
-0.051903195679187775 0.24189899861812592 0.24112138152122498
0.06916705518960953 0.18391503393650055 0.2539617419242859
-0.04451540857553482 0.4144313633441925 -0.16800741851329803
0.057883623987436295 0.46996036171913147 -0.16774819791316986
0.13525189459323883 -0.3964264988899231 0.16736915707588196
-0.05795961618423462 0.08070677518844604 -0.18193407356739044
-0.1757110208272934 -0.14130493998527527 0.11408580094575882
0.10601119697093964 0.0762728899717331 0.16602757573127747
0.05302366986870766 -0.06719191372394562 0.2270059585571289
-0.016310982406139374 -0.35516878962516785 0.2581944167613983
0.16159243881702423 -0.37204915285110474 0.13224558532238007
0.13608399033546448 -0.3463866710662842 -0.18812434375286102
0.07652449607849121 -0.4183191657066345 0.03249489516019821
-0.09953044354915619 0.08497336506843567 -0.18151967227458954
0.20243386924266815 0.016081733629107475 -0.1115497350692749
-0.011260315775871277 -0.1779177188873291 -0.16800224781036377
-0.09072747826576233 0.3415345549583435 -0.16794821619987488
-0.08305278420448303 -0.41859304904937744 -0.09256745874881744
0.20358876883983612 -0.3241935968399048 0.04710135608911514
-0.10832443833351135 0.0467618852853775 -0.18179647624492645
-0.06932151317596436 -0.09441577643156052 0.22536464035511017
0.17622992396354675 -0.41559508442878723 -0.0260947085916996
0.10353939980268478 -0.413297563791275 -0.11981302499771118
0.21476271748542786 -0.3456577956676483 -0.11976402252912521
0.10614804178476334 -0.17874948680400848 0.23822417855262756
0.049077391624450684 -0.19428057968616486 -0.15808148682117462
-0.16918639838695526 -0.42154669761657715 -0.13853667676448822
0.2007666677236557 0.0884641483426094 -0.06612145155668259
-0.12046713382005692 0.5077421069145203 0.0022145286202430725
-0.0530872642993927 -0.17946124076843262 -0.16867795586585999
0.13614054024219513 -0.01292857713997364 0.17689083516597748
0.07317963242530823 -0.4118710160255432 0.03600064292550087
0.02407976984977722 0.5371283292770386 0.08973710238933563
-0.05061386898159981 0.5624203681945801 -0.0050243474543094635
0.1462932974100113 -0.4156067967414856 0.10422970354557037
-0.026657991111278534 0.07877015322446823 -0.1808306872844696
-0.09356687217950821 0.1588442623615265 0.20103968679904938
0.14850905537605286 -0.05099049210548401 0.1754974126815796
-0.17445209622383118 -0.17753508687019348 -0.16186875104904175
-0.11924345046281815 -0.413379430770874 0.16220557689666748
0.03350966423749924 -0.4092068374156952 -0.2043217122554779
-0.0805373415350914 0.4389435052871704 -0.16497184336185455
-0.018016673624515533 0.12453348189592361 0.21556630730628967
-0.060323335230350494 0.4177551865577698 -0.1674950271844864
0.18493157625198364 -0.012108627706766129 0.08175365626811981
0.0914095863699913 -0.4130863845348358 0.030411286279559135
0.08054676651954651 -0.41299203038215637 0.03058077022433281
0.1867760717868805 -0.009733788669109344 0.03100581094622612
-0.09861843287944794 0.34669581055641174 0.13512061536312103
-0.06892389804124832 0.1350036859512329 -0.17999817430973053
0.1362711489200592 0.3154504895210266 0.09684819728136063
-0.17874816060066223 0.0352521650493145 0.05409224331378937
0.03312435746192932 0.06894771009683609 0.19102153182029724
-0.18820136785507202 -0.35187050700187683 0.10065491497516632
0.1220284104347229 -0.011453998275101185 0.18709062039852142
0.03799986466765404 0.5236819386482239 0.08944354206323624
0.20364448428153992 -0.002506301272660494 -0.08913455903530121
0.17775186896324158 0.008469928056001663 -0.16354307532310486
0.0014783143997192383 -0.24113088846206665 -0.17647765576839447
0.18110345304012299 -0.3366241753101349 0.11865518242120743
-0.13908174633979797 0.05072104185819626 0.13531367480754852
0.1806279420852661 0.0685599148273468 0.08200956881046295
-0.07025778293609619 0.5641465187072754 0.00591034721583128
-0.18561601638793945 -0.2561456561088562 -0.1394961178302765
0.02490541711449623 -0.3671487867832184 0.255598247051239
0.09154607355594635 0.511752724647522 0.06736180186271667
0.09997104108333588 0.3623294532299042 0.12844255566596985
0.043296534568071365 -0.4181603193283081 -0.11642412096261978
0.012493915855884552 0.1594175100326538 0.2602267265319824
-0.17871780693531036 -0.08700867742300034 0.08947570621967316
0.1578294336795807 0.37761732935905457 -0.09975358843803406
0.10496502369642258 -0.40699994564056396 0.0007183607667684555
0.12854596972465515 0.21528619527816772 -0.042487241327762604
-0.1214163675904274 0.19786491990089417 0.10846348106861115
-0.08141153305768967 -0.4173283874988556 -0.020801767706871033
-0.1215687245130539 0.19265471398830414 -0.016613982617855072
-0.02715957909822464 0.06301035732030869 -0.18129737675189972
0.08288205415010452 0.29309406876564026 0.21393460035324097
-0.07212740182876587 0.4822103977203369 0.07101941853761673
0.21288475394248962 -0.34029635787010193 -0.12378203868865967
0.17852932214736938 -0.10417915880680084 0.13340140879154205
-0.07640090584754944 0.5233678221702576 0.06593482196331024
0.09740526229143143 -0.049210336059331894 0.2137417048215866
-0.08145803958177567 0.21155263483524323 -0.17256294190883636
-0.2246217280626297 -0.23410259187221527 -0.020854786038398743
-0.06096680462360382 0.4329744577407837 0.0632915124297142
0.026470597833395004 0.40145665407180786 0.17627719044685364
0.08674159646034241 -0.40495091676712036 0.07736633718013763
-0.06321162730455399 0.40291664004325867 -0.1669626086950302
0.14216560125350952 0.14145343005657196 -0.04104720428586006
0.19781255722045898 -0.028902053833007812 -0.15103740990161896
-0.10995614528656006 0.050876833498477936 -0.18150204420089722
0.1272187978029251 0.49784615635871887 -0.060167960822582245
0.13516773283481598 0.35720422863960266 0.006379351019859314
0.06820526719093323 -0.117183156311512 -0.17116937041282654
-0.11976493149995804 0.12128035724163055 0.07774756848812103
0.17281360924243927 0.07978532463312149 0.1018102839589119
0.09794225543737411 0.4410661458969116 0.057627253234386444
-0.1042696014046669 -0.2914694845676422 -0.18217967450618744
-0.1530560702085495 0.37474656105041504 -0.11989474296569824
-0.1749827265739441 0.14817284047603607 -0.12875141203403473
-0.17417998611927032 0.14815491437911987 -0.13540063798427582
0.13003243505954742 0.15322235226631165 0.03700016438961029
-0.09464514255523682 0.2860454320907593 -0.16749094426631927
0.01982172578573227 0.10311195254325867 0.1893310844898224
-0.12448175996541977 0.22902141511440277 0.06015806272625923
-0.18559668958187103 -0.0911494567990303 0.07002200186252594
-0.2064775675535202 0.020002271980047226 -0.14804168045520782
0.06421944499015808 -0.4095441699028015 -0.027658814564347267
0.13606537878513336 0.3957917094230652 -0.024854004383087158
0.09399792551994324 0.4918200969696045 0.07152120769023895
-0.0007624868303537369 0.29822421073913574 -0.17188410460948944
0.12097038328647614 -0.4157496988773346 -0.12672875821590424
-0.06786152720451355 0.5643780827522278 -0.0018465816974639893
-0.12163412570953369 0.5322515964508057 -0.044995930045843124
0.1297176480293274 0.21555384993553162 0.10988347977399826
0.1934816837310791 -0.3752541244029999 0.04888825863599777
0.09593160450458527 -0.4066484272480011 0.0481208935379982
0.03995940089225769 -0.15370896458625793 0.25390902161598206
0.1996545046567917 0.01745881512761116 -0.1189969852566719
0.0689154714345932 0.1384263038635254 0.21831583976745605
0.07109897583723068 -0.21646764874458313 -0.16007931530475616
-0.019429761916399002 0.42946141958236694 0.1193564310669899
-0.11090414971113205 0.5380820631980896 0.009423226118087769
-0.05466504395008087 0.07843182235956192 -0.18174102902412415
-0.14569126069545746 -0.4183487594127655 -0.010689349845051765
0.01869797520339489 0.42312467098236084 0.14281430840492249
-0.1368846744298935 -0.41468346118927 0.11548210680484772
0.20649561285972595 -0.07270587980747223 -0.0771978497505188
-0.05491245910525322 0.17776939272880554 -0.17701542377471924
-0.09378256648778915 0.4756982922554016 0.05674348399043083
-0.025872336700558662 0.17470082640647888 0.25943049788475037
-0.1831975281238556 -0.4108577370643616 0.0658511072397232
0.1630159616470337 -0.13619735836982727 -0.154711052775383
0.0010083764791488647 -0.3342709541320801 -0.1998032182455063
-0.07354161143302917 0.3828897476196289 -0.1669905036687851
0.08157102018594742 0.5662146806716919 -0.005670435726642609
0.13246482610702515 0.4592641294002533 -0.03950076550245285
-0.025279346853494644 -0.185360386967659 -0.16808417439460754
0.10840567946434021 -0.4221738278865814 -0.11758897453546524
-0.07013602554798126 -0.10910964012145996 -0.1755930334329605
-0.07309994846582413 -0.13219748437404633 -0.17476202547550201
-0.1725761741399765 0.14725551009178162 -0.1255912184715271
-0.0919194146990776 -0.365899920463562 0.22092990577220917
