0.10351987183094025 -0.405856192111969 -0.017085999250411987
-0.09834421426057816 0.5616329312324524 -0.13481144607067108
0.2188086211681366 -0.27007609605789185 0.042414359748363495
-0.181376650929451 -0.3931320607662201 -0.18638336658477783
-0.046274248510599136 0.41595837473869324 -0.1683778166770935
0.05708663538098335 0.22029297053813934 0.25187548995018005
-0.03346288949251175 -0.41981855034828186 -0.185836523771286
0.1128305047750473 0.3876548409461975 0.10010455548763275
0.21633246541023254 -0.256605863571167 0.04854468256235123
0.10788385570049286 0.3041079044342041 0.19142085313796997
0.14696717262268066 -0.41684460639953613 -0.1807137429714203
-0.13829974830150604 -0.414578378200531 -0.022848982363939285
-0.047847967594861984 -0.17688867449760437 -0.16833342611789703
0.1931874305009842 -0.41740870475769043 -0.020194994285702705
0.016241280362010002 -0.4202425479888916 -0.19434216618537903
0.005848439410328865 -0.27277201414108276 -0.18329082429409027
-0.06206061691045761 0.3273007571697235 0.22577428817749023
-0.07267395406961441 0.34464317560195923 -0.16837240755558014
-0.01301458477973938 0.5632831454277039 -0.031100675463676453
-0.052643537521362305 0.3206595182418823 -0.17015792429447174
0.05387658625841141 0.17600101232528687 0.259668231010437
0.20702503621578217 -0.07167725265026093 -0.07338030636310577
-0.042164288461208344 -0.0009225606918334961 -0.18164442479610443
0.16566050052642822 -0.4116957187652588 0.06368078291416168
0.07358729839324951 0.5350515246391296 0.06229453161358833
0.013924196362495422 -0.31512534618377686 0.2655216455459595
0.06618458777666092 0.5339646935462952 -0.16445130109786987
-0.030785933136940002 0.010548340156674385 0.2085949182510376
-0.18092481791973114 -0.12795919179916382 0.0956270694732666
0.11969780921936035 0.1268095076084137 0.11866065859794617
0.1546076536178589 -0.015626899898052216 0.15802757441997528
0.13799823820590973 0.13998252153396606 -0.03526557981967926
0.09392488747835159 0.1666172444820404 0.23306156694889069
-0.03087718039751053 0.4335252344608307 -0.16770155727863312
-0.11548994481563568 0.09450095146894455 0.1333523392677307
-0.07679031044244766 0.42798686027526855 -0.1630871444940567
0.20687149465084076 -0.06777423620223999 -0.07570897787809372
0.20136602222919464 -0.37957900762557983 0.017144037410616875
-0.10064492374658585 -0.10741996765136719 -0.1741240918636322
0.15611977875232697 0.3315289616584778 -0.11309819668531418
0.019473042339086533 -0.05599980056285858 0.22835081815719604
-0.21412181854248047 -0.345114141702652 -0.08338247984647751
0.22189657390117645 -0.2420385777950287 0.01831013709306717
0.09357789158821106 -0.13112115859985352 0.23561207950115204
-0.1346151977777481 -0.4131409227848053 -0.02739567868411541
-0.18454720079898834 0.05822562053799629 0.003988057374954224
-0.1894882321357727 -0.1498415321111679 0.005398400127887726
-0.03821570426225662 -0.17475149035453796 -0.1695103943347931
-0.04105227068066597 -0.41587984561920166 -0.11121039092540741
-0.21592779457569122 -0.10786940157413483 -0.10611438006162643
-0.13268662989139557 -0.41020864248275757 -0.013448761776089668
-0.0629424899816513 0.42096251249313354 -0.16505496203899384
0.030489042401313782 0.5663802027702332 -0.09320134669542313
-0.10868196189403534 0.0351414829492569 -0.17974753677845
-0.18282777070999146 0.01602446474134922 0.04709561914205551
0.01939978450536728 0.5417829751968384 0.08829100430011749
0.08839963376522064 -0.41590189933776855 0.03577227145433426
-0.052891023457050323 -0.17185939848423004 0.25478091835975647
0.10043449699878693 -0.17352889478206635 0.24156560003757477
0.20187698304653168 0.014606242999434471 -0.08389227092266083
0.09283959865570068 0.5028514266014099 0.07041814923286438
-0.18209227919578552 0.06876405328512192 0.019801698625087738
-0.181054949760437 0.04728979989886284 0.045919522643089294
0.20899297297000885 -0.21625792980194092 0.0857020765542984
0.07618585228919983 -0.41873329877853394 0.04249460995197296
0.12598156929016113 0.22321218252182007 -0.07224318385124207
-0.016823530197143555 0.37482357025146484 0.23084399104118347
-0.05386482924222946 0.23467902839183807 0.23688526451587677
0.13731151819229126 0.3663465082645416 0.03906228765845299
0.13458944857120514 0.43176305294036865 -0.02800150215625763
-0.02085389569401741 -0.1759495735168457 -0.16835236549377441
0.10609472543001175 0.019762812182307243 0.1848653256893158
0.027421481907367706 0.030963176861405373 0.20195753872394562
0.22374403476715088 -0.26083263754844666 -0.02150837704539299
-0.1006477028131485 0.09643813222646713 0.14582456648349762
-0.12676472961902618 0.41413140296936035 -0.0186321958899498
0.21417973935604095 -0.31665247678756714 -0.019532717764377594
-0.05935876816511154 0.12645147740840912 0.21201971173286438
-0.010816279798746109 -0.1015729308128357 0.23974968492984772
-0.13983890414237976 0.03577854856848717 0.14237470924854279
-0.035862162709236145 0.0691506639122963 -0.18152841925621033
0.21717840433120728 -0.2504239082336426 -0.07785210013389587
-0.1357836276292801 0.27880093455314636 -0.10164500772953033
0.029102185741066933 0.3952832818031311 0.18586263060569763
-0.10802564024925232 -0.012228995561599731 0.18441270291805267
0.017858635634183884 -0.4254007041454315 -0.18473905324935913
-0.12212242931127548 0.46990957856178284 0.03512175753712654
0.19458304345607758 -0.39853787422180176 0.017369886860251427
0.05533421412110329 0.3066238462924957 0.2252691686153412
-0.12565360963344574 0.2658173739910126 -0.03411254286766052
-0.058965593576431274 0.394824355840683 -0.16785971820354462
-0.1702899932861328 -0.4129110276699066 -0.1861516535282135
-0.12582406401634216 0.2418997883796692 -0.019220158457756042
0.08573926985263824 -0.4108179807662964 0.18728262186050415
-0.18396800756454468 -0.10729280114173889 -0.17044147849082947
-0.036890946328639984 0.07548604905605316 -0.18054485321044922
0.09105852991342545 -0.12664853036403656 0.2385583072900772
0.034725748002529144 0.39682459831237793 0.17112603783607483
0.18548652529716492 0.015972036868333817 0.018320465460419655
0.01875115931034088 -0.036032043397426605 0.2229807823896408
0.21493388712406158 -0.3328005373477936 -0.0477474145591259
0.21646854281425476 -0.38631606101989746 -0.09029513597488403
0.04585016518831253 -0.3573022484779358 0.26069125533103943
0.12926006317138672 0.44911617040634155 -0.1631239801645279
-0.2078273892402649 -0.39863288402557373 0.046631820499897
-0.1328347623348236 -0.022877726703882217 0.1670004427433014
0.1347060650587082 0.2821590304374695 0.027179662138223648
-0.1946820318698883 -0.4108703136444092 0.0673278421163559
0.1404644250869751 0.43644365668296814 -0.158985897898674
-0.0987544134259224 0.04284399002790451 -0.1802792251110077
-0.21345695853233337 -0.29055824875831604 0.05955991894006729
-0.12591992318630219 0.28662246465682983 0.12071632593870163
-0.12166256457567215 0.526085376739502 -0.07438725978136063
-0.10494590550661087 0.5544207692146301 -0.011713441461324692
0.20034775137901306 -0.411140114068985 -0.021937433630228043
-0.1080247163772583 -0.3456333875656128 0.22656109929084778
0.1521872729063034 -0.09899088740348816 0.1855791211128235
0.1837829053401947 -0.17428812384605408 0.12822771072387695
0.13430874049663544 -0.4122146666049957 -0.04516344889998436
-0.022104106843471527 -0.09895534813404083 0.2402491569519043
-0.014798371121287346 0.3832939565181732 0.2177150547504425
-0.18583883345127106 -0.04615145921707153 0.06460878998041153
0.1612292230129242 0.04043187201023102 0.13146410882472992
0.20222796499729156 0.08316966891288757 -0.10207147151231766
-0.1393747329711914 0.28017497062683105 -0.11795145273208618
0.1044314056634903 -0.4174557030200958 -0.10986161231994629
0.2179124504327774 -0.38197576999664307 -0.12593109905719757
0.05010893940925598 -0.35851147770881653 0.2558239996433258
-0.1949743628501892 -0.4158995449542999 -0.034137945622205734
0.21224643290042877 -0.33524107933044434 -0.11233019828796387
0.02539295330643654 -0.1986028552055359 -0.16162995994091034
0.07815323024988174 -0.022431310266256332 0.20627941191196442
-0.1818028688430786 -0.0038153950590640306 0.06232164427638054
-0.09236041456460953 -0.3469586670398712 -0.20150308310985565
-0.0938829630613327 -0.4144193232059479 -0.075803242623806
-0.1879129707813263 -0.03144514560699463 -0.17313893139362335
0.13430340588092804 0.44782277941703796 -0.041838906705379486
0.20195749402046204 0.07124454528093338 -0.10492215305566788
-0.20903870463371277 -0.15054717659950256 -0.14963488280773163
-0.1088341772556305 -0.29007357358932495 -0.1822480708360672
0.12916934490203857 0.49015381932258606 0.002072881907224655
-0.17958490550518036 0.07990758121013641 0.03942158818244934
0.1688692718744278 -0.4165111184120178 -0.030780529603362083
-0.05709359794855118 0.4566950500011444 -0.16567601263523102
0.15373219549655914 0.29663485288619995 -0.12223804742097855
-0.020486101508140564 0.4096047878265381 0.14478625357151031
-0.07460469007492065 0.4426034986972809 -0.16540870070457458
0.08783706277608871 -0.4136958122253418 0.03103628382086754
0.08050192892551422 0.16406682133674622 -0.17222224175930023
0.12035854160785675 -0.4106253683567047 0.056719373911619186
0.15150156617164612 -0.22987477481365204 -0.13921906054019928
0.20772942900657654 -0.3964400291442871 -0.03740736097097397
0.1735253483057022 -0.2158004343509674 -0.13344806432724
-0.19741582870483398 0.03190448880195618 -0.049045950174331665
0.1257023811340332 0.18209712207317352 0.08788865804672241
0.087492436170578 -0.13389408588409424 0.23919349908828735
-0.019320961087942123 0.12783142924308777 0.22726008296012878
0.20310549437999725 -0.01654009521007538 -0.03983020782470703
0.20464347302913666 0.038544125854969025 -0.11126910150051117
-0.1187567338347435 0.5450692176818848 -0.07830789685249329
0.19422434270381927 -0.4165138602256775 -0.021712839603424072
-0.12336380034685135 0.5088345408439636 -0.06131258234381676
0.19572147727012634 -0.37946248054504395 0.035580962896347046
-0.12738557159900665 0.3595793843269348 -0.016127530485391617
0.08626689016819 -0.2384011596441269 -0.1640496850013733
-0.08797722309827805 0.0974900871515274 0.15399737656116486
-0.1778893917798996 -0.3412894308567047 0.14532047510147095
-0.06899159401655197 -0.30325886607170105 -0.1915149986743927
0.12075448036193848 -0.4139077365398407 0.13416141271591187
-0.02743101865053177 0.4344073534011841 -0.16693802177906036
-0.19596222043037415 -0.41047748923301697 -0.17830246686935425
-0.20284736156463623 0.11840475350618362 -0.1393987536430359
-0.0589800663292408 0.5625578761100769 -9.746849536895752e-05
0.13147900998592377 0.33038854598999023 0.0010904744267463684
-0.20077821612358093 -0.4101831614971161 0.05933964252471924
0.18448564410209656 -0.05278090387582779 0.08618888258934021
0.136638805270195 0.3836739957332611 -0.02520889788866043
0.13569766283035278 0.38469618558883667 0.01360303908586502
-0.05315260589122772 0.3567655086517334 -0.16854359209537506
0.08539421856403351 0.06343129277229309 -0.1727519929409027
-0.185102179646492 -0.023006808012723923 0.057180263102054596
0.13277266919612885 0.4645179510116577 0.0058425962924957275
-0.20688338577747345 0.0314909927546978 -0.13467472791671753
-0.09342128783464432 0.39564475417137146 0.08578235656023026
-0.17715799808502197 -0.11550334841012955 -0.17207400500774384
0.14243094623088837 0.05614607781171799 0.14776664972305298
0.21080058813095093 -0.28075093030929565 0.0794798955321312
0.09530182182788849 -0.41172435879707336 0.04390493035316467
-0.12615282833576202 0.42071372270584106 0.03147146478295326
-0.03392362967133522 -0.4169626533985138 -0.12887412309646606
0.21795915067195892 -0.2323889583349228 0.06123195216059685
0.20284506678581238 -0.003767622634768486 -0.07129793614149094
-0.13330407440662384 0.1328599452972412 -0.025881100445985794
0.16352227330207825 -0.4195607304573059 -0.1030377522110939
0.14009469747543335 -0.39508944749832153 0.16402098536491394
-0.09356658905744553 -0.4195670783519745 -0.11236822605133057
0.08752372860908508 -0.07896926999092102 0.22326436638832092
-0.027550995349884033 -0.41647982597351074 -0.12236405164003372
0.18232782185077667 0.13867796957492828 -0.07056500762701035
0.10083597898483276 -0.07996345311403275 0.2188216745853424
-0.03971361368894577 0.19824767112731934 0.2594645619392395
0.09810731559991837 0.2556160092353821 -0.16419361531734467
0.1412329226732254 0.13082978129386902 0.023863330483436584
0.08234953135251999 -0.2795415222644806 -0.17746175825595856
-0.0795481875538826 0.47294551134109497 0.06772708892822266
0.06536132842302322 0.1800568848848343 0.25772130489349365
-0.21622321009635925 -0.36806046962738037 -0.05662922561168671
-0.053384196013212204 0.3432513475418091 -0.16864940524101257
0.08168824017047882 -0.03887287154793739 0.20679834485054016
-0.12722568213939667 0.4607783555984497 -0.029514256864786148
-0.13840162754058838 0.27751654386520386 -0.12528133392333984
0.051325101405382156 -0.4119551479816437 0.23820072412490845
0.1320057213306427 0.333424836397171 -0.0024556145071983337
-0.009512096643447876 -0.3191646933555603 0.26508069038391113
0.19670574367046356 -0.07812309265136719 -0.14136460423469543
-0.046360231935977936 -0.18462686240673065 -0.16853560507297516
-0.04764065891504288 0.1806296706199646 -0.17784206569194794
0.21250738203525543 -0.35027241706848145 -0.046788472682237625
0.0885201245546341 -0.41196325421333313 -0.01938006468117237
0.18356502056121826 -0.4081133306026459 0.04008021950721741
-0.03763653337955475 -0.18257832527160645 -0.16866207122802734
0.20029139518737793 0.08970554918050766 -0.13577784597873688
0.21820031106472015 -0.25390949845314026 0.04509824886918068
-0.0953841507434845 -0.35397034883499146 0.22852694988250732
-0.14542332291603088 0.02518327534198761 -0.1781645119190216
0.161018967628479 -0.3634972870349884 -0.1877872347831726
0.15567949414253235 -0.14277216792106628 0.19786563515663147
-0.1784055382013321 -0.11464512348175049 0.10757814347743988
0.19789132475852966 -0.2622830867767334 -0.11113454401493073
0.009850278496742249 0.5654709935188293 -0.0007264073938131332
-0.06968934088945389 0.4415132701396942 0.05510123819112778
-0.005759702995419502 0.38039451837539673 0.2278667539358139
-0.21960502862930298 -0.15756526589393616 -0.10131894797086716
-0.1319340318441391 0.09633053839206696 -0.17632529139518738
-0.11809346824884415 -0.41450563073158264 0.13391926884651184
-0.08383673429489136 0.34382790327072144 0.14339765906333923
-0.19036424160003662 -0.416848361492157 -0.04776274785399437
0.12723056972026825 -0.4078851640224457 -0.022364120930433273
-0.18692418932914734 -0.04523429274559021 -0.17215596139431
-0.1661689281463623 -0.00430270005017519 0.10521940886974335
0.12325362116098404 0.18030864000320435 0.1950123906135559
-0.016193635761737823 -0.12175513803958893 -0.17452594637870789
-0.032414548099040985 0.43016552925109863 -0.16740354895591736
-0.12459217011928558 0.06792615354061127 0.1464698761701584
-0.04347763955593109 0.3249081075191498 -0.1702091246843338
-0.01288355141878128 -0.41489312052726746 -0.025890948250889778
-0.11225008964538574 -0.4222217798233032 -0.14606942236423492
0.09192588925361633 -0.27586373686790466 -0.17501716315746307
-0.1840618997812271 0.010205630213022232 0.006763432174921036
-0.12623535096645355 0.13602733612060547 -0.02297617495059967
0.15859806537628174 0.36170506477355957 -0.0865725427865982
-0.10121962428092957 -0.417953759431839 -0.12877610325813293
-0.16084548830986023 0.1362704485654831 -0.06480465829372406
0.22270679473876953 -0.2528965473175049 -0.0064378827810287476
0.11078085005283356 -0.41888856887817383 -0.11564739048480988
0.12617862224578857 0.47539612650871277 0.03563365712761879
-0.21063797175884247 -0.29009807109832764 0.06687469035387039
0.21335016191005707 -0.3806091845035553 -0.06105206161737442
-0.043829016387462616 -0.19702748954296112 0.2625764012336731
-0.1730087250471115 -0.21237143874168396 -0.1552640199661255
0.10024837404489517 -0.4091278314590454 -0.03862153738737106
-0.09690310060977936 0.07676567882299423 -0.1804019659757614
-0.21846777200698853 -0.14769180119037628 -0.06825941801071167
0.12803851068019867 0.22444359958171844 0.18232347071170807
-0.20646101236343384 0.02060505375266075 -0.10592992603778839
-0.12555073201656342 0.2506985068321228 -0.09175986796617508
-0.1482662409543991 0.12503743171691895 -0.023126479238271713
0.2197699397802353 -0.2713776230812073 -0.07606006413698196
0.058711886405944824 0.18332642316818237 0.25839245319366455
-0.12272229045629501 0.4437714219093323 -0.05418672412633896
-0.062098510563373566 -0.20011858642101288 -0.1622939258813858
-0.1289646327495575 0.31627127528190613 -0.0292145274579525
-0.08872872591018677 0.006431328132748604 0.19203339517116547
-0.11712414026260376 0.4398120939731598 -0.15915049612522125
0.13343681395053864 0.27816805243492126 0.01343739777803421
-0.12571492791175842 0.22936570644378662 0.06307685375213623
-0.17642848193645477 -0.3891258239746094 -0.18741782009601593
-0.12718120217323303 -0.41786476969718933 -0.11742402613162994
0.20619046688079834 -0.30075523257255554 -0.10502180457115173
0.13332588970661163 0.17540305852890015 -0.12256035208702087
-0.18117494881153107 -0.24358773231506348 -0.14592310786247253
0.22108954191207886 -0.3771754801273346 -0.11734679341316223
-0.030187148600816727 -0.19133785367012024 -0.16795934736728668
-0.1260906159877777 -0.31743112206459045 -0.18591660261154175
-0.19528837502002716 -0.2843477427959442 0.11452418565750122
-0.1416417360305786 0.10405482351779938 0.07290632277727127
0.1367265284061432 0.3168342709541321 0.04937099665403366
-0.12508007884025574 0.48226699233055115 -0.058160170912742615
-0.07435770332813263 0.1520494669675827 0.2331179976463318
0.10536672919988632 -0.4130783677101135 0.018684295937418938
0.18563613295555115 0.10238036513328552 0.0435941219329834
-0.10211153328418732 -0.09231336414813995 0.21060502529144287
-0.1329812854528427 -0.19032111763954163 0.21244782209396362
-0.06924866884946823 0.06705032289028168 -0.18094296753406525
0.08407105505466461 -0.4188912510871887 0.03493756800889969
-0.060215454548597336 -0.12625651061534882 -0.17531704902648926
-0.08820750564336777 0.5499042868614197 0.029491940513253212
-0.20520605146884918 0.008715666830539703 -0.14172352850437164
-0.030497059226036072 0.4385495185852051 -0.16624057292938232
0.20550423860549927 -0.3891405165195465 -0.023739999160170555
0.06915722042322159 0.1128740981221199 -0.17434528470039368
-0.052150122821331024 0.36525893211364746 0.13554754853248596
0.1840548813343048 0.03467310220003128 0.06888150423765182
-0.18496693670749664 -0.020020099356770515 0.059217505156993866
-0.12503163516521454 0.2201722115278244 0.06467894464731216
-0.06419085711240768 0.1801069676876068 0.25168377161026
0.14137525856494904 -0.15176358819007874 -0.1585291475057602
-0.03895316272974014 0.4262920320034027 -0.1685793548822403
-0.1878240704536438 -0.008927246555685997 -0.01697617955505848
-0.18085260689258575 0.024897392839193344 -0.17494496703147888
0.1564081460237503 0.40296676754951477 -0.09515946358442307
0.12671709060668945 0.20028969645500183 -0.11647722125053406
-0.18338942527770996 -0.4183448255062103 -0.05542498081922531
0.11776566505432129 0.04837813600897789 0.1688908338546753
0.04345661774277687 -0.37951797246932983 -0.20233304798603058
-0.0942213237285614 0.28216826915740967 0.20232756435871124
-0.0542781725525856 0.3220173120498657 0.22492463886737823
0.22266726195812225 -0.22844570875167847 -0.06448748707771301
-0.2033466398715973 0.041803888976573944 -0.08015204966068268
-0.002004142850637436 0.5657939314842224 0.0013590604066848755
-0.02216978743672371 0.43840697407722473 -0.16769978404045105
0.0640452578663826 0.29710108041763306 -0.1705588847398758
0.1272919774055481 0.10485631227493286 0.1324707269668579
0.1451776623725891 -0.4163634777069092 -0.08470405638217926
-0.07870928943157196 -0.05519142001867294 0.21389761567115784
0.19997581839561462 -0.320940762758255 0.06248796731233597
-0.1832415908575058 -0.41647806763648987 -0.02479052171111107
0.04811052978038788 -0.41376441717147827 0.04125289246439934
-0.19275563955307007 -0.41508686542510986 -0.16863425076007843
-0.08692236989736557 -0.42084044218063354 -0.112801194190979
0.17613252997398376 -0.09886832535266876 0.14182889461517334
0.11828910559415817 0.5411756634712219 -0.02525545284152031
0.13933469355106354 0.06519941985607147 0.14830942451953888
0.0652884989976883 0.16931550204753876 0.2566140294075012
-0.1268770396709442 0.33886659145355225 0.056238844990730286
0.08359406888484955 -0.4155803918838501 0.03716328740119934
0.18708162009716034 -0.14647045731544495 0.07896150648593903
-0.1525706648826599 -0.035478685051202774 -0.17564022541046143
0.12618480622768402 0.1594824343919754 -0.050675131380558014
-0.20382197201251984 -0.4134395122528076 -0.014829881489276886
-0.15771788358688354 0.11755544692277908 -0.006369702517986298
-0.017876815050840378 -0.12441885471343994 0.24685196578502655
0.14523771405220032 0.34144628047943115 -0.14649653434753418
0.13132911920547485 -0.39337363839149475 0.17716926336288452
-0.09199611842632294 -0.41915902495384216 -0.11418242752552032
0.014808472245931625 0.26562657952308655 0.2344154566526413
0.22408312559127808 -0.2550886273384094 -0.04275853931903839
0.22344937920570374 -0.2558765113353729 -0.053893350064754486
-0.12371460348367691 0.17185159027576447 -0.10698199272155762
0.16643014550209045 -0.20650117099285126 -0.1393006145954132
-0.1656833291053772 -0.17608614265918732 0.16112938523292542
0.08965291827917099 -0.41193217039108276 0.030425280332565308
-0.03630875051021576 0.441153883934021 0.06955317407846451
0.08233638107776642 -0.41639402508735657 0.03628973662853241
-0.12162145972251892 -0.09467770904302597 -0.1738433688879013
0.20174506306648254 0.08707454055547714 -0.10326924920082092
0.13578660786151886 0.4495629370212555 -0.035810962319374084
0.17280732095241547 -0.22079287469387054 -0.1331520527601242
0.04255685582756996 -0.40141722559928894 0.2521688938140869
-0.1765231043100357 -0.41585493087768555 0.014075301587581635
-0.11176018416881561 0.07122095674276352 -0.18081969022750854
0.21017996966838837 -0.0994025394320488 -0.05123908445239067
0.19109147787094116 0.13683995604515076 -0.12244486808776855
-0.21985894441604614 -0.17270635068416595 -0.1055334210395813
0.05417691916227341 -0.4090568423271179 0.035634204745292664
0.005773190408945084 0.20941974222660065 -0.17588257789611816
-0.08093017339706421 -0.12298932671546936 -0.1755273938179016
0.22265639901161194 -0.2400931715965271 0.007598884403705597
0.06629648804664612 0.17589908838272095 0.25886550545692444
-0.069607213139534 -0.06883243471384048 -0.1779659539461136
0.13964015245437622 -0.4122288227081299 0.14146453142166138
0.01615826040506363 0.20798714458942413 -0.1748078167438507
-0.06584061682224274 -0.15223509073257446 -0.173182412981987
-0.022552210837602615 -0.18250922858715057 -0.1680082380771637
0.10849233716726303 0.16288381814956665 0.21542321145534515
-0.019210638478398323 0.5029778480529785 0.09417716413736343
0.10871752351522446 0.13611114025115967 0.1530383825302124
0.1330285370349884 -0.40738344192504883 -0.19543993473052979
-0.08166468143463135 0.09590601921081543 0.15883664786815643
0.03237393870949745 0.4452459514141083 0.09859578311443329
-0.035696741193532944 -0.0411541648209095 0.22305083274841309
0.09181781113147736 -0.41630131006240845 -0.11582089960575104
-0.21405598521232605 -0.08846966922283173 -0.1214040145277977
0.05836823955178261 -0.18580876290798187 0.26044735312461853
0.11801177263259888 -0.18230266869068146 0.23882265388965607
0.09090443700551987 0.5697313547134399 -0.08000651001930237
0.2168090045452118 -0.2942715585231781 0.03561559319496155
-0.1087435632944107 -0.27543607354164124 -0.17579807341098785
-0.00636875256896019 -0.4174187183380127 0.1025150790810585
0.07337574660778046 -0.4165218770503998 -0.13798251748085022
0.03705597668886185 0.21346864104270935 0.2580712139606476
-0.1291790008544922 0.3540264964103699 0.02113475650548935
0.044101398438215256 -0.42634522914886475 -0.17656955122947693
-0.20402251183986664 0.06116606295108795 -0.10191616415977478
-0.17926907539367676 -0.15601834654808044 0.09346078336238861
-0.017318006604909897 -0.41432324051856995 -0.023273762315511703
0.1109129935503006 -0.1522131860256195 0.23797744512557983
-0.21148446202278137 -0.07338914275169373 -0.1410772204399109
0.01512138918042183 0.5643083453178406 0.027567483484745026
-0.20318341255187988 0.00044044479727745056 -0.15876293182373047
-0.09452459961175919 0.2812807559967041 0.20066611468791962
-0.08389770239591599 0.146561861038208 -0.1779019981622696
-0.03301496058702469 0.5615995526313782 0.012530582956969738
0.06270621716976166 0.5657662153244019 -0.09287265688180923
0.19932278990745544 0.11113554984331131 -0.07756642997264862
0.035379402339458466 -0.1830338090658188 -0.1616412252187729
-0.11918652057647705 -0.412310928106308 -0.2006940096616745
-0.22726957499980927 -0.3030925691127777 -0.04000748693943024
-0.010596268810331821 0.39034974575042725 0.20139946043491364
-0.021321484819054604 0.563815712928772 -0.08819462358951569
0.12335097044706345 0.10044937580823898 0.1370825469493866
-0.03697016462683678 0.02260497584939003 0.20336000621318817
-0.13264718651771545 -0.41434335708618164 0.15139605104923248
-0.07209062576293945 -0.42178669571876526 -0.1707446128129959
-0.043053269386291504 -0.06621000170707703 -0.17943771183490753
0.11366146057844162 -0.2577941119670868 -0.16569118201732635
-0.15542162954807281 -0.42058664560317993 -0.13973411917686462
-0.1597711592912674 -0.37281063199043274 -0.19029827415943146
0.20809420943260193 -0.09578506648540497 -0.096983902156353
-0.09529364109039307 0.08355452865362167 0.15996205806732178
0.048449791967868805 -0.4159186780452728 0.22381573915481567
0.11225681006908417 0.15040582418441772 0.16996614634990692
-0.008088573813438416 -0.2720809280872345 0.2614313066005707
0.06313449144363403 -0.4166291654109955 -0.15465107560157776
-0.04081381484866142 0.18192851543426514 -0.17747728526592255
0.22340495884418488 -0.2522280216217041 -0.03542821854352951
-0.09923027455806732 0.3501977026462555 -0.1647718846797943
0.15991070866584778 0.3306730389595032 -0.08445893228054047
-0.06534551084041595 -0.4140547513961792 -0.09589221328496933
-0.15806031227111816 0.0870184674859047 0.07094383984804153
-0.18325044214725494 0.14449739456176758 -0.12193956971168518
-0.12002488970756531 0.19949206709861755 0.16684256494045258
-0.03837687894701958 0.44088420271873474 -0.16599775850772858
0.12743903696537018 0.1775175929069519 0.03920959308743477
-0.07947278022766113 -0.4185718595981598 -0.0443948358297348
-0.06535548716783524 0.33823254704475403 0.17226287722587585
0.1667461097240448 -0.415333092212677 -0.035966306924819946
-0.1474376916885376 0.039960965514183044 0.1331447958946228
-0.052712444216012955 -0.18294084072113037 0.2598976790904999
-0.11648458242416382 -0.1944984495639801 0.22818419337272644
-0.08662068098783493 0.029491454362869263 -0.18018092215061188
0.020548924803733826 0.0812416523694992 0.1885799914598465
0.04161820560693741 -0.3444896638393402 0.2616100311279297
-0.03589990735054016 0.022364400327205658 -0.18156154453754425
-0.1541241556406021 -0.41424673795700073 0.07300207763910294
0.0038926266133785248 0.07776747643947601 0.19096079468727112
-0.012950554490089417 0.32430484890937805 -0.1724061667919159
0.0953219085931778 -0.40900325775146484 0.022885430604219437
0.22295178472995758 -0.2613511383533478 0.0024774912744760513
0.04236319661140442 -0.4139944314956665 0.22963978350162506
-0.18199752271175385 0.025487830862402916 0.05066691339015961
0.20890071988105774 -0.36702701449394226 -0.02324485406279564
0.08146016299724579 0.2280222326517105 0.2397792786359787
0.10271909832954407 -0.06282705813646317 0.21392501890659332
0.100746288895607 -0.40350958704948425 -0.033032603561878204
-0.21992479264736176 -0.15463367104530334 -0.07920189946889877
0.12872420251369476 -0.41853082180023193 -0.10526061058044434
0.10644923150539398 -0.4204190671443939 -0.11946581304073334
0.11895664036273956 -0.417542040348053 -0.12593594193458557
0.1337539404630661 0.45736002922058105 -0.03265474736690521
0.18218713998794556 0.037757374346256256 0.07917331904172897
-0.13596200942993164 -0.16852837800979614 0.20339275896549225
0.13712048530578613 0.33857637643814087 0.04649144038558006
0.03951839730143547 0.4271372854709625 0.11251247674226761
0.0481722429394722 0.13142314553260803 -0.17410172522068024
0.07088655233383179 0.3467598259449005 0.17212404310703278
0.027737414464354515 0.3982934057712555 0.18221358954906464
0.18263864517211914 -0.18214324116706848 0.1411009132862091
0.18767625093460083 -0.018131565302610397 0.04126686602830887
-0.015086868777871132 -0.1785314679145813 -0.16663292050361633
0.11268310248851776 -0.1999358981847763 0.24433957040309906
-0.03087666444480419 0.24039877951145172 0.2384154498577118
0.08370771259069443 0.5704536437988281 -0.08664815127849579
-0.02193184196949005 0.08057685941457748 0.18897397816181183
0.08082892745733261 -0.416755348443985 0.04084550589323044
-0.20115387439727783 -0.35667479038238525 0.0654367133975029
-0.09203669428825378 0.5577566623687744 -0.15380451083183289
-0.13377395272254944 0.03923972323536873 0.1496810019016266
0.10997487604618073 -0.4102709889411926 -0.0399353988468647
-0.1569150686264038 -0.4110335409641266 0.08909393846988678
0.12666074931621552 0.2015015184879303 -0.028491780161857605
-0.18836714327335358 -0.26739516854286194 0.13300271332263947
-0.22408193349838257 -0.30286744236946106 0.01142026111483574
-0.18569360673427582 -0.08520637452602386 0.06516896188259125
0.030580928549170494 0.36399906873703003 0.2476070523262024
0.13273558020591736 0.2510834038257599 0.0799548327922821
0.13887766003608704 -0.4159475564956665 -0.1541842669248581
0.09498265385627747 0.251730352640152 0.22762365639209747
0.15591812133789062 -0.1291547417640686 0.19305159151554108
0.032585009932518005 0.3766624927520752 0.22719836235046387
-0.19918303191661835 -0.15922079980373383 -0.009664880111813545
0.21358808875083923 -0.22254961729049683 0.07116323709487915
-0.11907896399497986 0.1809392124414444 0.14441779255867004
0.03874712437391281 0.17320311069488525 0.2626831531524658
-0.1363522857427597 -0.4130185842514038 0.036171235144138336
0.02956484630703926 -0.30467209219932556 -0.18939536809921265
-0.03379425033926964 0.3649882972240448 0.2165660411119461
-0.06387767940759659 0.5332688093185425 -0.15986105799674988
-0.20080024003982544 -0.41052135825157166 0.045509375631809235
-0.11763890087604523 0.20719045400619507 0.17590628564357758
-0.16273324191570282 -0.026214584708213806 0.12188650667667389
0.07753147184848785 -0.41975414752960205 0.0462866947054863
0.06668692827224731 0.5694170594215393 -0.09967032074928284
0.13351410627365112 0.4289592504501343 -0.013218775391578674
-0.018663713708519936 0.24944691359996796 -0.17391429841518402
-0.08134499937295914 0.18088604509830475 -0.17566107213497162
0.01359507441520691 -0.42386487126350403 -0.18982134759426117
-0.2095487117767334 -0.34946683049201965 -0.1335562765598297
-0.07500642538070679 -0.41297104954719543 0.16783598065376282
-0.13375476002693176 -0.4204522371292114 -0.17674347758293152
-0.16276028752326965 0.1566190868616104 -0.14795570075511932
-0.12091585993766785 0.19022804498672485 0.12062063068151474
0.027599837630987167 0.2070891559123993 -0.1741751879453659
-0.19101177155971527 -0.2131388783454895 0.11974756419658661
-0.07166017591953278 0.00556037575006485 -0.18117448687553406
-0.04785217344760895 -0.02318325638771057 -0.17984306812286377
0.04102783277630806 0.30478647351264954 0.23034882545471191
0.13427981734275818 -0.34355753660202026 -0.18918202817440033
0.1814766228199005 -0.15561844408512115 0.12020120769739151
0.12961024045944214 -0.32783445715904236 -0.18213790655136108
-0.2061503827571869 0.011722013354301453 -0.1259814202785492
0.018122056499123573 0.5079246163368225 0.10360245406627655
-0.12430524826049805 0.22402611374855042 0.1166549026966095
0.13535596430301666 0.3332604467868805 -0.03594505786895752
-0.11833249777555466 0.5162987112998962 0.008826978504657745
-0.1195068508386612 -0.41605785489082336 -0.1892930567264557
-0.12090402841567993 0.1983674168586731 0.13963711261749268
0.1827470064163208 0.07800006121397018 -0.004149097949266434
-0.035225704312324524 0.5612751841545105 0.014216509647667408
0.02053901180624962 0.2155008167028427 0.2615424692630768
0.14404794573783875 -0.41390469670295715 -0.18658658862113953
-0.1268516480922699 0.29063719511032104 0.06197331100702286
-0.01602037623524666 -0.41758984327316284 -0.19412721693515778
0.04229751229286194 -0.4146443009376526 0.22580674290657043
-0.13284437358379364 0.37674760818481445 -0.06783299893140793
0.16341178119182587 -0.17358019948005676 -0.1473170518875122
-0.12650446593761444 0.29382187128067017 -0.022135283797979355
0.21667367219924927 -0.2921496331691742 0.04172845929861069
0.21630388498306274 -0.3837541937828064 -0.12855803966522217
0.011364747770130634 0.22910231351852417 0.2576915919780731
-0.18891678750514984 -0.38784119486808777 -0.1785527616739273
0.10503485053777695 0.05612775683403015 0.17365892231464386
-0.12819804251194 0.44558972120285034 -0.07787002623081207
0.21981096267700195 -0.2726338803768158 0.042405690997838974
-0.12854143977165222 0.3120535910129547 0.036379165947437286
-0.0827016830444336 0.5119068622589111 0.06574030220508575
0.031914692372083664 -0.12757521867752075 0.2483551949262619
0.0950949639081955 0.04157637059688568 0.18182064592838287
-0.1666134148836136 -0.1734965741634369 0.15733060240745544
0.1666915863752365 -0.3746490478515625 0.12038613110780716
0.1168055534362793 -0.4211929440498352 -0.12397896498441696
0.041777390986680984 0.43669945001602173 0.10106275975704193
-0.12405034899711609 0.22170332074165344 0.11922969669103622
0.1243019700050354 -0.4150913655757904 0.12604054808616638
0.09948326647281647 -0.41863495111465454 -0.14951364696025848
-0.016765303909778595 -0.3535471260547638 0.2603522539138794
0.1856050044298172 -0.01878228411078453 0.01337030716240406
-0.21894881129264832 -0.14244547486305237 -0.09878851473331451
-0.12198902666568756 0.23308230936527252 -0.10703953355550766
0.2002689391374588 0.08644638955593109 -0.09088517725467682
0.1684969961643219 0.030546952039003372 0.12014427781105042
-0.03761998564004898 -0.4155721068382263 -0.16894614696502686
-0.21585717797279358 -0.2010740339756012 0.018480345606803894
-0.18865562975406647 -0.4125513434410095 0.04878821223974228
-0.2082851678133011 -0.07165674865245819 -0.04531984031200409
0.045226406306028366 0.5414892435073853 0.07687248289585114
0.14314903318881989 0.052517302334308624 0.1480681151151657
0.20964162051677704 -0.1102963238954544 -0.07434927672147751
0.14834965765476227 0.0490104965865612 -0.16885176301002502
0.0972154289484024 0.27836886048316956 0.20484411716461182
-0.0065644532442092896 -0.1880255490541458 -0.1662309616804123
0.1366732120513916 0.45076125860214233 -0.15882064402103424
-0.13403087854385376 0.27064892649650574 -0.1244196817278862
0.13177911937236786 0.47421765327453613 -0.021275870501995087
0.16414904594421387 -0.1993613839149475 -0.1416337937116623
-0.03618675097823143 -0.4134242534637451 -0.20082707703113556
0.19972622394561768 -0.3771672546863556 0.024817712604999542
0.09127677232027054 -0.40590623021125793 0.05239008367061615
0.12164085358381271 0.5195339322090149 0.01720365136861801
-0.034772805869579315 -0.19139337539672852 -0.16711945831775665
0.16733233630657196 -0.4192313253879547 -0.16330519318580627
0.05496829375624657 -0.4124980866909027 0.03781265765428543
-0.0810665711760521 0.551718533039093 0.026865798979997635
0.20820841193199158 -0.31799405813217163 -0.10724741220474243
-0.13602225482463837 0.02814372628927231 0.14958392083644867
0.08721362054347992 -0.41124552488327026 0.032125405967235565
0.1849553883075714 0.0029477328062057495 0.02114977315068245
-0.019543401896953583 0.3734738826751709 0.22143468260765076
0.13852140307426453 0.13680315017700195 0.025042906403541565
-0.1308077871799469 0.4482712149620056 -0.08390279114246368
-0.04191971197724342 -0.17984576523303986 -0.16729123890399933
-0.1570429503917694 -0.415836900472641 0.012176421470940113
-0.06210809946060181 0.004818165674805641 0.20502837002277374
-0.062427058815956116 -0.416460782289505 -0.1456516832113266
-0.1592601090669632 -0.4209432005882263 -0.16804629564285278
0.07963646203279495 0.14737875759601593 0.22866390645503998
0.22354154288768768 -0.23230215907096863 -0.013951772823929787
-0.21910199522972107 -0.2510142922401428 0.023708175867795944
-0.2153695672750473 -0.11266817152500153 -0.08261848241090775
-0.0537736639380455 0.4244216978549957 -0.16648748517036438
-0.18533287942409515 -0.09803133457899094 0.06933464109897614
0.20146122574806213 -0.3010171949863434 0.08781814575195312
-0.0670703798532486 0.44054919481277466 -0.16474133729934692
-0.12657774984836578 0.24696429073810577 -0.03179970756173134
-0.07767954468727112 0.34143245220184326 -0.1685371696949005
0.11246295273303986 -0.4248928725719452 -0.12293626368045807
0.031092971563339233 0.33146148920059204 -0.17116428911685944
-0.12504534423351288 0.24634596705436707 0.1136167049407959
0.11976209282875061 0.4683777391910553 -0.15954472124576569
0.174112468957901 -0.4172481596469879 -0.03822106868028641
0.20349635183811188 -0.20161335170269012 0.10109800100326538
0.017539724707603455 -0.3143734633922577 0.2685135006904602
0.05174526572227478 0.2567940354347229 0.2325337678194046
0.2056349217891693 -0.04599021375179291 -0.0536620058119297
-0.07121002674102783 -0.10576965659856796 0.2297762930393219
0.1382155418395996 -0.31603682041168213 0.2099156528711319
0.00031928718090057373 0.5651302337646484 -0.018964659422636032
-0.021791812032461166 0.3910055160522461 0.1877477616071701
0.12015173584222794 0.02458558976650238 -0.17144258320331573
-0.2127368301153183 -0.20782281458377838 0.052347443997859955
0.09319888055324554 -0.09352301061153412 0.223763570189476
0.21233603358268738 -0.24494081735610962 0.07213897258043289
-7.39656388759613e-05 -0.260962575674057 0.26228320598602295
0.13576652109622955 0.30454349517822266 0.03734598681330681
0.13668476045131683 0.31973251700401306 0.08404755592346191
0.21133606135845184 -0.3394750654697418 -0.12087352573871613
-0.03995108976960182 0.3731907308101654 0.13622330129146576
-0.028750699013471603 -0.17866232991218567 -0.16956932842731476
0.18612544238567352 0.045143064111471176 0.05986347049474716
0.2037494033575058 0.05382770299911499 -0.10671684145927429
-0.19309018552303314 -0.1763293445110321 0.03905376046895981
0.09279391169548035 -0.41720855236053467 -0.11904316395521164
0.060538291931152344 0.5678519010543823 -0.019606303423643112
-0.16339759528636932 -0.022448427975177765 0.11655288934707642
0.13152632117271423 0.46164649724960327 -0.016349494457244873
-0.15445777773857117 -0.027332361787557602 0.13840246200561523
0.14208443462848663 -0.3870251476764679 0.16426348686218262
-0.07905405759811401 0.5486871600151062 0.03194361925125122
0.21578998863697052 -0.2990945279598236 0.03580562025308609
0.06069084629416466 -0.41456079483032227 0.03675275295972824
0.08149963617324829 -0.4229654371738434 0.036522142589092255
0.03897427022457123 -0.1528434157371521 -0.16762058436870575
-0.13520687818527222 -0.3327541649341583 -0.18866921961307526
-0.05315277725458145 0.41944900155067444 -0.1660197675228119
-0.12025090306997299 0.13689467310905457 -0.006277594715356827
0.20236362516880035 0.018289143219590187 -0.1362009048461914
-0.0460125207901001 0.43932244181632996 -0.16648387908935547
0.13431327044963837 0.4419780969619751 0.02001495286822319
-0.11873671412467957 0.2182067632675171 0.16874352097511292
-0.009517580270767212 -0.4145447313785553 0.21094173192977905
-0.0861208513379097 0.06836211681365967 0.17528100311756134
0.2129601538181305 -0.32443326711654663 -0.10338181257247925
-0.0439148023724556 0.5621376037597656 -0.037770628929138184
-0.17340858280658722 -0.24080276489257812 0.16127502918243408
-0.09948853403329849 0.13260644674301147 0.1525038629770279
0.13231471180915833 0.2633276879787445 0.13666875660419464
-0.15869034826755524 0.0778125673532486 0.07919541746377945
0.18130187690258026 0.09117447584867477 0.01960122026503086
-0.09388407319784164 -0.33884474635124207 -0.19789046049118042
-0.22533464431762695 -0.2991587519645691 0.009335142560303211
0.2081097811460495 -0.07371801882982254 -0.06037924811244011
0.0137229785323143 -0.404174268245697 -0.20449264347553253
0.2031174898147583 0.03412251174449921 -0.10182510316371918
0.046079766005277634 -0.11747530102729797 0.24448777735233307
-0.16154992580413818 -0.03292771801352501 0.12525062263011932
0.20457962155342102 -0.2100406140089035 0.09754253923892975
0.18566080927848816 -0.23544859886169434 -0.12088374048471451
-0.22635309398174286 -0.25007373094558716 -0.08808619529008865
0.18488234281539917 -0.1727248579263687 0.11585012078285217
-0.13595031201839447 0.3679370880126953 -0.06985293328762054
0.09987795352935791 -0.09029777348041534 0.22073575854301453
0.05672271177172661 0.5675274133682251 -0.09823711216449738
0.11334748566150665 -0.09135298430919647 0.21405619382858276
-0.05309689790010452 -0.17487893998622894 -0.1700229048728943
0.1972285658121109 -0.3643586337566376 0.034141600131988525
0.1632399708032608 -0.4196033775806427 -0.10338354855775833
0.08127225190401077 -0.41546815633773804 0.04204830527305603
0.09582740068435669 -0.4020139276981354 0.05155441537499428
0.13051052391529083 0.23502451181411743 0.0032135210931301117
0.2025216519832611 -0.007767512463033199 -0.10847549140453339
-0.0405389778316021 0.42992454767227173 0.07128579169511795
-0.0386480949819088 0.56117182970047 -0.021595492959022522
0.20885320007801056 -0.09118358790874481 -0.05343832075595856
-0.009400993585586548 -0.10346251726150513 -0.17620587348937988
0.11022277921438217 -0.01532786712050438 -0.17297661304473877
0.06618179380893707 0.19118109345436096 -0.17175698280334473
0.12542656064033508 -0.4060620963573456 -0.1970018446445465
-0.1442963182926178 -0.4159733057022095 0.13437892496585846
0.18040484189987183 -0.06289715319871902 0.10727480053901672
-0.19978927075862885 -0.30520084500312805 0.09627474099397659
0.055640146136283875 -0.1617206186056137 -0.1652291864156723
0.1360039860010147 0.2850828766822815 0.04589318111538887
0.12424508482217789 0.24548059701919556 0.1648998260498047
0.08346771448850632 -0.4133337736129761 0.034799739718437195
0.0920184850692749 -0.4130435585975647 0.029002882540225983
0.20025324821472168 0.06486654281616211 -0.1460670381784439
0.022323207929730415 0.3883538842201233 0.21269090473651886
0.09761277586221695 -0.014048653654754162 0.202000230550766
0.048418618738651276 0.14040347933769226 -0.17431491613388062
-0.08121912181377411 -0.4148143231868744 -0.05613448843359947
-0.009947549551725388 0.05452866852283478 0.19972668588161469
-0.17897363007068634 -0.2344580441713333 0.14912834763526917
-0.18062014877796173 -0.13519622385501862 -0.16867031157016754
0.15671762824058533 0.12497119605541229 0.014062494970858097
0.08665741980075836 -0.4113219976425171 0.03229137882590294
-0.09915457665920258 -0.41615334153175354 -0.19620001316070557
0.09779126197099686 -0.16821163892745972 -0.16232158243656158
0.08102668821811676 -0.41872990131378174 0.03772746026515961
-0.22340428829193115 -0.17389819025993347 -0.07057848572731018
0.09028437733650208 -0.4189207851886749 -0.15325896441936493
-0.12801122665405273 0.31917428970336914 0.03209356963634491
-0.15867266058921814 -0.4122985601425171 0.09155789017677307
0.0960817039012909 0.2524120509624481 0.2226123958826065
-0.12047896534204483 0.4976212978363037 0.019880540668964386
0.1864224672317505 -0.055451977998018265 0.08337820321321487
-0.1848251223564148 0.029826167970895767 -0.010787362232804298
0.18636681139469147 -0.05490506812930107 0.06850121915340424
-0.09851410984992981 -0.13096022605895996 0.22377169132232666
-0.19053134322166443 -0.07931765913963318 -0.1695716828107834
-0.15466968715190887 -0.4209982454776764 -0.14397011697292328
0.10687622427940369 -0.41902443766593933 -0.12073667347431183
0.21391645073890686 -0.29295289516448975 0.04677377641201019
-0.1267603188753128 0.24843916296958923 0.0016507059335708618
0.08232368528842926 -0.4130510687828064 0.15687499940395355
-0.1302812248468399 -0.3466634452342987 -0.1934841424226761
-0.05804655700922012 0.08854027092456818 0.17556466162204742
-0.056543558835983276 0.5113217830657959 0.08170278370380402
0.12824764847755432 0.18934482336044312 0.03301035612821579
-0.015192385762929916 0.015565034002065659 0.20886847376823425
-0.1701105833053589 -0.41337481141090393 0.08528132736682892
-0.047522541135549545 -0.12192808091640472 0.24135169386863708
0.05691184848546982 0.4930737316608429 -0.16603128612041473
0.16082417964935303 0.024464521557092667 0.13567247986793518
-0.18123209476470947 -0.3859531283378601 -0.18453459441661835
0.13651758432388306 -0.15682291984558105 -0.15979446470737457
-0.10404343158006668 -0.13879260420799255 -0.1723187267780304
0.10542303323745728 -0.19602534174919128 0.24733315408229828
0.08997063338756561 0.3934967815876007 0.0978698655962944
0.12228373438119888 0.16619831323623657 0.11515335738658905
-0.08887548744678497 -0.3824520409107208 0.22394900023937225
-0.11779111623764038 0.17370404303073883 0.14256277680397034
-0.04390957951545715 0.18358631432056427 0.2593938708305359
0.13208834826946259 -0.07067003846168518 0.19725754857063293
0.1896582692861557 -0.4088340997695923 0.025765929371118546
0.21021699905395508 -0.2789444923400879 0.07566507905721664
0.12665124237537384 0.24407963454723358 -0.09766459465026855
-0.0830608606338501 0.5592342615127563 -0.0034344717860221863
-0.15292493999004364 -0.41629549860954285 0.11435660719871521
0.20527778565883636 -0.3980625569820404 -0.039259057492017746
0.14283984899520874 -0.40356844663619995 0.15352383255958557
-0.18392184376716614 -0.005533192306756973 -0.174663707613945
0.20165911316871643 0.07002221047878265 -0.09510761499404907
0.04188106209039688 -0.2106761485338211 -0.16214124858379364
0.07758714258670807 -0.41833245754241943 0.03734534978866577
0.1785041242837906 -0.09027941524982452 0.13078899681568146
0.1871691644191742 -0.026290204375982285 0.06477382779121399
-0.1880859136581421 -0.17312009632587433 0.052349258214235306
-0.16799375414848328 0.01789921522140503 0.09657423198223114
-0.18133877217769623 -0.23302705585956573 -0.1476607620716095
0.2136845588684082 -0.3286045789718628 -0.10244287550449371
-0.12479182332754135 -0.09172020852565765 -0.174263596534729
-0.17026256024837494 -0.3980036675930023 0.13607868552207947
-0.12235278636217117 0.17974542081356049 -0.1056818813085556
0.1963856816291809 -0.409310907125473 -0.03712991252541542
-0.20938211679458618 -0.03526069596409798 -0.11097598075866699
-0.06739731878042221 -0.19487327337265015 0.25550541281700134
0.10952533036470413 0.22441430389881134 -0.15104644000530243
-0.1893797069787979 -0.33805325627326965 -0.16639800369739532
-0.12588892877101898 0.42429548501968384 0.023043666034936905
-0.08072932809591293 -0.12697117030620575 -0.17455211281776428
0.07276032865047455 0.5598708391189575 0.024071551859378815
0.22290293872356415 -0.24662882089614868 0.013101722113788128
0.046076610684394836 0.2901771664619446 0.22207683324813843
-0.21738572418689728 -0.2812109589576721 0.04522343724966049
-0.21999645233154297 -0.3089182674884796 0.029544515535235405
0.19032371044158936 -0.4068377912044525 0.003506764769554138
0.20431892573833466 -0.023067278787493706 -0.05557866394519806
0.2031574547290802 -0.010844748467206955 -0.06963744014501572
0.22189855575561523 -0.22417256236076355 -0.06451325863599777
0.161156564950943 -0.06180770695209503 0.16406981647014618
0.002448640763759613 0.21351021528244019 -0.17552399635314941
-0.09957540780305862 -0.313784122467041 -0.19023695588111877
-0.20505744218826294 -0.04564395546913147 -0.16149838268756866
0.19975586235523224 -0.24597778916358948 -0.10989659279584885
-0.07838600128889084 0.3349517285823822 0.19415463507175446
0.07485198974609375 0.11546923965215683 0.19141128659248352
