-0.12843312323093414 0.2650381326675415 0.04356776922941208
-0.22192908823490143 -0.27437716722488403 -0.0899830311536789
-0.12201197445392609 -0.19982118904590607 0.21747960150241852
0.12176486849784851 0.340584397315979 -0.16829092800617218
-0.16290193796157837 -0.4210298955440521 -0.1351495236158371
-0.1914021521806717 -0.08946763724088669 0.0026935311034321785
-0.0895581766963005 0.05606565624475479 -0.18159154057502747
0.1538790762424469 -0.017184704542160034 0.15698450803756714
0.0861811712384224 -0.41510245203971863 -0.11210661381483078
0.16386368870735168 -0.07929927855730057 0.16230688989162445
0.07776480913162231 -0.4135643541812897 0.026679083704948425
0.10218677669763565 -0.04121365398168564 0.20376034080982208
0.20027241110801697 0.08001136034727097 -0.10273526608943939
-0.09546540677547455 0.5360351204872131 -0.15642568469047546
-0.10582076758146286 0.32093581557273865 -0.16808561980724335
0.00956239178776741 -0.040144823491573334 0.22024132311344147
0.10551884770393372 -0.4233468770980835 -0.1256510317325592
0.12195881456136703 0.17379075288772583 -0.0622059628367424
-0.11904338002204895 -0.26119011640548706 0.22021567821502686
-0.020834755152463913 0.4888109564781189 0.0885644257068634
-0.1337871104478836 0.4597368538379669 -0.08007019758224487
0.14134740829467773 -0.41562420129776 -0.06743866950273514
0.14223752915859222 -0.4193958640098572 -0.14715854823589325
-0.20120306313037872 -0.15848194062709808 -0.008955290541052818
-0.057609673589468 -0.16986557841300964 -0.1720007210969925
0.02956673875451088 -0.18740448355674744 -0.16336041688919067
0.16522672772407532 -0.008761866018176079 0.138656884431839
-0.06520697474479675 0.4172695279121399 -0.16684837639331818
-0.11214251816272736 -0.07851108908653259 0.19624921679496765
0.18754668533802032 -0.32441940903663635 0.10742490738630295
-0.21260786056518555 -0.15571168065071106 -0.04117056727409363
0.12055111676454544 -0.3641183376312256 -0.1969548761844635
0.08179983496665955 -0.40697959065437317 0.04748348146677017
-0.21266630291938782 -0.3446084260940552 -0.005615193396806717
0.10495293885469437 -0.21000567078590393 0.24335920810699463
0.1900881677865982 -0.3339701294898987 0.09627889841794968
0.09932097047567368 0.36066827178001404 0.12810277938842773
0.12572692334651947 0.14582288265228271 0.076876699924469
0.1349717676639557 -0.41309893131256104 0.13947902619838715
-0.01637728326022625 0.49841195344924927 0.09403260052204132
-0.1339396834373474 0.09547685831785202 0.10264094918966293
0.20897343754768372 -0.27638840675354004 0.08417749404907227
-0.09024424850940704 -0.172573059797287 0.232439786195755
0.17877225577831268 0.13341468572616577 -0.052839502692222595
0.219524085521698 -0.2590092420578003 0.03390435874462128
-0.02826402150094509 0.460309237241745 -0.16837310791015625
-0.15285712480545044 -0.11064460128545761 0.16486813127994537
-0.06584089249372482 0.30603963136672974 0.2158430814743042
-0.001572929322719574 0.39130833745002747 -0.17096181213855743
0.08238057792186737 0.25453969836235046 -0.1691848486661911
-0.05082688480615616 0.4788367748260498 0.07439620047807693
-0.1287832260131836 0.26566082239151 0.1355166733264923
-0.21775735914707184 -0.12287726253271103 -0.11166678369045258
0.21721558272838593 -0.2813960611820221 0.05178738385438919
0.10050859302282333 -0.40916138887405396 0.010118466801941395
0.0634741485118866 0.5384935736656189 0.07120418548583984
0.18468895554542542 0.0909491702914238 0.0440300889313221
0.05361664667725563 -0.4132276177406311 0.11482793092727661
0.15848177671432495 -0.25003114342689514 -0.13733960688114166
0.021146949380636215 0.4015370011329651 0.1788429617881775
0.07477818429470062 -0.23116880655288696 -0.1637742817401886
0.1095486730337143 -0.09552619606256485 0.2146034985780716
-0.1163366436958313 -0.4203369617462158 -0.14523626863956451
0.17599573731422424 0.1055140346288681 0.021420292556285858
0.21616506576538086 -0.18466287851333618 -0.08594448119401932
-0.1107897162437439 0.5598567128181458 -0.09108142554759979
-0.05333518981933594 0.42899638414382935 -0.1678343117237091
-0.1161201223731041 0.45245790481567383 0.0261800829321146
0.08864827454090118 -0.1789572536945343 0.24725614488124847
0.013977836817502975 -0.0021096765995025635 -0.1789025217294693
0.005522303283214569 -0.06200287118554115 -0.17932365834712982
-0.12198556214570999 0.12844638526439667 0.055437397211790085
0.13440565764904022 0.30487877130508423 0.030311141163110733
-0.07458639144897461 -0.4184683859348297 -0.1964063197374344
-0.1030874103307724 0.5445783734321594 0.021463405340909958
-0.2112690508365631 -0.336986243724823 -0.09116696566343307
0.02707999385893345 -0.2062319964170456 -0.16641759872436523
0.1633058786392212 0.11437276750802994 0.05395578220486641
0.20156604051589966 -0.15953966975212097 0.012270919978618622
-0.04556412622332573 0.5108901858329773 0.0902944952249527
-0.15845787525177002 -0.05143113061785698 -0.1781468540430069
0.19263935089111328 -0.36145249009132385 0.035696640610694885
0.03380539268255234 -0.421458899974823 -0.17939504981040955
0.16582369804382324 0.10443004965782166 0.0708485096693039
-0.14896181225776672 0.4652070999145508 -0.13046662509441376
0.13429318368434906 0.4266979694366455 0.008343413472175598
0.1728513091802597 -0.40987497568130493 0.03417157381772995
0.058790646493434906 -0.19199424982070923 0.25688478350639343
-0.18855926394462585 0.004779353737831116 -0.1762542426586151
0.1864888072013855 -0.05798998847603798 0.07378886640071869
0.16959910094738007 -0.07678499817848206 0.14723879098892212
-0.14753544330596924 0.06301296502351761 -0.18148407340049744
0.11490407586097717 -0.40827929973602295 -0.0235183946788311
0.13115516304969788 -0.4045969247817993 0.16337689757347107
-0.10520769655704498 0.08442182838916779 0.15034817159175873
0.006028019357472658 0.39047980308532715 0.20986931025981903
-0.04387269541621208 0.14274634420871735 0.23125135898590088
-0.1284879893064499 0.25875046849250793 0.012494188733398914
0.20840956270694733 -0.059588052332401276 -0.0485154464840889
0.08674388378858566 -0.4094933271408081 0.020701419562101364
0.08261701464653015 -0.4098510444164276 0.02783941477537155
-0.2144009917974472 -0.18209373950958252 -0.1355927288532257
-0.16384759545326233 0.12460820376873016 -0.024344831705093384
-0.12916693091392517 0.32185694575309753 0.004981273785233498
-0.11795732378959656 -0.3543911874294281 0.20238764584064484
0.20250378549098969 0.016861146315932274 -0.09647912532091141
0.08318386971950531 0.014940855093300343 0.19236630201339722
-0.05243358761072159 -0.18678244948387146 -0.17033299803733826
0.2009836882352829 0.07756683230400085 -0.09796550124883652
0.13115614652633667 0.24065041542053223 0.049859851598739624
0.11320663243532181 -0.351881206035614 -0.19564078748226166
0.17995016276836395 -0.1546250581741333 0.126910001039505
-0.184896320104599 -0.0695817619562149 -0.17449244856834412
0.22163844108581543 -0.26271215081214905 0.03873191401362419
-0.12872159481048584 0.2634790241718292 -0.08280639350414276
-0.0815563052892685 -0.19480371475219727 0.24135340750217438
0.14596766233444214 -0.36435016989707947 -0.19029703736305237
0.2088005542755127 -0.24236780405044556 -0.0984160527586937
-0.12247031927108765 0.20240096747875214 -0.027479887008666992
-0.20992037653923035 -0.09016703814268112 -0.03414156287908554
0.06033150851726532 0.16384026408195496 0.2542281448841095
0.12327190488576889 0.41130101680755615 -0.024933181703090668
-0.07910709828138351 0.07494133710861206 0.17562636733055115
-0.04948672279715538 -0.23850269615650177 0.255731999874115
0.13420839607715607 0.2938540577888489 0.043862856924533844
0.08052478730678558 -0.4106493890285492 0.019610553979873657
-0.06431964784860611 -0.41534915566444397 -0.0011772867292165756
-0.11792707443237305 -0.18000192940235138 0.21486148238182068
-0.21194371581077576 -0.38331615924835205 -0.026045015081763268
-0.20738622546195984 0.03016228787600994 -0.12983010709285736
-0.10695763677358627 0.13778214156627655 0.1227838397026062
0.13436920940876007 -0.2635610103607178 -0.15721100568771362
0.21460160613059998 -0.12133403867483139 -0.054485023021698
0.20593617856502533 -0.038784559816122055 -0.05031739920377731
0.02309333346784115 -0.37878066301345825 -0.20754750072956085
0.18672657012939453 0.03126181662082672 0.04359586536884308
0.186773419380188 -0.018061019480228424 0.07529488205909729
-0.05012666434049606 -0.21669718623161316 0.2583807110786438
0.21698082983493805 -0.35156142711639404 -0.12052848190069199
-0.08826213330030441 0.434129923582077 -0.16313804686069489
0.15021559596061707 -0.41416603326797485 0.045712295919656754
-0.1298043578863144 0.29659414291381836 0.04929615184664726
-0.11017833650112152 0.3869990110397339 0.07473862171173096
-0.181987002491951 -0.15456555783748627 0.1071031242609024
-0.0870228260755539 -0.38449376821517944 0.2162897139787674
-0.11523909866809845 0.33156755566596985 -0.16676998138427734
-0.20787109434604645 -0.014126387424767017 -0.1572900265455246
-0.0696520060300827 0.3686394691467285 -0.16949550807476044
0.04561357945203781 -0.3873288631439209 -0.20605970919132233
-0.08366017043590546 -0.08190418034791946 -0.1775377094745636
0.10564593970775604 -0.41584333777427673 0.03699498623609543
-0.07930257171392441 0.00407031923532486 -0.1819198876619339
0.1267261803150177 0.16725881397724152 0.015455540269613266
-0.16606967151165009 -0.02732105553150177 0.11279050260782242
0.16021844744682312 -0.3616306185722351 0.12942740321159363
0.1854015737771988 -0.41377517580986023 -0.11837488412857056
-0.005110364407300949 0.4472646415233612 0.10246879607439041
0.18230099976062775 -0.39665576815605164 0.024773024022579193
0.12907560169696808 0.20339125394821167 0.02529153600335121
0.07668252289295197 -0.4121938943862915 0.02033982425928116
-0.1775127351284027 -0.41757121682167053 -0.05715371295809746
-0.09815159440040588 0.09912416338920593 0.140974223613739
-0.1300686001777649 0.2662259042263031 -0.03665211424231529
0.06021573022007942 -0.4128251373767853 0.0155692920088768
0.11427123099565506 -0.19828540086746216 0.2370092272758484
-0.07168452441692352 -0.1702282428741455 0.24449163675308228
-0.11366178095340729 0.0802205502986908 -0.1812637895345688
-0.09040037542581558 -0.13028211891651154 0.22318093478679657
-0.1721133440732956 0.024060918018221855 0.08030560612678528
-0.024231847375631332 0.18401166796684265 0.2562967538833618
0.1676490157842636 -0.41769272089004517 -0.02602103352546692
0.20396143198013306 -0.04898524284362793 -0.09105400741100311
-0.1277768462896347 0.4563678503036499 -0.03935255855321884
-0.219500333070755 -0.15044251084327698 -0.10340406745672226
0.1324860006570816 0.26137781143188477 0.042564645409584045
0.10730944573879242 0.27387702465057373 0.1970183104276657
0.0428619384765625 0.10581603646278381 0.19005076587200165
-0.12916365265846252 0.31177109479904175 -0.0021824073046445847
0.08811274915933609 0.5686431527137756 -0.09152679890394211
-0.18222734332084656 0.10856625437736511 -0.03879476338624954
0.006930751726031303 0.3002367317676544 -0.1728692650794983
0.0024735592305660248 0.5652562379837036 -0.007651352323591709
0.17087799310684204 -0.1842799335718155 -0.148930624127388
0.07080922275781631 -0.415158212184906 -0.14869040250778198
-0.081099733710289 0.0894249975681305 -0.1809803694486618
0.08797555416822433 0.41040778160095215 -0.16696833074092865
0.12928979098796844 0.06916051357984543 0.1521150767803192
0.053850628435611725 0.26005542278289795 0.24059811234474182
-0.15073749423027039 0.1534208208322525 -0.12544803321361542
-0.047637343406677246 0.28318414092063904 -0.17288944125175476
0.14747564494609833 0.2859719693660736 -0.09710349887609482
-0.04310023784637451 -0.4194878339767456 -0.18027326464653015
0.07723163813352585 -0.41483834385871887 0.01887115277349949
-0.10103460401296616 0.042401023209095 -0.18264764547348022
-0.21647197008132935 -0.1155310794711113 -0.0712013691663742
0.043669622391462326 0.3040890395641327 -0.17200994491577148
0.10938499122858047 0.23375970125198364 -0.1480277180671692
0.17063263058662415 -0.3523527979850769 0.11635749042034149
0.2065916508436203 -0.37122082710266113 -0.13610833883285522
-0.09111237525939941 -0.418522447347641 -0.04736729711294174
-0.07214953005313873 0.4184313714504242 -0.16630707681179047
0.13483686745166779 -0.2773301899433136 -0.16199882328510284
-0.2184429168701172 -0.20650751888751984 0.020365674048662186
-0.013660366646945477 0.38773825764656067 0.20776186883449554
0.04147011786699295 0.29855582118034363 -0.17151790857315063
-0.038177743554115295 -0.11586829274892807 -0.17653879523277283
0.09150180220603943 -0.40519702434539795 0.03996945917606354
0.11608018726110458 -0.37014636397361755 -0.1964617371559143
-0.0231376551091671 0.39309802651405334 0.17034916579723358
0.12778155505657196 0.23006826639175415 -0.02566426992416382
0.15623831748962402 0.018529431894421577 0.1448623239994049
-0.1972636878490448 -0.060577429831027985 -0.1719924360513687
0.15379874408245087 -0.35540589690208435 -0.1850273311138153
-0.10917086899280548 -0.4164041578769684 -0.2017253041267395
0.15339526534080505 -0.14824238419532776 -0.16005435585975647
0.05774495750665665 0.18025261163711548 0.25310245156288147
0.12032705545425415 -0.09239354729652405 0.20861974358558655
0.029240023344755173 0.5663895010948181 -0.11788849532604218
-0.1178181990981102 0.17039050161838531 0.1006009578704834
-0.05906558036804199 0.5587784051895142 0.020182915031909943
-0.18123281002044678 -0.14745347201824188 0.107312873005867
-0.1584225594997406 0.08324199169874191 -0.18133965134620667
0.18330135941505432 -0.3809197247028351 0.06877739727497101
0.14475566148757935 -0.36332806944847107 0.16526007652282715
-0.21351683139801025 -0.36103248596191406 -0.09762987494468689
0.18519890308380127 -0.04759868606925011 0.0630882978439331
0.2152533233165741 -0.25597673654556274 -0.08135798573493958
-0.08661015331745148 0.5543143153190613 -0.012156471610069275
-0.21795819699764252 -0.11192271113395691 -0.12333373725414276
0.11199896782636642 0.17080527544021606 -0.1609041541814804
0.01753547042608261 -0.1676550656557083 0.2581392824649811
0.01838366501033306 0.3667472004890442 0.23907147347927094
-0.17753008008003235 0.09106194972991943 0.018471062183380127
0.1139535903930664 -0.20710961520671844 0.23186105489730835
0.07829799503087997 0.5699658989906311 -0.027374356985092163
0.18181456625461578 0.13202157616615295 -0.05641813576221466
0.19481198489665985 -0.3983617126941681 -0.16074229776859283
-0.03227384760975838 -0.010894246399402618 -0.18258006870746613
0.08498722314834595 -0.41045308113098145 0.006380497477948666
0.14078480005264282 -0.4147082269191742 -0.1927976757287979
0.11379330605268478 -0.37729042768478394 0.19887617230415344
-0.09343528747558594 0.548477292060852 0.037736646831035614
0.2199276238679886 -0.26054370403289795 0.041999831795692444
-0.10901819169521332 0.3066492974758148 -0.16768863797187805
0.037761908024549484 0.4784042239189148 -0.16668736934661865
0.21728630363941193 -0.19093750417232513 -0.06696633994579315
0.07667569816112518 0.44475579261779785 0.055634140968322754
0.12306798249483109 0.16399309039115906 -0.06304766237735748
0.17966240644454956 -0.4104045629501343 -0.00419071689248085
0.08827628195285797 -0.41786715388298035 -0.1291092187166214
-0.0470711775124073 0.16243018209934235 0.25155970454216003
-0.09313561022281647 -0.1269550323486328 -0.1751316636800766
-0.2222527116537094 -0.3085935711860657 -0.05880090966820717
-0.02273080311715603 0.3243257403373718 -0.17209835350513458
0.06591524928808212 0.5408363938331604 0.06752103567123413
-0.05215718224644661 -0.04517924040555954 -0.18088854849338531
0.08729283511638641 -0.41033390164375305 0.02159724198281765
-0.07058167457580566 0.06836970150470734 0.1819947212934494
-0.058212846517562866 -0.18986372649669647 -0.16887971758842468
0.061777904629707336 -0.4182087779045105 -0.1824190467596054
-0.06446190178394318 -0.1624201387166977 -0.1735977828502655
0.1985628306865692 -0.40986916422843933 -0.022303622215986252
-0.12909135222434998 0.2597211003303528 -0.024639498442411423
0.17542248964309692 -0.4027038514614105 0.040819067507982254
0.060319382697343826 0.3569234311580658 0.17186972498893738
-0.13329298794269562 0.3896762728691101 -0.029753562062978745
0.03866014629602432 0.13386864960193634 0.22270068526268005
-0.18283484876155853 -0.03158358111977577 0.04346093907952309
-0.06958118081092834 0.4164934754371643 -0.16806824505329132
-0.1833038479089737 -0.037955429404973984 0.05949636921286583
-0.22884827852249146 -0.26044127345085144 -0.0698356181383133
0.12778636813163757 -0.4193243682384491 -0.14938989281654358
0.2035524994134903 -0.03928485885262489 -0.0885191485285759
-0.1828649938106537 -0.03311513364315033 0.06908635795116425
0.04774393141269684 -0.1678200215101242 0.2510805130004883
0.15823714435100555 -0.096892349421978 0.1777278482913971
0.12971076369285583 0.40578725934028625 -0.04592716693878174
0.06765735149383545 -0.41956764459609985 0.03138867765665054
0.04991704225540161 0.06905630975961685 0.18869540095329285
-0.15853017568588257 -0.20876657962799072 0.18688344955444336
0.09277275204658508 0.04867306351661682 0.17973807454109192
0.14542292058467865 -0.3877742886543274 0.15060806274414062
0.20690162479877472 -0.060567498207092285 -0.07605085521936417
0.18357570469379425 -0.10130970180034637 0.11069171875715256
-0.12736091017723083 0.40370458364486694 -0.15595899522304535
0.09248276054859161 -0.41398563981056213 0.1069890484213829
-0.12900495529174805 0.30322498083114624 0.10836610943078995
0.04799888655543327 0.48798632621765137 -0.16703543066978455
-0.20414689183235168 0.016129709780216217 -0.06612787395715714
-0.12231440097093582 0.22142139077186584 -0.0952676311135292
-0.06867793202400208 0.4169483482837677 -0.16653375327587128
0.13276025652885437 0.31692492961883545 -6.81653618812561e-05
-0.07745128124952316 -0.15607814490795135 -0.1730990707874298
0.06823141872882843 -0.4168957471847534 -0.08441899716854095
0.08715419471263885 -0.4141315519809723 -0.08909371495246887
-0.08719541132450104 0.5586280226707458 0.008406453765928745
-0.12877750396728516 0.25343501567840576 0.016833998262882233
-0.12389945983886719 -0.003189004957675934 0.16541682183742523
0.11788497865200043 -0.18214580416679382 -0.1564374566078186
0.07511571794748306 -0.4140360355377197 0.01807328313589096
-0.11907891184091568 0.1796242743730545 0.14533153176307678
0.2027924358844757 -0.34774935245513916 -0.1318534016609192
0.014830116182565689 0.17535996437072754 0.261613667011261
-0.003693144768476486 0.3289904296398163 -0.1712481826543808
0.1315910816192627 -0.3662862777709961 -0.1935727745294571
0.07155385613441467 0.07818808406591415 0.18301212787628174
-0.22137250006198883 -0.22403393685817719 0.021428454667329788
-0.20621703565120697 0.008407160639762878 -0.14139118790626526
-0.053323596715927124 0.03322506695985794 -0.18228870630264282
0.02754056453704834 0.334638774394989 0.23868542909622192
0.1385331004858017 0.11513812839984894 0.0616333968937397
-0.1087399274110794 -0.2819003462791443 -0.1831284910440445
-0.002350740134716034 -0.4165489673614502 -0.14454497396945953
0.06944133341312408 0.5490219593048096 0.04963745176792145
-0.09979609400033951 0.1812797486782074 0.22451680898666382
0.08521318435668945 0.09435207396745682 0.17314499616622925
-0.12729932367801666 -0.04801390320062637 0.1751326024532318
-0.11782851815223694 -0.4106806516647339 0.05885462090373039
-0.07180166244506836 0.29662543535232544 0.2102762758731842
-0.003988321870565414 -0.41544485092163086 0.12615527212619781
0.20053716003894806 -0.17086929082870483 0.08090350031852722
-0.13031113147735596 -0.22104386985301971 0.2090732753276825
-0.14816755056381226 0.11450391262769699 0.02530793473124504
0.13233208656311035 0.13868030905723572 0.006713654845952988
0.09848849475383759 -0.131422758102417 0.2292325496673584
-0.15921428799629211 -0.4187556505203247 -0.1032615602016449
0.16875828802585602 -0.3229101598262787 -0.16489267349243164
0.08620553463697433 -0.4146917462348938 -0.13098500669002533
-0.18329373002052307 0.1415022313594818 -0.14659714698791504
0.024936750531196594 0.2345290631055832 0.24912643432617188
-0.12270522117614746 -0.4229966998100281 -0.1765354871749878
-0.200942263007164 -0.10390867292881012 -0.011437082663178444
-0.0036460980772972107 0.22804157435894012 0.2519245743751526
0.19926436245441437 -0.09059843420982361 -0.01206418126821518
-0.21153070032596588 -0.4069635570049286 -0.11220157146453857
0.14368289709091187 0.2895636260509491 -0.08503234386444092
-0.02933693118393421 -0.1726626455783844 0.25731828808784485
0.06323498487472534 0.5708776712417603 -0.09686799347400665
0.09853161871433258 -0.42069411277770996 -0.11549698561429977
-0.12433112412691116 0.21290281414985657 0.15351620316505432
0.08559781312942505 -0.4131389260292053 0.03620234876871109
-0.20908914506435394 -0.031155617907643318 -0.09695079177618027
0.11940904706716537 -0.41716837882995605 0.13065248727798462
0.017377879470586777 0.5662186145782471 -0.03623080998659134
-0.1862160563468933 -0.3893604278564453 -0.18436667323112488
-0.1119779422879219 0.1450624018907547 0.10622503608465195
-0.049459271132946014 0.3540233373641968 0.20205415785312653
0.08257126808166504 0.05571906641125679 0.1835366040468216
-0.20010918378829956 -0.061376236379146576 -0.16629981994628906
-0.08839824050664902 -0.4165489375591278 -0.034679390490055084
-0.08578067272901535 -0.39900389313697815 -0.20402118563652039
-0.18426774442195892 -0.4075262248516083 0.06927212327718735
-0.10768085718154907 -0.0009702201932668686 0.1768554151058197
-0.039603956043720245 0.44945698976516724 -0.16777865588665009
-0.14052048325538635 0.0905214324593544 -0.1822604238986969
0.13117176294326782 -0.333754301071167 0.20230045914649963
0.1376751959323883 -0.38684597611427307 0.1629132777452469
-0.02463458850979805 0.5647598505020142 -0.11460328102111816
0.11862507462501526 -0.029325883835554123 0.18859519064426422
0.20262449979782104 0.08536232262849808 -0.12417581677436829
-0.04611695557832718 -0.1817890703678131 0.2512719929218292
-0.18960309028625488 -0.34893599152565 0.09293893724679947
-0.17879344522953033 0.14168308675289154 -0.10482461750507355
-0.06962583214044571 -0.4202049970626831 -0.12294454127550125
-0.051087476313114166 0.4233717620372772 -0.16793039441108704
0.17814818024635315 -0.41416606307029724 -0.02320071868598461
0.12433482706546783 0.2340942919254303 -0.07423695921897888
0.07844854891300201 0.14454837143421173 -0.1728329062461853
0.07667391002178192 -0.4115557074546814 0.030039861798286438
0.058831606060266495 0.5688127279281616 -0.08448688685894012
-0.1332223117351532 0.44620460271835327 -0.07553031295537949
0.19719535112380981 -0.4041100740432739 -0.13769759237766266
0.13493140041828156 0.32104432582855225 0.020319897681474686
-0.05124281346797943 -0.1923951506614685 -0.16835153102874756
-0.18311487138271332 0.1466371864080429 -0.12441012263298035
-0.13864898681640625 0.2972524166107178 -0.03118208795785904
-0.000620806124061346 -0.2016826868057251 -0.16930770874023438
-0.04538567364215851 0.33242830634117126 -0.17114055156707764
-0.1989186555147171 0.12994197010993958 -0.14879558980464935
-0.04214627668261528 -0.41947776079177856 -0.1817530393600464
-0.13292840123176575 0.3794329762458801 -0.024805467575788498
-0.00012457743287086487 0.5653088688850403 -0.08699246495962143
0.08506127446889877 0.21907365322113037 -0.16586056351661682
-0.07106150686740875 0.37527626752853394 -0.16934797167778015
0.1555272489786148 0.3465067148208618 -0.12025655806064606
0.1861407309770584 -0.024165067821741104 0.007078529801219702
0.2021917849779129 -0.40135204792022705 -0.042435869574546814
0.13775242865085602 0.3893109858036041 0.017534229904413223
-0.12842150032520294 0.3573811948299408 0.02736392617225647
-0.02629046142101288 -0.28824618458747864 0.25529971718788147
0.19686612486839294 -0.13107457756996155 -0.13613004982471466
0.12193112820386887 0.1704789102077484 0.2008134424686432
0.14874763786792755 0.4294602870941162 -0.10755093395709991
0.03696447238326073 -0.2902509868144989 -0.18805359303951263
-0.1900150626897812 -0.18492615222930908 0.10211676359176636
0.12712086737155914 0.16057030856609344 0.04268031567335129
0.19289655983448029 -0.04528665542602539 -0.1371881663799286
-0.1838131844997406 0.03308650478720665 -0.1767798513174057
0.12104591727256775 -0.36262643337249756 -0.1963600516319275
0.12877154350280762 0.18536779284477234 0.07134010642766953
0.11958633363246918 0.4827916920185089 0.05139457434415817
-0.09676742553710938 0.5539503693580627 0.007440723478794098
-0.15912973880767822 -0.0323624312877655 -0.17598578333854675
0.02466694451868534 0.5662289261817932 -0.07327429950237274
0.13419309258460999 0.4214247465133667 0.013237878680229187
0.08818142861127853 -0.09821714460849762 0.2229389250278473
0.0997999757528305 -0.41092976927757263 0.005078511778265238
-0.13039954006671906 0.3925168216228485 -0.01940421387553215
-0.05145276337862015 0.5643181204795837 -0.13378296792507172
-0.05011866241693497 0.04274819791316986 -0.1829129010438919
-0.01496911235153675 0.34296202659606934 0.24503029882907867
0.22146376967430115 -0.255664587020874 -0.07018239796161652
-0.18796032667160034 -0.16399192810058594 0.07405480742454529
-0.0839850977063179 -0.32960522174835205 -0.20075851678848267
0.1840081512928009 -0.2697708308696747 0.1495722532272339
0.0014892942272126675 0.4189964830875397 0.15215031802654266
0.07938492298126221 -0.41366368532180786 0.016869764775037766
-0.09183264523744583 0.5540738105773926 -0.011869799345731735
0.12648117542266846 0.16547724604606628 0.06341863423585892
-0.06888764351606369 0.42777296900749207 -0.16604872047901154
-0.021437164396047592 -0.3473018705844879 -0.2042517066001892
0.12283913791179657 0.17639806866645813 -0.05646040290594101
0.05080536752939224 0.2278071492910385 0.24377626180648804
0.06063351035118103 -0.025208860635757446 -0.1772102564573288
0.1099005937576294 -0.04848715662956238 0.20037518441677094
0.17822007834911346 -0.12172254920005798 0.13437201082706451
0.19807279109954834 -0.333100289106369 0.04360335320234299
0.16163823008537292 -0.33014681935310364 0.17748022079467773
-0.1744944155216217 0.13445228338241577 -0.0775132030248642
-0.08399246633052826 -0.08106668293476105 -0.17756004631519318
0.0827086940407753 -0.4132210612297058 0.021075952798128128
-0.12391287833452225 -0.4118554890155792 0.08446717262268066
0.16523490846157074 -0.1932222992181778 0.17791514098644257
-0.2047991156578064 0.07541117072105408 -0.12081461399793625
-0.07879438251256943 -0.16598844528198242 -0.1715915948152542
-0.18472501635551453 -0.4075551927089691 0.07221769541501999
0.14069607853889465 -0.3925023376941681 -0.19818276166915894
0.0779978558421135 -0.24006466567516327 -0.16614335775375366
0.06508602946996689 0.09733257442712784 0.18222036957740784
0.09019230306148529 -0.41490626335144043 -0.1097680926322937
0.07522524148225784 -0.415500670671463 0.022004492580890656
-0.08710647374391556 0.5515527129173279 0.018139466643333435
0.18316859006881714 -0.013170376420021057 0.02474813163280487
-0.1190914660692215 0.3738800287246704 0.07114847004413605
0.07913783937692642 -0.1888100504875183 0.2514881193637848
-0.20665952563285828 0.00842989794909954 -0.14765414595603943
0.12511484324932098 0.26962995529174805 -0.10625600814819336
-0.012531744316220284 0.4728616774082184 0.0819530114531517
-0.18256177008152008 -0.06596310436725616 0.08234313130378723
-0.18339210748672485 -0.00519418902695179 0.015563715249300003
0.1341354250907898 -0.41448959708213806 -0.18275706470012665
-0.06880094110965729 -0.1652524471282959 -0.17177939414978027
0.1592612862586975 -0.40323707461357117 -0.1930142045021057
-0.0024482309818267822 0.1377868503332138 0.23603565990924835
-0.1692168116569519 -0.1463261991739273 -0.16883276402950287
0.07566311955451965 0.24330531060695648 0.23801760375499725
-0.13529179990291595 -0.41418397426605225 -0.12211036682128906
0.07163771986961365 0.2730792462825775 -0.1702171415090561
-0.08141839504241943 0.19387689232826233 -0.1726912558078766
-0.020331885665655136 0.5650227069854736 -0.10697083175182343
0.1212090328335762 -0.058242663741111755 0.19800609350204468
0.10873067378997803 0.14374743402004242 0.17341049015522003
0.16842100024223328 -0.3001444339752197 -0.1504451334476471
-0.1822972595691681 -0.21938316524028778 -0.15151050686836243
0.07148554921150208 0.36626261472702026 -0.16897723078727722
-0.1704542189836502 -0.00586569681763649 0.09555495530366898
0.0782264918088913 -0.4160473942756653 0.023298077285289764
-0.019908733665943146 0.24129141867160797 0.23987187445163727
0.22177831828594208 -0.2758956551551819 -0.05258781462907791
-0.05230473726987839 0.30934518575668335 -0.17191796004772186
-0.02254493162035942 0.47596320509910583 0.08029988408088684
-0.20545737445354462 -0.3955115079879761 -0.1772955358028412
0.20017260313034058 -0.17486818134784698 0.08143757283687592
0.08580087870359421 -0.4127837121486664 0.03647489845752716
0.12293613702058792 0.5294675827026367 -0.03532380983233452
0.07853484153747559 -0.4147382080554962 0.027314042672514915
0.18138013780117035 0.09767571091651917 0.029395364224910736
0.1724272221326828 -0.228378564119339 0.1707652509212494
-0.2173135131597519 -0.11312088370323181 -0.10226684808731079
-0.1864890158176422 -0.023801617324352264 0.007867136038839817
-0.1702290177345276 -0.4159061312675476 -0.19156762957572937
-0.01481107622385025 0.12417524307966232 -0.1777990162372589
-0.13134685158729553 0.4851476550102234 -0.07626219093799591
0.09205327928066254 -0.04676312208175659 0.20774155855178833
-0.021839197725057602 0.38009166717529297 0.20066021382808685
-0.12239576876163483 0.4957851767539978 0.024148933589458466
0.1777772754430771 0.13692426681518555 -0.051761239767074585
0.0314629003405571 0.2930402159690857 -0.1719578504562378
0.0819326788187027 -0.09882144629955292 0.22423025965690613
0.18345379829406738 -0.4073162078857422 0.02535305544734001
0.20077411830425262 -0.041931308805942535 -0.1167493388056755
0.18526090681552887 -0.04331156238913536 0.06230366230010986
0.10220792144536972 -0.015985727310180664 0.19294394552707672
0.11460603028535843 -0.15722745656967163 -0.1634383350610733
0.18588946759700775 -0.41436830163002014 -0.03302835673093796
0.2041960209608078 -0.03648176044225693 -0.04760175943374634
0.2053980678319931 -0.38095393776893616 -0.1346193253993988
-0.06953376531600952 0.5515356659889221 0.05951319634914398
0.13121744990348816 0.2461702823638916 0.03464716672897339
-0.08436859399080276 0.5603144764900208 0.003547288477420807
0.2120635211467743 -0.37550628185272217 -0.1288578361272812
-0.047727398574352264 0.013104833662509918 -0.18276295065879822
0.1272314041852951 0.0810801312327385 0.14737029373645782
0.1325289011001587 0.27801984548568726 0.022544004023075104
-0.05940084904432297 0.5139236450195312 0.08429889380931854
-0.1700701117515564 -0.051249437034130096 0.11534128338098526
-0.19301337003707886 -0.3002644181251526 -0.14596045017242432
-0.2046934962272644 0.09959717094898224 -0.14916391670703888
0.11319538950920105 0.24629029631614685 -0.14335736632347107
0.20119710266590118 -0.3883039355278015 -0.00042464397847652435
0.025350820273160934 0.06926805526018143 0.18987460434436798
0.020156007260084152 0.1946263611316681 -0.17465411126613617
0.16452927887439728 0.14949482679367065 -0.1144072487950325
0.0053171440958976746 0.1456829309463501 0.24503813683986664
-0.2272413820028305 -0.23733288049697876 -0.09505259990692139
-0.19991466403007507 -0.04449163377285004 -0.17210236191749573
0.13203702867031097 0.32442906498908997 -0.01303187757730484
-0.03279143571853638 -0.25960010290145874 -0.18340027332305908
-0.03979191929101944 0.21791407465934753 0.2487974613904953
0.1875678449869156 0.07531416416168213 0.04606834426522255
-0.06700821965932846 0.025053322315216064 -0.1826944351196289
-0.20048272609710693 -0.22715973854064941 0.10451386868953705
0.1294001191854477 0.44309142231941223 -0.04013483226299286
0.038666293025016785 0.38601234555244446 0.1610395759344101
-0.11957506835460663 -0.4148598909378052 -0.0698452889919281
-0.041877761483192444 0.44422003626823425 0.06837739795446396
0.22351695597171783 -0.28793367743492126 0.017628438770771027
-0.18271590769290924 -0.0338921919465065 0.06309865415096283
-0.16115856170654297 -0.20327116549015045 0.17890281975269318
0.21031734347343445 -0.20448316633701324 0.07231064885854721
-0.1423221379518509 0.3512018024921417 -0.15765638649463654
0.10183611512184143 -0.1810840517282486 0.23453912138938904
-0.12531156837940216 0.5234330892562866 -0.07453431934118271
-0.16692142188549042 -0.4218185245990753 0.007178343832492828
-0.07195524126291275 -0.10480143874883652 -0.17900505661964417
0.1348157823085785 0.27933937311172485 0.07279098033905029
-0.2150733768939972 -0.1310609132051468 -0.14523960649967194
0.2161850929260254 -0.22756892442703247 0.04933203011751175
-0.08373036980628967 0.5039217472076416 0.07344786822795868
0.045634474605321884 0.40694522857666016 -0.1700771600008011
0.08737626671791077 0.48093104362487793 0.0699935331940651
-0.026824824512004852 0.46910881996154785 0.0790511965751648
0.14076513051986694 0.11979888379573822 0.0521344356238842
0.08678196370601654 -0.4098365306854248 0.01560887135565281
0.09252068400382996 0.4756404161453247 0.06452454626560211
-0.07845590263605118 -0.41884589195251465 -0.1898268461227417
0.1742861419916153 -0.14874424040317535 -0.15409399569034576
-0.20672853291034698 0.029873810708522797 -0.11429248005151749
-0.18690623342990875 -0.3299565315246582 0.1209615170955658
-0.15111754834651947 0.3601216673851013 -0.09607669711112976
-0.06501783430576324 0.2622668147087097 -0.1732243299484253
-0.16643618047237396 -0.4201021194458008 -0.16161778569221497
0.03456328064203262 0.3284796476364136 0.23495204746723175
0.07095275819301605 -0.11778128147125244 -0.173982173204422
-0.18468695878982544 -0.21474327147006989 0.13426265120506287
0.20340122282505035 -0.018816059455275536 -0.08651778101921082
0.1355866640806198 0.2840636968612671 0.0930328443646431
0.12522943317890167 0.1544542908668518 -0.0603581964969635
-0.21002011001110077 -0.33434927463531494 0.026307007297873497
0.19346125423908234 -0.3920598328113556 -0.16709502041339874
-0.12566298246383667 -0.4177323579788208 -0.13901835680007935
0.18800215423107147 0.07887648046016693 -0.15115778148174286
-0.1649482548236847 -0.02027088589966297 -0.17783577740192413
-0.16668666899204254 0.14925457537174225 -0.1180974543094635
0.07608292996883392 -0.41439881920814514 0.022344624623656273
0.03328368812799454 0.04114671051502228 -0.17739300429821014
0.020931366831064224 0.07726776599884033 -0.179060161113739
0.20638588070869446 -0.04669368639588356 -0.07441678643226624
0.13222773373126984 0.27841001749038696 -0.06777234375476837
0.12284529954195023 0.07928439974784851 0.14998123049736023
-0.15169231593608856 -0.05790247023105621 -0.17786115407943726
0.04237178713083267 -0.045958757400512695 0.2190398871898651
0.07630397379398346 -0.41604864597320557 0.027025341987609863
-0.1904507726430893 -0.18575046956539154 -0.15497122704982758
-0.01453669648617506 0.3856889307498932 0.2093992382287979
0.1316031813621521 0.24405640363693237 0.041833456605672836
-0.13106323778629303 -0.41526180505752563 0.1129525750875473
0.1759992241859436 -0.008576789870858192 0.11083891242742538
0.22233439981937408 -0.27350926399230957 -0.021720513701438904
0.1399417668581009 0.3374500870704651 0.08956049382686615
0.10447625815868378 -0.4167826175689697 -0.1270119696855545
-0.16976341605186462 -0.16118337213993073 -0.16765005886554718
0.09477952122688293 0.563448429107666 -0.01166493073105812
0.02519884705543518 -0.3721465468406677 0.24734333157539368
0.20406703650951385 -0.39685994386672974 -0.0924520343542099
0.21522478759288788 -0.17563185095787048 -0.017413141205906868
-0.2128683179616928 -0.15134918689727783 -0.04023373872041702
-0.12620024383068085 0.24852634966373444 -0.08503155410289764
-0.08677121996879578 -0.13382023572921753 0.22523817420005798
0.07197335362434387 -0.40678656101226807 0.21921397745609283
-0.1117439717054367 -0.09764539450407028 -0.17618955671787262
0.17270368337631226 0.009356709197163582 0.11583667248487473
0.0910605639219284 0.03849942237138748 0.1844426840543747
-0.11987829953432083 0.18523764610290527 0.15519022941589355
0.10745497047901154 0.45465871691703796 -0.16281336545944214
0.12232530117034912 -0.3394554853439331 -0.18861696124076843
-0.014979220926761627 -0.09536197781562805 -0.17847144603729248
-0.039541199803352356 0.1630416214466095 -0.17757055163383484
0.04652607813477516 -0.41595375537872314 0.21614192426204681
0.0735958069562912 -0.41536223888397217 0.02524697408080101
-0.0249348022043705 -0.4152219593524933 -0.14076009392738342
-0.13880927860736847 -0.4168691635131836 0.0025584762915968895
-0.0342329703271389 -0.1261722445487976 0.23896415531635284
-0.07121439278125763 0.37761035561561584 -0.16902168095111847
0.05975101515650749 -0.06787429004907608 0.22274737060070038
-0.1206248551607132 -0.11377376317977905 -0.17461757361888885
0.010604023933410645 0.5667733550071716 -0.01911686733365059
0.12878087162971497 -0.07962234318256378 0.19728395342826843
-0.206790491938591 0.01851816289126873 -0.11474340409040451
0.22093519568443298 -0.26403743028640747 -0.07191447168588638
0.12344653159379959 -0.3902426064014435 0.18545573949813843
-0.11785590648651123 -0.0923423022031784 -0.17567399144172668
-0.18418653309345245 -0.3238980770111084 0.1293429285287857
-0.1256694793701172 0.507693886756897 -0.06107601895928383
-0.009796935133635998 0.4062357246875763 0.17035594582557678
0.1214713454246521 0.19400393962860107 -0.08467552810907364
0.12830466032028198 -0.3023550510406494 -0.17444536089897156
0.03521883860230446 0.20892378687858582 0.25210899114608765
-0.19720421731472015 -0.176740363240242 -0.15283450484275818
-0.028803598135709763 0.44166553020477295 0.08921198546886444
0.08176165074110031 0.24751415848731995 -0.16804447770118713
-0.07804228365421295 -0.4076510965824127 0.07046160101890564
-0.07500764727592468 0.10612370818853378 -0.18036803603172302
0.20774240791797638 -0.09372420608997345 -0.034505002200603485
-0.21782991290092468 -0.27712345123291016 -0.09698279947042465
-0.062392041087150574 0.3779493272304535 0.1230555921792984
-0.06799440085887909 0.3956092298030853 0.0996696949005127
0.17849509418010712 -0.08711172640323639 0.1268623173236847
0.05273613706231117 0.3607742488384247 0.20881901681423187
0.009458044543862343 0.5650132894515991 -0.037352632731199265
-0.16139593720436096 -0.16911879181861877 0.16288943588733673
0.18451091647148132 -0.10835076868534088 0.10654275864362717
0.19870631396770477 0.11414390802383423 -0.11979057639837265
-0.11481769382953644 -0.174652099609375 0.21702170372009277
0.13199591636657715 0.04111580550670624 0.15996286273002625
0.0013464055955410004 -0.2821985185146332 -0.18782353401184082
-0.07365769892930984 -0.16367089748382568 -0.17165501415729523
0.21225300431251526 -0.29937827587127686 0.0656929463148117
-0.07009786367416382 -0.4202430844306946 -0.12159150093793869
0.07473552227020264 -0.1868433952331543 0.25210195779800415
-0.1567014455795288 0.35137373208999634 -0.13153156638145447
-0.11913127452135086 0.5270745754241943 -0.018731188029050827
0.08341272920370102 -0.4133943021297455 -0.092039093375206
0.22147180140018463 -0.21841005980968475 -0.05919145047664642
0.18757544457912445 -0.30793091654777527 -0.13676714897155762
0.1212039589881897 -0.41316720843315125 0.054059457033872604
-0.007548831403255463 -0.40460896492004395 -0.20685012638568878
0.13727419078350067 -0.08991625905036926 0.1938852220773697
0.06658392399549484 0.1177949458360672 0.1955922394990921
0.009316176176071167 -0.3715459704399109 0.25274235010147095
0.06988878548145294 0.01486220769584179 0.19855897128582
0.024590177461504936 0.33889010548591614 0.24035397171974182
-0.1966836005449295 -0.17783582210540771 0.07537841796875
-0.22271309792995453 -0.17431314289569855 -0.07727424055337906
0.07505995780229568 -0.4162226617336273 0.02518579177558422
0.12448376417160034 0.16245242953300476 -0.057464346289634705
0.09886715561151505 -0.4113807678222656 -0.1219649463891983
0.1279171109199524 0.5002740621566772 -0.015187226235866547
-0.141404926776886 -0.08102157711982727 -0.17678053677082062
-0.011737145483493805 -0.31852224469184875 0.256373792886734
0.18758073449134827 0.1369408369064331 -0.08108913898468018
0.016787871718406677 0.5656587481498718 -0.005137165077030659
0.06331153213977814 0.27516570687294006 -0.17139218747615814
-0.15445402264595032 -0.4166719615459442 -0.10331235080957413
-0.07148504257202148 0.21573305130004883 0.2383076697587967
-0.10805216431617737 0.35888001322746277 0.11184419691562653
0.12461835145950317 0.16351497173309326 -0.05371560901403427
-0.05970301851630211 -0.18705633282661438 0.24965420365333557
-0.13147133588790894 0.4304678738117218 -0.0615246519446373
-0.11799398064613342 0.17560851573944092 0.14312128722667694
0.09038017690181732 -0.4193131923675537 -0.14260438084602356
0.15652848780155182 0.297699511051178 -0.12664763629436493
0.1360999494791031 0.3187686502933502 0.030914053320884705
-0.08970369398593903 -0.12079111486673355 -0.1761235147714615
0.07554277777671814 -0.05319212004542351 0.21675284206867218
0.06601107865571976 0.39863207936286926 0.10382773727178574
0.1460743546485901 -0.41712069511413574 -0.17257139086723328
0.06247586011886597 -0.15133705735206604 0.24417142570018768
-0.1265110820531845 -0.42418354749679565 -0.16693177819252014
-0.1934724897146225 -0.08537346869707108 0.002651279792189598
-0.088800348341465 -0.4187522828578949 -0.11891032755374908
-0.008373401127755642 0.5656325817108154 -0.08616214990615845
-0.17891883850097656 -0.42320525646209717 -0.022963322699069977
-0.20395594835281372 0.004882992245256901 -0.054992303252220154
-0.06263551115989685 -0.1776968091726303 0.24772126972675323
-0.11418544501066208 -0.4141904413700104 0.15116077661514282
-0.01563642919063568 0.458368718624115 -0.1683904081583023
0.037942931056022644 -0.42279988527297974 -0.18490348756313324
0.1254376322031021 0.13636398315429688 0.08069946616888046
0.011703472584486008 0.00937313586473465 -0.17891335487365723
0.03832485154271126 0.21592648327350616 -0.17355100810527802
-0.19645921885967255 -0.11303440481424332 -0.0025409720838069916
-0.08753634244203568 0.5545228719711304 -0.009568914771080017
0.20153063535690308 -0.3495718836784363 -0.1337718516588211
0.2043994516134262 0.01829294115304947 -0.08216489851474762
-0.18095508217811584 -0.0013604424893856049 -0.1768142729997635
0.05907267704606056 0.13383334875106812 0.22224342823028564
0.1231672614812851 -0.4187120199203491 0.13724209368228912
0.12583424150943756 0.16384172439575195 -0.03923483192920685
0.05449112504720688 -0.1615147739648819 0.24967019259929657
-0.050571978092193604 0.3938653767108917 -0.16858749091625214
-0.20046624541282654 -0.41178011894226074 -0.023859083652496338
0.2077159881591797 -0.0678136944770813 -0.06833139806985855
-0.12049543857574463 0.19043880701065063 0.12975236773490906
-0.2109178602695465 -0.06086086109280586 -0.1000610888004303
-0.19778260588645935 0.08140531927347183 -0.06801898777484894
0.0605149045586586 -0.39432764053344727 -0.20470352470874786
-0.0015321597456932068 -0.3788309395313263 0.2499004304409027
0.08216370642185211 -0.4066402018070221 0.03065621107816696
-0.11197184771299362 0.09750010073184967 0.12634579837322235
-0.07604003697633743 0.5592467784881592 0.009773239493370056
0.1814805567264557 0.08493521064519882 -0.0015354612842202187
-0.11948011070489883 0.18438121676445007 0.17205461859703064
0.21167509257793427 -0.34806373715400696 -0.1226411908864975
0.0005668699741363525 -0.15383508801460266 -0.1713622808456421
-0.04054780676960945 -0.4185304343700409 -0.1909978985786438
-0.1350540667772293 0.42637088894844055 -0.03916383534669876
-0.1263653188943863 0.23691514134407043 0.10423159599304199
-0.2059032917022705 0.008950907737016678 -0.13690640032291412
-0.02352321520447731 0.09924659878015518 -0.1798020750284195
0.03461834788322449 0.33302637934684753 0.23745378851890564
0.08854052424430847 0.4811760187149048 -0.16477009654045105
-0.08779554069042206 -0.35337865352630615 -0.20603691041469574
0.07599809765815735 -0.41265010833740234 -0.06153613328933716
0.14173482358455658 0.012745717540383339 0.15937365591526031
-0.1871652603149414 -0.3584347665309906 0.09894989430904388
-0.0511753149330616 0.230879545211792 0.23825986683368683
-0.10140848904848099 0.555641233921051 -0.1486300528049469
0.07833484560251236 -0.4167480766773224 0.016786016523838043
0.044693365693092346 0.5676354765892029 -0.11682312190532684
0.08139215409755707 -0.10897284746170044 -0.1729416400194168
0.08193135261535645 -0.4233033359050751 -0.1307155340909958
0.09523648023605347 -0.4111587107181549 -0.04057946056127548
-0.01945515163242817 0.47004321217536926 0.08004817366600037
0.07977461814880371 -0.4120202660560608 0.018315371125936508
0.06729058921337128 0.180415540933609 0.25533992052078247
0.09965205937623978 -0.4046330451965332 0.049815937876701355
-0.19640672206878662 -0.2816554605960846 0.11001507192850113
-0.18528001010417938 -0.0943913385272026 -0.17232324182987213
0.20214663445949554 0.01327701285481453 -0.09086386114358902
0.1329912394285202 0.2715044617652893 0.033618077635765076
0.013558465987443924 0.5670541524887085 -0.007616022601723671
-0.13057959079742432 0.46553775668144226 -0.05078424885869026
0.027650989592075348 0.4423108696937561 0.10238315910100937
0.08272989094257355 -0.4099872410297394 0.039709605276584625
0.01431296020746231 -0.37592214345932007 0.2507898807525635
-0.1931823492050171 0.0868656262755394 -0.051778845489025116
-0.04724164307117462 0.41279420256614685 -0.16912992298603058
0.18410617113113403 -0.2191201150417328 -0.13254283368587494
0.05489850044250488 0.21130454540252686 -0.17170648276805878
0.09595733135938644 -0.09223731607198715 0.219309002161026
0.12971363961696625 0.45480266213417053 -0.04408211261034012
0.1421344131231308 -0.3755873441696167 -0.19437558948993683
-0.17937295138835907 -0.2872689962387085 0.14523260295391083
-0.16189751029014587 -0.36928269267082214 -0.18991820514202118
-0.08909685909748077 0.34861844778060913 -0.16947266459465027
0.2054341584444046 -0.03890678659081459 -0.04904730245471001
0.20924651622772217 -0.09842266142368317 -0.08986102044582367
-0.06278923898935318 -0.41994044184684753 -0.09967508912086487
-0.014746207743883133 0.0956127867102623 0.1881563514471054
0.11755283921957016 0.17936953902244568 -0.15222716331481934
-0.18964387476444244 0.13519355654716492 -0.14298073947429657
-0.11104591190814972 -0.4158620238304138 -0.20283061265945435
-0.20824572443962097 -0.24568718671798706 0.08784724771976471
-0.0664738118648529 0.3898923993110657 0.10903330892324448
0.2185569703578949 -0.27001050114631653 0.04251246154308319
-0.10018547624349594 0.46498411893844604 0.04970093443989754
0.09965818375349045 -0.4182462692260742 -0.11884400248527527
-0.04489113390445709 0.06863327324390411 -0.18204453587532043
0.17122706770896912 -0.41888296604156494 -0.11172811686992645
-0.2045975774526596 0.009955348446965218 -0.061294447630643845
0.2070605307817459 -0.36136555671691895 -0.13046680390834808
0.1757756471633911 -0.41675975918769836 -0.11990438401699066
0.19352999329566956 -0.37078261375427246 0.033838480710983276
-0.08755883574485779 0.5560160875320435 0.010649031028151512
-0.1151190847158432 -0.2367362380027771 0.22292965650558472
0.09653456509113312 -0.4126328229904175 0.009355437010526657
0.010391246527433395 0.5608317852020264 0.048553649336099625
0.20698411762714386 -0.2247258871793747 0.08997129648923874
0.08325764536857605 -0.17827089130878448 0.24928362667560577
0.07884041219949722 -0.4174221158027649 0.0187980979681015
0.12949752807617188 0.2145480364561081 -0.00842336192727089
-0.1746910810470581 -0.4166443943977356 0.05850721895694733
-0.011939531192183495 0.3840428292751312 0.23090900480747223
0.07908221334218979 -0.16641056537628174 0.2412073314189911
0.01922772452235222 -0.10202188789844513 0.23594710230827332
-0.12651431560516357 0.25688090920448303 -0.09008398652076721
