-0.38989827036857605 -0.06457598507404327 0.06827644258737564
0.5807117819786072 0.24209082126617432 -0.08302084356546402
0.4710437059402466 0.001605768222361803 0.18965095281600952
0.3147706091403961 -0.05804641544818878 0.4452180564403534
0.14564818143844604 -0.6230534315109253 -0.0821821466088295
0.027917275205254555 0.4028385579586029 0.2016443908214569
-0.5786476135253906 0.10831582546234131 -0.06997209042310715
-0.06747891008853912 -0.2077029049396515 0.271243155002594
-0.5793544054031372 0.2201414257287979 0.026919927448034286
0.12359845638275146 -0.16487030684947968 -0.3696858882904053
-0.38776785135269165 -0.003003213554620743 0.30629903078079224
-0.4658168852329254 -0.110909104347229 -0.3715435862541199
0.01847759820520878 0.004456780850887299 -0.2145826816558838
0.17173950374126434 0.004966875538229942 -0.38638344407081604
0.22078919410705566 0.46011680364608765 0.44085830450057983
0.27731627225875854 0.0018240828067064285 0.34360167384147644
0.582892894744873 0.1289009004831314 0.07151210308074951
0.29321298003196716 -0.1635640561580658 0.26242512464523315
0.09620169550180435 -0.31646838784217834 0.3169882893562317
0.5798875093460083 0.26230573654174805 -0.07729268819093704
0.46505066752433777 0.3891178369522095 0.3352956473827362
0.09903102368116379 -0.008558761328458786 0.4633662700653076
-0.5195977091789246 0.36925095319747925 -0.02794887311756611
0.16058650612831116 0.0029536690562963486 -0.1917334944009781
0.2369898557662964 -0.6347693800926208 -0.28439998626708984
-0.002810870064422488 0.4009140431880951 -0.3309362530708313
0.3886030316352844 0.12303845584392548 0.34311437606811523
-0.3151671290397644 0.2720765471458435 -0.39966195821762085
-0.40253815054893494 0.08107177168130875 -0.261351078748703
0.389004111289978 -0.4456256926059723 -0.07529279589653015
-0.5760146379470825 0.033535487949848175 -0.2107102870941162
-0.3827083706855774 0.18727651238441467 0.3434959352016449
0.2550959587097168 0.3649318218231201 0.3438800275325775
-0.4369329810142517 0.12146370112895966 0.3408259451389313
0.31177544593811035 0.015095188282430172 0.34039053320884705
0.11977687478065491 0.4012986421585083 -0.22496871650218964
0.47517135739326477 0.001410539261996746 -0.14735372364521027
-0.5723151564598083 -0.013049335218966007 0.09500966221094131
-0.11733360588550568 0.22237218916416168 -0.40121060609817505
0.014435125514864922 0.40230998396873474 -0.013893918134272099
0.5795832872390747 0.19547662138938904 -0.36379772424697876
0.09261264652013779 0.0014645447954535484 0.18723617494106293
0.0007547737914137542 0.40148746967315674 -0.07156451046466827
-0.19154809415340424 -0.0428956039249897 -0.2052047997713089
-0.30765408277511597 0.34471723437309265 -0.13734668493270874
0.4466548264026642 -0.18577413260936737 -0.00022762164007872343
0.4470873177051544 0.3997088372707367 -0.2560177445411682
-0.37526199221611023 0.13542431592941284 -0.4008359909057617
0.3935571312904358 -0.4156891703605652 -0.0027793466579169035
0.08614332228899002 -0.028584256768226624 0.3196216821670532
0.31718504428863525 -0.5199249386787415 -0.22099535167217255
0.41326195001602173 0.00046742334961891174 -0.29708734154701233
0.31928661465644836 0.4011724889278412 0.139626607298851
-0.20105715095996857 0.00410138163715601 -0.19299985468387604
0.13823449611663818 0.4038368761539459 0.30231860280036926
0.1953469216823578 -0.0016469424590468407 0.2359480857849121
0.23727397620677948 0.3350162208080292 0.46510177850723267
-0.4032573103904724 0.0062010628171265125 -0.3750060200691223
-0.3844059705734253 0.07363460958003998 0.12353703379631042
0.37335705757141113 -0.38659870624542236 -0.1588289439678192
0.15571674704551697 0.33903956413269043 -0.4001387357711792
-0.29415175318717957 0.1227356493473053 0.34453997015953064
0.01096027810126543 -0.4729549288749695 0.2480625957250595
0.39037787914276123 -0.39036813378334045 -0.08343835920095444
0.5470273494720459 0.0030103963799774647 0.20380154252052307
-0.02361387386918068 0.0012943074107170105 0.07201642543077469
0.5808418989181519 0.10419058054685593 0.0011513178469613194
0.24299202859401703 0.4001942276954651 -0.3514366149902344
-0.1729617565870285 -0.3944959342479706 0.06390012800693512
-0.4917858839035034 -0.10733044147491455 0.07785113900899887
-0.03886529430747032 0.0027210027910768986 -0.10144417732954025
-0.0540381483733654 -0.6275842189788818 0.14962396025657654
-0.22760111093521118 0.028388965874910355 -0.3962630033493042
0.2782202661037445 0.17680546641349792 0.4602145552635193
0.37695303559303284 -0.09412236511707306 -0.2286967635154724
-0.3762282729148865 0.36183270812034607 0.04894391819834709
-0.08500698208808899 -0.15739120543003082 -0.3187836706638336
-0.3612592816352844 -0.00808779802173376 0.16160741448402405
0.0013295221142470837 -0.1759478598833084 -0.35628512501716614
-0.2043406069278717 0.004057242535054684 -0.24639926850795746
-0.15273259580135345 0.24410302937030792 -0.3998081088066101
0.3970833718776703 -0.19610440731048584 0.1554322987794876
-0.036090999841690063 -0.6208207607269287 0.08551208674907684
0.332528293132782 -0.6328088045120239 -0.08031711727380753
0.3767920434474945 0.3993512988090515 -0.3793408274650574
-0.5787104368209839 0.023533932864665985 0.2123764604330063
0.47478896379470825 -0.00047969259321689606 0.07353026419878006
-0.42441216111183167 0.41589900851249695 -0.12570947408676147
-0.1801876276731491 -0.3804759979248047 0.15947028994560242
0.06239601969718933 0.0037078959867358208 -0.10085856914520264
0.2818717360496521 -0.6062259078025818 -0.25608721375465393
-0.4222105145454407 0.09955689311027527 -0.03623975068330765
0.039656929671764374 0.24929696321487427 -0.39968064427375793
0.5370525121688843 0.4017639756202698 -0.09906091541051865
0.33574479818344116 -0.6504781246185303 0.11346733570098877
0.03512141853570938 0.19756639003753662 0.4455395042896271
-0.44749966263771057 0.11014612019062042 -0.15073320269584656
0.32970237731933594 0.4035739302635193 0.18995177745819092
-0.03845739737153053 -0.6414732933044434 0.17568814754486084
0.20013627409934998 -0.36906930804252625 0.3000580072402954
0.24505145847797394 0.3529425263404846 0.4640304148197174
-0.23728226125240326 -0.16039404273033142 -0.05593639612197876
-0.4398927688598633 0.40313905477523804 0.25436222553253174
-0.48314008116722107 -0.08175615966320038 0.3420921862125397
0.12783224880695343 0.09923320263624191 0.46558570861816406
0.22992484271526337 -0.6272309422492981 0.1730850636959076
-0.578123152256012 0.1552795171737671 0.3292936086654663
-0.4425927400588989 0.07294987887144089 0.3455255329608917
-0.5333045125007629 0.0029135532677173615 -0.2759612798690796
-0.22823867201805115 0.011426649056375027 -0.3874789774417877
0.47469544410705566 0.0662929117679596 -0.40293705463409424
0.3718012869358063 -0.6572805047035217 -0.06532834470272064
0.5766315460205078 0.38388052582740784 -0.06738905608654022
0.2848776578903198 -0.05035331845283508 -0.32211023569107056
-0.5444977283477783 0.25326773524284363 0.3415799140930176
-0.5824171900749207 0.1787654459476471 0.27318722009658813
-0.0341319665312767 -0.5514306426048279 -0.2850215435028076
0.08402589708566666 0.1947564035654068 -0.4001918435096741
-0.576271653175354 0.1729872226715088 0.27463728189468384
-0.12554246187210083 -0.525312066078186 -0.20563921332359314
0.17284606397151947 -0.6246461868286133 0.03398580476641655
-0.28203892707824707 0.36582547426223755 -0.05085665360093117
0.16316913068294525 0.0032200217247009277 -0.23767441511154175
0.1426890343427658 -0.6225594878196716 0.1285206526517868
0.026266178116202354 0.003894346533343196 -0.26362648606300354
0.32730185985565186 -0.4135473370552063 -0.21708527207374573
0.38199278712272644 0.001413451973348856 -0.3335568904876709
-0.03265020623803139 -0.5162212252616882 -0.27991577982902527
0.36511462926864624 -0.41049277782440186 0.08898425847291946
-0.06688544899225235 0.004060440696775913 0.32470181584358215
0.08663199096918106 0.002663835883140564 0.11095799505710602
0.2275458425283432 0.11160413175821304 -0.39996853470802307
0.5634040236473083 0.07711399346590042 -0.400591105222702
0.2842790186405182 0.0008143975865095854 -0.32042253017425537
0.03710528090596199 0.001503828912973404 0.29052528738975525
0.030865788459777832 0.002020113170146942 -0.050916217267513275
0.027633391320705414 0.1914663463830948 -0.39994016289711
-0.0026380273047834635 -0.39667490124702454 -0.3024713099002838
0.05555775761604309 -0.022692114114761353 0.31882691383361816
0.07069099694490433 -0.3230402171611786 0.31365418434143066
0.2039039134979248 -0.05173615738749504 0.45847922563552856
-0.17861014604568481 0.2189839780330658 0.34552502632141113
0.5045380592346191 0.11138081550598145 -0.4034248888492584
-0.5790385603904724 0.33455008268356323 0.09405776113271713
-0.40626853704452515 0.3966449201107025 -0.2581261098384857
0.18464180827140808 0.003771095536649227 -0.30535686016082764
0.15554474294185638 0.003272616770118475 -0.08004610985517502
0.3900171220302582 -0.5235579609870911 -0.05297684296965599
-0.041166216135025024 0.003481475170701742 0.22777588665485382
-0.5708178281784058 0.0328192301094532 0.02683439292013645
0.4549475908279419 0.11826425790786743 0.3419150412082672
-0.11081317067146301 -0.478158175945282 0.16963213682174683
0.027717798948287964 -0.5265123844146729 -0.3072700798511505
-0.1413268893957138 0.2796861529350281 0.34829947352409363
0.46048861742019653 0.25455155968666077 0.3413417339324951
-0.001131788594648242 -0.6206819415092468 0.07221770286560059
0.27485206723213196 0.40381863713264465 0.2922871708869934
-0.12752312421798706 0.0021364567801356316 0.09388459473848343
-0.19976523518562317 -0.22168883681297302 0.1399346888065338
0.1884951889514923 6.900075823068619e-05 0.19372227787971497
0.20857936143875122 -0.3818959593772888 -0.3245967924594879
-0.013427812606096268 0.0020678024739027023 -0.36431244015693665
0.3409886062145233 -0.6357834339141846 -0.08162721991539001
0.16301964223384857 0.0028423909097909927 -0.20658880472183228
0.1834198534488678 0.0028559023048728704 -0.23043964803218842
-0.4501459002494812 0.11167924106121063 -0.008306914940476418
-0.4592987895011902 0.39707937836647034 -0.205253005027771
-0.5783974528312683 0.14815406501293182 0.1455787718296051
0.22161221504211426 -0.22868849337100983 -0.3477817177772522
-0.2156802862882614 0.39992034435272217 -0.37072524428367615
0.43846726417541504 -0.015073557384312153 -0.06493829190731049
0.5811700820922852 0.07205114513635635 0.23714013397693634
0.5616905093193054 0.008892247453331947 -0.06311249732971191
0.2298259437084198 0.0031916629523038864 0.07962976396083832
0.0948944091796875 -0.5495295524597168 -0.3193778991699219
-0.22773103415966034 0.3431355059146881 0.3434008061885834
-0.05178331583738327 0.0023277215659618378 -0.03462352976202965
0.5795917510986328 0.028130486607551575 0.24707002937793732
-0.23913335800170898 -0.10802830755710602 -0.05022215098142624
0.22753551602363586 0.2794560194015503 0.464037150144577
0.31397348642349243 -0.6225023865699768 -0.1358029842376709
-0.16110026836395264 -0.0002746656537055969 0.18599922955036163
-0.42371976375579834 0.17645449936389923 -0.40167683362960815
0.4744572043418884 0.32020318508148193 0.3401321768760681
0.3548104465007782 0.00354686938226223 0.05542067438364029
-0.4947430193424225 0.3361898362636566 -0.1488843709230423
-0.03353141248226166 -0.15047158300876617 -0.3403778374195099
-0.06652551144361496 0.0027922987937927246 0.10747595876455307
0.40996479988098145 -0.27182725071907043 -0.18441665172576904
-0.4969196021556854 0.38367876410484314 -0.02754204347729683
-0.1942552775144577 0.0034196367487311363 -0.0060062408447265625
0.5263987183570862 0.005542785860598087 0.0027624350041151047
-0.5726121068000793 0.014376359060406685 -0.03939054161310196
-0.463577538728714 -0.017118029296398163 0.3622414767742157
-0.35875657200813293 0.4017527997493744 -0.36316943168640137
-0.4994310438632965 0.3484346270561218 -0.14821374416351318
0.3610856533050537 -0.6496142745018005 -0.05640393868088722
0.0586889423429966 0.13144420087337494 -0.4004093110561371
-0.5807250142097473 0.18465600907802582 0.15773044526576996
0.39880797266960144 -0.3764583468437195 0.11201485991477966
-0.11648356914520264 0.009016698226332664 0.3260628581047058
0.576300323009491 0.3612551689147949 -0.27778059244155884
-0.48146307468414307 0.11930274218320847 0.012249060906469822
-0.34122562408447266 0.26781877875328064 0.3427973687648773
-0.18602435290813446 -0.5048331022262573 -0.08023785799741745
-0.5086490511894226 0.10311876237392426 0.3435609042644501
0.37736019492149353 0.003596169874072075 0.03629074990749359
0.5633499622344971 0.00011835712939500809 -0.28630805015563965
0.20075932145118713 -0.6321436166763306 0.1925159990787506
0.5624557137489319 0.4009409546852112 0.3420637249946594
0.008365057408809662 0.1867240071296692 0.3505050837993622
0.27704137563705444 -0.6225870847702026 0.024958916008472443
0.39849963784217834 0.3899405896663666 -0.3962179720401764
-0.155053973197937 -0.6463238596916199 -0.0478706955909729
-0.5740835070610046 0.04351454973220825 0.1744416207075119
0.3114930987358093 0.16861818730831146 -0.40120217204093933
-0.07497178763151169 0.000524706207215786 0.15257595479488373
-0.498136043548584 0.39918017387390137 -0.22190217673778534
0.30684003233909607 0.4006582200527191 0.04703005030751228
-0.43541696667671204 0.09895476698875427 -0.33062294125556946
0.3066681921482086 -0.5958067178726196 0.17381742596626282
0.2446404993534088 0.3509191572666168 -0.4016307294368744
-0.20377860963344574 0.40193313360214233 0.11481427401304245
0.5484479665756226 0.002846650779247284 0.2627694308757782
0.2991480231285095 0.4003194272518158 -0.28570953011512756
-0.4498116970062256 -0.10142545402050018 -0.3883461654186249
-0.32065778970718384 0.39394518733024597 -0.008419499732553959
0.007155091967433691 -0.2828918993473053 0.3025377690792084
-0.5049485564231873 0.10433420538902283 0.34023213386535645
0.11651772260665894 0.401565819978714 -0.27078211307525635
0.09394332021474838 -0.0011336617171764374 0.2998912036418915
0.13654935359954834 -0.6233940720558167 -0.13685119152069092
0.42731979489326477 -0.06015592813491821 -0.14986300468444824
0.48342591524124146 -0.0005295863375067711 0.3092783987522125
-0.5309351086616516 0.3974992036819458 -0.3127371370792389
0.1502813994884491 0.03138398751616478 0.4601612091064453
0.17370449006557465 -0.6266565322875977 -0.20085355639457703
0.04325317591428757 -0.033625684678554535 0.4580349028110504
-0.5733581185340881 0.08804424107074738 -0.15344853699207306
0.4124533236026764 -0.37558555603027344 0.09722207486629486
-0.5767703056335449 0.09847064316272736 -0.08481670916080475
-0.1287761777639389 0.00602022185921669 -0.3742343783378601
0.0926123633980751 -0.6228201985359192 -0.03268104046583176
0.04060419276356697 -0.0016694143414497375 0.32410573959350586
0.19244597852230072 0.18514688313007355 -0.40079188346862793
0.3565804064273834 0.0027836570516228676 -0.1502395123243332
0.21411071717739105 0.002987234853208065 0.0999971479177475
0.14699804782867432 -0.5665300488471985 -0.3161170482635498
-0.09523899853229523 0.0015857433900237083 0.33038902282714844
0.27269402146339417 0.0025143614038825035 -0.07246603816747665
-0.1586836576461792 0.3993116319179535 0.14236830174922943
-0.5602917671203613 0.3802053928375244 0.23668409883975983
0.22002765536308289 -0.06766116619110107 0.30080166459083557
-0.05398590862751007 -0.6318509578704834 0.14731615781784058
-0.21401044726371765 -0.1426902562379837 0.1077805608510971
0.47011587023735046 0.0007192138582468033 -0.1525450497865677
0.28001976013183594 0.002355632372200489 -0.3232456147670746
-0.2779525816440582 0.39408358931541443 -0.21580690145492554
-0.2955160140991211 0.0016982676461338997 -0.24403303861618042
0.05918571352958679 0.33956068754196167 0.3431154787540436
-0.474361777305603 0.4049254357814789 0.13102906942367554
0.2334556132555008 0.3901001811027527 0.3435443639755249
0.3090597093105316 0.0035839444026350975 0.028944820165634155
-0.39781296253204346 -0.07890275865793228 0.11287818849086761
0.21235521137714386 -0.6424676179885864 -0.2942296862602234
-0.5717668533325195 0.05759292095899582 -0.30579644441604614
0.2598731815814972 0.012233411893248558 0.34277015924453735
0.30342191457748413 -0.19061091542243958 -0.3105272054672241
-0.517997682094574 -0.0020696744322776794 0.30474963784217834
-0.4868639409542084 0.3936861753463745 0.3346933424472809
0.02764768898487091 0.3841530382633209 0.3787529766559601
0.11476489156484604 0.4009677767753601 -0.24372141063213348
0.40919607877731323 -0.25924620032310486 -0.1805090755224228
-0.23104128241539001 0.14229734241962433 0.3431015908718109
-0.3410021960735321 0.01874028891324997 0.339104562997818
0.5795416235923767 0.03497594594955444 -0.3599777817726135
-0.38112524151802063 0.40822041034698486 0.0017962637357413769
0.35232338309288025 -0.4000661373138428 -0.17831328511238098
-0.4760536849498749 0.0018119066953659058 0.02448667585849762
-0.0531974732875824 0.003095970256254077 -0.2682152986526489
-0.11232370138168335 -0.4105185568332672 -0.21967481076717377
-0.530489444732666 0.09180544316768646 -0.3521290421485901
0.04871618002653122 0.40267112851142883 0.18666698038578033
0.02585240826010704 0.21852286159992218 0.3874809741973877
-0.009531977586448193 0.40315166115760803 0.1985188126564026
0.17019687592983246 0.0027451063506305218 -0.0897161066532135
-0.2183556854724884 0.4033040404319763 -0.22821424901485443
0.20438019931316376 -0.4067412316799164 -0.3021215498447418
0.22195781767368317 -0.06908494979143143 0.4379958510398865
0.5699079632759094 0.3688972294330597 0.344243586063385
-0.06041731685400009 0.40190389752388 0.06084157153964043
-0.0014993827790021896 0.000963863218203187 -0.3598475158214569
0.10726698487997055 0.09451884776353836 0.4652981758117676
-0.4380400478839874 0.3592338562011719 -0.2001260370016098
-0.09715825319290161 0.006701326929032803 -0.37541523575782776
-0.35957038402557373 0.0036639454774558544 0.11830435693264008
-0.4092927873134613 0.08741213381290436 -0.1818898767232895
0.2310933768749237 0.0036057736724615097 -0.25025179982185364
0.12316082417964935 -0.08904688060283661 0.39610517024993896
0.2511872947216034 -0.6248231530189514 -0.09993121773004532
-0.5204140543937683 0.3911743462085724 -0.2582140862941742
-0.5460900068283081 -0.07051824778318405 -0.3957390785217285
-0.06968185305595398 -0.1476566642522812 0.26969724893569946
0.1900988072156906 -0.41053593158721924 0.2511255443096161
0.44080474972724915 0.3178081512451172 0.34529921412467957
-0.4223453402519226 0.003257454838603735 0.03872590512037277
0.07488392293453217 -0.03578205406665802 -0.3705768883228302
0.109065942466259 -0.6229079961776733 -0.028354421257972717
-0.4591514468193054 -0.034422654658555984 0.35189706087112427
-0.4301319718360901 -0.10139993578195572 0.2786036729812622
-0.4882380962371826 0.002161480952054262 -0.1275636851787567
0.5152430534362793 0.32673588395118713 -0.401754766702652
0.28728246688842773 -0.3813595473766327 0.20615549385547638
-0.29068517684936523 0.405307412147522 0.11630284786224365
-0.4122024476528168 0.2849666178226471 -0.4023306965827942
0.07409833371639252 -0.48896193504333496 0.25974413752555847
-0.11946672201156616 -0.6275620460510254 -0.10907872766256332
0.17049813270568848 -0.45204707980155945 0.2541700303554535
-0.06128301844000816 0.4024679660797119 -0.17836014926433563
0.03490326553583145 0.18188846111297607 0.45610398054122925
0.3515525758266449 0.4013739228248596 -0.2396908551454544
-0.12712523341178894 0.003782543120905757 -0.0863385945558548
-0.16032060980796814 -0.46628522872924805 0.09463758021593094
-0.12233612686395645 0.400804728269577 0.0244426466524601
0.09688884019851685 -0.6226375699043274 0.12439167499542236
0.5245238542556763 0.40122538805007935 0.2485424280166626
-0.05277729406952858 -0.6229997277259827 -0.09611890465021133
-0.10105202347040176 0.4008520245552063 0.07615964114665985
-0.4542537331581116 0.4019189476966858 0.3230232000350952
0.42052680253982544 0.3987215757369995 -0.24335332214832306
-0.26407983899116516 0.1904589980840683 -0.40034666657447815
0.12037517875432968 -0.621414065361023 0.1746653914451599
-0.07126607745885849 -0.23467016220092773 -0.32462531328201294
0.032618988305330276 0.06683095544576645 0.45662012696266174
-0.4244021475315094 0.17003606259822845 -0.40008577704429626
0.1440158486366272 0.401500940322876 0.2772969901561737
0.019827574491500854 0.2739885747432709 -0.39677107334136963
0.18753588199615479 -0.4319063425064087 -0.3075140714645386
0.237493634223938 0.17231091856956482 0.4630865752696991
0.14565914869308472 0.24746882915496826 0.4630444347858429
0.27164119482040405 0.39944887161254883 -0.32605236768722534
-0.24182213842868805 -0.19523873925209045 -0.02683236263692379
0.036346789449453354 -0.029569128528237343 0.453384131193161
-0.5762315988540649 0.004135655239224434 -0.08110949397087097
-0.11597565561532974 -0.6535576581954956 0.13581658899784088
-0.19611333310604095 -0.36324378848075867 -0.19311964511871338
0.09127368032932281 -0.5741276741027832 -0.32054466009140015
0.1260295808315277 0.4238075017929077 0.4502706527709961
-0.47635164856910706 0.3893066644668579 -0.18661122024059296
0.14929889142513275 0.399914026260376 0.27163392305374146
0.26210668683052063 -0.00125027634203434 -0.35012564063072205
0.007979816757142544 -0.6567040085792542 0.23063646256923676
-0.3629997670650482 0.003731061704456806 0.26315367221832275
-0.41734278202056885 -0.09266000986099243 0.3285991847515106
0.3350394368171692 0.00181683711707592 0.18535470962524414
0.2823575735092163 0.3984701335430145 0.21287819743156433
0.03558087721467018 -0.2791721820831299 -0.36445292830467224
0.3057287335395813 0.002110437024384737 -0.3571974039077759
0.2477295845746994 -0.6228765249252319 0.12456090748310089
-0.24286974966526031 -0.21834537386894226 -0.0186928641051054
-0.057576801627874374 0.004176459740847349 -0.20151332020759583
0.2926323413848877 0.4024674892425537 -0.10533540695905685
0.08688367158174515 0.003941874019801617 -0.31685930490493774
-0.055020928382873535 0.40107548236846924 -0.12818080186843872
0.32168519496917725 -0.19081242382526398 -0.2997148036956787
0.22370947897434235 0.0027116965502500534 0.13125742971897125
0.1287304311990738 0.004562024492770433 -0.3082430958747864
-0.5777053833007812 0.039843592792749405 0.25258681178092957
0.5799603462219238 0.21704770624637604 0.23956339061260223
0.21584579348564148 -0.3766975998878479 -0.32711586356163025
-0.5762680172920227 0.10262428969144821 0.022727323696017265
-0.5346848368644714 0.06849190592765808 0.34495866298675537
-0.24573862552642822 0.4013185203075409 -0.34491273760795593
-0.25794899463653564 0.40500712394714355 0.15669333934783936
0.09698860347270966 -0.31182488799095154 0.3163699805736542
-0.08425600081682205 0.18187053501605988 0.40188708901405334
-0.5047059059143066 -0.1039428561925888 0.11914820224046707
-0.3247606158256531 0.40350642800331116 -0.08475196361541748
-0.4286402463912964 -0.10247961431741714 -0.10068119317293167
0.5117753148078918 0.001160699874162674 0.24596136808395386
-0.45628058910369873 0.36377108097076416 -0.17325274646282196
-0.48555684089660645 0.2937306761741638 -0.40085405111312866
0.579088568687439 0.016252923756837845 0.21230655908584595
-0.3138992190361023 0.002158251591026783 -0.11906559765338898
0.44633767008781433 -0.00022670207545161247 -0.1845516860485077
-0.13130515813827515 -0.08767212182283401 0.22383075952529907
-0.5794090628623962 0.18490959703922272 -0.19086939096450806
0.08374852687120438 -0.6218773722648621 -0.054094742983579636
0.2808378338813782 0.3603762090206146 -0.40033912658691406
-0.4496108293533325 -0.10631299018859863 -0.2180803120136261
-0.5030356049537659 -0.10196417570114136 -0.21185441315174103
-0.1899077445268631 0.40313175320625305 0.3117636740207672
-0.501914918422699 0.003654410596936941 -0.30557703971862793
0.448883593082428 -0.08177922666072845 -0.04985667020082474
-0.5818168520927429 0.1479143351316452 -0.2318229377269745
0.26933541893959045 -0.6218054890632629 -0.026959668844938278
0.20981384813785553 0.1395549327135086 0.3433031737804413
0.534238338470459 0.27800941467285156 0.3406461477279663
0.1571209579706192 0.009769964963197708 -0.39254042506217957
-0.11777655780315399 -0.6228446960449219 -0.0959417000412941
-0.21849025785923004 -0.07506551593542099 -0.14788833260536194
-0.4950501024723053 0.09448506683111191 0.34510236978530884
-0.2734409272670746 0.0034015262499451637 -0.24955174326896667
-0.5788207054138184 0.2861546277999878 -0.2871779501438141
0.2784883379936218 -0.15938976407051086 -0.32251301407814026
-0.47698166966438293 0.11909137666225433 -0.04540906473994255
-0.1876508742570877 0.0034192679449915886 -0.3492845594882965
-0.3762381970882416 -0.05227662995457649 -0.10527432709932327
0.3233543336391449 0.026775801554322243 0.34153467416763306
-0.5765994787216187 -0.0009406073950231075 -0.2489503026008606
0.2981489598751068 0.4000115692615509 0.038253847509622574
0.5824917554855347 0.07196436822414398 0.2513120770454407
0.1028616651892662 0.46950262784957886 0.416168749332428
-0.1137508749961853 0.007691008970141411 -0.37725764513015747
-0.03714166581630707 -0.6241612434387207 -0.21025383472442627
0.2575168311595917 0.4641222655773163 0.4353873133659363
-0.5782650113105774 0.1626737117767334 0.07278960198163986
0.03224574401974678 0.00028969720005989075 0.21011000871658325
-0.3780176043510437 0.0052640377543866634 -0.3580939769744873
-0.1621178835630417 -0.3680291771888733 -0.24265487492084503
-0.017983632162213326 0.0026550309266895056 -0.10782615095376968
-0.10287978500127792 -0.3835500180721283 0.2304304838180542
0.021237598732113838 -0.3766104280948639 0.28941988945007324
-0.5747010111808777 0.17831303179264069 -0.11197395622730255
-0.5771579146385193 0.02581651695072651 0.3269726634025574
-0.5353825688362122 0.39491942524909973 0.1982007920742035
-0.1693318784236908 -0.49690699577331543 -0.12641674280166626
0.44210007786750793 0.36963480710983276 0.34026679396629333
-0.44155755639076233 0.41184934973716736 -0.13729476928710938
0.12441942095756531 0.21262222528457642 -0.401587575674057
-0.22493335604667664 0.000765717588365078 0.1645836979150772
0.2831447124481201 -0.6224650740623474 -0.20725281536579132
0.3186284005641937 0.11859431117773056 0.34379854798316956
0.24653629958629608 0.2950187623500824 0.45956042408943176
0.021025435999035835 0.0027099531143903732 -0.1895292103290558
0.006937148980796337 -0.46764373779296875 -0.3019809126853943
0.5816208124160767 0.14275529980659485 -0.1085158959031105
-0.04754103347659111 0.004306557588279247 -0.1936178356409073
0.13157542049884796 0.0953533798456192 -0.39969033002853394
-0.3289724886417389 0.002906420733779669 -0.037182994186878204
0.46369668841362 0.00233282707631588 -0.09659001231193542
0.2508690357208252 -0.3651998043060303 -0.3319205045700073
-0.44096705317497253 0.0020226938650012016 -0.16674108803272247
-0.06417246162891388 0.40057939291000366 -0.30491191148757935
0.22719718515872955 -0.3801407217979431 -0.3246680498123169
0.0863613560795784 -0.03010658733546734 0.4640115201473236
0.16575248539447784 -0.6258280277252197 -0.1545153260231018
0.024818647652864456 0.003447354771196842 -0.07581336051225662
-0.3776399493217468 -0.06644290685653687 0.13496479392051697
-0.3558671474456787 0.005471284035593271 -0.09371262788772583
-0.1386844962835312 0.40272489190101624 0.12841543555259705
-0.22664092481136322 0.3976329267024994 -0.38320550322532654
0.08592643588781357 0.0024553388357162476 -0.12763763964176178
-0.581464946269989 0.30492106080055237 -0.23133286833763123
0.5833812355995178 0.21962104737758636 0.1353529393672943
-0.4930562376976013 0.016498710960149765 0.35211533308029175
-0.20176991820335388 0.14839784801006317 0.34316375851631165
0.424510657787323 -0.37560850381851196 0.0917777493596077
-0.003987659700214863 0.15425996482372284 0.3502427935600281
0.5202562808990479 0.06192523613572121 0.33883795142173767
0.23302459716796875 -0.6253412365913391 0.08324574679136276
0.07916364073753357 0.0029202282894402742 -0.027972916141152382
-0.5766788125038147 0.04298553243279457 -0.11776311695575714
-0.19498619437217712 -0.3771696388721466 0.13379161059856415
0.32223546504974365 -0.6476589441299438 -0.1663382649421692
-0.581653356552124 0.1976478546857834 -0.20400254428386688
-0.2175685316324234 0.4019966125488281 0.16979126632213593
0.016276570037007332 -0.5074769854545593 0.24908293783664703
-0.2870195209980011 0.005842587910592556 0.24968604743480682
-0.33001887798309326 0.005002361722290516 0.320912629365921
-0.09762094914913177 0.40043768286705017 0.2665148675441742
0.15766490995883942 0.40282076597213745 0.16123348474502563
0.13160310685634613 0.004392934963107109 -0.13085408508777618
0.38311949372291565 -0.3730587065219879 -0.21577057242393494
0.018238011747598648 -0.6227633357048035 -0.07556839287281036
0.44780030846595764 -0.18473662436008453 -0.04626704379916191
0.05558718740940094 -0.37281715869903564 0.30357566475868225
0.2998751103878021 -0.07397553324699402 0.4332164525985718
0.14823687076568604 0.22182108461856842 0.3418373763561249
-0.11813509464263916 -0.564544677734375 -0.2231999784708023
-0.1567184180021286 -0.31104621291160583 -0.2610260248184204
0.15619833767414093 0.0029709050431847572 -0.25007525086402893
-0.09235251694917679 0.002204032614827156 0.20140504837036133
-0.552367627620697 0.38877442479133606 -0.18212392926216125
-0.3717184066772461 0.4024186134338379 -0.3680354952812195
0.44763901829719543 -0.23240886628627777 -0.04402301833033562
0.10793667286634445 0.0045873490162193775 -0.17552600800991058
-0.3676227033138275 -0.03441185876727104 0.23138932883739471
-0.10753440111875534 -0.42457446455955505 -0.23239564895629883
0.406762957572937 0.40057775378227234 0.1535414308309555
-0.002850469434633851 0.0015773195773363113 -0.1269262731075287
0.16490735113620758 -0.6433832049369812 0.24660363793373108
0.17956982553005219 -0.29041218757629395 -0.36334097385406494
0.583375871181488 0.10777720808982849 0.05828524008393288
0.2675774097442627 -0.6543561816215515 -0.24820967018604279
0.04656026512384415 -0.08003608882427216 0.4061933755874634
0.3910195827484131 -0.43721702694892883 -0.06769083440303802
-0.18279767036437988 -0.4637666344642639 -0.09446790814399719
0.032588932663202286 0.08200737088918686 0.45817384123802185
0.5709728002548218 0.013615242205560207 0.035750918090343475
-0.05567079037427902 -0.6204500198364258 0.07462102919816971
0.1400284320116043 0.09636056423187256 0.3449404835700989
0.11646709591150284 -0.6230793595314026 -0.18020634353160858
-0.01942906156182289 0.38933393359184265 -0.3942195475101471
0.37589001655578613 0.1585875302553177 -0.4044402241706848
0.12301170080900192 0.0029118196107447147 -0.21995478868484497
0.25397124886512756 0.4004993736743927 -0.17421679198741913
-0.49610599875450134 -0.05006509646773338 0.338900625705719
-0.13998641073703766 -0.6419810652732849 0.046299468725919724
0.287226140499115 0.09489664435386658 0.46076464653015137
0.37382736802101135 -0.09774185717105865 -0.23725464940071106
0.47278448939323425 0.0007609734311699867 -0.3291705846786499
-0.36920788884162903 0.0004037627950310707 0.32086020708084106
0.25470152497291565 -0.655654788017273 0.20279313623905182
0.09842938929796219 0.14918804168701172 -0.39985769987106323
-0.3047233521938324 0.0028747660107910633 -0.3151465654373169
0.1528613418340683 0.003377362387254834 -0.27398866415023804
0.02977473847568035 0.009692237712442875 0.343944251537323
0.4908207952976227 0.3993798792362213 -0.27872663736343384
0.23863688111305237 0.07236719131469727 -0.4005277752876282
-0.16257186233997345 0.38748952746391296 0.33687886595726013
0.2218874990940094 0.40025362372398376 -0.3221336007118225
-0.49969518184661865 -0.10544636845588684 -0.30515924096107483
0.38365525007247925 0.40084418654441833 0.17544078826904297
0.02825816534459591 -0.5099320411682129 0.25466108322143555
0.027276309207081795 0.0015107672661542892 0.16840146481990814
0.0016926720272749662 -0.621658444404602 0.12189534306526184
-0.5787760615348816 0.3203831911087036 -0.019002705812454224
0.12341196835041046 0.004371908493340015 -0.12429267913103104
-0.07273101806640625 -0.057724013924598694 0.26507604122161865
-0.5072866082191467 -0.03665691241621971 0.35514888167381287
-0.260720819234848 0.21663454174995422 -0.40175360441207886
0.5621543526649475 0.3874601125717163 -0.39564916491508484
0.2532614767551422 -0.259118914604187 0.2824574410915375
0.06985630840063095 -0.10601034760475159 0.3163004219532013
0.06330224871635437 -0.3843836784362793 0.2722247242927551
0.22349540889263153 0.003584519261494279 -0.08417537808418274
-0.42036202549934387 0.13839007914066315 -0.3989861011505127
-0.19822916388511658 0.0026708687655627728 0.02128174714744091
-0.05359053239226341 -0.4910157322883606 0.21699710190296173
-0.022479748353362083 -0.6428450345993042 0.2004607766866684
0.576332688331604 0.00978941936045885 -0.20314693450927734
0.5794942378997803 0.19301126897335052 -0.23289306461811066
0.217942014336586 -0.13058452308177948 0.2996147871017456
0.07683071494102478 0.4452017545700073 0.3901348114013672
-0.3556400537490845 0.005952492821961641 -0.0927661880850792
0.16407646238803864 0.3984358310699463 0.27651461958885193
-0.18063603341579437 -0.5326023697853088 -0.08414445072412491
0.5779499411582947 0.08123647421598434 0.3060803711414337
0.07917927205562592 0.3992704749107361 -0.38389161229133606
0.07535643130540848 -0.00773069029673934 -0.36510056257247925
0.015276572667062283 -0.6271947026252747 -0.20242318511009216
0.02284872904419899 -0.6238325834274292 -0.13472500443458557
-0.4702967703342438 0.39524996280670166 -0.2264787256717682
0.39751070737838745 0.39494073390960693 0.3414296507835388
-0.2741148769855499 0.3949058949947357 -0.2346942126750946
0.2821802496910095 -0.3677155077457428 -0.31813186407089233
0.24073676764965057 0.30109065771102905 0.4623396098613739
-0.4376719892024994 0.2934344708919525 -0.40267935395240784
0.5742807388305664 0.38667237758636475 -0.32901352643966675
0.45177125930786133 -0.0002914327196776867 -0.3234674036502838
-0.5816788673400879 0.3162100315093994 0.13843420147895813
0.039280131459236145 0.3588548004627228 -0.4003971517086029
0.09231127053499222 0.002757033798843622 0.22610078752040863
-0.5123535990715027 0.39226534962654114 -0.387230783700943
-0.19779835641384125 -0.0007546497508883476 0.1259136199951172
-0.5596429109573364 0.09397196769714355 -0.12553922832012177
-0.4566870629787445 -0.10823984444141388 -0.3702714443206787
0.31618157029151917 0.40142372250556946 0.19783587753772736
-0.5344858765602112 -0.0841396227478981 0.22806477546691895
0.28743165731430054 0.3978671431541443 0.3186503052711487
0.13733075559139252 -0.6208075284957886 0.1900385618209839
-0.12195061892271042 -0.44705772399902344 -0.2108309119939804
0.28333303332328796 0.002107396721839905 -0.3747897446155548
-0.14441652595996857 0.0022921981289982796 -0.015700748190283775
0.3706902861595154 0.0026550069451332092 -0.08990192413330078
0.5743809938430786 0.3880627453327179 0.27498507499694824
-0.263727068901062 0.047715924680233 -0.4003097116947174
0.2894354462623596 0.0020086574368178844 0.3211989402770996
-0.21167194843292236 -0.3800126314163208 -0.08312646299600601
-0.5743078589439392 0.08430295437574387 -0.03152938932180405
0.5793800354003906 0.17815740406513214 -0.33888497948646545
0.15995566546916962 0.0021060211583971977 0.22984854876995087
-0.4882415533065796 -0.10821562260389328 0.02127479948103428
-0.5096908211708069 0.3793393671512604 -0.15196353197097778
0.039342064410448074 0.11314326524734497 0.46477606892585754
0.2606196403503418 -0.5963110327720642 -0.2737308442592621
0.29450473189353943 -0.6545203924179077 0.15276741981506348
-0.23371154069900513 0.4039952754974365 0.23468957841396332
0.5140989422798157 0.2927967309951782 0.3382200002670288
0.28668731451034546 0.4652833938598633 0.38039448857307434
-0.35589104890823364 0.00019233115017414093 -0.38775840401649475
-0.026571089401841164 -0.637117326259613 -0.22522135078907013
0.022768907248973846 0.29125332832336426 -0.4005521535873413
-0.5218214392662048 0.10622718185186386 0.07027947902679443
0.23949065804481506 0.00360292661935091 -0.33657383918762207
-0.23671439290046692 -0.23141871392726898 -0.076880544424057
0.329130619764328 -0.6228246688842773 0.023460710421204567
-0.2407127171754837 0.2134411484003067 -0.4006105065345764
-0.5642588138580322 0.3782409429550171 -0.08070182800292969
0.21233800053596497 -0.050215937197208405 0.31425127387046814
0.5804324746131897 0.15092581510543823 0.21885371208190918
0.06709485501050949 -0.34552517533302307 -0.3705008029937744
0.3781518340110779 0.003502223640680313 -0.17245079576969147
0.27792713046073914 -0.6230466961860657 0.06531332433223724
-0.01737864501774311 -0.30766546726226807 0.2944392263889313
0.31298375129699707 -0.6433995366096497 -0.1705874800682068
0.10692419856786728 0.0016748318448662758 0.23979929089546204
-0.5803773999214172 0.23573000729084015 -0.3295333981513977
0.41378381848335266 0.40231558680534363 0.18425248563289642
0.38722875714302063 -0.5204144716262817 -0.08361344039440155
0.11740642040967941 -0.055122651159763336 0.3192434012889862
-0.5748293995857239 0.07659777253866196 -0.1774022877216339
0.4299137592315674 -0.3551407754421234 0.0677296444773674
0.00263419421389699 -0.1452414095401764 -0.35659682750701904
-0.2710285484790802 0.40633881092071533 0.16557087004184723
-0.5102198123931885 0.36887794733047485 -0.05957818776369095
-0.22598563134670258 -0.22062043845653534 -0.13262437283992767
-0.5819311738014221 0.12421493232250214 -0.3294927179813385
-0.46783047914505005 0.3668024241924286 0.014048621989786625
0.38303324580192566 -0.3812791705131531 0.10305716842412949
-0.15509623289108276 0.016913916915655136 0.33982062339782715
0.21773174405097961 0.46939975023269653 0.3985004127025604
0.42642849683761597 0.3972090482711792 0.321818470954895
-0.41317465901374817 -0.09228627383708954 0.18109358847141266
0.415890097618103 -0.3765650987625122 0.08826437592506409
0.14339374005794525 0.26327210664749146 0.34381312131881714
-0.000776799744926393 -0.6312048435211182 -0.29758843779563904
0.2431192696094513 -0.6244726777076721 0.09076056629419327
0.27978408336639404 0.003644593060016632 0.1114547997713089
0.26446446776390076 0.003712923265993595 -0.04566323012113571
0.11424735933542252 -0.6387060284614563 -0.3189498782157898
-0.15411312878131866 -0.5599647164344788 -0.15774033963680267
0.2256219983100891 0.40159890055656433 -0.048127517104148865
-0.36442336440086365 -0.035445813089609146 -0.04931815341114998
-0.210478737950325 0.40183866024017334 -0.12577295303344727
-0.4021705389022827 0.1811073124408722 -0.40232932567596436
0.16798581182956696 -0.6228365302085876 -0.1655125766992569
0.36160269379615784 0.08000390231609344 -0.40352609753608704
-0.3738272488117218 0.05062248185276985 0.22012123465538025
0.5448119640350342 0.0027311164885759354 -0.24389143288135529
0.021427230909466743 -0.07772227376699448 -0.3608596622943878
-0.48012205958366394 0.2952447831630707 0.34333503246307373
0.09591563791036606 0.0024590862449258566 0.22519931197166443
-0.015672866255044937 0.4019940495491028 0.008933352306485176
-0.3390823304653168 0.39245009422302246 -0.004647870548069477
-0.19785521924495697 0.4036502540111542 0.20045062899589539
-0.3453485071659088 0.06589857488870621 -0.3990912437438965
-0.0982646495103836 -0.5737163424491882 0.1809452623128891
0.3865596055984497 -0.4843277335166931 -0.08658331632614136
0.134030282497406 -0.11095815896987915 -0.36496421694755554
-0.5782581567764282 0.14008456468582153 -0.0007134050247259438
0.5055301785469055 0.0018063504248857498 0.20733197033405304
-0.21234282851219177 0.0047303903847932816 -0.10527759045362473
0.5795664191246033 0.21332290768623352 -0.2775358259677887
0.16071520745754242 0.0038658734411001205 -0.08675608038902283
0.19458723068237305 0.002827039919793606 0.08054954558610916
-0.5754163265228271 0.33287760615348816 -0.3477366268634796
0.5116989016532898 0.09617645293474197 0.33852672576904297
-0.38218024373054504 0.25821006298065186 -0.40289101004600525
0.052141740918159485 -0.6255194544792175 0.18686026334762573
0.24291779100894928 -0.436837762594223 -0.2825925648212433
0.3175870180130005 0.0036465534940361977 -0.03299060836434364
-0.10907364636659622 0.3488466739654541 0.3424508273601532
-0.30371373891830444 0.004028945695608854 0.08554256707429886
0.11123580485582352 -0.08226089179515839 0.40581774711608887
0.3290230631828308 -0.022459715604782104 0.2126791924238205
0.4345701336860657 -0.14207787811756134 -0.11948014795780182
-0.3602903187274933 -0.0006836582906544209 -0.10532735288143158
-0.5810807347297668 0.3079208731651306 -0.1624663770198822
0.07224208861589432 -0.007130153477191925 0.3219088613986969
0.18567712604999542 -0.25675490498542786 -0.3597678244113922
0.20465774834156036 0.000639728270471096 0.12726138532161713
-0.47136902809143066 0.0013275956735014915 -0.05452907457947731
-0.3278960585594177 0.40243837237358093 0.2924794554710388
-0.3656249940395355 0.4005516469478607 0.2086006999015808
0.5517690777778625 0.28382259607315063 0.3345732092857361
-0.4861052632331848 0.39804744720458984 0.3248436152935028
0.42233070731163025 -3.4986063838005066e-05 -0.14902237057685852
-0.548914909362793 0.0012475838884711266 -0.1264600157737732
0.05398029834032059 -0.6234682202339172 -0.15659794211387634
0.20245246589183807 0.4006825089454651 -0.18554715812206268
-0.02380199544131756 -0.24747763574123383 -0.3485512435436249
-0.12059633433818817 0.24378712475299835 0.39640378952026367
-0.400601863861084 0.4032750129699707 0.2991815507411957
0.2429153323173523 0.46579065918922424 0.3944632112979889
0.15218722820281982 -0.6232196092605591 0.05247301235795021
-0.05661063641309738 0.003063356038182974 -0.273059219121933
0.22962011396884918 0.3870338797569275 -0.39505791664123535
0.03730150684714317 -0.3732231557369232 -0.35089290142059326
0.06951010972261429 -0.004374904558062553 0.4641559422016144
0.577721357345581 0.34118327498435974 -0.3353264331817627
0.5823320150375366 0.122193343937397 0.14780957996845245
0.3461590111255646 0.21376509964466095 0.34370720386505127
-0.5734453797340393 0.3490723967552185 -0.052763305604457855
0.16223876178264618 0.002905868925154209 -0.19456526637077332
-0.5752354860305786 0.0386306494474411 0.04288532957434654
0.48553597927093506 0.39527538418769836 -0.3946743905544281
0.572099506855011 0.3884713351726532 -0.3144717514514923
-0.5283520221710205 -0.0012113505508750677 0.1642393320798874
0.2041979879140854 0.4690413177013397 0.40949293971061707
-0.4945255219936371 0.4021173119544983 0.05643102526664734
-0.11580201238393784 -0.45907706022262573 0.16440844535827637
-0.07142621278762817 -0.3730945885181427 0.26061713695526123
0.4143061637878418 -0.003254201263189316 0.07836785912513733
0.3922034800052643 0.4008285701274872 -0.008420271798968315
0.5809488296508789 0.3339179754257202 0.2607029676437378
0.4776536524295807 0.0016307840123772621 -0.3682849407196045
0.015678364783525467 -0.38196465373039246 -0.3329896628856659
-0.10610564798116684 0.003941917791962624 -0.0699901431798935
0.535408616065979 0.002982455538585782 -0.1470029205083847
0.30835825204849243 0.2946290075778961 0.3524430990219116
-0.039857421070337296 0.0034356052055954933 -0.28946399688720703
-0.5327710509300232 -0.08401675522327423 -0.11771204322576523
-0.5818145871162415 0.29107019305229187 0.25774848461151123
0.11436820030212402 0.002511235885322094 -0.12596429884433746
0.5801386833190918 0.2768220007419586 -0.060214415192604065
0.37139320373535156 0.03915948048233986 -0.4035334587097168
0.5249658823013306 0.002523943316191435 -0.26755911111831665
0.31703776121139526 0.3000803589820862 -0.4018935561180115
-0.22551147639751434 -0.11131864041090012 0.08495725691318512
0.3241289258003235 0.0022152867168188095 -0.3574222922325134
-0.198711097240448 -0.1998593658208847 0.13930433988571167
0.369802325963974 0.40099966526031494 -0.17925921082496643
-0.29697006940841675 0.0023107985034585 0.11568013578653336
0.04096337780356407 -0.3745885491371155 -0.35413381457328796
-0.16725997626781464 0.11748742312192917 -0.40016186237335205
-0.4065992832183838 0.34759265184402466 0.04426168277859688
0.15619368851184845 0.16411201655864716 -0.4006894826889038
0.03399604558944702 0.40350985527038574 0.21832488477230072
0.11927595734596252 0.3985373377799988 0.08612027764320374
0.4155662953853607 0.4011504352092743 -0.16138499975204468
-0.2006586790084839 -0.11365808546543121 -0.168911874294281
0.3225364089012146 -0.6234162449836731 0.04092138633131981
0.5733397603034973 0.3871922194957733 -0.3050965368747711
0.48357459902763367 0.39893725514411926 -0.011057152412831783
-0.3790159225463867 0.06444404274225235 -0.003940997179597616
0.22271664440631866 0.0024001612327992916 0.18608757853507996
-0.23810462653636932 -0.1567167192697525 -0.009504604153335094
-0.46070948243141174 -0.11238626390695572 -0.2274235188961029
0.4211830198764801 0.029086848720908165 -0.40172943472862244
0.5790045261383057 0.17842425405979156 0.23174652457237244
0.052981898188591 -0.6265843510627747 -0.31244686245918274
-0.1466701626777649 -0.37241384387016296 -0.2574858069419861
0.3531578481197357 0.002982308156788349 0.02256299927830696
0.1559699922800064 0.0015603287611156702 0.11722215265035629
-0.13850484788417816 -0.15401796996593475 0.21476612985134125
-0.18303383886814117 0.4013528823852539 0.04535429924726486
0.27144524455070496 -0.6250849366188049 -0.18490034341812134
-0.03648798540234566 -0.023788096383213997 -0.34228813648223877
-0.49570807814598083 0.10837606340646744 0.19419178366661072
-0.23676833510398865 -0.17189043760299683 0.03865697979927063
0.5583963990211487 0.16385124623775482 0.3365541696548462
0.23384322226047516 0.398057758808136 -0.057661667466163635
0.24128586053848267 0.2958930432796478 -0.40133172273635864
0.03682009503245354 0.17053228616714478 0.4537006616592407
-0.07959779351949692 -0.6254367828369141 -0.02711806260049343
0.5348164439201355 0.37997132539749146 -0.40190407633781433
-0.0964706540107727 -0.5525290966033936 -0.2417825609445572
0.38236352801322937 0.0035862997174263 7.037085015326738e-05
0.040002916008234024 -0.3966712951660156 0.26033535599708557
-0.4930195212364197 0.4023434519767761 0.2980012595653534
-0.4161158800125122 -0.0019755875691771507 0.3184821605682373
-0.08782169967889786 0.4022657573223114 0.214912548661232
0.3481189012527466 0.06719447672367096 0.34455108642578125
0.3033074140548706 -0.3900969922542572 0.18383058905601501
-0.13466623425483704 -0.30236488580703735 -0.2784443497657776
-0.3679184913635254 0.004583145026117563 -0.3940798044204712
0.17906628549098969 -0.19367541372776031 -0.36113718152046204
0.3525521159172058 0.0013749503996223211 -0.21863099932670593
-0.48165085911750793 0.11720318347215652 -0.2564958930015564
-0.20075009763240814 -0.38851332664489746 0.006053728051483631
0.5565271973609924 0.0029714833945035934 -0.3625330924987793
-0.2488989382982254 0.4029489755630493 -0.17329923808574677
-0.4296850860118866 0.4013075530529022 -0.36636993288993835
0.2591765224933624 -0.34628891944885254 0.27442455291748047
0.29129284620285034 0.15236856043338776 -0.401058554649353
0.33658137917518616 -0.3849635422229767 0.155448779463768
0.27182653546333313 -0.1098686158657074 -0.32528191804885864
0.2897006571292877 -0.4460654854774475 0.19545578956604004
-0.5755721926689148 0.055992696434259415 0.33155277371406555
0.3463863730430603 0.22688578069210052 -0.4003261923789978
-0.5077298283576965 0.32056039571762085 0.3413063883781433
-0.44323548674583435 -0.026451794430613518 0.35406383872032166
0.3269158899784088 0.002418606774881482 -0.25039345026016235
0.2800418734550476 -0.6228016018867493 0.010371552780270576
0.23480316996574402 -0.6238754391670227 -0.018056150525808334
-0.574201226234436 0.35239771008491516 0.04738662764430046
-0.0781245008111 0.0533706471323967 -0.4006671607494354
0.3495425581932068 -0.6530227065086365 -0.17745080590248108
-0.22079439461231232 0.40010133385658264 -0.3702179491519928
-0.5786152482032776 0.0937480479478836 -0.06411276012659073
0.3685546815395355 0.0657249465584755 0.34417256712913513
