0.4906659424304962 0.0017975936643779278 -0.1187719777226448
0.24159379303455353 0.4045700430870056 0.27277621626853943
-0.48818960785865784 0.34597378969192505 0.3478288948535919
0.07435872405767441 0.4039786458015442 0.45428183674812317
-0.039869118481874466 -0.6253538131713867 0.023035038262605667
-0.057200103998184204 -0.48103994131088257 0.2092139720916748
-0.08465290069580078 -0.31103336811065674 -0.3259548246860504
0.4407370686531067 -0.001030022744089365 -0.17870791256427765
-0.21290533244609833 0.0018494362011551857 -0.27273181080818176
-0.580847442150116 0.1507522016763687 -0.22011490166187286
0.5003849864006042 0.0015090536326169968 -0.007745583541691303
0.08672082424163818 0.0027928748168051243 0.2727701663970947
0.13636118173599243 -0.34464702010154724 -0.3726005256175995
0.5842735171318054 0.26759234070777893 0.025013277307152748
-0.23373717069625854 -0.20120276510715485 -0.08689339458942413
0.5778128504753113 0.387668251991272 0.05170893669128418
-0.5175344944000244 0.3223114609718323 -0.40435346961021423
0.36755576729774475 -0.11207790672779083 -0.2509489357471466
-0.5385923385620117 -0.03645559772849083 0.3446369469165802
0.23707453906536102 0.17079241573810577 0.4651082456111908
-0.4281719923019409 -0.10526810586452484 0.30812597274780273
-0.546574056148529 0.18084938824176788 -0.4026104509830475
0.2567881643772125 -0.6205785274505615 -0.04671574756503105
-0.1525045484304428 -0.0033435826189816 0.24348655343055725
0.4385906457901001 -0.0012777387164533138 -0.14030027389526367
0.08224734663963318 0.0027858882676810026 0.2040574550628662
-0.18319906294345856 -0.6027895212173462 0.007476146798580885
0.5281564593315125 0.4030487537384033 -0.09919551014900208
-0.4122585952281952 0.28647464513778687 -0.4063681662082672
-0.12817341089248657 -0.3561022877693176 -0.2818050682544708
-0.02527775429189205 -0.3994682729244232 0.22448037564754486
0.42496171593666077 -0.27586686611175537 0.0983598455786705
-0.30784863233566284 0.002943328581750393 0.1601051688194275
0.3381546139717102 0.39959731698036194 -0.24762775003910065
0.5839964747428894 0.12074644863605499 -0.2768445611000061
0.3827369213104248 0.18304364383220673 -0.40300658345222473
0.5786948204040527 0.08551442623138428 -0.1969853937625885
0.061430998146533966 -0.6228887438774109 -0.17514628171920776
0.27591392397880554 0.0014845943078398705 0.02395847626030445
0.20317357778549194 -0.3230544328689575 0.3041067123413086
-0.5851497650146484 0.3263840973377228 0.15930432081222534
0.5839147567749023 0.1490986943244934 0.2718677520751953
0.3663840591907501 0.3902226686477661 0.3438592255115509
-0.37336328625679016 -0.057360727339982986 0.2490420937538147
0.5213281512260437 0.030870018526911736 -0.4012226462364197
-0.2404516637325287 -0.28226080536842346 -0.020071936771273613
0.5825954079627991 0.15202561020851135 -0.03579961508512497
0.5796931385993958 0.3792096674442291 -0.1004818007349968
0.10964589565992355 0.0019828886725008488 0.12644830346107483
-0.3720357120037079 0.39766108989715576 -0.1602196842432022
0.5753213763237 0.38927775621414185 -0.09460491687059402
0.5840727686882019 0.07119035720825195 0.09684497117996216
0.5203346610069275 0.001998916734009981 -0.03231140598654747
-0.5628888010978699 0.1557845026254654 0.3391585350036621
-0.03324899449944496 0.12331480532884598 -0.40464314818382263
0.3463174104690552 -0.6432672739028931 -0.13387741148471832
0.5815999507904053 0.37527310848236084 -0.08271339535713196
0.5066465139389038 0.4000155031681061 -0.2540700137615204
-0.4804838001728058 -0.10895581543445587 0.09098321199417114
-0.4948470890522003 0.40302222967147827 0.22115443646907806
0.21047534048557281 0.40151447057724 0.18626278638839722
-0.24819405376911163 0.3961956799030304 -0.17462098598480225
0.18343350291252136 -0.6285654902458191 0.1964566558599472
0.583057701587677 0.2223658561706543 -0.17904603481292725
-0.022356970235705376 0.002910887822508812 -0.05361441150307655
-0.12026774883270264 -0.6281225085258484 0.040575820952653885
-0.5257858633995056 0.39380720257759094 0.0458337776362896
0.01516458485275507 0.0012548938393592834 -0.036154910922050476
-0.16346797347068787 0.40056002140045166 -0.036928679794073105
0.03908976912498474 0.2237112671136856 0.34930384159088135
-0.08592095226049423 -0.5318725109100342 -0.24776293337345123
0.18690787255764008 -0.4022522270679474 -0.303210586309433
0.03239739313721657 0.07990679889917374 0.4548189342021942
0.10118842869997025 0.002797190798446536 0.1417006105184555
-0.5595307946205139 0.3798637092113495 0.2722933292388916
0.43372052907943726 -0.0025837491266429424 0.1368267685174942
0.15302492678165436 -0.005451478064060211 0.3219454288482666
0.13541647791862488 -0.6243678331375122 0.035426873713731766
0.3279518783092499 0.0029116973746567965 -0.00020652625244110823
-0.37146902084350586 0.04901901260018349 -0.24197034537792206
-0.5663977265357971 0.07584875822067261 -0.1717158704996109
0.3609960675239563 0.012430762872099876 0.3435690402984619
0.14165598154067993 -0.16503757238388062 0.31417298316955566
-0.2610290050506592 -0.0003112000413239002 -0.04369446635246277
0.2827238440513611 -0.1364159882068634 -0.3278372585773468
0.48042306303977966 -0.0015576565638184547 0.09416855126619339
-0.13672614097595215 0.23208513855934143 -0.40502628684043884
0.4386361241340637 -0.1499893069267273 0.055038049817085266
-0.5127769708633423 0.08324514329433441 0.028548255562782288
0.2015850692987442 0.004778136033564806 0.3371811807155609
0.489887535572052 0.40158501267433167 -0.33953356742858887
-0.41095709800720215 -0.08993928134441376 -0.1270611584186554
0.16950291395187378 -0.5024287700653076 0.2520769238471985
-0.12524715065956116 0.3996064364910126 0.1365082710981369
-0.3378559947013855 0.39718011021614075 0.1212562844157219
0.13356180489063263 0.002968715038150549 -0.058130983263254166
0.36578255891799927 0.3991018235683441 -0.06583838909864426
0.15959559381008148 0.0012864163145422935 0.09314431995153427
0.25457891821861267 0.04229693114757538 -0.40361180901527405
-0.5186435580253601 -0.08098720759153366 0.33865872025489807
0.13235913217067719 -0.5977369546890259 -0.31632786989212036
0.1418744921684265 -0.21482764184474945 -0.3732087314128876
-0.04367755353450775 -0.6229492425918579 0.07193591445684433
-0.20331358909606934 -0.33769550919532776 0.12640652060508728
0.2931831479072571 -0.48293188214302063 -0.2480928897857666
-0.20699074864387512 -0.16754885017871857 -0.16560640931129456
-0.4826068878173828 -0.037083949893713 0.35582926869392395
0.36986568570137024 -0.21918991208076477 -0.24028950929641724
-0.516502857208252 0.021111348643898964 0.342725932598114
0.2303990125656128 0.0007730638608336449 -0.2218959480524063
0.14939770102500916 0.21975353360176086 0.46632474660873413
-0.09803456813097 0.002203064039349556 -0.0280985739082098
-0.09874892979860306 0.40046897530555725 -0.2078821212053299
0.12640373408794403 0.0026058400981128216 0.12064840644598007
-0.06768911331892014 -0.4497058689594269 -0.2609155774116516
-0.28293517231941223 0.32027265429496765 -0.4016266465187073
-0.20149797201156616 0.22036483883857727 0.34751373529434204
-0.0517243817448616 -0.09067898988723755 0.2797428071498871
0.058323729783296585 0.1660659909248352 0.35018154978752136
0.3699045777320862 -0.48455730080604553 0.08881018310785294
0.13722915947437286 0.402133047580719 -0.08834320306777954
0.1685146689414978 0.057925354689359665 0.4653562307357788
-0.5669393539428711 -0.048903822898864746 0.1745639145374298
-0.09255171567201614 -0.6502622961997986 -0.19667212665081024
-0.09992147982120514 0.4007745385169983 -0.24821634590625763
-0.02756085805594921 -0.6241172552108765 0.0040702237747609615
0.49857643246650696 0.40048766136169434 -0.28236132860183716
-0.41967707872390747 0.00037583429366350174 -0.19119375944137573
-0.17040783166885376 0.4001743495464325 0.33057692646980286
-0.5551223158836365 -0.06733096390962601 0.22642922401428223
-0.02545091323554516 0.4040239155292511 0.2430972158908844
-0.0859387144446373 0.0032333959825336933 -0.13076259195804596
0.3245629072189331 0.403207927942276 0.1667809635400772
-0.2206801474094391 -0.007651397027075291 -0.11552513390779495
0.4418718218803406 0.17331643402576447 -0.40223991870880127
0.3544226288795471 0.2719191908836365 -0.4019778072834015
0.2574431598186493 -0.6390741467475891 -0.23031103610992432
0.09084033221006393 0.4001399278640747 0.3363659083843231
-0.14143870770931244 0.40158993005752563 -0.3072531521320343
0.2845247685909271 -0.036186788231134415 0.46026813983917236
-0.5666899681091309 0.3766583502292633 0.1607256680727005
-0.0722506195306778 0.0025243584532290697 -0.16295167803764343
-0.14592012763023376 0.0011765118688344955 0.15712624788284302
-0.3421640396118164 0.05298326909542084 -0.39779263734817505
-0.5822336077690125 0.09705384820699692 0.2941725254058838
0.5843088030815125 0.21586847305297852 -0.12828516960144043
0.08269330859184265 -0.6265707612037659 0.09835463017225266
0.3635854721069336 0.0018523400649428368 -0.08330340683460236
-0.11103983968496323 -0.024597909301519394 -0.29733261466026306
0.30711254477500916 -0.04374122992157936 0.461811363697052
-0.15899783372879028 -0.39090725779533386 0.11158733814954758
-0.16522623598575592 0.36068522930145264 -0.40243425965309143
0.3171773850917816 0.0831666812300682 0.41793012619018555
0.08530912548303604 0.001541344914585352 0.12268348783254623
-0.5529752969741821 0.2277388572692871 0.3380815088748932
-0.4961167275905609 0.0009202649816870689 0.14310485124588013
-0.17514967918395996 -0.38858115673065186 0.09942804276943207
0.5457520484924316 0.0034901252947747707 -0.03642280772328377
0.18283072113990784 -0.6269181966781616 -0.027145981788635254
0.5819929242134094 0.21850411593914032 0.23957279324531555
-0.13860628008842468 0.0017160766292363405 0.03246646001935005
0.2769606113433838 0.0028546364046633244 0.05405037850141525
-0.02078137919306755 0.26785996556282043 -0.4032917618751526
-0.12821891903877258 -0.2690567970275879 0.2255311906337738
0.42822155356407166 -0.001665420364588499 0.06609713286161423
0.5702027678489685 0.2075425088405609 0.34380602836608887
-0.5466827750205994 -0.07623814046382904 0.1691269725561142
-0.214274063706398 -0.21355201303958893 0.094482421875
0.09712088108062744 0.0025145888794213533 -0.053264111280441284
0.2819344103336334 -0.6240580081939697 0.02391863986849785
-0.2330598384141922 -0.36779797077178955 0.05027441307902336
-0.14716041088104248 0.24910591542720795 0.3492357134819031
-0.18439465761184692 -0.44175347685813904 -0.05623869225382805
0.5848318934440613 0.1810075342655182 0.06789322197437286
-0.17561744153499603 -0.5205785632133484 0.052995502948760986
0.18820324540138245 -0.008649330586194992 0.32454755902290344
-0.3808273375034332 0.3624440133571625 -0.19133229553699493
-0.3628678321838379 -0.034646473824977875 0.20180536806583405
0.009639143012464046 0.34698542952537537 -0.40246301889419556
0.0625293031334877 0.002413001377135515 0.2755047380924225
-0.22048047184944153 0.0013086767867207527 0.02037849836051464
0.29352256655693054 -0.0055238776840269566 0.2641044557094574
0.10988695174455643 0.002834997372701764 0.1622738391160965
0.3733575940132141 -0.6318846940994263 -0.12257028371095657
-0.39686861634254456 0.24066345393657684 0.3471287786960602
0.14326870441436768 -0.05105891823768616 0.4585506021976471
0.5799563527107239 0.1846654713153839 -0.20533762872219086
0.3227960765361786 -0.49971556663513184 -0.21584177017211914
0.19623705744743347 0.4053625762462616 0.3489333689212799
-0.17984279990196228 0.1876622885465622 -0.4047990143299103
0.5837538242340088 0.2109822928905487 -0.01319871749728918
-0.06410273909568787 -0.30244287848472595 0.2714618146419525
-0.08772189170122147 -0.16176748275756836 0.2561968266963959
0.40329140424728394 -0.3753943145275116 0.10370466858148575
0.11810730397701263 0.39991334080696106 -0.3567495346069336
-0.273075133562088 0.3998126983642578 -0.2228880524635315
0.3122979402542114 -0.07842384278774261 0.3504377007484436
0.1943642795085907 -0.6403301358222961 -0.3000723421573639
-0.5291524529457092 0.3837878704071045 -0.39589670300483704
0.5820260643959045 0.1612965166568756 0.1886594295501709
-0.5123270153999329 0.0007257370161823928 0.06318998336791992
-0.561149537563324 -0.007228857837617397 0.1216103732585907
0.15805566310882568 -0.4557739198207855 -0.3158830404281616
-0.5816074013710022 0.3049708902835846 -0.3836348056793213
0.03360528126358986 0.14703279733657837 0.35136836767196655
0.3045980632305145 0.29601141810417175 0.3495239019393921
-0.1582622081041336 0.0017879350343719125 -0.24661840498447418
0.1461850255727768 0.2030024230480194 -0.40286195278167725
0.24643641710281372 -0.6279286742210388 -0.20048679411411285
-0.03784874454140663 -0.2697817385196686 0.28591734170913696
-0.17010486125946045 -0.11918741464614868 0.18034888803958893
0.2667194902896881 0.003331828862428665 -0.05197105556726456
-0.5703333616256714 0.3433613181114197 0.3409103751182556
-0.5736557841300964 0.04318675026297569 -0.2604803740978241
0.3709909915924072 -0.5906747579574585 0.08619075268507004
-0.2789686918258667 0.10233553498983383 0.34398379921913147
-0.5240426063537598 -0.08906149864196777 -0.3068922162055969
-0.3464890420436859 0.38938456773757935 -0.15686501562595367
-0.3841889202594757 0.4171750247478485 -0.08199214190244675
0.46593141555786133 0.21326681971549988 0.3458833396434784
0.20609471201896667 0.4016362726688385 0.1925322413444519
0.18802781403064728 -0.00022764131426811218 -0.06024232879281044
0.1454552859067917 0.0012645944952964783 0.02620028331875801
0.3252696096897125 0.0030655162408947945 -0.012146377004683018
-0.03759114444255829 0.40229395031929016 0.2040756493806839
0.2568638026714325 -0.03992827236652374 0.4640074372291565
0.5342455506324768 0.0017579011619091034 0.1154385432600975
0.20065414905548096 -0.6412755250930786 -0.2859865128993988
-0.11124508827924728 -0.22646725177764893 0.24060405790805817
0.4454268217086792 -0.1721254587173462 0.01111737359315157
-0.41997793316841125 0.001957208849489689 -0.25472745299339294
0.4015102684497833 0.20592811703681946 0.3455316722393036
0.15692976117134094 0.4017902612686157 -0.23119881749153137
0.3303382992744446 -0.3199569284915924 -0.2885800898075104
-0.33707231283187866 0.03879593685269356 0.34026575088500977
-0.5795382261276245 0.24913989007472992 -0.28019586205482483
-0.2025262415409088 0.0011129160411655903 -0.03133941441774368
-0.4765661954879761 -0.11027822643518448 -0.09961133450269699
-0.37448224425315857 -0.026003625243902206 -0.3975468575954437
-0.017982827499508858 0.0013171276077628136 0.10567650198936462
-0.5568912625312805 0.04884244501590729 0.3368076682090759
0.12475597858428955 0.001735856756567955 -0.211129292845726
0.10303537547588348 -0.6444005370140076 0.26060810685157776
0.15418197214603424 0.11440432071685791 0.46581602096557617
-0.5083216428756714 0.4024938642978668 0.284046471118927
-0.3421597480773926 0.29927340149879456 0.3470343053340912
-0.10260802507400513 -0.05978167802095413 -0.2972639501094818
0.32857346534729004 -0.6234808564186096 0.024279659613966942
-0.5756404995918274 -0.005796521436423063 0.2582264840602875
0.0394180528819561 0.3755713999271393 -0.4007631838321686
-0.18416589498519897 0.4005108177661896 -0.2656053304672241
0.3135334849357605 -0.02570732682943344 0.46275490522384644
0.24527595937252045 -0.39788490533828735 -0.2804652154445648
-0.5664138793945312 0.37235236167907715 0.028704725205898285
-0.20309598743915558 0.005031434819102287 0.3369010388851166
-0.10014546662569046 0.0010252362117171288 0.11636452376842499
0.2899056077003479 -0.5060441493988037 0.19492438435554504
-0.12898269295692444 -0.5945515036582947 0.13988634943962097
0.3935536742210388 0.0005004327394999564 -0.18565306067466736
-0.2805666923522949 0.19474399089813232 0.34235528111457825
0.3008079528808594 -0.4614929258823395 0.1848435252904892
0.16105853021144867 -0.6270331740379333 -0.02853464148938656
0.22744117677211761 -0.029766269028186798 0.3037445545196533
0.30968213081359863 0.11194660514593124 -0.4033575654029846
0.03064066730439663 0.09513547271490097 -0.40467923879623413
-0.13381697237491608 -0.6296790242195129 -0.1647474318742752
0.03419383615255356 -0.6200985312461853 0.10514974594116211
0.26123377680778503 -0.3221936523914337 -0.33408060669898987
0.4419512152671814 -0.32252299785614014 -0.07426118850708008
-0.28916695713996887 0.00015002954751253128 -0.10265656560659409
0.5825884342193604 0.07374550402164459 0.21861933171749115
-0.08080551028251648 0.0033615250140428543 0.1308976262807846
-0.5829392075538635 0.15655797719955444 0.3082357943058014
-0.10460665822029114 -0.6290088295936584 0.159276083111763
-0.3477611541748047 0.11403246968984604 0.34661436080932617
0.2426268756389618 0.003237648168578744 0.09479855000972748
0.3948284983634949 -0.6282426118850708 -0.05255953222513199
0.24534831941127777 -0.08305474370718002 0.4105531871318817
0.5799015164375305 0.17173412442207336 -0.27372801303863525
0.5722061395645142 0.39065930247306824 -0.3451724350452423
-0.5809692144393921 0.00029349885880947113 -0.13924357295036316
0.577129065990448 0.012735462747514248 -0.026006482541561127
0.36615219712257385 0.0012969756498932838 -0.34243637323379517
0.06123551353812218 -0.38777029514312744 0.26986807584762573
0.19412371516227722 0.2960987985134125 -0.4040251672267914
-0.1159190908074379 -0.40471601486206055 -0.21289899945259094
-0.4403025805950165 0.41621917486190796 -0.07796205580234528
0.046161506325006485 -0.628113329410553 -0.12326635420322418
0.3101731836795807 0.342977911233902 0.46260181069374084
-0.532892644405365 0.08469918370246887 -0.15530626475811005
0.2714575231075287 0.0005833432078361511 -0.3495623767375946
-0.4592437446117401 0.1605217307806015 0.3441159725189209
0.04864273592829704 -0.08424602448940277 0.3417876660823822
-0.5745511054992676 0.04666634276509285 -0.04695494472980499
-0.39007237553596497 -0.06338956207036972 0.3360978960990906
-0.15279296040534973 0.002941032173112035 0.3058227002620697
-0.040711961686611176 0.0021821153350174427 -0.10203886777162552
0.12360607087612152 -0.3859182298183441 0.27836722135543823
0.42239829897880554 -0.0008926920127123594 -0.2912566065788269
0.07532138377428055 0.002358656143769622 0.22195541858673096
0.21424676477909088 0.4009922444820404 -0.23047251999378204
0.17622119188308716 -0.28723040223121643 0.3086621165275574
0.29725924134254456 -0.6487703919410706 0.12791839241981506
0.02872309274971485 0.0017887377180159092 -0.013213745318353176
-0.24481429159641266 0.23095043003559113 0.34575051069259644
0.1077447235584259 0.40139323472976685 -0.1550433188676834
0.4504357576370239 0.31175705790519714 -0.4025762677192688
-0.055314697325229645 0.00011388957500457764 0.25394755601882935
0.5799099206924438 0.3700959384441376 0.2479073703289032
0.5593442320823669 0.3515787124633789 -0.40219414234161377
0.1799539178609848 -0.6244407892227173 -0.22244037687778473
-0.14622052013874054 0.01602676510810852 0.3402383327484131
-0.19166450202465057 0.01444623339921236 -0.39836204051971436
0.4487738013267517 -0.10832497477531433 -0.04758971557021141
-0.5826894640922546 0.21295848488807678 -0.2840714454650879
-0.03321212902665138 -0.6208556294441223 -0.06803753226995468
-0.09702255576848984 -0.45054057240486145 -0.23207277059555054
-0.18027974665164948 -0.5518437623977661 0.022677451372146606
0.24561667442321777 -0.0005352026782929897 -0.32660284638404846
-0.25563502311706543 -0.0005486095324158669 0.03155023977160454
-0.47255557775497437 0.10027346760034561 -0.35887348651885986
-0.011270762421190739 -0.622730553150177 0.10464753955602646
0.20664672553539276 -0.5112403035163879 0.23974952101707458
-0.2061552256345749 0.2843795716762543 -0.4019664525985718
0.3979448080062866 -0.27440568804740906 0.1466611921787262
0.5830655097961426 0.2076452076435089 0.15984202921390533
0.28809812664985657 0.1335408091545105 0.4641634225845337
0.0247055571526289 -0.626606285572052 -0.2111811339855194
0.49703171849250793 0.17261461913585663 -0.402904212474823
0.1975553184747696 -0.6594345569610596 0.2180820256471634
0.28783509135246277 0.40424084663391113 0.2356749027967453
0.4395255744457245 -0.0026577506214380264 -0.12770770490169525
-0.21293070912361145 -0.37413859367370605 0.09516912698745728
-0.3628964424133301 0.3935224115848541 -0.39302676916122437
0.33149853348731995 0.002195253036916256 -0.008681236766278744
-0.19617469608783722 -0.042914990335702896 -0.18690384924411774
-0.36795350909233093 0.03977512940764427 0.10217838734388351
-0.20940880477428436 0.14468324184417725 -0.40466317534446716
-0.20939084887504578 -0.04905710741877556 -0.1881621778011322
-0.30072975158691406 0.37230104207992554 -0.07901113480329514
-0.5733527541160583 0.010615143924951553 0.08634946495294571
-0.04471535235643387 -0.5450665354728699 0.21846254169940948
0.008714437484741211 -0.014639217406511307 0.30311766266822815
0.5087796449661255 0.00035712355747818947 0.26128166913986206
0.3057161867618561 -0.5931631326675415 0.18271473050117493
-0.28808119893074036 0.35278576612472534 -0.06808879226446152
-0.36233171820640564 -0.0035664974711835384 0.18131457269191742
0.29174306988716125 0.4034286439418793 -0.10704513639211655
-0.46106141805648804 -0.02625127322971821 -0.4045722484588623
0.321020245552063 0.29990294575691223 0.4511868357658386
-0.13944436609745026 -0.2387581318616867 -0.2668434977531433
0.3875581920146942 -0.022759173065423965 0.1409902274608612
0.17370718717575073 -0.6199816465377808 -0.2617824971675873
-0.22945325076580048 -0.2568969428539276 0.05525316670536995
0.17794746160507202 -0.6249639391899109 -0.10519131273031235
0.5810585618019104 0.20666220784187317 0.18169569969177246
-0.08651328086853027 -0.6313773393630981 0.18552221357822418
0.12455542385578156 0.4018228054046631 -0.2188257873058319
-0.40626758337020874 -0.026680676266551018 -0.3965250551700592
-0.21655002236366272 0.40080493688583374 -0.05399797484278679
-0.5712569355964661 0.07951723039150238 -0.1772107481956482
0.26859617233276367 -0.0027646515518426895 0.27532482147216797
-0.5124683976173401 0.09063547849655151 -0.2793017625808716
0.40631726384162903 0.40340423583984375 0.13975660502910614
-0.419381320476532 0.1066577285528183 -0.14644917845726013
-0.08606816083192825 0.40027105808258057 -0.30158212780952454
-0.043275635689496994 0.0025930004194378853 -0.18593350052833557
0.06999292969703674 -0.6289029717445374 0.2073521614074707
-0.1600690335035324 0.19236047565937042 -0.403997540473938
-0.04924561455845833 -0.4925087094306946 0.2146788090467453
-0.2550306022167206 0.002771778032183647 -0.2527899444103241
0.399452805519104 -0.37779098749160767 -0.20203746855258942
-0.4969804286956787 0.3639475703239441 -0.04456239938735962
-0.1887107938528061 0.2992459237575531 -0.40290677547454834
0.23688599467277527 0.40065380930900574 0.14488908648490906
0.08762647211551666 0.001834003021940589 -0.21204717457294464
-0.2794162333011627 0.0006354441866278648 -0.20619571208953857
-0.08791480213403702 0.0011190269142389297 0.24597518146038055
-0.577318012714386 0.17705771327018738 0.22338543832302094
0.5814788937568665 0.32917430996894836 -0.07125721871852875
0.5180361270904541 0.40689146518707275 0.2225663661956787
-0.4470568001270294 0.04897681996226311 0.349498987197876
0.113808274269104 0.2889910638332367 0.3481132984161377
-0.26622822880744934 0.4033392369747162 0.12056571245193481
-0.5328685641288757 0.38926538825035095 -0.14051756262779236
0.567152738571167 -0.0003077257424592972 -0.3377695381641388
0.58228999376297 0.32743993401527405 0.06724859029054642
0.30863839387893677 0.261112779378891 0.3440447151660919
0.09045208990573883 0.3625514507293701 0.4647185504436493
-0.3466172218322754 0.0014482410624623299 -0.26412561535835266
-0.43886664509773254 0.4041846692562103 0.17585837841033936
0.19856113195419312 -0.6300181150436401 0.014642465859651566
0.31669744849205017 -9.371060878038406e-05 -0.23114365339279175
-0.43840131163597107 0.07229642570018768 0.3426624834537506
-0.13522300124168396 -0.2609495520591736 -0.2791556417942047
-0.082759790122509 -0.1535038948059082 0.26347532868385315
0.2410639077425003 0.0008543515577912331 -0.2884522080421448
-0.17087139189243317 0.4000169634819031 -0.20452438294887543
0.2793829143047333 0.3586910367012024 0.4630521535873413
0.07309034466743469 -0.6262690424919128 0.06993290036916733
0.3379881680011749 -0.3533160388469696 -0.2796885371208191
-0.47723588347435 0.02006971836090088 0.3553106486797333
-0.2173418402671814 -0.01014343649148941 0.05252084136009216
0.27972161769866943 0.00012127775698900223 0.2515929043292999
0.4251980781555176 0.0006698411889374256 0.2611089050769806
0.512625515460968 0.4006996750831604 -0.2552015781402588
0.4320366382598877 -0.3687618374824524 0.03674989566206932
-0.49793243408203125 -0.10462336987257004 -0.3011637330055237
-0.1283109486103058 0.30359870195388794 -0.40246760845184326
-0.31773731112480164 0.38981005549430847 0.002282582689076662
0.13025599718093872 -0.49728503823280334 0.2579415440559387
-0.5718827843666077 0.07100965827703476 -0.2500990629196167
-0.41399216651916504 0.099235899746418 -0.2979898452758789
-0.18549561500549316 -0.5641234517097473 -0.013557329773902893
0.41646385192871094 0.054963912814855576 -0.4000059962272644
-0.1364264190196991 -0.11738628894090652 -0.2754647433757782
-0.2946937680244446 0.40152814984321594 -0.35241663455963135
-0.4003336429595947 0.15581770241260529 0.3420592248439789
0.3215394914150238 0.4006594121456146 -0.3538111746311188
0.37314334511756897 -0.5268034934997559 -0.1445334553718567
-0.41938671469688416 0.39872270822525024 0.2761060297489166
0.07468340545892715 -0.626121997833252 0.13203157484531403
-0.08456777781248093 -0.04578695073723793 -0.3154558837413788
-0.060928624123334885 0.1331239491701126 -0.404287189245224
0.3326394259929657 -0.017799552530050278 0.4236142933368683
0.021104412153363228 0.25035420060157776 0.40394604206085205
0.045172952115535736 0.002216820605099201 0.2659532427787781
-0.18039631843566895 0.0009075943380594254 0.0858333632349968
0.130632683634758 -0.6544468998908997 0.24409671127796173
-0.5173185467720032 0.1117798388004303 -0.2970900237560272
0.1724872589111328 -0.6249777674674988 0.07751177251338959
-0.3050748407840729 0.0007475027814507484 0.2524687647819519
0.23093554377555847 0.0032748249359428883 0.01654204912483692
0.13598856329917908 -0.0013979319483041763 0.30803385376930237
-0.16570429503917694 -0.39218345284461975 -0.15213124454021454
0.09340850263834 0.39998000860214233 -0.3050130307674408
-0.5056565999984741 0.3734299838542938 -0.1038372740149498
-0.011940560303628445 0.29059603810310364 -0.4026702046394348
0.27107474207878113 -0.6198990941047668 0.08256776630878448
-0.0682051032781601 0.1306241750717163 0.3469579219818115
-0.18423765897750854 -0.09303149580955505 -0.2185039222240448
-0.20053140819072723 -0.19624309241771698 0.11837079375982285
-0.49576207995414734 0.3737848997116089 -0.026097973808646202
-0.577294647693634 0.11720921099185944 -0.20459122955799103
0.42118674516677856 -0.0017814626917243004 -0.31536319851875305
-0.581272542476654 0.020187711343169212 0.29296454787254333
0.29142576456069946 -0.05200573429465294 0.33124059438705444
0.5804203152656555 0.170386403799057 -0.06013613939285278
0.03325609117746353 -0.030080396682024002 0.4444355070590973
0.21387404203414917 0.4699208736419678 0.43781816959381104
-0.39389288425445557 0.06660700589418411 0.15523754060268402
0.3803933262825012 0.24340514838695526 0.34563392400741577
0.06723098456859589 0.4020201861858368 0.1396285742521286
-0.3640586733818054 0.02593567594885826 -0.14520567655563354
0.022200120612978935 -0.31544235348701477 0.3075452446937561
-0.0310661718249321 -0.6439896821975708 -0.2816310524940491
0.5748841166496277 0.2847525179386139 0.33914050459861755
0.5704231858253479 0.3950824737548828 0.0023358159232884645
0.4675085246562958 0.40303167700767517 -0.20502735674381256
0.10291297733783722 0.46355849504470825 0.41205552220344543
0.4520063102245331 -0.012799074873328209 -0.05038244649767876
-0.578728199005127 0.31592634320259094 -0.36137720942497253
-0.43633973598480225 0.1981392800807953 0.34659910202026367
0.5762508511543274 0.3515191078186035 -0.2551176846027374
0.5588040947914124 0.009697826579213142 -0.3906917870044708
0.29561084508895874 -0.6300503015518188 0.11860047280788422
0.5842344164848328 0.19113917648792267 -0.0400906540453434
-0.08633958548307419 0.18444092571735382 -0.4047878384590149
0.284690260887146 -0.6246126890182495 -0.00018182984786108136
0.18621501326560974 0.23483996093273163 0.46579527854919434
-0.5776441097259521 0.04827209189534187 0.13043485581874847
-0.5692044496536255 -0.02513357624411583 0.15684056282043457
0.5827884674072266 0.2051410973072052 0.33193475008010864
-0.5801103115081787 0.030685756355524063 0.3180449306964874
-0.2152341604232788 -0.1503969132900238 -0.14943690598011017
-0.30619561672210693 0.008960475213825703 -0.39920198917388916
-0.37968167662620544 0.0012205240782350302 -0.2992134690284729
0.02954091876745224 -0.641231119632721 -0.2757691740989685
-0.5786547660827637 0.00569413136690855 0.29242485761642456
-0.578023374080658 0.3437110185623169 0.2717973589897156
-0.5711756944656372 -0.01001090556383133 0.24665461480617523
0.1468680500984192 -0.6290967464447021 -0.19083622097969055
-0.1680927574634552 -0.22704432904720306 0.17492741346359253
0.5826947093009949 0.20349490642547607 -0.2862589359283447
-0.016582677140831947 0.08381257951259613 -0.40311136841773987
-0.3116832673549652 0.18476037681102753 -0.40675848722457886
-0.5788178443908691 0.2547106146812439 0.09500128775835037
0.3625781834125519 -0.0007052570581436157 0.24709448218345642
0.48649826645851135 0.392286092042923 -0.3983285427093506
0.3254656493663788 0.0032858075574040413 -0.026569655165076256
0.5825539231300354 0.09149530529975891 0.13149672746658325
0.028128545731306076 0.002487901132553816 0.18449097871780396
0.09422507137060165 -0.6259366273880005 0.013421937823295593
0.16182692348957062 -0.03444167599081993 -0.3700738847255707
0.5797023177146912 0.09514498710632324 -0.09997931122779846
0.052469633519649506 0.0034259241074323654 -0.07721985131502151
0.42845427989959717 -0.1508554369211197 -0.13847976922988892
0.16009077429771423 0.3964555263519287 0.34839096665382385
0.40792909264564514 -0.0014374731108546257 0.11215247213840485
-0.26559120416641235 0.38143348693847656 -0.05841696262359619
0.27183863520622253 -0.3011270761489868 0.2717821002006531
0.1370784193277359 -0.4931377172470093 -0.31985101103782654
-0.23839116096496582 -0.35454145073890686 -0.06028788536787033
0.01740887016057968 0.40415674448013306 0.15577588975429535
-0.11750760674476624 -0.3078809678554535 -0.29665592312812805
0.3130553364753723 0.28917619585990906 0.4571080207824707
0.38502591848373413 0.14203716814517975 -0.4032226800918579
0.17684929072856903 0.3987119495868683 -0.2430586963891983
-0.5809342861175537 0.20797455310821533 0.16739703714847565
0.21668171882629395 0.3546890318393707 0.4623764157295227
-0.08241590112447739 -0.3775032162666321 0.20635269582271576
-0.07735255360603333 0.4005563259124756 -0.12552134692668915
0.35771530866622925 0.34958335757255554 -0.4032689332962036
0.06981007754802704 0.0005734683945775032 -0.06366892158985138
-0.5093733072280884 0.11874239146709442 0.32787466049194336
0.38996073603630066 -0.4260273575782776 -0.08059699088335037
-0.5278695225715637 -0.09108211100101471 -0.09953808039426804
-0.06609498709440231 0.40139642357826233 0.27438870072364807
-0.13627870380878448 0.002221293281763792 -0.22461552917957306
0.25436046719551086 0.37241435050964355 0.3478923738002777
-0.24484069645404816 0.0727154016494751 -0.40357738733291626
-0.42793145775794983 0.018114415928721428 -0.405261754989624
0.2657966911792755 0.2933565378189087 0.46374085545539856
-0.36141303181648254 7.861293852329254e-05 -0.2396182119846344
-0.5730442404747009 0.05070788413286209 -0.35398757457733154
0.33415746688842773 0.2764694094657898 0.4491296410560608
0.3908800184726715 -0.6361956000328064 -0.013792553916573524
-0.1736098974943161 0.4049034118652344 0.106719471514225
-0.5407999753952026 0.3965083956718445 0.13837209343910217
-0.42317619919776917 0.4077540636062622 -0.020775288343429565
-0.03398531302809715 0.0027810190804302692 0.10625240951776505
0.39435821771621704 0.001900545321404934 0.28392574191093445
0.38340795040130615 -0.46864771842956543 -0.11163246631622314
-0.18567238748073578 0.06601792573928833 -0.4049221873283386
0.568976640701294 0.3965142071247101 -0.14643855392932892
0.4393441081047058 0.19997987151145935 -0.40339553356170654
-0.18266241252422333 -0.4094349443912506 -0.09357175976037979
0.13853538036346436 0.0010946602560579777 -0.052792977541685104
-0.1386575847864151 0.40123140811920166 0.18362052738666534
0.10322669893503189 -0.07507028430700302 0.32397398352622986
0.44665080308914185 0.31280532479286194 0.34733957052230835
0.3907299041748047 -0.003047236241400242 0.20644564926624298
0.47698774933815 0.001277202507480979 -0.2008122354745865
-0.4608948528766632 0.36892664432525635 -0.16521473228931427
0.07213131338357925 0.21668210625648499 -0.40529516339302063
-0.5847689509391785 0.2686707377433777 -0.25643181800842285
-0.33904528617858887 -0.0003746524453163147 0.17706725001335144
-0.3608209192752838 0.19454506039619446 0.3458173871040344
-0.10052202641963959 0.23648673295974731 -0.4045814871788025
-0.07253364473581314 0.11961578577756882 0.3461020290851593
0.14486585557460785 0.14368577301502228 0.4653184711933136
-0.5129954814910889 -0.0976385846734047 -0.215364471077919
-0.08901027590036392 -0.6050755977630615 -0.23865121603012085
0.5798386335372925 0.2693089246749878 -0.11342475563287735
-0.5774887800216675 0.30014514923095703 -0.13254225254058838
0.32853350043296814 0.000498946406878531 -0.2258695662021637
0.08156400918960571 -0.08603274822235107 -0.3717624247074127
-0.046939630061388016 -0.6260047554969788 -0.0514095239341259
-0.4414576590061188 0.10416901856660843 0.16413062810897827
-0.08601704984903336 0.0009479019790887833 -0.26704686880111694
-0.2378038913011551 -0.12569916248321533 -0.04000075161457062
0.13985753059387207 0.003298959694802761 -0.13620251417160034
-0.03851122409105301 0.00323543231934309 0.1737697720527649
-0.3659289479255676 0.40420228242874146 0.19415095448493958
0.5845025181770325 0.1612914800643921 -0.16233114898204803
0.20538848638534546 0.47288891673088074 0.39436954259872437
-0.3665980398654938 -0.025111455470323563 -0.37929174304008484
0.5818522572517395 0.33363839983940125 0.13223683834075928
0.3462156057357788 -0.14539679884910583 0.2119080126285553
-0.3718131482601166 0.09876950085163116 0.3452032804489136
0.10882562398910522 -0.40144094824790955 0.26319146156311035
0.575377345085144 0.2432548552751541 -0.3947174847126007
-0.4801078140735626 0.10343234986066818 0.27657872438430786
-0.20651616156101227 -0.08743397891521454 -0.1714434027671814
0.19379447400569916 -0.07808703929185867 -0.3628830313682556
0.30225494503974915 -0.48208877444267273 -0.24040329456329346
0.42852717638015747 0.40257376432418823 -0.13917462527751923
0.013971786946058273 0.0027548763900995255 -0.2469726949930191
0.47866979241371155 -0.0005203449400141835 0.16393804550170898
-0.08542723208665848 -0.6376075744628906 0.12643957138061523
-0.39026758074760437 -0.0750681534409523 -0.1836136430501938
-0.5703301429748535 0.2788650691509247 -0.39738720655441284
-0.3625911474227905 0.21716606616973877 0.3467225730419159
-0.036344606429338455 -0.6236642003059387 -0.19138513505458832
-0.577394962310791 0.005509485490620136 0.04362514242529869
-0.180620014667511 -0.5540264844894409 0.022783922031521797
0.5842210650444031 0.07577354460954666 0.07249871641397476
0.27049410343170166 -0.04541774466633797 0.4624159336090088
0.16098445653915405 0.3996129333972931 0.45595449209213257
-0.5163705348968506 0.2709037661552429 0.3467639088630676
-0.3130774199962616 0.4065612256526947 -0.06688033789396286
-0.10200352966785431 -0.39881426095962524 0.17272639274597168
0.1530970185995102 0.4006912410259247 -0.3433684706687927
0.04744305834174156 0.3877865672111511 0.3396053910255432
-0.1058015376329422 0.26600003242492676 0.34262150526046753
-0.10409494489431381 -0.38316789269447327 -0.2730306386947632
-0.18451441824436188 0.0013039493933320045 -0.2840004861354828
0.0786450132727623 -0.5713611841201782 0.2612749934196472
0.2879675328731537 -0.6203663349151611 -0.04217028617858887
-0.05263727530837059 -0.636408269405365 0.20656728744506836
0.3212714195251465 0.031928081065416336 -0.4020055830478668
-0.09601224213838577 0.007655156776309013 -0.3859323561191559
0.2563849985599518 0.3993326425552368 -0.300660103559494
-0.16064123809337616 -0.38485294580459595 -0.1810539960861206
-0.0034905150532722473 -0.6279351115226746 -0.2163090854883194
0.20360170304775238 -0.37935733795166016 -0.3516212999820709
-0.5770329833030701 0.00927458330988884 -0.3486216962337494
-0.06689506769180298 0.0007289815694093704 -0.3008345663547516
0.20636305212974548 0.0023972862400114536 0.0486786924302578
-0.2000732421875 -0.20665885508060455 -0.1908358782529831
0.0015158564783632755 0.06869382411241531 0.34610626101493835
-0.3672262728214264 0.3972688615322113 0.20803174376487732
-0.39124467968940735 0.0015939425211399794 -0.17390362918376923
-0.5512924194335938 0.022335903719067574 -0.3944432735443115
0.3663017153739929 -0.39743849635124207 -0.14779554307460785
0.2147865891456604 -0.1205233782529831 0.29588890075683594
0.11973270773887634 0.4698987901210785 0.37541934847831726
0.25507429242134094 0.40149790048599243 -0.010219989344477654
0.2092987596988678 -0.13270293176174164 0.3004985749721527
-0.3837890625 0.4034602642059326 0.17979489266872406
0.47129249572753906 0.27820566296577454 0.3465573191642761
0.24352671205997467 -0.5753043293952942 -0.2820949852466583
-0.009019746445119381 0.004944871179759502 0.17854352295398712
0.16999217867851257 0.40271708369255066 -0.1298018991947174
-0.5298500657081604 0.38390395045280457 -0.3742523491382599
0.4412584602832794 -0.01175745390355587 -0.002312894444912672
-0.4969548285007477 -0.1050419732928276 0.032337483018636703
0.31692180037498474 -0.5733928084373474 -0.22635714709758759
-0.4686547517776489 0.0077560897916555405 -0.40560007095336914
-0.09735700488090515 -0.009034724906086922 0.24543645977973938
-0.47470879554748535 0.10733828693628311 -0.0717330351471901
0.16668231785297394 -0.07795588672161102 0.3181702494621277
-0.15125329792499542 -0.19788509607315063 -0.25938206911087036
-0.39575356245040894 0.3896086812019348 -0.17751553654670715
0.30991294980049133 0.4012952744960785 0.07724735140800476
0.472150057554245 0.4005638360977173 -0.10855743288993835
0.04853030666708946 0.0018722377717494965 0.28612762689590454
0.2527303993701935 0.003232009708881378 0.07910969853401184
-0.5758585929870605 -0.03326183557510376 0.27592071890830994
-0.026441944763064384 -0.5639203190803528 0.2294008582830429
-0.22918599843978882 -0.2947002351284027 -0.10972147434949875
-0.01202266477048397 0.0018123560585081577 -0.011771723628044128
-0.06946966052055359 -0.3732563257217407 0.23827648162841797
0.5373561382293701 0.03396683186292648 -0.4011854827404022
0.01381908543407917 -0.6275777220726013 -0.23576445877552032
-0.4397730529308319 0.3994990885257721 0.33458611369132996
-0.08220642805099487 -0.6240125894546509 0.05190056934952736
-0.11383777111768723 -0.25229519605636597 0.24055640399456024
-0.3493384122848511 0.3978131413459778 -0.15783542394638062
-0.5791433453559875 0.2197386771440506 -0.34682947397232056
-0.4492063522338867 -0.10204397886991501 0.07671847939491272
-0.06751857697963715 -0.45286762714385986 -0.2608693540096283
-0.18928033113479614 -0.0001910720020532608 0.28676313161849976
-0.5705841183662415 0.003327607177197933 -0.000968083506450057
0.055191561579704285 -0.26130545139312744 -0.37035703659057617
0.551770806312561 0.2537310719490051 -0.4017179608345032
0.22866392135620117 0.006278689019382 -0.39019036293029785
0.14950674772262573 0.021883413195610046 0.46136370301246643
-0.46223872900009155 -0.00042455492075532675 -0.23863892257213593
0.5803616642951965 0.3541703224182129 0.24026912450790405
-0.5035730600357056 0.31411662697792053 -0.4048461616039276
-0.473253071308136 0.3678487241268158 -0.16051657497882843
0.5764439702033997 0.35631799697875977 -0.3345811665058136
-0.5493504405021667 0.00032497942447662354 -0.33546799421310425
0.1621769368648529 -0.29599517583847046 -0.37273889780044556
0.36656492948532104 0.40475213527679443 0.17839062213897705
-0.29228100180625916 0.39554914832115173 -0.06658035516738892
0.21079468727111816 0.4018853008747101 -0.18076714873313904
0.15843677520751953 0.46562305092811584 0.44050320982933044
0.04740338772535324 -0.6229202747344971 -0.02914615347981453
-0.13344226777553558 0.3433836102485657 0.3453447222709656
0.309950053691864 -0.5810390114784241 -0.22850975394248962
0.25483065843582153 0.11163204908370972 0.3470093905925751
-0.020343691110610962 -0.6277300715446472 -0.1943422257900238
-0.21868133544921875 0.3023952543735504 0.34142136573791504
0.1212858110666275 -0.6292433738708496 -0.02540225349366665
0.13633963465690613 -0.6612687110900879 0.2445995956659317
-0.48691317439079285 -0.10553956031799316 -0.05285467207431793
0.13139280676841736 0.4014907479286194 0.04278913512825966
0.24731819331645966 -0.25535842776298523 0.2818072438240051
0.10602143406867981 0.0015426715835928917 -0.28292116522789
0.5437144637107849 0.005637547932565212 -0.24983790516853333
-0.045023076236248016 -0.6282079219818115 0.0014872986357659101
0.30202263593673706 -0.16606444120407104 0.25234049558639526
-0.05509056895971298 -0.5087047815322876 0.21195119619369507
-0.5773879289627075 0.02787259966135025 -0.161637082695961
0.03260448947548866 -0.3947998285293579 0.25236573815345764
-0.08451962471008301 0.26896411180496216 0.3647117614746094
-0.4828517735004425 0.3600471317768097 -0.1527392864227295
-0.5516746640205383 -0.07209565490484238 -0.08101105690002441
0.05518316477537155 0.4077526926994324 0.3595120906829834
0.09536385536193848 0.4140239357948303 0.4534831941127777
0.4145326316356659 0.0028620483353734016 0.287868857383728
-0.0738140121102333 0.3213900029659271 0.3503762185573578
0.05309591069817543 -0.3571993410587311 0.31034284830093384
0.36654889583587646 0.402813196182251 -0.16738443076610565
0.1920693963766098 -0.06145291030406952 0.30907583236694336
-0.16567029058933258 0.0009295614436268806 0.08911155164241791
-0.25018346309661865 0.3956126272678375 -0.38909363746643066
0.2455446720123291 -0.25366848707199097 0.2809149920940399
0.14661060273647308 -0.5271732807159424 -0.31296586990356445
0.34665295481681824 -0.16766563057899475 -0.2797876298427582
-0.1602870374917984 -0.3749304711818695 0.17230813205242157
-0.13265222311019897 -0.1898501068353653 0.22550106048583984
0.16332094371318817 0.4021334648132324 -0.3488899767398834
-0.5346313714981079 -0.08835132420063019 -0.37177371978759766
-0.4947504699230194 -0.05662751942873001 -0.40550824999809265
0.1284509152173996 0.0016002459451556206 -0.21809573471546173
0.020519521087408066 -0.6293333172798157 0.20233353972434998
-0.11775438487529755 -0.004356053192168474 0.22715875506401062
-0.5804830193519592 0.14665772020816803 -0.2307354062795639
-0.5787624716758728 -0.016771458089351654 0.16409339010715485
0.3957442343235016 0.3906901180744171 -0.39744067192077637
-0.37501490116119385 -0.05804014205932617 0.13196991384029388
-0.5716805458068848 0.03443526476621628 -0.166181743144989
0.5369607210159302 0.13682202994823456 -0.4027504324913025
-0.36480435729026794 -0.02846532128751278 -0.28952330350875854
-0.5811464190483093 0.3549148738384247 -0.32998791337013245
0.26952406764030457 0.2579435408115387 0.46443605422973633
-0.21785180270671844 -0.32282355427742004 0.10323058813810349
-0.5799243450164795 0.04575902968645096 0.026907052844762802
-0.4827685058116913 0.4037242829799652 0.12985539436340332
0.30816954374313354 0.3916406035423279 0.45901718735694885
0.0008193629328161478 0.3264899253845215 -0.401917040348053
0.03051219880580902 0.3880228102207184 0.44429612159729004
0.524351954460144 0.4006013572216034 -0.08049775660037994
-0.04129045084118843 0.40272605419158936 0.20055614411830902
-0.23100925981998444 -0.3331787884235382 -0.10490333288908005
-0.5213425159454346 -0.0199174415320158 0.3482799232006073
-0.10297273099422455 -0.6248635649681091 -0.01669486053287983
-0.26449957489967346 0.0017332318238914013 0.19538596272468567
0.16908526420593262 -0.4762578308582306 0.25224289298057556
0.3384328782558441 -0.6384286880493164 -0.11239469051361084
0.5857369899749756 0.2994658946990967 -0.3457489013671875
-0.27747631072998047 0.39950135350227356 -0.016052018851041794
0.5813308358192444 0.3765535354614258 0.21911440789699554
0.21496035158634186 -0.0017267195507884026 -0.34378060698509216
0.41677114367485046 -0.005271531641483307 0.11629730463027954
-0.0724438801407814 0.0029601948335766792 0.24058343470096588
-0.3749416768550873 0.0005338153569027781 -0.2716921269893646
-0.5760819911956787 0.17746855318546295 -0.3241114914417267
0.5846567749977112 0.16166676580905914 0.048705413937568665
0.07115741074085236 -0.15661515295505524 0.3156913220882416
0.5715025067329407 0.39223557710647583 -0.04426797851920128
0.4895981550216675 0.0010257852263748646 -0.2613923251628876
-0.005423763766884804 -0.6230674386024475 -0.05238068848848343
0.13390831649303436 0.2222316861152649 0.3444012701511383
0.3091277480125427 -0.14273840188980103 0.24708275496959686
-0.43022292852401733 0.4002704322338104 0.2554381787776947
0.2913157045841217 -0.5751124620437622 -0.25020405650138855
-0.5678359866142273 0.3756922483444214 -0.013198543339967728
-0.5797035098075867 0.11676756292581558 -0.31350383162498474
-0.12851029634475708 0.39876458048820496 -0.21336083114147186
0.05406773462891579 0.3559018671512604 0.34336620569229126
-0.5440636277198792 0.07684648036956787 -0.06948379427194595
0.31165048480033875 0.00257662869989872 0.08745692670345306
0.27286532521247864 -0.23042111098766327 -0.3327212631702423
0.09359700232744217 0.21640990674495697 -0.40407994389533997
0.062480196356773376 0.23439852893352509 0.3478545546531677
0.3262794613838196 -0.5511478781700134 -0.2159012258052826
-0.02612002193927765 0.38673827052116394 0.3445419669151306
0.3342342674732208 0.19584812223911285 0.44389811158180237
-0.22862447798252106 0.2688901424407959 -0.40207698941230774
-0.5242601633071899 0.09676574915647507 -0.298691064119339
-0.18785177171230316 -0.5780655741691589 -0.01463648583739996
-0.2173280566930771 -0.00017641432350501418 0.1958102136850357
-0.0169718898832798 0.0024590236134827137 0.23338164389133453
0.31808510422706604 -0.20963598787784576 -0.2939111292362213
-0.01283416710793972 -0.2579329311847687 -0.3546362817287445
-0.3789043724536896 0.40093132853507996 -0.3179968595504761
0.29530468583106995 0.15528008341789246 0.3472599685192108
0.04010706767439842 -0.00035884790122509 -0.13476823270320892
0.18362383544445038 -0.22035910189151764 0.30494925379753113
-0.4989989697933197 0.06211009621620178 0.345831036567688
0.5738516449928284 0.3928590416908264 -0.2337096780538559
-0.4887956976890564 0.28803250193595886 0.34652024507522583
0.009682154282927513 0.0024387720040977 0.056813325732946396
-0.5687757134437561 -0.03635619580745697 -0.16434627771377563
-0.3633182942867279 -0.019550081342458725 0.30263587832450867
-0.3934377133846283 0.2940308153629303 0.3485000431537628
0.06903834640979767 -0.5422787666320801 -0.3183538615703583
0.2637125849723816 0.4028083086013794 -0.12563782930374146
-0.5722916722297668 0.2927991449832916 0.34041768312454224
0.410020112991333 -0.0022470266558229923 -0.3122329115867615
0.3904358446598053 -0.39134112000465393 -0.11238516122102737
-0.14083488285541534 -0.32629215717315674 -0.2712205648422241
0.19307705760002136 0.40190449357032776 0.11445150524377823
0.3216142952442169 -0.645190954208374 -0.13204891979694366
-0.03276143595576286 0.2898169457912445 0.3517758250236511
-0.1913164258003235 -0.38169392943382263 -0.09715157002210617
0.15483058989048004 0.3887276351451874 0.4570055603981018
0.01543754804879427 0.4021763205528259 -0.13045550882816315
0.05293978005647659 0.2049417495727539 0.46281638741493225
