0.4139481484889984 0.26188209652900696 -0.4002411663532257
-0.1592720001935959 -0.46999964118003845 -0.15095528960227966
0.34241995215415955 0.0036703376099467278 -0.05883648246526718
0.10441488027572632 0.0007982887327671051 -0.13564898073673248
0.4054894745349884 -0.14445337653160095 -0.1770583987236023
0.013878777623176575 0.00595429353415966 0.24178487062454224
-0.43691277503967285 0.1004348024725914 0.26108524203300476
0.17511941492557526 -0.4320918321609497 -0.30631545186042786
-0.12402772903442383 -0.4348958134651184 0.14996759593486786
-0.5659334659576416 0.350134015083313 -0.3932647705078125
-0.3926786780357361 -0.07190455496311188 -0.004849561024457216
0.4310625493526459 0.36887693405151367 -0.39994266629219055
-0.5210598111152649 0.10368456691503525 0.1682015210390091
-0.05065654590725899 0.0008286703377962112 -0.15167349576950073
0.23039691150188446 0.40005946159362793 -0.2612929046154022
0.43699175119400024 -0.20521686971187592 0.02614382468163967
0.2752462327480316 0.07694817334413528 -0.3996075987815857
0.21429355442523956 0.39830726385116577 0.11602330952882767
0.2692493796348572 -0.40163618326187134 -0.2664342224597931
0.30282318592071533 -0.12324713915586472 0.24306733906269073
-0.06316398829221725 0.00022812228417024016 -0.31698858737945557
-0.27183032035827637 0.0031196177005767822 0.18887364864349365
0.025225931778550148 0.22557662427425385 0.4495074152946472
0.2130766361951828 0.39985430240631104 -0.23092198371887207
-0.1370619684457779 0.003897718619555235 0.005760562140494585
0.49907171726226807 0.0024300606455653906 0.24268051981925964
0.21837756037712097 -0.6236648559570312 -0.2222854346036911
0.3936665952205658 0.1139891967177391 -0.4026973843574524
0.16361282765865326 0.17703723907470703 -0.4011017084121704
0.014842484146356583 -0.32191866636276245 -0.36219269037246704
-0.062403593212366104 -0.6217377185821533 -0.1918841004371643
-0.425658643245697 0.0043929582461714745 -0.3841460943222046
0.3722786605358124 -0.6376111507415771 0.044765718281269073
0.40598034858703613 -0.229000523686409 0.12477836012840271
0.23984098434448242 -0.5159892439842224 -0.2812477946281433
-0.11033395677804947 -0.6299779415130615 -0.15248677134513855
0.028341077268123627 0.0030127919744700193 -0.08395891636610031
-0.5706696510314941 0.05382012575864792 -0.24895648658275604
0.12250972539186478 -0.07006265223026276 0.33560097217559814
-0.4997742176055908 0.10653655230998993 -0.3975994884967804
-0.5138875842094421 0.2634057104587555 0.342692106962204
-0.4856567084789276 0.39847105741500854 0.008835086598992348
-0.15868136286735535 0.0004910402931272984 -0.27690085768699646
-0.1138274222612381 -0.6433296799659729 0.10480160266160965
0.16437004506587982 0.19447219371795654 0.33944594860076904
0.1946669965982437 0.3996378481388092 -0.2253113090991974
0.02423851191997528 0.003247228916734457 0.038393814116716385
-0.1771906465291977 -0.6503992676734924 -0.06209780275821686
-0.4939061105251312 -0.11165142804384232 0.08019395917654037
0.28649231791496277 -0.13469582796096802 -0.31121015548706055
0.296169251203537 -0.6572834253311157 0.15395310521125793
-0.5269891619682312 0.0004852423444390297 0.030575819313526154
-0.21718533337116241 0.005634830798953772 0.2994674742221832
0.5821318626403809 0.15169695019721985 0.025480084121227264
0.3037598431110382 0.0024716374464333057 0.2264918088912964
0.4483324885368347 -0.00029942020773887634 -0.32813188433647156
0.2370900958776474 0.0044939350336790085 0.05543189123272896
0.4738866686820984 0.40214183926582336 -0.08728531002998352
0.09179826080799103 0.2160850614309311 -0.3998364210128784
0.03920280560851097 -0.03436195105314255 0.34663626551628113
-0.367880642414093 -0.021044842898845673 0.07898770272731781
-0.27464714646339417 0.3988751769065857 0.3217225670814514
0.35061001777648926 0.003690849058330059 0.021262850612401962
0.3347804844379425 0.004698397126048803 0.12873858213424683
-0.348013699054718 0.01813843660056591 0.003190728137269616
0.16640464961528778 -0.6222348213195801 0.03418057784438133
0.13858863711357117 0.15235310792922974 -0.39890286326408386
-0.5768336653709412 0.040696851909160614 -0.3148562014102936
0.2969267666339874 0.004392947070300579 0.08009515702724457
-0.4110926389694214 -0.08537515252828598 0.22307930886745453
0.08308166265487671 0.0035355216823518276 -0.02296118624508381
0.031846825033426285 -0.369161993265152 0.30139487981796265
0.007473269943147898 0.0034880423918366432 0.117842897772789
0.14973075687885284 0.0003770776093006134 -0.26259538531303406
-0.4588868319988251 0.09893108159303665 0.34093955159187317
-0.00781475193798542 0.001928679645061493 -0.10684656351804733
-0.5489839911460876 0.37982288002967834 0.09361696243286133
0.3355637192726135 -0.653221070766449 0.09330477565526962
0.16033364832401276 -0.28263553977012634 -0.36784499883651733
0.21715500950813293 0.005114239174872637 0.13758495450019836
-0.08361954987049103 0.23876947164535522 -0.39961379766464233
-0.32537487149238586 0.0020671929232776165 0.007811721879988909
0.20877903699874878 0.08673569560050964 0.4612426459789276
0.18524229526519775 -0.3336297273635864 -0.36417505145072937
0.1705903857946396 -0.6195144653320312 -0.13008351624011993
-0.5757592916488647 0.1419437676668167 0.24699518084526062
-0.39582404494285583 0.06642864644527435 0.330556184053421
-0.5336360335350037 0.39892444014549255 -0.14309485256671906
-0.28394776582717896 0.3963937759399414 0.09804757684469223
0.10154810547828674 0.003988827578723431 -0.17265380918979645
0.08726814389228821 -0.6206019520759583 -0.21968598663806915
0.4017274081707001 -0.2696622908115387 -0.18014080822467804
-0.0023320880718529224 -0.01746108941733837 -0.3587788939476013
0.2211713045835495 -0.6188684105873108 -0.10399606078863144
0.2667842507362366 0.22841475903987885 0.45557892322540283
0.32359349727630615 -0.6335733532905579 0.13905104994773865
0.07920551300048828 -0.07582736760377884 0.43862226605415344
0.30899307131767273 -0.08966074883937836 0.39431285858154297
0.43918099999427795 -0.21856029331684113 -0.028751390054821968
-0.42148926854133606 -0.08619136363267899 -0.062430113554000854
-0.07496073096990585 -0.2517760992050171 -0.3236919343471527
-0.3695867955684662 -0.01388875488191843 0.12562376260757446
-0.3652696907520294 0.05873854458332062 -0.13013994693756104
-0.05532758682966232 6.055925041437149e-05 -0.15430709719657898
-0.0009405015734955668 0.13196426630020142 0.3457414507865906
0.5781736373901367 0.2589074969291687 0.01703362911939621
0.24479182064533234 0.13970661163330078 0.3416765034198761
0.17437709867954254 -0.3841780424118042 0.25725603103637695
-0.10957890748977661 -0.4363337755203247 -0.23072247207164764
-0.14552254974842072 0.399578332901001 -0.011675054207444191
-0.41293174028396606 0.1013917326927185 0.008507462218403816
0.045179061591625214 0.005797291174530983 -0.38308951258659363
0.19190125167369843 0.004222908988595009 -0.16844624280929565
0.15202881395816803 -0.5551201701164246 -0.313056081533432
0.41097062826156616 0.12956973910331726 -0.40122994780540466
-0.5799446702003479 0.0199048463255167 0.23157665133476257
0.04394543170928955 -0.6215746998786926 0.1970847100019455
-0.31454965472221375 0.2010916769504547 -0.39894533157348633
-0.5377275943756104 0.2537207305431366 0.3398844301700592
-0.21474352478981018 0.2489052265882492 0.34151002764701843
-0.5563569664955139 -0.029828060418367386 0.3411801755428314
0.07290009409189224 0.004420364275574684 0.08718498796224594
0.0016542505472898483 0.05309496074914932 0.34888070821762085
-0.09696000814437866 -0.5038448572158813 -0.24125736951828003
0.025088075548410416 -0.18597017228603363 0.30393651127815247
0.21673370897769928 -0.6421850323677063 0.18898768723011017
0.31261610984802246 -0.5533591508865356 0.15841932594776154
0.17668503522872925 -0.6195714473724365 0.13080064952373505
-0.2157781422138214 0.0005024932324886322 -0.28268593549728394
0.011805830523371696 0.00299864262342453 -0.19431307911872864
0.21561802923679352 0.0006109420210123062 0.1252264678478241
0.24912281334400177 -0.08705329149961472 0.32835155725479126
-0.023385096341371536 0.002282540313899517 0.30287179350852966
0.2298666387796402 0.004033864475786686 0.18413002789020538
0.08752838522195816 0.4014090299606323 -0.06908143311738968
-0.1311970055103302 -0.28344351053237915 0.22212201356887817
0.03454466909170151 0.0027796882204711437 -0.11549670249223709
-0.1077541783452034 -0.6429799199104309 0.12152032554149628
0.3438328504562378 0.4016101360321045 0.20089657604694366
-0.5696672201156616 0.0015658335760235786 -0.39482390880584717
0.34062644839286804 0.12893015146255493 -0.40203219652175903
-0.5405872464179993 0.003310837782919407 -0.04098750650882721
-0.5356367230415344 0.08581258356571198 -0.16331365704536438
0.25130143761634827 0.4005184769630432 0.11795303970575333
-0.1485198587179184 0.0014949580654501915 0.15614698827266693
-0.4901965856552124 0.3783421218395233 0.003270513378083706
0.36977747082710266 -0.6006900072097778 0.04935537278652191
0.2941078543663025 0.21665814518928528 0.34243276715278625
-0.18174569308757782 -0.21322035789489746 0.16148105263710022
-0.07872109115123749 -0.6349740028381348 -0.2435290813446045
-0.037722159177064896 -0.20721808075904846 0.28423821926116943
-0.0927276611328125 0.32724568247795105 0.3404892683029175
0.3668915629386902 0.3991222083568573 -0.3879031240940094
-0.24023181200027466 -0.1297953724861145 -0.041723236441612244
-0.4953887462615967 -0.09719286113977432 0.02959413081407547
-0.1846344918012619 -0.00120569858700037 -0.15359729528427124
-0.42528775334358215 -0.09531636536121368 0.2039906084537506
-0.17466838657855988 0.00965422485023737 0.3320622742176056
0.49266067147254944 0.004339356441050768 -0.13556376099586487
0.482379674911499 0.001154232770204544 -0.011389982886612415
-0.2636426091194153 0.40325507521629333 0.262483149766922
-0.13762050867080688 -0.17226417362689972 0.2151355892419815
0.031033456325531006 0.3366773724555969 0.44122692942619324
0.03226110339164734 0.000394248403608799 0.3268677592277527
-0.35859423875808716 0.11027595400810242 0.34159934520721436
0.2795448899269104 0.0039985282346606255 0.006440894212573767
0.347980797290802 0.004469291307032108 0.0710843950510025
0.17733129858970642 0.0036162687465548515 -0.27317801117897034
-0.07278124243021011 0.29738903045654297 -0.40142402052879333
-0.5763412117958069 0.30994418263435364 -0.26898112893104553
-0.47717520594596863 0.398972749710083 0.15215973556041718
-0.04537900537252426 -0.5945866703987122 0.21848587691783905
0.18298131227493286 -0.6214845776557922 -0.058752112090587616
0.47872287034988403 0.0032361065968871117 -0.13758181035518646
-0.043932076543569565 -0.6413773894309998 -0.2630138695240021
-0.15872003138065338 -0.22915378212928772 -0.2386655956506729
0.30286699533462524 -0.1917954534292221 -0.302183598279953
-0.4817095100879669 0.36900582909584045 -0.012623080052435398
-0.560390055179596 0.3773736357688904 -0.2630313038825989
-0.13985158503055573 0.002598435152322054 -0.13725446164608002
-0.350979208946228 -0.0025760438293218613 -0.34424927830696106
0.3632553815841675 -0.0016624066047370434 0.1969144493341446
0.171395942568779 0.0029027722775936127 0.13574866950511932
-0.37055638432502747 -0.005574461072683334 0.2994099259376526
-0.40624484419822693 0.0006144577637314796 -0.23137131333351135
-0.5128967761993408 -0.020853320136666298 0.3471459150314331
0.2952311635017395 -0.0006561186164617538 0.10993964970111847
0.2571110129356384 -0.3774782717227936 0.23547522723674774
0.037794675678014755 -0.6216219067573547 0.08579637110233307
-0.07344403117895126 -0.642931342124939 -0.22168155014514923
0.16068436205387115 0.0973067432641983 -0.39787790179252625
0.27930745482444763 0.24137051403522491 0.3430689871311188
0.3845825791358948 -0.598368763923645 -0.009641643613576889
0.19746263325214386 -0.19643010199069977 0.2923579812049866
-0.11814204603433609 -0.17507515847682953 -0.2966515123844147
0.17749561369419098 -0.6238090991973877 -0.22662919759750366
-0.239252507686615 -0.23818577826023102 0.004786954261362553
0.21076257526874542 -0.6202301383018494 -0.10688114911317825
-0.0621039979159832 0.39835938811302185 -0.30593445897102356
0.35400328040122986 0.4026429057121277 -0.0018416403327137232
0.1520737111568451 -0.4598696827888489 0.25267013907432556
0.24023567140102386 0.07412365078926086 0.4590970575809479
0.053730692714452744 -0.6199107766151428 -0.06518582254648209
-0.36422401666641235 0.4070393145084381 -0.13544487953186035
-0.2156539261341095 0.018078960478305817 0.33926451206207275
-0.4452451765537262 -0.1003747433423996 0.05206136777997017
-0.14996938407421112 0.37635600566864014 -0.3961273431777954
0.5797937512397766 0.09478390216827393 -0.0008758456679061055
0.42188015580177307 -0.12288912385702133 -0.12601850926876068
0.33885207772254944 -0.07236592471599579 -0.27120736241340637
-0.14884574711322784 0.0019299648702144623 0.12081264704465866
0.3020228147506714 -0.6198955774307251 -0.04924660548567772
-0.4671456515789032 0.06277408450841904 0.34365561604499817
0.25589340925216675 0.3992713987827301 0.45100343227386475
0.044308215379714966 0.24418377876281738 0.3459354043006897
0.5729256272315979 0.010606172494590282 -0.25479716062545776
0.578510582447052 0.27495649456977844 -0.09385202080011368
-0.5684224963188171 -0.033584024757146835 0.10079891234636307
0.17478618025779724 0.37803182005882263 0.33928337693214417
0.021538738161325455 0.2935713827610016 -0.3997463583946228
-0.5729180574417114 0.04428133741021156 -0.13992436230182648
-0.48064279556274414 0.39889538288116455 0.00561591936275363
0.5159416198730469 0.36313167214393616 -0.40306997299194336
0.22231285274028778 0.4010324478149414 -0.22212308645248413
0.2224208265542984 -0.06172623857855797 0.32657697796821594
-0.11387582868337631 0.002065633423626423 0.08244366198778152
0.0900961309671402 -0.0899457111954689 0.35705021023750305
0.21962307393550873 -0.4242453873157501 0.23240841925144196
0.24138043820858002 0.39889422059059143 0.18005192279815674
0.5598978996276855 0.18396097421646118 -0.3980482816696167
0.43368732929229736 -0.0038129715248942375 -0.050396986305713654
-0.3075936436653137 0.2053050547838211 -0.40278077125549316
0.15865643322467804 0.003871533554047346 0.006191778462380171
-0.4899575412273407 0.030805209651589394 -0.39841657876968384
-0.4637276828289032 0.04634257033467293 -0.4017239212989807
-0.3676008880138397 -0.005450820084661245 -0.0828113704919815
0.046325866132974625 -0.6164507865905762 0.14593873918056488
-0.21039442718029022 -0.014422397129237652 0.09205653518438339
0.09197473526000977 0.1343681663274765 -0.39909467101097107
0.12698255479335785 -0.6235796809196472 0.09723376482725143
0.3008921146392822 -0.001809318084269762 -0.2906743884086609
-0.11419423669576645 -0.6274856328964233 0.08959929645061493
0.17852972447872162 0.41727593541145325 0.4485394060611725
0.04324878007173538 0.005685540847480297 0.27699577808380127
0.014685194939374924 -0.19668075442314148 0.30102577805519104
-0.3269071877002716 0.3584284484386444 -0.3977464735507965
-0.5758315920829773 0.036909762769937515 0.00434084003791213
-0.2428468018770218 -0.024771513417363167 -0.09478098154067993
0.1850132942199707 0.11762668192386627 -0.3986327350139618
0.2903602719306946 0.19610533118247986 -0.39973974227905273
0.2314157336950302 0.004095303360372782 -0.22244371473789215
0.2831616699695587 -0.6218118071556091 -0.11183859407901764
0.12827326357364655 0.40045443177223206 -0.254199355840683
0.06065691262483597 -0.594568133354187 0.253158837556839
-0.5686867237091064 0.373039186000824 -0.06718698143959045
-0.5764822363853455 0.33605706691741943 0.1898912489414215
0.15197281539440155 0.0035204440355300903 0.16295163333415985
0.35593199729919434 -0.30967846512794495 0.20151175558567047
0.44411537051200867 0.4042351245880127 0.14821462333202362
-0.5798837542533875 0.17463046312332153 0.15267980098724365
-0.04012387990951538 0.2705000340938568 -0.39933618903160095
-0.47543570399284363 0.11266054958105087 0.34159862995147705
0.3949148952960968 0.40057802200317383 -0.3061152398586273
0.26374614238739014 0.3980051875114441 -0.3562338650226593
0.09887233376502991 -0.007124969735741615 -0.3731139898300171
-0.39510950446128845 0.40892675518989563 -0.13700562715530396
0.4013679027557373 0.3457566201686859 0.34269434213638306
-0.0703781396150589 -0.5006176233291626 -0.25953471660614014
-0.1648021936416626 0.40074077248573303 -0.20765195786952972
-0.5725517272949219 0.05822659656405449 -0.30517077445983887
-0.21988624334335327 -0.19439709186553955 0.0858992263674736
-0.03512312471866608 0.0019952375441789627 -0.34635496139526367
-0.0334775373339653 -0.46589741110801697 0.22663895785808563
0.1671191155910492 0.23366698622703552 -0.39908793568611145
-0.04256700351834297 -0.028182649984955788 0.2793346643447876
-0.17643007636070251 0.0036151837557554245 -0.038313128054142
-0.4017009139060974 0.08472044765949249 -0.27669936418533325
0.0904720351099968 0.399549663066864 0.0651019886136055
0.20659895241260529 0.4690532386302948 0.36510348320007324
0.15566012263298035 0.20949053764343262 0.3395131528377533
-0.03584558889269829 0.0025695590302348137 -0.10961250215768814
-0.5776007771492004 0.32299885153770447 -0.11591888219118118
-0.4343527853488922 0.0022505735978484154 -0.25177201628685
-0.3700123727321625 0.39646244049072266 -0.2644037902355194
-0.5403289198875427 0.00451757712289691 0.1978549212217331
-0.17091017961502075 -0.0017083603888750076 -0.2144051343202591
0.15845036506652832 -0.30914372205734253 0.3090907037258148
-0.5619816184043884 -0.05224894359707832 0.24849854409694672
0.07628007978200912 0.05472841113805771 -0.4006328284740448
0.18269507586956024 0.40071526169776917 0.3010978400707245
0.5791662931442261 0.063645139336586 0.02100815623998642
-0.3554830849170685 0.03197842836380005 0.08862876892089844
0.12058079987764359 -0.5808013081550598 -0.3160494565963745
0.21563464403152466 -0.04557723179459572 0.3164578378200531
0.5206366777420044 0.3989437520503998 -0.25183504819869995
-0.18044859170913696 0.3163752853870392 0.34060612320899963
0.16243337094783783 0.3261287808418274 0.45876744389533997
-0.5450883507728577 -0.08568444103002548 0.08702511340379715
-0.3826862871646881 0.40453049540519714 -0.15213601291179657
0.5354558825492859 0.40420857071876526 -0.029889661818742752
0.5730278491973877 0.3307251036167145 0.33412256836891174
0.17670369148254395 0.14578348398208618 0.4607369601726532
0.1411060094833374 0.0036969955544918776 -0.23761942982673645
0.12687772512435913 -0.6211256384849548 -0.16443200409412384
-0.5782518982887268 0.2686634063720703 0.33365964889526367
0.11497968435287476 -0.03502880781888962 0.31779295206069946
-0.42337679862976074 0.002402947284281254 0.0008382326923310757
0.06579147279262543 -0.6256474256515503 -0.26257017254829407
-0.27983635663986206 0.37181609869003296 -0.07035264372825623
0.32882124185562134 -0.040677204728126526 0.3803616464138031
-0.21404455602169037 -0.3881092071533203 -0.03276390954852104
0.1556999683380127 0.09234647452831268 0.46130672097206116
-0.19846419990062714 -0.37612849473953247 -0.08278419077396393
0.32344868779182434 -0.5824315547943115 0.15316127240657806
0.5805947184562683 0.38806837797164917 0.2808144688606262
0.3137051463127136 0.43088600039482117 0.3559529185295105
-0.13904306292533875 -0.36905768513679504 0.2096620798110962
-0.4322226941585541 -0.04839760810136795 0.345925897359848
0.07519400119781494 0.00446104072034359 0.17400899529457092
0.017352398484945297 0.0001208973117172718 0.3100237250328064
-0.0005085892044007778 -0.1717490255832672 0.29749560356140137
0.1303304135799408 -0.6440495848655701 0.2228185385465622
-0.5278260111808777 0.09970416873693466 0.23252537846565247
0.34478306770324707 -0.043945010751485825 -0.26008737087249756
0.02485474944114685 0.00389237143099308 0.14254184067249298
-0.06502215564250946 -0.4361441731452942 -0.2673042416572571
-0.2401488870382309 -0.36656513810157776 -0.07592477649450302
0.2060975730419159 -0.6223773956298828 -0.21909596025943756
0.4298308789730072 0.3999108076095581 0.0769616886973381
-0.5652547478675842 0.0693759173154831 0.09513766318559647
0.027476629242300987 0.21381254494190216 0.34718143939971924
-0.29919159412384033 0.39828211069107056 -0.2343508005142212
-0.567780077457428 0.37144935131073 0.024129923433065414
-0.06882330775260925 0.3974919021129608 -0.08064578473567963
0.5290429592132568 0.006049687974154949 0.19488213956356049
0.476130872964859 0.07814735919237137 -0.40133216977119446
0.5300372838973999 0.006996490061283112 -0.3861924111843109
0.004038611426949501 0.002517750021070242 -0.1341722458600998
0.3221469521522522 0.4020370543003082 -0.2201799899339676
-0.5755208730697632 -0.02424287050962448 0.33527934551239014
-0.4245806932449341 0.098568394780159 -0.24266435205936432
0.4033043682575226 0.0038738357834517956 -0.13051779568195343
-0.5810831785202026 0.11466392874717712 -0.09692100435495377
-0.132953941822052 0.3997898995876312 0.2656545341014862
0.26806172728538513 0.13837842643260956 0.3429175615310669
-0.22441914677619934 -0.3162640333175659 -0.13251686096191406
0.4024321734905243 0.29341375827789307 0.34102100133895874
-0.5440694093704224 -0.07752614468336105 0.31804129481315613
0.060039106756448746 0.4024938941001892 0.25521260499954224
0.16300740838050842 0.06228453293442726 0.34489697217941284
-0.2576480507850647 0.001354294829070568 -0.1961338073015213
-0.3956829607486725 0.14123685657978058 -0.397896945476532
0.17828397452831268 0.035575948655605316 -0.3997717797756195
0.36966291069984436 -0.506507396697998 0.07429520040750504
0.26204854249954224 0.39809203147888184 0.19308671355247498
0.06986647844314575 0.3312104046344757 -0.3977685272693634
-0.5778839588165283 0.30078932642936707 -0.23133917152881622
0.25167134404182434 -0.6339099407196045 0.1567879468202591
0.36911821365356445 -0.017012977972626686 0.1875888556241989
0.2146831750869751 -0.6209831237792969 -0.19103050231933594
0.1630190908908844 0.09926386177539825 0.34064096212387085
-0.5726805925369263 0.0822928324341774 -0.0656689926981926
0.08640775829553604 0.15321113169193268 -0.4003247320652008
-0.5093289017677307 0.08912678807973862 0.3421463370323181
0.048490606248378754 -0.6178730130195618 0.1455238163471222
0.27447032928466797 -0.6181480288505554 -0.09450668841600418
0.1671735644340515 -0.09437476843595505 0.3831771910190582
-0.4193283021450043 0.034717533737421036 -0.401091992855072
-0.12819352746009827 0.0015756356297060847 -0.20939192175865173
0.5822162628173828 0.37263035774230957 0.3114978075027466
-0.0811808705329895 -0.13611505925655365 -0.32258933782577515
-0.4905654788017273 0.09810961782932281 0.16757069528102875
-0.04150247946381569 -0.6218764185905457 0.022776253521442413
-0.5688457489013672 0.062180403620004654 -0.23322708904743195
-0.031936872750520706 -0.6169635653495789 0.04481623321771622
0.47928693890571594 0.40416184067726135 -0.32189515233039856
0.0830935537815094 0.3384893238544464 0.3375018835067749
-0.30136704444885254 0.004798358306288719 -0.21749374270439148
0.3358089327812195 -0.09629668295383453 -0.2724631130695343
0.3761374056339264 -0.5042976140975952 0.03589209169149399
0.31902411580085754 -0.09494166076183319 0.22989115118980408
-0.2089020162820816 0.0008893625345081091 -0.0034432713873684406
-0.36727163195610046 -0.0075648268684744835 0.09273940324783325
0.20487962663173676 0.40094467997550964 0.07111013680696487
0.10309463739395142 -0.6224982738494873 -0.20402449369430542
-0.05895498767495155 -0.5145103931427002 -0.2680221199989319
0.5731285810470581 0.3398776352405548 -0.3926391005516052
0.10802268236875534 0.0051828306168317795 0.04665864631533623
-0.4940284490585327 0.058439113199710846 -0.39958420395851135
0.2208148092031479 -0.09122512489557266 0.4038988947868347
-0.24094857275485992 0.0034858984872698784 -0.2551000118255615
-0.5815030932426453 0.2347019463777542 0.013031858019530773
0.23355749249458313 0.3910731375217438 -0.39058148860931396
-0.18938155472278595 -0.38232848048210144 -0.10529312491416931
-0.03754360228776932 0.004787585698068142 0.22755013406276703
0.12040960043668747 0.4039441645145416 0.45148253440856934
0.39989033341407776 0.11974943429231644 -0.4021044373512268
0.2887383997440338 -0.5241220593452454 -0.24397610127925873
0.08422492444515228 -0.3194625973701477 -0.3756352961063385
0.3911300003528595 -0.36390069127082825 0.15127000212669373
0.5804132223129272 0.05861023813486099 -0.2473442405462265
0.18143267929553986 -0.6236523985862732 -0.04827485978603363
-0.41098716855049133 0.3978382647037506 -0.2348369061946869
0.3018490672111511 0.13830897212028503 0.3423297703266144
-0.15197506546974182 0.004469773732125759 -0.0059798602014780045
0.1735507994890213 0.0037170329596847296 -0.23669296503067017
-0.3783124089241028 -0.0014854096807539463 0.039279405027627945
0.164698988199234 -0.004684047773480415 0.31859922409057617
-0.41484734416007996 -0.05971253290772438 -0.39937475323677063
0.33230820298194885 -0.6529775857925415 -0.1844552904367447
0.18945974111557007 0.40965473651885986 0.34378862380981445
-0.2376280426979065 -0.15656223893165588 0.020582744851708412
-0.0030911085195839405 -0.0014910935424268246 -0.3673413097858429
-0.36950868368148804 0.3974502980709076 -0.22699473798274994
-0.040363915264606476 -0.5775694251060486 -0.27709200978279114
0.15667079389095306 -0.23938807845115662 0.3056659996509552
-0.10066204518079758 0.002622464671730995 -0.0799950435757637
0.22583124041557312 -0.32553261518478394 -0.3456118106842041
0.109395332634449 -0.4154816269874573 -0.3173030614852905
-0.5710631012916565 0.37474969029426575 0.1899811029434204
-0.3007185757160187 0.40309950709342957 0.1883908063173294
-0.577895998954773 0.2171214073896408 -0.14741255342960358
0.2890266478061676 0.403568297624588 0.2523045837879181
-0.1148228570818901 0.0031296212691813707 0.028830448165535927
0.27087756991386414 -0.028492558747529984 0.2675358057022095
0.44858041405677795 0.3971453309059143 0.293011337518692
0.5791540741920471 0.0797196552157402 -0.2619110941886902
-0.015710994601249695 0.010814916342496872 -0.39095571637153625
-0.5767701864242554 0.13962626457214355 -0.26054054498672485
0.045075662434101105 -0.61954665184021 -0.002301969565451145
-0.023898335173726082 -0.16873909533023834 0.29003146290779114
0.29840853810310364 -0.059817053377628326 0.25803208351135254
0.580854594707489 0.13728934526443481 0.11193355172872543
0.44381752610206604 -0.21226553618907928 -0.01493324339389801
0.17924363911151886 -0.6206222176551819 0.033003564924001694
0.5794065594673157 0.04245208576321602 -0.04503709450364113
0.5519905090332031 0.002818470820784569 0.1731892228126526
-0.05260099098086357 -0.4809100329875946 -0.27078375220298767
0.35267168283462524 0.004036553204059601 -0.1670157015323639
-0.005128387361764908 0.0009796535596251488 0.0019670252222567797
0.4854154884815216 0.39597946405410767 -0.3965139091014862
0.33401229977607727 -0.6311101317405701 0.024717897176742554
0.4435601234436035 0.001182252075523138 0.19475126266479492
0.07502838224172592 0.06537920981645584 0.3459644913673401
-0.5701869130134583 -0.02868480049073696 0.15367941558361053
-0.5784124732017517 0.05334632843732834 0.17068590223789215
-0.5812284350395203 0.19677098095417023 0.24777652323246002
0.20238445699214935 0.3670281767845154 0.33948442339897156
-0.5765933394432068 0.0671643540263176 0.12753456830978394
-0.3646146357059479 0.003173209959641099 -0.027843598276376724
0.020851269364356995 -0.6197515726089478 0.09595425426959991
-0.41150254011154175 0.40882477164268494 -0.1565829962491989
0.3634949028491974 -0.6485756039619446 0.05481596291065216
0.12061391025781631 -0.09633008390665054 0.3205742835998535
0.16251976788043976 0.10965358465909958 0.4622349143028259
-0.08120640367269516 -0.38383233547210693 0.2328011840581894
0.2816479504108429 0.17165464162826538 0.3426964581012726
-0.40047237277030945 0.39692699909210205 -0.2435963898897171
0.39584845304489136 -0.3653152883052826 -0.1912645399570465
-0.35999372601509094 0.006447397638112307 -0.3775869607925415
0.5796250700950623 0.2870309352874756 -0.24710716307163239
0.07127811759710312 0.0019635427743196487 -0.09923210740089417
-0.24029867351055145 -0.3617306053638458 -0.04396754130721092
0.14104026556015015 -0.12262168526649475 -0.36866557598114014
0.28829875588417053 0.0011184543836861849 -0.2913959324359894
0.03396795690059662 0.3998263478279114 -0.19325534999370575
0.06074089929461479 -0.6469858288764954 -0.31298795342445374
0.009746984578669071 -0.6251296401023865 -0.25052744150161743
0.018942613154649734 -0.21003620326519012 -0.36348190903663635
0.5831505060195923 0.18216390907764435 -0.12514334917068481
-0.5299117565155029 0.034078896045684814 0.3456271290779114
0.1976773738861084 0.32307901978492737 0.4613736867904663
0.19115020334720612 0.0061612436547875404 -0.38818711042404175
0.0848461464047432 -0.427803635597229 -0.3206501305103302
-0.39061903953552246 -0.07290665805339813 0.10004106163978577
-0.5213273763656616 0.0989377424120903 0.267474502325058
-0.3254585564136505 0.00624651787802577 0.056368328630924225
-0.42092108726501465 0.10460562258958817 -0.16538794338703156
-0.3239651918411255 0.3935452401638031 -0.38832440972328186
0.5779421329498291 0.12216275185346603 0.13852514326572418
0.3605760335922241 -0.3788929283618927 0.11347297579050064
0.41321003437042236 -0.19865992665290833 -0.15604737401008606
-0.08069846034049988 0.002428014762699604 -0.050052862614393234
-0.356735497713089 0.0012563150376081467 -0.3287942111492157
-0.0235203318297863 0.003021317534148693 -0.0047912211157381535
-0.5845889449119568 0.2866453528404236 0.1840255707502365
0.5731621384620667 0.009502118453383446 -0.14341460168361664
-0.029330207034945488 -0.6240966320037842 -0.0945306047797203
-0.2325231432914734 -0.36756405234336853 0.04910563305020332
-0.024130865931510925 0.002162556629627943 -0.24373017251491547
0.0401616096496582 0.3998395502567291 0.27090150117874146
-0.08249521255493164 -0.6238207817077637 0.030725497752428055
0.3035627007484436 -0.6195837259292603 0.039754897356033325
0.4660618305206299 0.40062931180000305 0.23501551151275635
-0.3736360967159271 0.003519129939377308 0.21259665489196777
0.09838143736124039 -0.6236017346382141 -0.003649955615401268
-0.008178028278052807 0.3824440836906433 -0.3958267569541931
0.17746946215629578 -0.36093974113464355 0.30413174629211426
-0.5508549213409424 0.38970884680747986 0.2150946706533432
0.5818884968757629 0.1928730309009552 0.07323935627937317
-0.13013528287410736 -0.4796716570854187 -0.1995859295129776
0.27237555384635925 0.0009673293679952621 -0.2760736644268036
-0.12107478827238083 0.395833820104599 -0.04542151466012001
-0.39799395203590393 0.40222540497779846 0.26602011919021606
-0.1182582899928093 -0.6218626499176025 -0.05881435424089432
-0.571930468082428 0.06358351558446884 0.32962095737457275
0.18695667386054993 -0.022394247353076935 0.4623417258262634
0.3485485315322876 -0.13504229485988617 0.2024024873971939
0.08322674036026001 0.33328720927238464 -0.3972397446632385
-0.4180651605129242 0.10327384620904922 0.04899575933814049
-0.5408514738082886 0.002233292907476425 0.08250822871923447
0.4643995761871338 0.008861914277076721 -0.3911598324775696
0.21985378861427307 -0.530263364315033 0.22859099507331848
0.5370859503746033 0.0018726503476500511 -0.19591300189495087
-0.18665824830532074 0.39411482214927673 0.32368215918540955
0.001985031645745039 0.3312227725982666 0.3421860933303833
0.14471936225891113 0.45546016097068787 0.43392691016197205
-0.5566279888153076 0.005177887622267008 0.2152700126171112
0.24613642692565918 -0.003024809993803501 0.3086276352405548
0.020115287974476814 0.003703037276864052 0.14121951162815094
-0.5810273885726929 0.14279358088970184 -0.06377413123846054
-0.1885240375995636 -0.005418398417532444 -0.208860844373703
-0.4809366464614868 0.10158948600292206 0.27584677934646606
0.08174774050712585 0.46361425518989563 0.4237344264984131
-0.5636819005012512 -0.054208360612392426 0.08133362978696823
0.1578226089477539 0.42385542392730713 0.4462446868419647
-0.1490759700536728 0.40182289481163025 -0.10853160917758942
-0.42668473720550537 0.40809643268585205 -0.026741549372673035
0.1399320811033249 0.004470473155379295 0.21312616765499115
0.43814918398857117 0.2528115212917328 0.3422752022743225
0.21137316524982452 0.004532535560429096 0.19303390383720398
0.034520793706178665 0.2980816960334778 0.4586680829524994
-0.1921326071023941 0.0006940960884094238 -0.22870613634586334
-0.4270193576812744 -0.09854588657617569 -0.14882370829582214
-0.12417692691087723 -0.327221542596817 0.2306116819381714
-0.25124260783195496 -0.0002883938141167164 -0.06898371130228043
0.2573023736476898 0.2765178978443146 0.45643624663352966
0.37673452496528625 0.000725211575627327 -0.057817623019218445
-0.5003595948219299 -0.07021891325712204 0.34540292620658875
0.11235610395669937 0.40135738253593445 0.17576661705970764
0.04666457697749138 0.004892953671514988 0.24568518996238708
0.04033908620476723 0.0026451069861650467 -0.15351420640945435
-0.19613116979599 -0.003295397385954857 -0.11566398292779922
0.06196381896734238 0.08460409939289093 -0.3990717828273773
0.16450601816177368 0.4075568616390228 0.34333282709121704
0.14226479828357697 -0.6207185983657837 -0.08510570228099823
0.2468911111354828 0.47322142124176025 0.4190678596496582
-0.46135762333869934 0.0015989812090992928 0.024390654638409615
-0.5505748391151428 0.004520501010119915 -0.3937876224517822
-0.14965304732322693 -0.48145511746406555 0.11246094852685928
0.35753947496414185 0.0033090985380113125 0.08448337018489838
0.22998136281967163 0.006196643225848675 0.2044040709733963
-0.061724960803985596 0.0031023439951241016 -0.026567120105028152
-0.20888295769691467 -0.2631467878818512 0.11160795390605927
-0.11041457951068878 0.22865305840969086 0.3787330687046051
-0.5126193761825562 0.0036676707677543163 0.1778486669063568
0.33420124650001526 0.05110699310898781 -0.3993856608867645
-0.1477048248052597 -0.03058432973921299 -0.26945045590400696
0.06258594989776611 0.4002387821674347 0.2805584669113159
0.03323952481150627 -0.6201562881469727 0.24823257327079773
0.09824307262897491 0.3554685711860657 -0.39885154366493225
0.3277297019958496 0.4008227586746216 -0.24652081727981567
0.24622036516666412 0.0019993730820715427 0.3267309069633484
-0.5761178135871887 0.3574379086494446 -0.10505837202072144
-0.16811050474643707 0.08647438883781433 -0.3974442183971405
0.26997047662734985 0.24807587265968323 0.45804837346076965
-0.5235068202018738 0.11451923102140427 0.15321926772594452
0.2940770387649536 -0.11943059414625168 0.24732711911201477
0.28829705715179443 -0.652492880821228 -0.22672304511070251
-0.025685738772153854 -0.044821977615356445 0.2858458161354065
0.3315799832344055 -0.2668777108192444 -0.2912493348121643
0.048334043473005295 0.3999333381652832 -0.3464140295982361
-0.044174276292324066 -0.622501790523529 -0.07949342578649521
-0.46613559126853943 0.11842699348926544 0.018543198704719543
-0.27500802278518677 0.0003520343452692032 -0.15565691888332367
0.02599319815635681 -0.6396149396896362 0.21294748783111572
-0.3639429211616516 0.3967560827732086 -0.3895507752895355
0.2813163995742798 -0.19232316315174103 0.2628377377986908
-0.2163257747888565 -0.03163915500044823 -0.17409050464630127
0.193025603890419 0.0031514745205640793 -0.16799846291542053
0.007699902635067701 0.004252241924405098 0.07216288894414902
0.2858737111091614 0.39739859104156494 0.4466191232204437
0.06901572644710541 -0.48380202054977417 0.25874829292297363
-0.3661418557167053 0.00936786737293005 0.08389311283826828
0.1292683631181717 0.2984938323497772 0.45826759934425354
0.5270234942436218 0.004862401634454727 0.23627078533172607
0.43506181240081787 0.1628590077161789 -0.40111950039863586
-0.5814644694328308 -0.01429783459752798 0.16283711791038513
0.18269190192222595 0.3630792498588562 0.34193548560142517
0.18769341707229614 -0.6220223307609558 0.007950739935040474
-0.2076950967311859 0.0013311200309544802 -0.1414768546819687
-0.43532595038414 0.3973177969455719 -0.1796480119228363
-0.5272855162620544 0.006879811175167561 0.20946811139583588
0.3252457082271576 0.11546515673398972 0.3609423339366913
-0.10576079785823822 0.39610716700553894 -0.05379243567585945
0.08137080073356628 0.0036369997542351484 -0.07178350538015366
-0.47977393865585327 -0.11610128730535507 0.028950849547982216
-0.164898082613945 9.814929217100143e-05 -0.2609017491340637
0.42423149943351746 0.40073829889297485 -0.16715940833091736
0.2577325999736786 0.40099355578422546 -0.0354841910302639
-0.5802136659622192 0.30832335352897644 -0.28137150406837463
0.3887171745300293 -0.3247101902961731 -0.2046910524368286
0.20605987310409546 0.4771443009376526 0.37449565529823303
-0.3589740991592407 -0.007761988788843155 -0.19873543083667755
-0.392314612865448 0.3965793251991272 -0.2603834271430969
0.3157522678375244 0.045917294919490814 0.40229445695877075
0.4346191883087158 -0.30157142877578735 -0.059715431183576584
0.5134419202804565 0.3031395375728607 0.3444731533527374
0.36722707748413086 -0.4862576425075531 0.07091743499040604
0.2546505928039551 0.0032528527081012726 -0.27010735869407654
0.3102913796901703 -0.3802160322666168 0.17977145314216614
0.30610325932502747 0.004568164702504873 -0.02476353943347931
0.27615344524383545 -0.6127363443374634 -0.25282934308052063
-0.012329747900366783 0.0034007811918854713 0.06541583687067032
-0.1837536096572876 -0.3659142553806305 0.15327225625514984
-0.35966742038726807 0.25686028599739075 -0.4033845067024231
0.05520833656191826 -0.618780791759491 0.08704644441604614
0.2687365412712097 0.39868414402008057 0.15039712190628052
0.5704787373542786 0.3935920298099518 0.1819569170475006
-0.01024100836366415 0.40041130781173706 0.027630606666207314
0.2150687426328659 0.00348482932895422 -0.24106532335281372
-0.31893301010131836 0.00310886325314641 0.16076768934726715
0.20058125257492065 -0.3737749457359314 0.28774014115333557
-0.5721484422683716 0.05705122649669647 0.2404547482728958
-0.38730454444885254 0.058529794216156006 0.33941414952278137
0.3504030704498291 -0.15872099995613098 0.20213453471660614
0.339129775762558 0.0032952926121652126 -0.1955863982439041
-0.5743941068649292 -0.017717551440000534 -0.07697025686502457
0.20836225152015686 0.005205369554460049 0.12493935972452164
6.467336788773537e-05 -0.4006640911102295 -0.2984221577644348
-0.04004473611712456 -0.6193896532058716 -0.17987357079982758
0.5809670090675354 0.03189059719443321 0.26376232504844666
0.577994167804718 0.030001353472471237 -0.21676859259605408
-0.4639776349067688 0.008307603187859058 0.3590635359287262
0.24452076852321625 0.4007270634174347 0.09354708343744278
-0.3445209562778473 0.1156122237443924 -0.39948445558547974
0.5728044509887695 0.39534991979599 -0.3859168589115143
0.5633827447891235 0.001438894309103489 -0.20825010538101196
0.3466280698776245 -0.6384261250495911 -0.028879471123218536
-0.42471253871917725 -0.028201859444379807 0.34614163637161255
-0.18126733601093292 0.3994658887386322 -0.22836242616176605
0.1612589806318283 -0.08443766832351685 0.32738134264945984
0.3523915112018585 0.30206143856048584 -0.3995610773563385
0.08934568613767624 -0.33634722232818604 -0.3742574155330658
0.03219200670719147 -0.047056205570697784 0.4329165816307068
-0.16535422205924988 -0.20120811462402344 0.18202632665634155
0.364050030708313 -0.509503960609436 0.07833538949489594
-0.42832767963409424 0.02624218910932541 0.34609881043434143
0.3785912096500397 0.003535829484462738 -0.0504206083714962
0.35733625292778015 -0.20275595784187317 0.19134345650672913
-0.4181247651576996 0.0996655747294426 -0.2985759377479553
0.1528618037700653 -0.3810006082057953 0.28314173221588135
0.3459768295288086 -0.4765896797180176 0.1260867416858673
-0.49567827582359314 0.29705578088760376 -0.4000019431114197
0.06010888144373894 -0.021143654361367226 -0.3708398640155792
0.27392593026161194 0.4343016743659973 0.4431871771812439
-0.5792254209518433 0.1329675167798996 -0.367078572511673
-0.5757706761360168 0.14621096849441528 -0.15868325531482697
-0.01548174861818552 -0.6230435967445374 -0.2197723239660263
-0.5780318975448608 0.30845141410827637 0.019614404067397118
0.5597288608551025 0.4036044478416443 -0.1001998633146286
0.5735669136047363 0.39962080121040344 -0.019513297826051712
-0.05861572548747063 0.005176105536520481 0.19841225445270538
0.042149052023887634 -0.6306546926498413 0.2040165811777115
0.386481374502182 -0.45129093527793884 -0.029685627669095993
0.5805589556694031 0.0701763853430748 0.1442745178937912
0.35224708914756775 0.318220853805542 -0.39958927035331726
-0.07282892614603043 -0.6180031299591064 0.09280489385128021
-0.46205148100852966 -0.003382088616490364 -0.29326924681663513
-0.498505175113678 0.3895265460014343 -0.15207277238368988
-0.2566762864589691 0.003392774611711502 -0.035329487174749374
0.27421510219573975 0.439156174659729 0.4420112371444702
0.13807469606399536 0.3400042951107025 0.3382548391819
0.05365220829844475 0.19350512325763702 0.46103528141975403
0.14724791049957275 -0.38530233502388 0.2653923034667969
0.19277407228946686 -0.3716517388820648 -0.3467733561992645
-0.2801961898803711 0.0019375542178750038 0.05188801512122154
-0.24165959656238556 -0.05622953921556473 -0.06677844375371933
-0.35509535670280457 0.029163118451833725 0.1425243765115738
0.16392476856708527 0.3424410820007324 -0.39957019686698914
0.424421489238739 0.40272611379623413 -0.08160246163606644
0.3445916473865509 0.0005581136792898178 -0.34755566716194153
0.1806144267320633 -0.6251480579376221 0.16761375963687897
0.11966132372617722 -0.6238917708396912 -0.024841463193297386
-0.056391242891550064 0.004861080087721348 0.1668105125427246
0.3369995653629303 -0.11360574513673782 -0.27264338731765747
-0.5741082429885864 0.02584489807486534 0.3004317283630371
-0.3790242373943329 8.440075907856226e-05 0.11436401307582855
0.0734865739941597 0.39845702052116394 0.32725268602371216
-0.3724081516265869 0.026473920792341232 -0.14784929156303406
-0.4772084057331085 -0.11819404363632202 0.04149032011628151
0.20986251533031464 0.40082237124443054 -0.10826019197702408
-0.07619073241949081 -0.38693496584892273 0.204058438539505
-0.15225158631801605 -0.648464024066925 0.022913940250873566
-0.41331228613853455 0.3045971393585205 -0.39715710282325745
-0.5182545185089111 0.14326605200767517 -0.3975907266139984
-0.06136178970336914 0.0026390766724944115 -0.06651099771261215
-0.15816614031791687 0.3399082124233246 -0.397502064704895
-0.12067288160324097 -0.6203144788742065 -0.004789266269654036
-0.5752110481262207 0.3398158550262451 0.035223737359046936
0.39089441299438477 0.4038921892642975 0.05018160492181778
0.5786803960800171 0.044741515070199966 -0.17692571878433228
-0.13608545064926147 0.00416336115449667 -0.10665643215179443
-0.16800132393836975 -0.14736156165599823 -0.23230230808258057
0.3399394154548645 -0.4522099792957306 0.12806005775928497
-0.4351036250591278 0.09620651602745056 -0.007835484109818935
-0.5786453485488892 0.010300044901669025 -0.10456271469593048
-0.39807870984077454 0.11078747361898422 -0.397111177444458
0.07278314977884293 0.2759638726711273 -0.3998115658760071
0.32695335149765015 0.41056138277053833 0.4371698200702667
-0.5079915523529053 0.003297918476164341 0.15145042538642883
-0.579306423664093 0.18619002401828766 -0.103411465883255
0.2647777497768402 -0.47981998324394226 0.20722953975200653
-0.07817274332046509 0.4002191722393036 -0.11824578046798706
0.3480667173862457 0.3145611882209778 -0.3997170329093933
0.07994686812162399 0.42269396781921387 0.4287845194339752
-0.07382821291685104 -0.050727058202028275 -0.3244704008102417
0.22070226073265076 -0.3832736015319824 -0.2901458144187927
0.16975481808185577 -0.46941784024238586 0.24785634875297546
0.18732264637947083 -0.07642719149589539 0.32497674226760864
0.044910598546266556 0.003400704823434353 -0.04561088979244232
0.35577115416526794 -0.6406304836273193 -0.10736775398254395
0.21906396746635437 0.0027764365077018738 -0.283033162355423
0.18309256434440613 -0.3009967803955078 0.3004823923110962
0.34910544753074646 0.035356469452381134 -0.4000455141067505
0.44291922450065613 0.4018659293651581 -0.07368533313274384
-0.3961329460144043 0.28025394678115845 0.3413223624229431
0.09936525672674179 0.40037429332733154 0.23740744590759277
0.27636945247650146 -0.6245102882385254 0.19323165714740753
0.49319177865982056 0.0030320710502564907 0.06799228489398956
0.06863456964492798 0.0023489315062761307 -0.14928817749023438
-0.3071843981742859 0.2330424040555954 0.3418261408805847
0.10808756947517395 0.07804875075817108 -0.3978099524974823
0.027415208518505096 0.16370542347431183 0.34663131833076477
-0.36665046215057373 -0.003313629422336817 0.27710962295532227
0.03408944606781006 -0.124632827937603 -0.3663172125816345
-0.01604166254401207 0.01240445300936699 0.33423492312431335
0.07476966083049774 0.3997054398059845 0.14635808765888214
0.19843743741512299 0.003950207494199276 -0.2312639206647873
-0.3843362629413605 0.057360805571079254 0.2636283040046692
0.26401516795158386 -0.19736622273921967 -0.32618266344070435
0.221956267952919 0.004133804235607386 -0.16601887345314026
0.42758965492248535 -0.3201321065425873 -0.1120261549949646
0.3952510356903076 -0.000348114175722003 0.13925549387931824
0.097118079662323 -0.0003118300810456276 -0.30245721340179443
0.23777835071086884 0.0014529377222061157 -0.28750839829444885
0.5793020129203796 0.22306446731090546 0.1628379225730896
-0.5741612911224365 0.006081426981836557 -0.03897160291671753
0.07453314960002899 -0.6214181184768677 -0.26599955558776855
0.00634140707552433 0.2853908836841583 0.34556448459625244
0.4108095169067383 0.00021041277796030045 0.17797750234603882
0.20072132349014282 -0.619028627872467 0.061112917959690094
0.15926001965999603 0.29376035928726196 -0.3993494212627411
-0.22892360389232635 0.1920849084854126 0.3411100208759308
0.26183000206947327 0.005046908278018236 -0.13752691447734833
0.20509155094623566 -0.6280786395072937 -0.24716031551361084
-0.022911543026566505 -0.48049867153167725 0.23218075931072235
-0.5757105946540833 0.130879208445549 -0.14291641116142273
0.5823608040809631 0.24619346857070923 0.3273300230503082
-0.17067795991897583 0.3980133831501007 0.18762972950935364
-0.0923256054520607 -0.622170090675354 0.08803510665893555
-0.20616494119167328 0.39980369806289673 -0.17932802438735962
0.17930343747138977 -0.42011070251464844 0.24930116534233093
0.5709015130996704 0.39940017461776733 0.05510030686855316
0.24301733076572418 0.00464847544208169 0.16906952857971191
0.10610659420490265 0.27942249178886414 -0.399779736995697
-0.30719467997550964 0.2991393506526947 -0.3985142707824707
-0.22453506290912628 -0.14105577766895294 -0.14894871413707733
0.024524398148059845 -0.6234228610992432 -0.011687874794006348
-0.5623210072517395 -0.058079227805137634 -0.029696401208639145
0.36593401432037354 -0.27787038683891296 0.18512430787086487
-0.1237846240401268 0.01005462184548378 -0.3886697590351105
0.5796305537223816 0.23970220983028412 -0.17830844223499298
-0.002664349740371108 -0.4266088008880615 -0.3041219115257263
0.14430862665176392 -0.5671489834785461 -0.30974361300468445
-0.5755045413970947 0.31270071864128113 -0.2638102173805237
-0.023294741287827492 -0.6210586428642273 0.12767155468463898
-0.5713849663734436 0.04606727510690689 -0.2600732147693634
0.4390418529510498 -0.08409903943538666 -0.01916760951280594
-0.4185054302215576 0.11206227540969849 0.2109357863664627
-0.46490538120269775 0.09877399355173111 -0.40089771151542664
-0.3681008517742157 0.18151560425758362 0.3417598009109497
-0.3293103575706482 -0.003274863585829735 -0.22455376386642456
0.17531704902648926 -0.23269471526145935 0.3018043041229248
-0.42274484038352966 0.06219180300831795 -0.3977429270744324
0.03745448216795921 -0.06874801963567734 0.4253191649913788
-0.007078874856233597 0.4003312587738037 -0.24613982439041138
0.31500986218452454 -0.29645681381225586 -0.2889752686023712
-0.3555445373058319 0.22083619236946106 0.34091416001319885
-0.13528181612491608 0.001916314009577036 -0.00865153968334198
0.0008691027760505676 0.1684252917766571 0.4082987606525421
