0.5617453455924988 0.004031481221318245 -0.1599753051996231
-0.5726293325424194 0.14964324235916138 0.3143114447593689
0.5825591683387756 0.03498993068933487 -0.3295975923538208
-0.5622525811195374 0.34725522994995117 0.33080971240997314
-0.5561891198158264 0.3796185255050659 0.2993513345718384
0.21327418088912964 0.12530517578125 0.3418368101119995
0.3096913695335388 -0.18510250747203827 0.2475685030221939
0.532948911190033 0.4022533893585205 -0.05183529108762741
-0.15837040543556213 0.0923788994550705 0.34297341108322144
-0.4981767535209656 0.36503031849861145 -0.04387670010328293
-0.5735245943069458 0.1662055253982544 -0.11740831285715103
0.3903675377368927 -0.38724127411842346 0.06628088653087616
0.5857055187225342 0.2805333733558655 0.12115674465894699
0.5826919078826904 0.21243026852607727 -0.14305980503559113
0.2009739726781845 0.0009485157206654549 0.09807401895523071
-0.15043623745441437 -0.6367698907852173 0.08687909692525864
-0.29415008425712585 0.2528929114341736 -0.4023427665233612
0.5783530473709106 0.023155059665441513 0.271054744720459
-0.21526816487312317 0.001124601811170578 -0.1397898644208908
0.5753981471061707 0.39838796854019165 -0.3563438653945923
-0.1700437068939209 -0.17045046389102936 -0.23267138004302979
-0.44993361830711365 0.11737667769193649 0.31680434942245483
-0.13958124816417694 0.0006592065328732133 -0.34305399656295776
0.09611958265304565 0.39366045594215393 -0.39157307147979736
0.3066830635070801 -0.18671472370624542 0.25112900137901306
0.33651384711265564 0.13319841027259827 0.34627479314804077
0.5713652968406677 0.4031178951263428 -0.26887550950050354
0.32738205790519714 0.40113529562950134 0.047597724944353104
0.0882052555680275 -0.38684341311454773 0.27588462829589844
-0.052480340003967285 0.0015555750578641891 -0.20425929129123688
0.08158042281866074 0.4323258697986603 0.4423047602176666
-0.3422708213329315 0.41554927825927734 -0.07490675896406174
0.10339289158582687 0.30673667788505554 0.3407132029533386
0.42526158690452576 -0.06588205695152283 0.08193966001272202
0.23799218237400055 -0.046365492045879364 0.28561127185821533
0.40306708216667175 -0.20067596435546875 0.14312438666820526
-0.2335919588804245 0.38796642422676086 0.3359021842479706
-0.4100004732608795 0.07430024445056915 0.33664315938949585
0.09699292480945587 -0.1247686818242073 0.3141176104545593
0.3247339129447937 -0.49326080083847046 -0.2087031751871109
0.2716512978076935 0.003191696247085929 -0.017368927597999573
-0.4996149241924286 -0.10485595464706421 -0.08492240309715271
0.3540833294391632 -0.08975044637918472 -0.25778818130493164
0.2200939655303955 0.4021601378917694 -0.25883370637893677
0.13233909010887146 0.0023647649213671684 0.3326222896575928
0.023865357041358948 0.0020615030080080032 -0.1010916456580162
0.3675645589828491 0.0019316606922075152 -0.1607750952243805
-0.5717411637306213 0.30564212799072266 0.31029829382896423
-0.4941859841346741 0.07127133756875992 0.3352205753326416
0.5803031921386719 0.02082027867436409 0.040220972150564194
0.3188942074775696 -0.0568123497068882 0.4462437927722931
-0.43800488114356995 -0.10212120413780212 -0.1396176666021347
0.5857420563697815 0.2913243770599365 0.05256801098585129
0.20400238037109375 0.002841128036379814 0.17033392190933228
-0.19191913306713104 0.0018772592302411795 -0.1899447739124298
-0.04927403852343559 -0.398235946893692 0.21534797549247742
0.23235832154750824 -0.6228139400482178 -0.08655239641666412
-0.20119595527648926 0.0010182447731494904 -0.30519959330558777
0.11146212369203568 0.40138721466064453 -0.18155203759670258
-0.07206795364618301 -0.6245669722557068 0.09252233058214188
0.331983357667923 -0.6375643610954285 -0.11247072368860245
0.3983316123485565 -0.20989061892032623 -0.20363584160804749
0.5807958841323853 0.04607333987951279 0.011107375845313072
-0.38054221868515015 0.3152921795845032 0.3405502736568451
-0.06354540586471558 -0.35760828852653503 -0.33309704065322876
0.22587786614894867 -0.62452232837677 0.1599038541316986
0.21027307212352753 0.31364864110946655 0.46173202991485596
-0.5653302669525146 0.11852014064788818 0.3274661600589752
-0.5707906484603882 0.2517327070236206 -0.3856319189071655
-0.08040504157543182 0.0026066936552524567 0.26654455065727234
0.3605876564979553 -0.07273124903440475 -0.25359758734703064
-0.07241117209196091 -0.6239935755729675 0.09019537270069122
0.5852932333946228 0.2762947380542755 0.09233945608139038
0.13199912011623383 0.0028149117715656757 0.13312673568725586
0.09398394078016281 -0.5431833863258362 -0.3168678283691406
0.2600186765193939 0.18203651905059814 0.4649676978588104
-0.13608327507972717 -0.4402751922607422 0.14133334159851074
0.28087788820266724 0.40346965193748474 -0.16166336834430695
-0.42850160598754883 0.4001868963241577 0.013067306950688362
-0.5701460242271423 0.025523889809846878 -0.015525002032518387
0.16200898587703705 -0.6233386993408203 -0.05259554833173752
-0.17883044481277466 -0.6037350296974182 -0.047667648643255234
0.02136208862066269 0.21890811622142792 0.35786136984825134
0.25880786776542664 0.0007745958864688873 -0.23795269429683685
-0.31502893567085266 0.12201748788356781 -0.4009169042110443
0.5848047733306885 0.0466628223657608 -0.2557975947856903
0.4421750605106354 -0.31758299469947815 0.018239744007587433
0.29684141278266907 0.1537657231092453 0.3438395857810974
0.03885294124484062 0.24976928532123566 0.46307510137557983
0.15983431041240692 -0.5193709135055542 0.2528049945831299
-0.3224835991859436 0.0020580487325787544 0.0937211662530899
0.31976252794265747 0.21625128388404846 -0.40406548976898193
-0.29847490787506104 0.002294478239491582 -0.07592252641916275
0.032955754548311234 0.4021247923374176 -0.2833784818649292
0.308834969997406 -0.15726016461849213 -0.3009357750415802
0.5709866881370544 0.008864098228514194 0.2239798754453659
-0.16600848734378815 0.40123608708381653 0.26601892709732056
0.050251305103302 0.4012475311756134 -0.06456105411052704
-0.08853595703840256 -0.6305028200149536 -0.1782573163509369
-0.22566556930541992 -0.0004122583195567131 0.08371392637491226
0.3488454222679138 -0.6339582204818726 -0.04553501680493355
-0.4302905797958374 -0.03094055876135826 -0.398509681224823
0.0804794579744339 0.0017137862741947174 -0.35049760341644287
0.29182252287864685 -0.1369175761938095 -0.31339380145072937
0.18175096809864044 0.4244997799396515 0.36953434348106384
0.33798399567604065 0.0005047498270869255 -0.2795192301273346
-0.12130776047706604 0.39980971813201904 0.01612292416393757
-0.23726411163806915 -0.0007104026153683662 -0.1745731383562088
-0.2789791524410248 0.004789070226252079 0.29551130533218384
-0.2696722149848938 0.3632059693336487 -0.047181639820337296
-0.17969872057437897 -0.4394119381904602 -0.1093117892742157
-0.26287880539894104 0.004704528953880072 0.3063456118106842
-0.08199457079172134 -0.6325302720069885 0.18874341249465942
-0.1354667693376541 -0.6425098180770874 0.10269568115472794
-0.2778409421443939 0.36447006464004517 -0.04393817484378815
-0.05229809135198593 -0.12833169102668762 0.2781692147254944
0.058307334780693054 0.21334299445152283 0.4640476703643799
0.10538053512573242 -0.6252408623695374 0.027050625532865524
0.2560747563838959 0.06716873496770859 -0.4007336497306824
0.22442036867141724 -0.6232423186302185 -0.08373451232910156
-0.00786572601646185 0.003730625845491886 0.2503730058670044
0.2019294649362564 0.467502623796463 0.3806641399860382
-0.46062007546424866 0.11529920995235443 -0.11447085440158844
-0.3349126875400543 0.3888750374317169 0.038037993013858795
0.12714020907878876 0.36143338680267334 -0.4041939973831177
0.20845763385295868 0.002634671749547124 0.2722979784011841
0.5735382437705994 0.009700894355773926 -0.27223795652389526
-0.04928264394402504 -0.31581470370292664 -0.3310706913471222
0.035723019391298294 -0.2846367061138153 0.3124009370803833
-0.2592319846153259 0.08058781921863556 -0.39991894364356995
-0.5773513317108154 0.21934087574481964 0.19765563309192657
-0.17767421901226044 0.0024108942598104477 0.052825018763542175
0.5845617651939392 0.29599857330322266 0.06967975944280624
0.556998610496521 0.0046556065790355206 -0.28331220149993896
-0.5738441944122314 0.32726237177848816 -0.39072543382644653
0.43224474787712097 -0.3196345865726471 0.061828143894672394
0.22923418879508972 -0.6245458126068115 0.17007847130298615
-0.5587364435195923 0.0839439406991005 0.1518675684928894
-0.5654003024101257 0.2202276587486267 -0.3954855501651764
-0.49821150302886963 0.08051221817731857 0.339644193649292
-0.5754784345626831 0.01998741365969181 0.23133108019828796
-0.09054456651210785 0.19612853229045868 0.4023280739784241
0.04318744316697121 0.002034958451986313 -0.27817270159721375
0.13088886439800262 -0.0906999409198761 -0.36712026596069336
0.5780289769172668 0.3951827883720398 -0.19821889698505402
0.5811233520507812 0.282531201839447 0.04830670729279518
0.4193112552165985 -0.380001425743103 -0.037143830209970474
0.117123082280159 0.09128756821155548 0.3430481553077698
-0.15970982611179352 -0.6195787787437439 0.08579808473587036
-0.24623902142047882 0.2333991527557373 0.3398618996143341
-0.5767508149147034 0.026244962587952614 -0.08539169281721115
0.33576178550720215 0.0006215889006853104 0.12206200510263443
0.0534413680434227 0.0018201866187155247 -0.0530366413295269
-0.1224687471985817 -0.00035347510129213333 0.24069520831108093
-0.5454300045967102 0.06898771226406097 0.3335461914539337
-0.40596911311149597 0.0028897025622427464 0.34036898612976074
0.27808961272239685 0.004376355558633804 -0.16347451508045197
-0.5724263191223145 0.33835160732269287 -0.08347214013338089
-0.20207343995571136 4.976149648427963e-05 -0.0016683831345289946
-0.48910900950431824 0.39808839559555054 -0.381985604763031
-0.34243670105934143 -0.0003200322389602661 0.09757590293884277
0.30221545696258545 0.003773493692278862 -0.010711679235100746
-0.5211381912231445 -0.04714205861091614 0.3412748873233795
-0.39254534244537354 0.07243119180202484 -0.39862561225891113
0.19114264845848083 0.4013289213180542 -0.27903565764427185
0.15817369520664215 0.0014640504959970713 -0.27524611353874207
0.0335986353456974 0.0011115716770291328 0.12075603008270264
0.38564884662628174 -0.3052024245262146 -0.2175447940826416
0.021700983867049217 -0.06711094081401825 0.3196329176425934
0.3664296269416809 -0.001337628229521215 -0.2261001616716385
-0.19481459259986877 0.2199312001466751 -0.4000869393348694
0.1278025060892105 0.0012593544088304043 -0.24433855712413788
-0.13003098964691162 -0.6501191258430481 -0.15102386474609375
-0.41402924060821533 -0.09079013764858246 0.26934656500816345
-0.49852287769317627 0.09942205250263214 -0.20623645186424255
-0.450482577085495 0.06624911725521088 -0.4016105830669403
-0.4000186026096344 0.028339074924588203 -0.3999134302139282
0.5801527500152588 0.36578500270843506 -0.20943386852741241
-0.5805193185806274 0.32854512333869934 -0.2627605199813843
0.10487980395555496 0.0023084208369255066 -0.37275394797325134
-0.1710038036108017 -0.041158296167850494 0.17942708730697632
0.2465979903936386 0.0032601114362478256 0.041829630732536316
-0.48604750633239746 0.11034269630908966 0.24693487584590912
-0.28332409262657166 0.002588183619081974 0.07512784004211426
-0.45045357942581177 -0.004408877342939377 0.3481382429599762
-0.37750494480133057 -0.05551676079630852 0.10844755172729492
-0.18672214448451996 0.40078213810920715 0.02035515196621418
-0.4165261387825012 0.045001037418842316 0.3402290940284729
0.3073456883430481 0.4011160731315613 -0.33258190751075745
-0.3653482496738434 -0.00784294307231903 -0.25164496898651123
0.2807407081127167 0.021799972280859947 0.34075337648391724
-0.10821828246116638 -0.0024644481018185616 0.26732316613197327
0.04839807003736496 0.4008314311504364 -0.35953930020332336
-0.1595243513584137 0.003878585994243622 -0.08969227969646454
0.2359890341758728 0.3612668514251709 0.4641525149345398
-0.49897217750549316 0.0017148763872683048 0.1568164974451065
-0.5765625834465027 0.31870904564857483 0.10346128046512604
0.5796141624450684 0.3703005909919739 -0.09046041965484619
-0.4334249198436737 -0.10179345309734344 -0.00542566878721118
0.299932599067688 0.04676118865609169 -0.40126603841781616
-0.42235738039016724 0.10950598865747452 0.06338948011398315
0.4778566062450409 0.40460482239723206 0.029347695410251617
-0.10116980969905853 0.10459315031766891 0.34413668513298035
0.3345434069633484 0.29447677731513977 0.3642682433128357
-0.042906299233436584 -0.08223451673984528 -0.3368673622608185
0.5113677978515625 0.16683955490589142 -0.40438833832740784
0.09131414443254471 -0.6262578964233398 0.0014505165163427591
0.2213161289691925 0.0024796421639621258 -0.19941066205501556
-0.5113838911056519 0.09930775314569473 -0.17764820158481598
-0.43503257632255554 -0.08757995814085007 0.3359415531158447
-0.5637410879135132 0.050730761140584946 0.19818149507045746
0.16441747546195984 -0.42890357971191406 -0.3109997808933258
-0.49418962001800537 0.10512492805719376 0.19790951907634735
0.06660151481628418 0.4012797772884369 -0.3467731773853302
-0.5085712671279907 0.24954833090305328 -0.4010145664215088
0.40991148352622986 -0.29519379138946533 0.12725377082824707
0.09816785901784897 0.0011442869435995817 0.3014654517173767
-0.4265284538269043 -0.09858258068561554 0.02830011025071144
-0.49319830536842346 0.11056097596883774 0.2198929637670517
-0.5709511637687683 -0.017684780061244965 0.11101149767637253
-0.42888104915618896 -0.10016411542892456 -0.339102178812027
0.19905784726142883 -0.6205712556838989 0.18149638175964355
0.40490323305130005 -0.02056843414902687 0.12830206751823425
-0.5788887739181519 0.18841169774532318 -0.19256195425987244
0.38674426078796387 -0.6432895660400391 -0.04295008257031441
0.030243702232837677 -0.6473736763000488 0.2467648684978485
-0.18366852402687073 -0.1164245530962944 -0.1987050473690033
-0.20865820348262787 -0.37399041652679443 -0.12103422731161118
-0.021892037242650986 -0.46928226947784424 -0.2878263294696808
0.001125263748690486 -0.6248834133148193 -0.08824724704027176
-0.5308964252471924 -0.08205775171518326 -0.3033355176448822
0.5530422925949097 0.4050518274307251 -0.15716947615146637
0.07835086435079575 0.39926883578300476 0.05866245925426483
0.5837627649307251 0.2682887315750122 0.24708133935928345
0.4707362949848175 0.00022764969617128372 -0.303573876619339
-0.07169871032238007 0.34311312437057495 -0.4016636312007904
-0.566108763217926 0.10917377471923828 -0.39240187406539917
0.4274401068687439 -0.37464550137519836 0.04780803620815277
0.13419224321842194 0.2676570415496826 0.4652678072452545
-0.36315086483955383 0.06363996118307114 0.27182161808013916
-0.5028849244117737 0.39106497168540955 -0.11625798046588898
-0.5000998973846436 0.4014975130558014 -0.24900218844413757
0.1901780217885971 0.28143003582954407 0.34200313687324524
-0.4349749982357025 0.40103816986083984 0.19951456785202026
0.4383433759212494 0.3910180926322937 0.33664000034332275
-0.17507538199424744 0.003990616649389267 -0.0383358895778656
0.19738301634788513 0.0022822082974016666 -0.10804563760757446
0.13200975954532623 -0.6197672486305237 -0.2684251070022583
0.40797069668769836 -0.193986177444458 0.1317567676305771
0.5128717422485352 0.4028792381286621 -0.30735310912132263
0.43515923619270325 -0.0001420073676854372 0.16746295988559723
-0.05704015865921974 -0.0317360982298851 0.27059003710746765
0.31611618399620056 -0.6258424520492554 -0.09554442763328552
0.03627138212323189 -0.37357479333877563 -0.3550706207752228
0.21845777332782745 0.08784724026918411 0.4635990262031555
-0.1360102742910385 -0.6173459887504578 -0.19771341979503632
0.23542580008506775 -0.5444246530532837 0.22883789241313934
-0.11809477210044861 -0.37504351139068604 -0.2748175859451294
0.25136682391166687 0.2703516483306885 0.46196383237838745
-0.0326140858232975 0.00271589495241642 0.30528882145881653
0.2310185730457306 0.46615925431251526 0.40307724475860596
-0.013507874682545662 -0.6215580105781555 0.10403145849704742
-0.4222147464752197 0.014061386696994305 0.34173381328582764
-0.5745911598205566 0.009816423058509827 -0.0212468933314085
-0.01646190695464611 -0.6279066205024719 0.1665211021900177
-0.20877450704574585 0.365932822227478 0.33764204382896423
0.07677431404590607 -0.623353898525238 -0.24596066772937775
-0.091734379529953 0.17885076999664307 0.36138665676116943
-0.014537429437041283 -0.6242530345916748 -0.16885922849178314
0.35740166902542114 0.24870960414409637 -0.4045972526073456
0.5808345675468445 0.18619254231452942 0.014093919657170773
0.1422068476676941 -0.6246957182884216 -0.0021243940573185682
-0.12019563466310501 0.02141239307820797 0.33342689275741577
-0.4153824746608734 -0.09104996919631958 0.32793399691581726
-0.018826736137270927 0.0050889551639556885 0.25232788920402527
0.043457385152578354 -0.6222438216209412 0.033859964460134506
0.0036791700404137373 0.014057032763957977 -0.3979525864124298
0.19643743336200714 -0.04688729718327522 0.3096018135547638
0.41092729568481445 0.2730477750301361 0.3448101580142975
0.011073010042309761 0.0029851533472537994 -0.032099008560180664
0.02329620160162449 -0.6231776475906372 0.0562201552093029
-0.4585486352443695 0.07328470796346664 -0.40177568793296814
-0.5385574102401733 -0.06954201310873032 0.32882896065711975
0.5834890007972717 0.10508184134960175 0.10677795112133026
0.08615187555551529 -0.5548247694969177 -0.3250887095928192
-0.2860744893550873 0.07550201565027237 0.3396765887737274
0.5831648707389832 0.08156313002109528 0.1715330183506012
0.24947839975357056 0.4012855887413025 -0.3260747492313385
0.026256531476974487 -0.5707685947418213 0.25215139985084534
0.38586121797561646 0.33158808946609497 -0.403356671333313
-0.500825047492981 0.004649686627089977 -0.019633444026112556
0.2820977568626404 0.25273457169532776 0.34313422441482544
0.5295904874801636 0.40237340331077576 0.12172751128673553
0.5842747688293457 0.12559126317501068 -0.13427208364009857
0.5842362642288208 0.28467434644699097 -0.3084796369075775
0.5839354395866394 0.08711874485015869 -0.08112016320228577
0.36303195357322693 0.05352584272623062 0.3453889787197113
0.32247111201286316 -0.6236532926559448 0.04208337888121605
0.032255977392196655 -0.37437689304351807 -0.3641544282436371
-0.367215633392334 0.39727896451950073 0.3217167854309082
0.3003247380256653 0.22355902194976807 0.3430667519569397
0.3160586655139923 0.24999696016311646 0.34442684054374695
0.5681324005126953 0.2274712473154068 -0.39851245284080505
0.032396771013736725 0.27167242765426636 0.4524628818035126
0.24443358182907104 0.4013558328151703 0.12333142012357712
0.07282273471355438 -0.42825761437416077 -0.315466970205307
0.19303688406944275 0.4005882441997528 0.21726754307746887
-0.506210207939148 0.1937323361635208 0.34099459648132324
-0.4631059169769287 0.1145561933517456 -0.3590025305747986
0.5846490263938904 0.28827765583992004 0.16956110298633575
-0.095497265458107 0.3990948498249054 0.1771179884672165
-0.1035059317946434 -0.0018060803413391113 -0.2907959520816803
-0.5769219994544983 0.005273397080600262 -0.04091425985097885
-0.2760375738143921 0.38013336062431335 -0.11588945239782333
0.41686806082725525 0.0015518879517912865 0.07238703221082687
0.16950304806232452 -0.6242772340774536 0.06316462904214859
-0.3849756121635437 0.16098538041114807 0.3385753035545349
-0.3506336212158203 0.010076981037855148 -0.37309786677360535
-0.4767255485057831 0.003162371926009655 0.20200444757938385
0.4341088533401489 -0.3743457496166229 0.03143070638179779
-0.48369544744491577 0.0038161445409059525 0.1478542685508728
-0.30655020475387573 0.20685739815235138 -0.40461981296539307
0.5729258060455322 0.40037649869918823 -0.22067108750343323
0.04923567548394203 0.002115720883011818 -0.22323045134544373
-0.5760714411735535 0.297346830368042 0.22503404319286346
0.4148312211036682 0.4027918577194214 -0.3641570508480072
0.1889479011297226 0.0025137634947896004 0.11680325120687485
-0.4169883131980896 0.000637667253613472 -0.33363813161849976
-0.46918541193008423 0.40004709362983704 0.237152561545372
-0.1842634379863739 -0.37866342067718506 0.1368599832057953
0.2953028976917267 0.0007795169949531555 0.037304509431123734
-0.177979975938797 0.0016203403938561678 -0.17283748090267181
0.44295263290405273 0.0006935456767678261 0.02454061061143875
0.5318818092346191 0.2130584716796875 -0.4026549160480499
0.027002591639757156 -0.0449468269944191 -0.3625524342060089
0.2433333545923233 0.004469520412385464 -0.12951549887657166
-0.0619504339993 -0.28481611609458923 0.2758413255214691
0.30936768651008606 0.1216076910495758 -0.404170423746109
0.38923144340515137 0.0032455776818096638 0.26959028840065
0.026296056807041168 -0.6222636103630066 0.08997207134962082
-0.544230580329895 0.07293057441711426 -0.18960031867027283
0.5840337872505188 0.16556145250797272 -0.02637876383960247
-0.5763062238693237 0.27745577692985535 -0.06199755147099495
0.5237385034561157 0.004831444472074509 -0.273491233587265
-0.06602483242750168 -0.28920477628707886 0.2720586359500885
-0.080135777592659 -0.07021431624889374 0.26303377747535706
-0.5430270433425903 0.28685247898101807 -0.401473730802536
0.3576183319091797 -0.4893946647644043 0.11401944607496262
-0.44266313314437866 0.11306383460760117 -0.32825767993927
-0.5764699578285217 0.00972956232726574 0.06653589755296707
0.12488014250993729 0.47035911679267883 0.3953365385532379
0.17470571398735046 0.001961793750524521 0.13626642525196075
0.08688247948884964 0.33289092779159546 -0.40005940198898315
0.11079805344343185 0.40192124247550964 -0.016834313049912453
0.11929542571306229 -0.6232087016105652 -0.03312557563185692
0.3021855652332306 -0.4801383316516876 0.18396292626857758
-0.3764576315879822 0.4012971520423889 0.29823288321495056
0.21465454995632172 -0.6240496635437012 -0.07217757403850555
-0.4467332363128662 0.4020657539367676 0.07864215970039368
-0.3456304669380188 0.001512464601546526 -0.26267334818840027
0.583649218082428 0.013203855603933334 0.30699968338012695
-0.3689766526222229 -0.046135835349559784 0.19963671267032623
0.5730890035629272 0.401518315076828 0.17786136269569397
-0.16647253930568695 0.2642974257469177 0.3465058207511902
0.33261433243751526 -0.07241091877222061 0.3911762237548828
0.1624845266342163 -0.6238900423049927 -0.08018454164266586
0.372363805770874 0.4027797281742096 0.28504201769828796
0.01963071897625923 0.1514875739812851 0.3665081262588501
0.5842625498771667 0.2880915403366089 0.030672065913677216
-0.183221235871315 -0.6085090041160583 -0.028110938146710396
-0.03381088003516197 0.01985851675271988 -0.3987274467945099
0.39057663083076477 -0.5691782832145691 0.019630281254649162
-0.453549325466156 0.0019988534040749073 -0.06730648130178452
0.5841017961502075 0.15912628173828125 0.11504102498292923
0.20826947689056396 0.003394080325961113 -0.30609363317489624
0.04232051596045494 -0.6226741075515747 0.10445152223110199
-0.5816562175750732 0.21120481193065643 -0.015608614310622215
-0.5661290287971497 0.24653775990009308 -0.39028695225715637
0.11395808309316635 0.008317407220602036 0.33502060174942017
-0.2631107568740845 0.009271443821489811 0.3310765326023102
0.178903728723526 0.00328134186565876 0.26544398069381714
-0.5743498802185059 0.2710161805152893 -0.3852475881576538
-0.18608993291854858 -0.4168439507484436 -0.03178515285253525
0.2313566952943802 0.003252025693655014 -0.07084174454212189
0.16598962247371674 -0.1129346489906311 -0.3691163957118988
-0.018852034583687782 0.1901521384716034 0.4034108519554138
0.30347326397895813 -0.059771567583084106 0.4498271942138672
-0.061063412576913834 -0.00022024381905794144 -0.2812357544898987
0.16214916110038757 -0.20819541811943054 0.3092731237411499
0.2564021050930023 0.4039287567138672 0.27396658062934875
-0.4779759645462036 -0.10745497047901154 -0.2654572129249573
0.026946866884827614 0.011143993586301804 0.45293283462524414
0.44903653860092163 -0.2904110550880432 -0.017621442675590515
0.34248074889183044 0.20964422821998596 0.34367281198501587
-0.5112600326538086 0.4037734568119049 -0.30052629113197327
0.5792288780212402 0.27604296803474426 -0.03435681015253067
0.1931702047586441 -0.6401055455207825 0.2434401661157608
0.29522761702537537 0.39732876420021057 -0.39243242144584656
0.5791828632354736 0.13262636959552765 0.2212613970041275
0.045755185186862946 0.001568758743815124 -0.028584452345967293
-0.5698696374893188 0.009786024689674377 0.02368646115064621
0.5822343826293945 0.0866420790553093 -0.35467857122421265
-0.02196977660059929 -0.65034419298172 -0.2743513584136963
-0.4098298251628876 -0.0863821879029274 0.12953612208366394
0.39050620794296265 -0.24462898075580597 0.16068361699581146
0.4600984454154968 0.1981329470872879 -0.4046509861946106
0.024904213845729828 0.160858154296875 0.39792028069496155
-0.5811373591423035 0.027548618614673615 -0.2688060998916626
-0.05708835646510124 -0.040935367345809937 -0.33235323429107666
-0.38882026076316833 0.04183635115623474 0.33790820837020874
-0.17396000027656555 -0.40544822812080383 -0.11744417250156403
-0.47080138325691223 -0.007794394623488188 -0.3994659185409546
0.25530073046684265 -0.04554421827197075 0.2823837995529175
-0.20970408618450165 0.0014214934781193733 0.13695353269577026
-0.049097444862127304 0.0022511729039251804 -0.21678666770458221
-0.08427025377750397 0.4005317687988281 -0.35229673981666565
0.33725613355636597 0.13132046163082123 -0.4001811742782593
0.4297354519367218 -0.10199155658483505 0.07530171424150467
-0.1493036448955536 0.0027285711839795113 0.08944365382194519
-0.019806355237960815 -0.6261110901832581 0.008738357573747635
0.38168418407440186 -0.4970732033252716 0.05967710539698601
-0.4177911877632141 0.26188182830810547 -0.40220582485198975
0.40472644567489624 -0.37589231133461 -0.1380179077386856
-0.35030749440193176 0.2983722686767578 -0.40248459577560425
0.24663379788398743 0.20128557085990906 0.34163472056388855
0.10858339071273804 -0.6231473684310913 -0.1697116196155548
0.13132061064243317 -0.6256962418556213 0.015953809022903442
0.0433771125972271 -0.625537633895874 0.16884373128414154
0.3354894518852234 0.061800453811883926 -0.40191733837127686
0.2999981641769409 -0.4769238829612732 0.18757441639900208
-0.4033513367176056 0.004364681895822287 -0.19518470764160156
-0.376661479473114 0.4030359387397766 -0.16059157252311707
-0.4206857681274414 0.10854291915893555 -0.3372942805290222
0.2937736511230469 0.00383596308529377 -0.020672759041190147
0.3872372806072235 0.04626035690307617 0.34577512741088867
0.24214667081832886 -0.38251611590385437 0.24383598566055298
-0.4019594192504883 0.0022989539429545403 -0.2679811716079712
-0.4786670207977295 0.11427208036184311 -0.39932718873023987
0.5294256210327148 0.07392945885658264 -0.3965756893157959
0.5814282894134521 0.21148359775543213 -0.12829062342643738
0.021408725529909134 -0.6245878338813782 0.000281830201856792
0.236587256193161 -0.6190791130065918 0.04746869206428528
0.09825597703456879 -0.6512436270713806 -0.3103414475917816
-0.06037747114896774 0.2653828263282776 -0.4016560912132263
0.4280453622341156 -0.3363158106803894 0.07280728965997696
-0.09473627060651779 -0.6239893436431885 -0.13428844511508942
-0.4064887464046478 0.3352700471878052 0.34280309081077576
-0.23666980862617493 -0.09884078800678253 -0.04681761935353279
-0.4370151460170746 0.39647555351257324 -0.18014131486415863
-0.5757906436920166 0.048918742686510086 -0.35805198550224304
0.09803983569145203 -0.6241244673728943 -0.009794464334845543
0.29966050386428833 0.004034950863569975 -0.16903160512447357
0.4515085518360138 0.40310025215148926 -0.1810837835073471
0.17291943728923798 -0.2752307057380676 0.31021803617477417
-0.11125498265028 0.0014246872160583735 0.23576991260051727
-0.5144838094711304 0.05045177787542343 -0.4027716815471649
0.15423592925071716 -0.6252574324607849 -0.19337226450443268
0.003745982889086008 -0.6247678399085999 -0.061828430742025375
-0.04988822713494301 0.0036783250980079174 0.24008461833000183
0.21687008440494537 -0.04917451739311218 0.45902347564697266
0.018681231886148453 0.21361176669597626 0.403889536857605
-0.10244683921337128 0.3754752576351166 0.3392001688480377
0.26560142636299133 -0.1414772868156433 -0.33036330342292786
0.37863025069236755 -0.4644396901130676 -0.10116356611251831
0.15653739869594574 0.0026527326554059982 0.034996505826711655
0.09679620712995529 0.003516086842864752 0.33289259672164917
-0.1127319261431694 -0.6584408283233643 -0.1999904066324234
-0.23963244259357452 0.18763332068920135 0.34207969903945923
-0.5207442045211792 0.03839324787259102 -0.4001944065093994
0.29220589995384216 0.0776023417711258 -0.4018009603023529
0.08639860153198242 0.40289950370788574 0.06352202594280243
-0.38323843479156494 0.40008842945098877 -0.02103305421769619
-0.541603147983551 0.3916432857513428 -0.07093989104032516
0.33586129546165466 0.0034037521108984947 0.1514047384262085
-0.2346525341272354 -0.015610281378030777 -0.04831374064087868
0.02472081407904625 -0.05860801041126251 0.32368266582489014
-0.5711220502853394 0.07474157959222794 -0.29332542419433594
-0.11641840636730194 -0.1678539514541626 -0.29568833112716675
0.2675447165966034 0.401694118976593 0.014145176857709885
0.3671717941761017 -0.49982237815856934 0.09786023199558258
0.15767590701580048 0.0028118155896663666 -0.09153115749359131
-0.3517252802848816 0.009236023761332035 -0.060311444103717804
-0.0019515575841069221 0.40075528621673584 -0.1443493813276291
-0.07913865149021149 -0.022040385752916336 -0.3197164237499237
0.2542966604232788 -0.21135303378105164 0.28322622179985046
0.06077350676059723 -0.6351408362388611 -0.31195586919784546
-0.08339479565620422 0.35861530900001526 0.3396916687488556
0.441551148891449 -0.23932680487632751 -0.0803484171628952
-0.5375325083732605 -0.06984047591686249 0.32934704422950745
0.06465993076562881 0.0023772744461894035 -0.22735242545604706
-0.10144320875406265 -0.3951111137866974 0.18044087290763855
0.007718815468251705 -0.06535081565380096 0.29915347695350647
-0.3430313766002655 0.4071578085422516 -0.1265520453453064
-0.37375178933143616 0.3390345275402069 0.34199249744415283
-0.5365611910820007 0.3930469751358032 0.24595977365970612
0.5565178394317627 0.36789625883102417 -0.40073975920677185
-0.18588240444660187 0.3897169232368469 -0.39446955919265747
0.31625896692276 0.40045422315597534 0.14463558793067932
-0.39148804545402527 0.36254647374153137 -0.1986721307039261
0.17845650017261505 -0.6368123888969421 0.20416539907455444
-0.08691900968551636 -0.21711957454681396 -0.3215048313140869
-0.47677475214004517 0.11339978873729706 -0.031808555126190186
-0.3517285883426666 0.1050165668129921 -0.4000500738620758
-0.5779621601104736 0.14350251853466034 -0.1479760706424713
-0.15550071001052856 -0.2840185761451721 0.19474731385707855
0.31761956214904785 0.4036715626716614 0.24939902126789093
-0.5632783770561218 0.2678172290325165 0.3311414122581482
-0.12563547492027283 -0.09911148250102997 -0.282431036233902
-0.4714243710041046 0.40140265226364136 -0.3115779757499695
-0.09336188435554504 -0.19653446972370148 0.2567858397960663
-0.04308697581291199 0.38716864585876465 0.3378003239631653
-0.4149544835090637 0.40726399421691895 -0.023277457803487778
-0.5687560439109802 0.06280484795570374 -0.11556904017925262
-0.3737155497074127 -0.06023309752345085 -0.034141115844249725
0.4055694043636322 -0.16176681220531464 -0.1827949434518814
-0.42033299803733826 -0.09520584344863892 0.01884729042649269
0.18843120336532593 0.4208275079727173 0.45300349593162537
-0.5732393264770508 0.09440059959888458 -0.14192497730255127
-0.2324419468641281 -0.07753676921129227 0.03551708906888962
0.15501613914966583 0.00040942244231700897 -0.11914339661598206
-0.0834932029247284 0.1905239224433899 0.396034836769104
0.313801109790802 -0.6253052949905396 -0.09420369565486908
-0.3610161542892456 0.00865816231817007 -0.05633256211876869
0.36265283823013306 0.0025852639228105545 -0.0823105126619339
-0.048988375812768936 -0.6234568357467651 0.02581956796348095
-0.043620988726615906 -0.6445364356040955 -0.25911954045295715
0.5832809209823608 0.18615852296352386 0.22116538882255554
-0.45271843671798706 0.40095868706703186 0.15104874968528748
-0.13902239501476288 -0.6525824666023254 -0.11940865963697433
0.27053946256637573 0.22749772667884827 0.46107232570648193
-0.23101165890693665 -0.3267054557800293 0.019667506217956543
0.08641380071640015 0.4012407064437866 0.27143439650535583
0.24865154922008514 0.40106409788131714 -0.19319477677345276
-0.3863731324672699 -0.07362102717161179 0.09637872129678726
0.024723337963223457 0.12566669285297394 0.37508466839790344
-0.24111205339431763 0.4034324288368225 -0.31576672196388245
0.0274072103202343 -0.6236652731895447 -0.17391622066497803
0.22743454575538635 0.1847538948059082 -0.40250131487846375
0.43539872765541077 -0.18792608380317688 0.0684245154261589
0.38097861409187317 0.08862452208995819 -0.40313705801963806
0.10634931921958923 -0.039599351584911346 0.31835898756980896
0.05296841636300087 -0.6239749789237976 0.013918976299464703
-0.3761841952800751 -0.05461658909916878 -0.010964887216687202
0.585512101650238 0.32625627517700195 -0.17130021750926971
0.34601151943206787 -0.4131355583667755 -0.18483783304691315
0.13641688227653503 -0.6233067512512207 -0.07294897735118866
-0.44111451506614685 0.39891740679740906 0.20917420089244843
-0.07822094112634659 -0.24482373893260956 0.2674061954021454
-0.20643234252929688 -0.3817161023616791 -0.034504178911447525
-0.4205428659915924 0.40046265721321106 -0.34042009711265564
-0.4680039882659912 0.4076038897037506 -0.06526154279708862
-0.41523489356040955 0.30922815203666687 0.34362155199050903
-0.05099344998598099 0.4030028283596039 -0.10792315006256104
-0.16760298609733582 -0.6521105170249939 0.039386406540870667
-0.09725818783044815 -0.08409569412469864 0.24969972670078278
-0.03798217698931694 0.0022513940930366516 -0.10747667402029037
0.3518221974372864 0.18721416592597961 0.3438377380371094
0.5272713899612427 0.22192741930484772 -0.4053601026535034
0.4806287884712219 0.39245039224624634 0.33467140793800354
-0.025545261800289154 0.39431917667388916 0.3342767059803009
-0.5811304450035095 0.21397078037261963 0.17165128886699677
0.011411046609282494 0.011488649994134903 -0.3867467939853668
-0.12816059589385986 0.39920574426651 0.1764037311077118
-0.4569089114665985 -0.00494649913161993 -0.3977440595626831
0.22375771403312683 -0.4863954782485962 0.2405017614364624
0.03837556019425392 0.37507733702659607 0.4594310522079468
0.2720612585544586 -0.6215735077857971 0.14281943440437317
-0.39777255058288574 0.2663121819496155 -0.4023847281932831
-0.04495711624622345 -0.6244035363197327 -0.0627993792295456
0.30233272910118103 0.40294820070266724 -0.09066518396139145
0.31852710247039795 0.31024426221847534 0.46155616641044617
0.13245397806167603 -0.5945706963539124 -0.3155992031097412
0.006109734997153282 -0.46259069442749023 -0.29932984709739685
0.037575095891952515 -0.6222245693206787 -0.1746802031993866
0.20674851536750793 -0.3150325119495392 -0.3518297076225281
0.1579519361257553 -0.6450527310371399 -0.3112749457359314
-0.4285680055618286 0.27189838886260986 -0.40333062410354614
-0.5770512819290161 0.20215769112110138 -0.3441513776779175
-0.5797799229621887 0.2438887506723404 -0.11667850613594055
0.15537895262241364 -0.2229689508676529 -0.36795851588249207
0.4377061426639557 -0.34157538414001465 0.03736286982893944
0.3978205919265747 -0.3770393431186676 -0.16771209239959717
-0.20705734193325043 -0.08866854012012482 -0.1667812019586563
-0.11651124060153961 -0.3067508637905121 0.23588955402374268
-0.03379354998469353 0.0025529079139232635 0.06643155217170715
-0.3915262222290039 0.07534302771091461 -0.1575721800327301
0.1339084953069687 -0.08119086176156998 0.3473816215991974
0.028052950277924538 0.03149829059839249 -0.40228271484375
0.20939384400844574 -0.47033247351646423 0.24243105947971344
0.5807222127914429 0.2836650311946869 0.10038439184427261
0.19859978556632996 -0.6233801245689392 -0.23783564567565918
-0.3694879114627838 0.06191672384738922 -0.22406697273254395
0.08070380985736847 -0.6240170001983643 0.010848090052604675
-0.5563412308692932 0.37533724308013916 -0.3820667266845703
0.13866780698299408 0.0022284570150077343 0.08015811443328857
0.3056316077709198 -0.6525712013244629 0.16782554984092712
0.32038983702659607 0.14556428790092468 0.45388203859329224
0.3801238238811493 0.4024987518787384 0.16649667918682098
-0.031911030411720276 0.043010346591472626 -0.4009374976158142
0.2727067768573761 0.29544079303741455 0.3428453207015991
-0.07452578842639923 0.16287752985954285 -0.40396419167518616
0.24016939103603363 0.3999062180519104 0.11507563292980194
0.2490312159061432 0.0023181382566690445 0.033656664192676544
-0.5799834132194519 0.2893045246601105 0.2571401596069336
0.051530979573726654 0.4010283946990967 -0.007844303734600544
0.08570942282676697 -0.3314075469970703 0.3157338798046112
0.22606666386127472 0.002263000700622797 -0.1396883875131607
-0.4500359296798706 0.3158740997314453 -0.3998781740665436
-0.21870358288288116 -0.19567757844924927 0.09043846279382706
0.26355665922164917 -0.5019928216934204 0.2172572910785675
0.048644956201314926 -0.6463898420333862 0.21976697444915771
0.20833615958690643 -0.6486354470252991 -0.2780080735683441
-0.4662841856479645 0.10801512748003006 -0.1971636861562729
0.5794044733047485 0.016430968418717384 -0.24277657270431519
0.19302129745483398 -0.6218107342720032 0.10658733546733856
0.19830822944641113 0.4004718065261841 0.011894823051989079
0.4457603693008423 -0.08277257531881332 -0.018802262842655182
0.1678742915391922 0.3065933287143707 -0.40450024604797363
-0.28650280833244324 0.4028061330318451 0.19324855506420135
0.2645494043827057 -0.053171511739492416 0.45546993613243103
-0.36529743671417236 0.031159861013293266 -0.14596469700336456
0.19967171549797058 0.2260982096195221 0.46448612213134766
0.22274243831634521 -0.6236092448234558 -0.20989598333835602
0.08829101920127869 0.19321303069591522 -0.4023990035057068
-0.5321201682090759 0.3888355791568756 -0.36530745029449463
-0.028355635702610016 0.4015231430530548 0.1943981647491455
0.33571112155914307 0.4000306725502014 0.19879449903964996
0.34539321064949036 0.38941115140914917 -0.39948585629463196
0.3446390926837921 0.057314977049827576 0.34708184003829956
0.4200608432292938 -0.2616695165634155 0.10781539231538773
-0.34531503915786743 0.18092352151870728 -0.4033154547214508
-0.10519734025001526 0.0019941474311053753 0.2344502955675125
0.5599684119224548 0.005203446373343468 0.25659891963005066
-0.5760304927825928 0.11987767368555069 -0.19271418452262878
0.2204573154449463 0.2830086350440979 0.46222901344299316
0.5763549208641052 0.3989807069301605 0.10856880247592926
0.402698814868927 0.0020171073265373707 -0.14966952800750732
0.13123008608818054 0.0014264993369579315 -0.013947275467216969
-0.5615915656089783 0.07674231380224228 0.32770299911499023
-0.5566347241401672 0.3722976744174957 0.058134205639362335
-0.020663825795054436 0.001236423384398222 -0.20440757274627686
0.5844115614891052 0.16486047208309174 0.28937020897865295
0.4206535816192627 0.2593696117401123 0.3454691171646118
0.5859826803207397 0.322948694229126 0.13050368428230286
0.16860321164131165 0.4646436870098114 0.3703574538230896
0.5832105875015259 0.38202807307243347 -0.3346509337425232
0.020895391702651978 0.07305186241865158 0.3462893068790436
0.35933032631874084 0.003505649510771036 0.13816334307193756
-0.041231319308280945 0.0034012040123343468 0.0355755016207695
0.3292652666568756 0.40206050872802734 0.028067149221897125
0.040458329021930695 0.27329981327056885 0.3455983102321625
-0.37226253747940063 0.02400851622223854 0.18712706863880157
0.25420936942100525 -0.2637036442756653 -0.333864688873291
0.5764405727386475 0.11413581669330597 -0.3966212868690491
0.33694371581077576 -0.07206281274557114 0.2224530577659607
-0.4630514681339264 0.4012663662433624 -0.11390654742717743
-0.5766950845718384 0.1639680564403534 -0.01688428223133087
-0.1756260097026825 0.4012032151222229 -0.03767659142613411
0.44513797760009766 -0.189530611038208 0.016141993924975395
-0.3512806296348572 0.3658498525619507 -0.40134915709495544
-0.03168785199522972 -0.47825467586517334 -0.28622525930404663
0.04669696465134621 -0.07717132568359375 0.43890661001205444
0.4167899787425995 -0.377973735332489 -0.05263685807585716
0.5799286961555481 0.37410488724708557 -0.06991089135408401
-0.3533475995063782 0.2387983649969101 -0.4022116959095001
0.5350643992424011 0.22413960099220276 -0.40079939365386963
-0.10878847539424896 -0.5328195691108704 0.1675339788198471
0.1659640669822693 0.126944437623024 0.46262428164482117
0.12510506808757782 -0.1651688516139984 0.31423211097717285
0.5258567333221436 0.004183006007224321 -0.24427896738052368
0.19089415669441223 0.4003792107105255 -0.029319556429982185
0.09532958269119263 -0.6240519881248474 -0.26224640011787415
-0.42786934971809387 0.11507529765367508 -0.2421553134918213
0.23320342600345612 0.4020799696445465 -0.27576398849487305
-0.21771015226840973 0.24506361782550812 -0.40068113803863525
-0.5549724102020264 -0.026093333959579468 0.34029117226600647
-0.4455062448978424 -0.10394487529993057 0.04841158911585808
0.4313121736049652 0.0027150188107043505 0.2540930509567261
0.0073003084398806095 -0.31423628330230713 0.30179139971733093
-0.34954676032066345 0.35210874676704407 0.02841195836663246
0.30269354581832886 -0.625816285610199 -0.15834198892116547
0.15986648201942444 0.0037331795319914818 -0.22988112270832062
0.2993561625480652 0.05186811089515686 -0.40042147040367126
0.5485613346099854 0.007251020986586809 0.047057028859853745
0.1576879769563675 -0.37640315294265747 -0.3535360097885132
-0.41063055396080017 0.39782950282096863 -0.22308704257011414
-0.345149427652359 0.001630578190088272 -0.3246399462223053
0.18875673413276672 -0.6241189241409302 0.13996604084968567
0.09176668524742126 0.45775723457336426 0.41528594493865967
0.34424179792404175 0.0017614252865314484 -0.3771412670612335
0.03818298503756523 0.001136754872277379 -0.2754392921924591
-0.5758277773857117 0.2580668032169342 -0.23099835216999054
-0.3546210825443268 -0.0011061793193221092 -0.3536321520805359
-0.12855850160121918 0.30699288845062256 -0.39844781160354614
0.5820773243904114 0.3478682041168213 -0.0009697542991489172
-0.39094218611717224 -0.0380038321018219 0.33617112040519714
0.39286351203918457 -0.06846752017736435 0.15302863717079163
0.10277759283781052 0.01816597767174244 -0.4026525318622589
0.02880127727985382 0.0014290919061750174 -0.05121814087033272
0.5418168902397156 0.4033496081829071 -0.11064659804105759
-0.0658748596906662 0.0020482446998357773 0.11700978875160217
-0.4974684715270996 0.3945576548576355 -0.020128296688199043
-0.5338735580444336 0.2537693679332733 -0.39926502108573914
-0.2615493834018707 0.0016358685679733753 -0.3118968904018402
0.507096529006958 0.3526417315006256 -0.39920321106910706
0.3897472023963928 -0.5987975597381592 0.002935060765594244
-0.004176352173089981 -0.6242208480834961 0.02003135345876217
0.46010729670524597 0.40294337272644043 0.18648450076580048
0.1761859953403473 -0.4835399091243744 -0.3067270517349243
-0.022057587280869484 0.39274707436561584 -0.3910556137561798
0.08140990883111954 0.4034707546234131 0.20803742110729218
-0.5711648464202881 0.051651474088430405 -0.06876064091920853
0.12651211023330688 0.002755318768322468 0.1361430436372757
-0.46870189905166626 0.3963841497898102 0.017910579219460487
-0.2803378999233246 0.3095771372318268 -0.4003681242465973
-0.43998947739601135 0.004320348612964153 0.27376893162727356
-0.31282898783683777 0.003944179974496365 0.3189903199672699
-0.018245765939354897 0.0034475214779376984 -0.3436563014984131
-0.18463802337646484 -0.18889589607715607 0.15747037529945374
-0.08230149745941162 -0.291494756937027 -0.32203182578086853
0.5829415321350098 0.13689002394676208 -0.2364458441734314
0.5842543244361877 0.23919762670993805 -0.05068913474678993
-0.39155498147010803 0.08346963673830032 -0.11186985671520233
0.2050277292728424 0.0027663717046380043 0.05220121517777443
-0.17115344107151031 0.011893512681126595 0.3431694507598877
-0.37093865871429443 -0.02747558057308197 0.08573745936155319
-0.5764931440353394 0.29976481199264526 0.2920173406600952
0.3380756676197052 -0.6274809837341309 -0.03366898372769356
0.17043113708496094 -0.1542307287454605 0.30741482973098755
0.19237695634365082 -0.6204806566238403 0.015309304930269718
0.348358690738678 0.001377856358885765 0.2701807916164398
0.2889389991760254 0.1432189792394638 -0.4020525813102722
-0.12891530990600586 -0.6434932947158813 0.075140081346035
0.16842325031757355 0.22232714295387268 0.46435683965682983
0.35556668043136597 -0.4280487596988678 0.11256173998117447
-0.5273135304450989 -0.09317866712808609 0.21199427545070648
0.2245955616235733 -0.6232535243034363 -0.019751327112317085
-0.18022815883159637 -0.6090992093086243 0.03989052399992943
-0.1738668829202652 0.2270013839006424 0.34262385964393616
0.29497119784355164 0.4019498825073242 0.19784192740917206
0.08007906377315521 -0.16530945897102356 0.31472447514533997
0.305340975522995 0.00019131135195493698 -0.28998294472694397
-0.5761021971702576 0.16370996832847595 -0.11078489571809769
0.1282661408185959 0.4660809636116028 0.3774401545524597
0.24559354782104492 0.39996251463890076 -0.056458886712789536
-0.5751787424087524 0.01876947097480297 -0.36624497175216675
0.5803107023239136 0.25619417428970337 -0.10737508535385132
-0.2009044885635376 -0.03620605170726776 -0.18373657763004303
-0.05271616578102112 0.0035324348136782646 0.2419048547744751
0.5853023529052734 0.17486533522605896 0.10309121012687683
-0.1997314840555191 -0.009850590489804745 0.1117599681019783
-0.5776053667068481 0.2420131266117096 -0.05632420629262924
-0.15949225425720215 -0.6469551920890808 0.05552081763744354
-0.462354838848114 0.09585653990507126 0.33536309003829956
-0.5699156522750854 0.10029194504022598 -0.19034145772457123
0.33683910965919495 0.002720725256949663 -0.17560987174510956
-0.5780363082885742 0.20801322162151337 -0.26113519072532654
0.13575179874897003 0.0021233423613011837 -0.2695979177951813
0.1796308159828186 -0.18486033380031586 -0.3626980781555176
-0.4705501198768616 -0.09427114576101303 -0.39957308769226074
0.3580471873283386 0.4035605490207672 0.2469390481710434
0.25352558493614197 0.0019113626331090927 -0.015077305026352406
-0.2864707112312317 0.28016018867492676 0.33738958835601807
-0.42257624864578247 0.09774292260408401 -0.24214400351047516
-0.18742059171199799 -0.37904584407806396 0.11689098179340363
0.11890100687742233 0.21627457439899445 -0.4013995826244354
0.01916109398007393 0.20063599944114685 0.42128968238830566
-0.15577882528305054 0.3155834376811981 -0.39876440167427063
-0.05787186697125435 -0.6246708631515503 -0.1029023602604866
0.5822166800498962 0.3565061092376709 -0.11752500385046005
-0.578016459941864 0.23408064246177673 -0.27108877897262573
-0.17275546491146088 -0.24777232110500336 -0.2427818328142166
0.19662459194660187 -0.6509947776794434 -0.2913546860218048
0.2564176321029663 -0.5933043360710144 -0.26905587315559387
0.38473790884017944 -0.5227662920951843 0.047987036406993866
0.16666972637176514 0.40309077501296997 0.18541425466537476
0.32520297169685364 0.4025266766548157 -0.1985473334789276
-0.5432840585708618 0.09194106608629227 0.24827414751052856
0.23026251792907715 -0.6235865950584412 0.027975697070360184
-0.5720546841621399 0.058906011283397675 0.009831102564930916
-0.5267632007598877 0.10745684057474136 -0.31254100799560547
-0.15364250540733337 -0.644481360912323 0.05721967667341232
0.31368571519851685 0.1997903287410736 -0.4036039113998413
0.20043016970157623 0.3677152097225189 -0.4024336338043213
-0.04371967166662216 0.4008864462375641 0.12477727234363556
0.30444571375846863 -0.6259176731109619 -0.13332663476467133
0.5849995613098145 0.24255505204200745 -0.16003470122814178
0.5827555656433105 0.3764243423938751 0.0007081032381393015
-0.5749518871307373 0.12235120683908463 0.3304268717765808
-0.4024850130081177 0.0048511577770113945 0.21922412514686584
0.17938296496868134 -0.008253851905465126 0.3178468644618988
-0.41915807127952576 0.003292194101959467 -0.09117405116558075
0.3869187533855438 -0.6174618601799011 0.026046723127365112
