0.5597698092460632 0.40115973353385925 -0.33321434259414673
0.19561737775802612 0.40165263414382935 0.23307345807552338
0.27615949511528015 -0.3572070598602295 -0.3232482373714447
0.08091089874505997 0.00039916764944791794 -0.29735705256462097
0.30888229608535767 0.1819298416376114 -0.4001813232898712
-0.44821855425834656 0.3997441530227661 0.12585726380348206
-0.37188392877578735 0.004445577040314674 0.0003313811612315476
0.563359260559082 0.008232648484408855 -0.037094246596097946
-0.02299690805375576 0.3889552652835846 0.34781506657600403
0.10186610370874405 0.46679726243019104 0.3887344002723694
-0.475847989320755 -0.0016265104059129953 -0.2836555540561676
0.2693106234073639 0.40489840507507324 -0.22570832073688507
0.4708099067211151 0.00042051728814840317 -0.1856183409690857
-0.3728162944316864 0.3994513750076294 -0.15076859295368195
0.357173889875412 -0.6332376003265381 0.0027720960788428783
-0.5458385944366455 0.0787864699959755 -0.011469148099422455
0.3515078127384186 0.3965579867362976 0.31639382243156433
0.1345488727092743 0.00025002285838127136 0.07432910054922104
-0.02334250882267952 0.4009706676006317 0.265356183052063
-0.40041452646255493 -0.09299549460411072 -0.18716543912887573
-0.3748272657394409 -0.0756329596042633 0.11597921699285507
-0.17622461915016174 -0.001976248575374484 0.12225713580846786
-0.5586836934089661 -0.04885168373584747 0.0915677398443222
-0.1798272579908371 0.39015936851501465 -0.3944900333881378
-0.21738439798355103 -0.0011687609367072582 0.08558296412229538
-0.38844093680381775 0.01222346629947424 -0.39577171206474304
0.23394076526165009 0.002086062915623188 -0.040777578949928284
-0.4969841539859772 0.10196340829133987 -0.022907577455043793
-0.4152262210845947 -0.07726042717695236 0.18956135213375092
0.09287053346633911 0.4452759921550751 0.4442943334579468
0.4614498019218445 0.000707005150616169 -0.016307689249515533
0.24684225022792816 -0.005552705377340317 0.30852851271629333
-0.1844477355480194 -0.5104735493659973 0.017640920355916023
0.11467324197292328 -0.0007535126060247421 0.3273697793483734
-0.10769685357809067 0.4015190005302429 -0.08568620681762695
0.2989059388637543 0.001192187424749136 -0.1394619643688202
0.18151342868804932 0.15475118160247803 0.4656015634536743
0.23398162424564362 0.07238899916410446 -0.3949928283691406
0.5398821830749512 0.1717798411846161 -0.4028400778770447
0.035539183765649796 0.00046410784125328064 -0.11480990797281265
-0.08854607492685318 0.4021799564361572 -0.2372395098209381
-0.07342451065778732 0.16181595623493195 -0.4043735861778259
-0.07056819647550583 0.2182324081659317 -0.40600869059562683
-0.1286742389202118 -0.6236034035682678 -0.07938598096370697
0.5813515782356262 0.13234785199165344 0.17408232390880585
0.21432726085186005 -0.6263338923454285 0.03707786276936531
-0.5665009021759033 0.01858103647828102 -0.08668403327465057
0.08931945264339447 0.3516079783439636 -0.4038519859313965
-0.4474148750305176 0.0029012244194746017 -0.00151639967225492
-0.5520989894866943 0.28792670369148254 0.3408735692501068
-0.03704380244016647 0.4016871750354767 0.1218847930431366
-0.35337141156196594 0.40309783816337585 0.07337892800569534
0.3909126818180084 -0.6426982283592224 0.03381923586130142
-0.15530528128147125 -0.39714157581329346 0.11175939440727234
-0.5252987742424011 0.2843267321586609 0.3411460816860199
-0.5832260251045227 0.03902691230177879 -0.25164783000946045
-0.1293751448392868 0.4002942442893982 -0.1975092738866806
0.17200203239917755 -0.6151356101036072 -0.21304641664028168
-0.027917098253965378 -0.6216068267822266 0.16794753074645996
0.5828236937522888 0.10544188320636749 -0.11275582760572433
0.03531946614384651 0.4017460346221924 0.09108507633209229
0.49629512429237366 0.001777146477252245 -0.1979561746120453
0.07090453803539276 0.000897163525223732 -0.09964941442012787
-0.37398722767829895 0.0014073937200009823 0.26996755599975586
-0.47323936223983765 0.39920490980148315 0.014150792732834816
-0.3117001950740814 0.4028749465942383 -0.15890803933143616
-0.538687527179718 0.08739010244607925 0.262369304895401
-0.11087387800216675 -0.2560494542121887 0.2289254069328308
0.11091052740812302 -0.001950451754964888 0.2884554862976074
0.10288044065237045 -0.4556700587272644 0.26767846941947937
0.39215603470802307 -0.649027943611145 -0.03904323652386665
-0.4318225681781769 0.4006354808807373 0.16515834629535675
-0.2149943709373474 0.010807136073708534 -0.39821571111679077
0.15158586204051971 0.004714196547865868 -0.3925512135028839
0.26384174823760986 -0.24594786763191223 -0.3229431211948395
-0.5164779424667358 0.3563956618309021 0.33960095047950745
-0.4000031650066376 0.009139979258179665 -0.39948582649230957
-0.42934688925743103 0.00367272412404418 0.07188770174980164
0.1495850682258606 -0.20079444348812103 -0.3628281354904175
-0.4777243733406067 -0.0014381147921085358 0.17710727453231812
-0.5835303664207458 0.17728948593139648 0.23086017370224
0.32520347833633423 0.0011334596201777458 -0.16083502769470215
0.32405534386634827 -0.5713548064231873 0.15822358429431915
-0.3256188631057739 -0.0013553919270634651 -0.11289399862289429
0.0846293717622757 -0.6220693588256836 -0.12714442610740662
-0.4475347399711609 0.35455557703971863 0.031143665313720703
0.10814446955919266 -0.007541690953075886 0.3184187412261963
0.24981416761875153 -0.6244299411773682 -0.07974021881818771
0.21556147933006287 0.000881235464476049 0.08267242461442947
0.4225104749202728 0.00038777850568294525 -0.04422338679432869
-0.09311217069625854 -0.6239824295043945 -0.03977564349770546
-0.1749851554632187 -0.37269699573516846 -0.2103361338376999
0.09237559884786606 0.39713117480278015 0.3344805836677551
0.5596732497215271 0.005786479450762272 0.03674408048391342
0.0017703264020383358 0.20515376329421997 -0.4038902223110199
-0.46769022941589355 0.40354713797569275 0.2810664474964142
-0.11588495969772339 -0.6458243727684021 -0.14366836845874786
-0.1567809134721756 -0.5355661511421204 -0.1699085533618927
-0.2677900791168213 0.32620254158973694 -0.4019191563129425
0.03477093577384949 0.1892169862985611 0.3504880368709564
0.40983593463897705 -0.002234713640064001 0.09702357649803162
0.11719410121440887 0.000705069862306118 -0.02265976183116436
0.38244250416755676 0.3955672085285187 0.28559738397598267
0.052546534687280655 -0.6184606552124023 0.04033368453383446
0.3385615348815918 -0.6335097551345825 0.011742323637008667
0.3843662738800049 0.0012454185634851456 -0.03980938345193863
0.3267099857330322 0.24881908297538757 -0.4053758978843689
-0.4361409842967987 0.4003196656703949 0.14930029213428497
-0.001665365183725953 -0.6193610429763794 -0.16191810369491577
-0.24501949548721313 -0.0019250130280852318 -0.029774462804198265
-0.263611763715744 0.005614197812974453 0.31746187806129456
-0.5807420015335083 0.1617513746023178 0.2986897826194763
-0.23188787698745728 -0.16031891107559204 -0.11293664574623108
0.3941574692726135 -0.0024196403101086617 0.10412000119686127
-0.052559975534677505 0.4018627107143402 -0.37230756878852844
-0.35078051686286926 0.004085958003997803 -0.03699234500527382
-0.3740615248680115 0.002302148612216115 0.15269944071769714
0.04320212081074715 0.12640705704689026 0.43402621150016785
0.10407361388206482 -0.08278258144855499 -0.37328964471817017
0.5926511287689209 0.3490358293056488 -0.2354573905467987
0.3450351357460022 0.0016014594584703445 -0.09027937054634094
-0.15051348507404327 -0.5181187987327576 0.09641429036855698
-0.08666243404150009 -0.2979024648666382 0.25395917892456055
0.03812239319086075 -0.006492731161415577 0.44207847118377686
-0.5150386095046997 0.10749334841966629 -0.0931709036231041
0.012547322548925877 -0.6283773183822632 -0.23970067501068115
-0.5086880922317505 0.36524033546447754 -0.022688619792461395
-0.0462559349834919 0.40243902802467346 -0.19394421577453613
-0.1793360412120819 -0.5394080281257629 0.026444923132658005
-0.12147370725870132 -0.0036965403705835342 0.2068115472793579
-0.5027292966842651 -0.10505340248346329 -0.3539557456970215
0.350792795419693 -0.6151733994483948 -0.19673867523670197
0.1229185238480568 0.0011613788083195686 -0.26256465911865234
-0.34856051206588745 0.00248691625893116 -0.005449690390378237
-0.42410656809806824 0.042554862797260284 -0.3992783725261688
0.27929338812828064 0.326103150844574 0.3441266715526581
-0.030595602467656136 0.0014687087386846542 -0.259860098361969
0.22577279806137085 0.3119371831417084 0.4663521945476532
-0.1906893253326416 0.0003052204556297511 -0.17882953584194183
0.2628668546676636 0.4013666808605194 -0.007440638262778521
-0.3627278506755829 0.01650175079703331 -0.12861904501914978
0.14645101130008698 0.276245653629303 0.4647196829319
-0.060896117240190506 0.14357176423072815 0.4107276201248169
-0.4913409650325775 0.3377015292644501 -0.15250808000564575
0.0495467334985733 0.3983497619628906 0.2824888229370117
-0.5736750960350037 0.06700393557548523 0.1259455382823944
-0.22980891168117523 0.4006164073944092 -0.043874431401491165
-0.5850737690925598 0.14447176456451416 -0.38323113322257996
0.3308264911174774 0.4039180874824524 -0.010762940160930157
0.21748988330364227 -0.6453663110733032 0.22620101273059845
0.570919394493103 0.37923458218574524 0.09796056896448135
0.2797357439994812 -0.6237886548042297 0.036489006131887436
-0.5002464652061462 -0.10603059083223343 -0.17963461577892303
0.5924684405326843 0.2838617265224457 -0.3126409649848938
0.14189264178276062 -0.6269579529762268 -0.0028387056663632393
0.32235199213027954 -0.39149802923202515 -0.24717548489570618
0.16459833085536957 -0.01348908431828022 0.46973639726638794
-0.1572163701057434 -0.4121723771095276 0.09723177552223206
-0.3352878987789154 0.40203338861465454 -0.25307899713516235
0.3888920247554779 0.029408039525151253 -0.40148890018463135
-0.1789052039384842 -0.0021881768479943275 0.2016913890838623
-0.2929549217224121 0.4027203321456909 0.15089969336986542
0.3758571147918701 -0.3759880065917969 0.09383149445056915
0.057362403720617294 0.0006374027580022812 -0.10295160859823227
0.14204823970794678 0.034719325602054596 0.46660611033439636
0.2235010862350464 0.38885170221328735 -0.3993144929409027
-0.36337903141975403 0.04368467628955841 -0.06358452886343002
0.10252674669027328 0.0004658149555325508 -0.08381443470716476
0.3094022572040558 -0.0004488998092710972 -0.3089408576488495
-0.1660803258419037 -0.2029011994600296 0.1859409511089325
-0.3029879629611969 0.40307724475860596 0.14979441463947296
-0.3904299736022949 0.401485413312912 0.15331122279167175
0.18746984004974365 0.40335381031036377 -0.346298485994339
-0.06951785832643509 -0.45089149475097656 -0.25976717472076416
0.5780091285705566 0.39154624938964844 -0.11199040710926056
-0.020616402849555016 0.4020775854587555 -0.12058714777231216
0.5414600372314453 0.003688742406666279 -0.23965415358543396
-0.42729276418685913 0.3619791865348816 0.025607073679566383
0.5405488610267639 0.023936551064252853 0.3398306369781494
0.38900285959243774 -0.07767529040575027 -0.24214065074920654
0.08981991559267044 0.16021867096424103 0.4606558382511139
-0.15703485906124115 -0.3170238435268402 0.186362162232399
0.3407682478427887 -0.639933168888092 -0.12084957957267761
-0.4012277126312256 -0.006068431306630373 0.2789706587791443
-0.09161517024040222 -0.5325266718864441 0.18487155437469482
-0.030771683901548386 0.3018985688686371 -0.39807575941085815
0.3355810344219208 0.14300253987312317 0.4428332448005676
0.37569674849510193 0.3968775272369385 0.29218029975891113
-0.22407099604606628 -0.10738609731197357 0.08553473651409149
0.38716891407966614 -0.6552112102508545 -0.02880936488509178
-0.44040051102638245 0.09199599176645279 -0.031696200370788574
-0.4774409532546997 0.12377619743347168 -0.04928820580244064
0.1581404209136963 0.0006078719161450863 0.0016361221205443144
0.2622365951538086 -0.6252114176750183 0.2090422809123993
0.2849929630756378 -0.12248969078063965 -0.32686638832092285
-0.09052933007478714 0.00012841005809605122 0.03878627344965935
0.24178002774715424 -0.006523804739117622 0.257500022649765
0.020366046577692032 0.2869832217693329 0.36806046962738037
-0.11970430612564087 -0.08002801239490509 0.23036205768585205
-0.1758212000131607 -0.08042611181735992 0.15454860031604767
-0.5767186284065247 0.00773659348487854 -0.18380384147167206
0.3000488877296448 -0.6585075855255127 0.15851157903671265
0.1824849247932434 -0.02653312310576439 -0.3639879524707794
0.23832404613494873 -0.0015603136271238327 -0.31852030754089355
-0.37228885293006897 -0.0030935965478420258 -0.1939053237438202
-0.051809120923280716 0.13764731585979462 -0.40398621559143066
-0.47275134921073914 0.003613303881138563 -0.39998769760131836
-0.040872205048799515 -0.0025453208945691586 0.279697448015213
-0.5870072245597839 0.1712629348039627 0.0030916777905076742
-0.3814219832420349 -0.05912793427705765 0.058580875396728516
0.224397212266922 0.0005241315811872482 0.17371533811092377
0.32465681433677673 0.08726199716329575 0.3466896712779999
0.35117167234420776 -0.5266796946525574 0.13219265639781952
0.07261493802070618 0.402403861284256 -0.04223986715078354
0.15159711241722107 -0.6242309808731079 0.10971594601869583
-0.4354618489742279 0.002669893903657794 -0.06587919592857361
-0.03874674439430237 -0.00021108536748215556 0.08327946811914444
0.5549883246421814 0.1621517837047577 -0.39791855216026306
0.11745238304138184 -0.16752785444259644 0.314359188079834
0.22932106256484985 0.46295759081840515 0.4172397553920746
0.1369697004556656 -0.1697901487350464 -0.37206968665122986
-0.3651140034198761 -0.05840003490447998 0.12752357125282288
-0.4925321936607361 0.39865732192993164 0.10008951276540756
0.34880027174949646 -0.00023064669221639633 -0.2521359622478485
0.33773526549339294 0.3996342122554779 0.20273031294345856
0.1758325695991516 -0.6262442469596863 0.21996277570724487
0.4939087927341461 0.10685459524393082 0.34591642022132874
0.5556852221488953 0.18041619658470154 0.3447979986667633
0.1981218010187149 0.000772466417402029 -0.12653686106204987
-0.13544173538684845 0.36063218116760254 0.3416352868080139
-0.06148051097989082 -0.5934948325157166 0.2096632868051529
0.2905998229980469 -0.45684224367141724 0.18399405479431152
0.03369428962469101 0.048376187682151794 0.4556230902671814
-0.5636609196662903 0.001920773764140904 -0.30484458804130554
0.34643441438674927 0.40147486329078674 0.226755753159523
-0.5174238085746765 -0.08762388676404953 -0.031061401590704918
-0.19540546834468842 -0.0007433304563164711 0.03336453437805176
0.33868440985679626 0.40183648467063904 0.033067405223846436
0.2633436918258667 0.40435999631881714 -0.22337976098060608
-0.5787587761878967 0.07860259711742401 -0.2786235511302948
0.2851581573486328 -0.6407783031463623 -0.2594630718231201
0.4508165419101715 -0.19204922020435333 -0.016919320449233055
0.03775109350681305 -0.00011508073657751083 -0.1817554086446762
-0.5185239911079407 0.3973139822483063 -0.2949295938014984
0.314697265625 -0.0039007491432130337 0.24940389394760132
0.4074825346469879 0.0021619414910674095 -0.3816767632961273
-0.2845267951488495 0.3802333176136017 -0.06831255555152893
0.5193858742713928 0.4030213952064514 -0.20124593377113342
0.21955882012844086 -0.0037882765755057335 0.25172626972198486
-0.057242099195718765 -0.14952923357486725 -0.3405279219150543
-0.09935969114303589 0.0015145372599363327 -0.16837061941623688
-0.08202233165502548 0.11486535519361496 0.3455735445022583
0.3694799244403839 0.011085385456681252 -0.39613813161849976
-0.23661179840564728 0.4003816545009613 -0.3797113597393036
0.4360412061214447 -0.17870405316352844 0.0005994201637804508
-0.5760265588760376 0.24844485521316528 -0.17085948586463928
0.565395712852478 0.39223915338516235 0.2702594995498657
0.24531236290931702 -0.29388362169265747 0.28687795996665955
0.3480720818042755 -0.3603190779685974 -0.26012754440307617
0.334484726190567 0.11020994186401367 0.35119926929473877
0.011420490220189095 -0.6317433714866638 -0.25583451986312866
-0.18858207762241364 0.0022528162226080894 -0.08294790238142014
0.394635945558548 -0.06805448234081268 0.15334182977676392
-0.3191290497779846 0.3636115491390228 0.34147703647613525
0.2853907644748688 -0.12353332340717316 -0.3299808204174042
-0.22971439361572266 -0.015261732041835785 -0.13743706047534943
-0.07187606394290924 0.0012790616601705551 -0.11051025986671448
0.023732583969831467 -0.060663413256406784 -0.366945743560791
-0.47114425897598267 0.3977460563182831 -0.3201526999473572
-0.22299635410308838 0.4022848606109619 -0.3275506794452667
0.5896016359329224 0.07363171875476837 0.06390640139579773
-0.4256015419960022 0.40790343284606934 -0.029647424817085266
-0.195970818400383 -0.2826232612133026 0.14516060054302216
0.2940153181552887 0.37571653723716736 0.34529533982276917
-0.136895552277565 0.0005152099765837193 0.04786422848701477
0.29948198795318604 0.38666561245918274 -0.401734322309494
-0.19837702810764313 -0.017297804355621338 0.14985531568527222
-0.3882235586643219 -0.0024467986077070236 0.3432252109050751
0.2968326807022095 0.00023169675841927528 -0.24405190348625183
-0.2997398376464844 0.0030531100928783417 0.11181509494781494
-0.22455210983753204 0.02559600956737995 0.34397411346435547
0.34053775668144226 -0.5959838628768921 0.1310836225748062
-0.02437797747552395 -0.22928887605667114 -0.348562628030777
0.44951215386390686 0.3345607817173004 -0.4047359526157379
-0.38492530584335327 0.4022461175918579 -0.34177714586257935
-0.10604839771986008 0.0014806855469942093 -0.19485728442668915
-0.33911776542663574 0.0015609264373779297 -0.2864754796028137
-0.5863746404647827 0.1988234668970108 -0.10196875780820847
0.3770935535430908 0.11258228123188019 -0.40421217679977417
0.20917123556137085 -0.021679596975445747 -0.3618128001689911
0.5841785073280334 0.21940715610980988 0.09451135993003845
-0.2198065221309662 0.20981784164905548 0.34480661153793335
-0.5850542783737183 -0.002314443700015545 0.32806485891342163
-0.19141840934753418 0.07631838321685791 -0.3937148153781891
-0.344505250453949 0.06643882393836975 -0.3989299535751343
-0.08291603624820709 -0.5704681873321533 -0.23998582363128662
0.029325367882847786 -0.6313672065734863 -0.249360591173172
-0.4871479868888855 -0.09889517724514008 0.3331509828567505
-0.4766280949115753 0.0953284502029419 0.2881304919719696
0.32048100233078003 0.3423518240451813 0.41256287693977356
0.5233005285263062 0.3809407651424408 -0.3960511386394501
0.14156684279441833 -0.08011658489704132 0.33647894859313965
0.14017267525196075 -0.6255709528923035 -0.13001905381679535
0.3472095727920532 -0.001548219472169876 0.018469085916876793
0.3805464208126068 -0.6194009184837341 -0.11180625110864639
-0.23780621588230133 0.001782226376235485 -0.09631135314702988
-0.4781275689601898 0.39344221353530884 0.2743523418903351
0.20678071677684784 0.00039464468136429787 -0.02372022159397602
-0.41162583231925964 -0.004775806330144405 -0.08368365466594696
-0.11253784596920013 -0.06580445170402527 -0.2896345555782318
-0.4965337812900543 0.3978066146373749 -0.21250078082084656
0.5416469573974609 0.39979249238967896 -0.23027464747428894
-0.12275858223438263 -0.5862357020378113 -0.22116698324680328
-0.02959584631025791 0.4025404155254364 -0.27764105796813965
-0.08750986307859421 0.39880335330963135 0.0598599798977375
0.08634394407272339 0.35000476241111755 0.46341753005981445
0.3755687475204468 0.0003913985565304756 -0.08886495232582092
-0.18376001715660095 -0.6488736271858215 0.0038433889858424664
-0.5685887932777405 -0.03082304820418358 -0.26991894841194153
0.3977254033088684 0.19866541028022766 0.3463960886001587
-6.241744267754257e-05 0.16256438195705414 0.3504692316055298
-0.1388794183731079 -0.046837903559207916 -0.284176230430603
0.585568368434906 0.07325185090303421 0.1350213587284088
0.47328877449035645 0.0912262350320816 -0.40575164556503296
0.45601895451545715 -0.12211943417787552 -0.0040138522163033485
-0.5753647089004517 0.22856055200099945 0.24523037672042847
-0.479828804731369 -0.11063171178102493 0.08967471867799759
-0.12650322914123535 0.4012056887149811 0.1288546770811081
0.41041868925094604 -0.052364420145750046 0.09160521626472473
-0.3857777714729309 0.06606125086545944 0.09213515371084213
0.36280563473701477 -0.0013790959492325783 0.14941203594207764
0.03975995257496834 -0.14436575770378113 -0.36535513401031494
-0.05150727555155754 0.0002583526074886322 0.091788150370121
0.4417455792427063 -0.09140200912952423 0.025122342631220818
0.31860220432281494 0.2207898497581482 0.34465277194976807
0.5553112030029297 0.25906088948249817 0.3448580503463745
-0.547203540802002 0.005514298100024462 -0.06395839154720306
0.391058087348938 -0.3660834729671478 0.115340955555439
0.5779916644096375 0.2875511944293976 -0.3965659737586975
-0.24002420902252197 -0.015705687925219536 -0.009839745238423347
0.22685086727142334 -0.1475594937801361 0.303867369890213
0.12022165209054947 0.4000033736228943 0.2959875762462616
0.2732904255390167 -0.08870778977870941 0.42952463030815125
-0.4403163492679596 0.03554727882146835 0.34216931462287903
-0.4547760486602783 -0.10373623669147491 0.33425185084342957
-0.5703070759773254 0.24057161808013916 -0.2646085321903229
0.07444758713245392 2.2680498659610748e-05 -0.16713117063045502
-0.5778747797012329 0.29566478729248047 -0.21076324582099915
-0.1663457155227661 -0.41544950008392334 -0.12134213000535965
-0.03858881816267967 -0.6256349086761475 -0.007756419945508242
-0.2756902873516083 0.07140157371759415 -0.3933318555355072
-0.027317751199007034 0.16782835125923157 0.3480672240257263
0.20703397691249847 -0.19285006821155548 -0.3560577929019928
0.5945075154304504 0.0785846933722496 0.21999694406986237
-0.4028719365596771 -0.013477014377713203 0.33638444542884827
0.056562334299087524 -0.014909543097019196 0.3084842562675476
0.058753252029418945 -0.6281847953796387 -0.27769795060157776
-0.5626583695411682 -0.041124679148197174 0.12121845036745071
-0.37072813510894775 0.067884661257267 0.3380548357963562
0.4920869767665863 -0.001955169253051281 -0.04273993521928787
-0.36884191632270813 0.4043518900871277 -0.17441469430923462
-0.44955262541770935 0.004608123563230038 -0.2534406781196594
0.33371537923812866 0.16954867541790009 0.34422898292541504
-0.11380451172590256 -0.3499061167240143 -0.2964290976524353
-0.09918968379497528 -0.4250480532646179 0.1789650171995163
0.4581149220466614 0.36979639530181885 -0.40487828850746155
0.20104669034481049 0.00041803368367254734 0.044340580701828
0.3646356463432312 0.0002371359441895038 -0.22781825065612793
0.48252788186073303 -0.0005694283172488213 -0.05954407528042793
-0.19598771631717682 0.0009766705334186554 -0.07502397149801254
-0.31627532839775085 0.40125080943107605 -0.2511979341506958
-0.15917375683784485 0.39579567313194275 0.30328333377838135
-0.0139066893607378 0.0009519876912236214 -0.06743527948856354
0.1464608758687973 0.39972272515296936 0.2879564166069031
0.2905724346637726 0.4028778076171875 0.4629521071910858
-0.06618870049715042 -0.5112341046333313 0.19450806081295013
-0.35762667655944824 0.4038345515727997 -0.15687470138072968
0.09758365899324417 0.39130616188049316 0.4608393907546997
-0.03576032817363739 0.40135079622268677 0.16251450777053833
0.0590408593416214 0.0006863614544272423 0.21018722653388977
0.3056831657886505 -0.26717662811279297 -0.3045758605003357
0.011812589131295681 -0.3676007091999054 0.2895119786262512
-0.16814656555652618 0.0023259855806827545 -0.35463204979896545
-0.5360412001609802 -0.09812639653682709 -0.22051319479942322
0.5842160582542419 0.21982532739639282 0.3344162404537201
0.44091659784317017 -0.2935004234313965 0.03997635096311569
-0.1153658851981163 0.40008896589279175 0.23542341589927673
0.5068312287330627 0.15438205003738403 0.3462662398815155
-0.5391242504119873 0.39097458124160767 -0.32314416766166687
-0.38614538311958313 0.28266051411628723 -0.4013018310070038
-0.43541961908340454 0.10234428942203522 0.22025533020496368
-0.5471381545066833 0.08241739869117737 0.22587676346302032
0.03240302577614784 0.22887283563613892 0.45479488372802734
-0.18126237392425537 -0.5108679533004761 -0.07977620512247086
0.39656201004981995 6.269104778766632e-05 -0.2170070856809616
-0.47526124119758606 0.21830730140209198 -0.39502236247062683
-0.022845908999443054 -0.6289045214653015 -0.28738272190093994
0.009932726621627808 0.40300995111465454 -0.3702511787414551
-0.5710213780403137 0.30218052864074707 0.09990445524454117
0.34849005937576294 -0.4678260385990143 0.12408791482448578
-0.06384134292602539 -0.44699177145957947 0.2111883908510208
0.20828929543495178 0.0006482034805230796 0.061078816652297974
0.02796562761068344 -0.44338923692703247 0.24532829225063324
0.1344691812992096 0.40216222405433655 -0.2919125556945801
-0.4212718904018402 0.0018979152664542198 0.1419861763715744
-0.3552250862121582 -0.021513015031814575 0.06730802357196808
0.3311099112033844 -0.5002375245094299 0.14829804003238678
-0.1419905573129654 -0.2185499221086502 0.2116880565881729
-0.1903304010629654 -0.0001080990768969059 -0.19010378420352936
0.3034144937992096 0.001116916537284851 -0.14733362197875977
0.11624559760093689 -0.002642754465341568 0.32162022590637207
-0.08887902647256851 -0.6205016374588013 0.02575591951608658
0.39377230405807495 -0.24988950788974762 -0.21089805662631989
-0.4409444034099579 -0.0022702859714627266 0.3467860817909241
-0.4354047179222107 0.40019917488098145 -0.12389863282442093
-0.18261529505252838 -0.5979127883911133 -0.06624290347099304
0.11707695573568344 0.20253537595272064 -0.4007453918457031
0.32519394159317017 0.0021433327347040176 -0.21923469007015228
-0.13901393115520477 0.0005656587891280651 -0.05081978440284729
-0.4207596480846405 -0.0011566556058824062 -0.18616265058517456
-0.3557071089744568 0.38046392798423767 -0.18718060851097107
0.4099605679512024 0.3968297839164734 0.29669687151908875
-0.3625276982784271 0.03531655669212341 0.06385792046785355
0.08268167078495026 -0.62168288230896 -0.27528032660484314
0.13002607226371765 -0.655509889125824 -0.2920144200325012
0.019467582926154137 -0.6483060121536255 0.19463792443275452
0.05599215626716614 0.0032756105065345764 -0.3794633150100708
0.056103430688381195 -0.3060736060142517 0.31034284830093384
0.2509722411632538 0.3333737552165985 0.465270072221756
0.02049458771944046 0.404193252325058 -0.07082749158143997
-0.5510016083717346 -0.06088670343160629 -0.31970861554145813
0.3591165542602539 -0.14651401340961456 0.1908254772424698
0.5908176302909851 0.10284515470266342 -0.2121008336544037
-0.2648298442363739 0.3611990809440613 0.3400498926639557
0.577424943447113 0.06509256362915039 0.18321381509304047
0.3868393898010254 -0.0036427918821573257 0.2051541656255722
0.3350977599620819 -0.3711284101009369 0.172219380736351
-0.5263668298721313 0.0019281026907265186 -0.39836350083351135
-0.09235849976539612 -0.5340784788131714 0.17836976051330566
-0.14783409237861633 -0.2065509855747223 0.2026207447052002
-0.1515730917453766 -8.941534906625748e-05 0.004351407289505005
0.3779635429382324 0.34094011783599854 -0.3953917324542999
-0.0596400611102581 0.401779443025589 -0.047600045800209045
-0.12485642731189728 0.400181382894516 -0.09746677428483963
0.011780569329857826 0.0007329201325774193 -0.195506751537323
-0.13036003708839417 -0.018752142786979675 0.21391481161117554
-0.41866615414619446 -0.11150664836168289 0.22830849885940552
-0.55732661485672 0.06167542189359665 -0.25683119893074036
-0.1817278265953064 0.40247440338134766 -0.28194016218185425
0.07156752049922943 0.21022367477416992 0.34922072291374207
-0.5677522420883179 -0.061967793852090836 -0.102385975420475
0.4308260679244995 -0.08552323281764984 0.10285041481256485
-0.46993839740753174 0.1201891079545021 0.33951541781425476
0.051955871284008026 -0.07333087176084518 0.34635496139526367
0.11440456658601761 -0.5099824070930481 -0.3185780346393585
-0.2124512791633606 -0.10525871813297272 0.0823829248547554
0.29773256182670593 -0.46734321117401123 0.1821592152118683
0.235691636800766 -0.5756058692932129 -0.28668004274368286
-0.13595588505268097 -0.6426477432250977 0.048205457627773285
0.5599753260612488 0.1265752613544464 0.34087851643562317
-0.09710225462913513 -0.6287577152252197 0.08315935730934143
0.5747393369674683 0.09534253925085068 0.273807168006897
0.2691742479801178 0.04189985617995262 0.4619521498680115
-0.21276572346687317 -0.0866522565484047 -0.16149301826953888
0.26447296142578125 0.23027771711349487 0.46198219060897827
0.5696284174919128 0.23045872151851654 0.14899368584156036
-0.19551582634449005 -7.991748861968517e-05 -0.22705134749412537
0.16831229627132416 0.0012118667364120483 -0.13413715362548828
-0.4602712094783783 -0.0013671636115759611 -0.2877621054649353
0.15834574401378632 0.24010387063026428 -0.3980408310890198
-0.14539720118045807 0.000886701513081789 0.06492622941732407
0.4223407804965973 -0.354459285736084 -0.1453581601381302
0.5934908986091614 0.21425579488277435 -0.20089580118656158
0.027507048100233078 0.4015671908855438 -0.12386886030435562
-0.41273871064186096 -0.0027106283232569695 -0.1710803359746933
0.09479667246341705 0.02684752084314823 0.3460780680179596
-0.5124208331108093 0.39233383536338806 0.1047028973698616
-0.584833025932312 0.15011851489543915 -0.12786686420440674
-0.5601702332496643 -0.006131943315267563 0.1012706533074379
0.2282773107290268 -0.5457678437232971 -0.2875402867794037
0.5951914191246033 0.2558188736438751 -0.24121765792369843
-0.0799013152718544 -0.24447637796401978 -0.32808393239974976
0.23308072984218597 0.0011456157080829144 0.06095708906650543
-0.0489015132188797 0.4025583565235138 -0.1688317060470581
0.3359936475753784 -0.4785677194595337 0.13927079737186432
-0.20106084644794464 0.0009533986449241638 -0.16821792721748352
0.4631035327911377 0.3263486623764038 -0.4013964533805847
-0.31983667612075806 0.06518077850341797 0.3435175120830536
-0.5609160661697388 0.07933338731527328 -0.39595863223075867
-0.5499251484870911 0.21176382899284363 0.3395991027355194
-0.20277787744998932 -0.371578186750412 0.07551371306180954
-0.5104191899299622 0.09997867792844772 -0.2781656086444855
0.40074867010116577 0.10486941039562225 0.34585776925086975
0.2302771806716919 -0.6182222366333008 0.009251726791262627
-0.5567882061004639 0.05963132530450821 -0.15344209969043732
-0.5708543658256531 0.07004399597644806 0.17855767905712128
-0.5914837121963501 0.2984015643596649 -0.19132599234580994
0.04464513435959816 -0.6298248171806335 -0.07011612504720688
-0.3844028115272522 0.3328305780887604 -0.403441846370697
-0.3635096251964569 0.39859119057655334 -0.35047033429145813
0.018303632736206055 0.4022510349750519 0.023595986887812614
0.5634129047393799 0.0016349442303180695 -0.23642274737358093
0.2727228105068207 0.0017812401056289673 0.2676446735858917
0.267422616481781 0.3980197608470917 0.11234030872583389
0.3235524892807007 0.16055555641651154 0.34290724992752075
0.009501676075160503 0.0016916170716285706 -0.0618877075612545
-0.4308888912200928 -0.09618166834115982 -0.039023492485284805
-0.37393662333488464 -0.03466048091650009 -0.298077255487442
0.3413480520248413 -0.00047227879986166954 0.10212980955839157
0.3149379789829254 -0.6583713889122009 0.15932714939117432
-0.5411105155944824 0.08962978422641754 0.05825010687112808
0.1808006763458252 -0.3751938045024872 -0.34903964400291443
-0.09873286634683609 -0.1599874198436737 0.23763321340084076
-0.3021281659603119 0.00217077462002635 0.2563788890838623
0.229925736784935 0.0011943590361624956 0.09947075694799423
-0.44126665592193604 0.4030488431453705 -0.046133097261190414
0.16877657175064087 0.2008611261844635 0.4674200415611267
0.3190803825855255 0.4075835049152374 0.42832303047180176
0.12520776689052582 -0.6348618865013123 -0.2725951373577118
0.07845345139503479 -0.6208822727203369 0.1367516815662384
-0.40796664357185364 0.40569308400154114 -0.02291114069521427
0.5135199427604675 0.39966052770614624 0.149809792637825
-0.2157406508922577 0.40136420726776123 -0.01920059323310852
-0.08149942755699158 0.0017310529947280884 -0.1594657003879547
-0.5165229439735413 0.20819106698036194 0.3408316373825073
-0.08947767317295074 -0.12259747087955475 0.23964881896972656
0.42183002829551697 0.4028846025466919 -0.32405874133110046
0.5704338550567627 0.22970221936702728 -0.3698655664920807
-0.5743257403373718 0.36584776639938354 -0.2785729765892029
-0.16483555734157562 -0.11811579018831253 -0.2550201714038849
-0.5539634227752686 -0.06813851743936539 -0.06048443913459778
0.5848605036735535 0.24810096621513367 -0.10946061462163925
0.34675702452659607 -0.6303638815879822 -0.06336867064237595
-0.3997749388217926 -0.004423822741955519 0.24593877792358398
-0.5317094922065735 -0.0975181832909584 0.08255898207426071
0.30143699049949646 -0.6137228608131409 0.18128396570682526
-0.32463592290878296 0.0028044898062944412 0.16321685910224915
0.312404066324234 0.36305686831474304 -0.402602881193161
-0.028056614100933075 0.0002291472628712654 0.16448789834976196
-0.5771064758300781 -0.006561621092259884 0.2885791063308716
0.22090941667556763 -0.42749491333961487 0.230129212141037
0.5773741602897644 0.0052652740851044655 0.1345306783914566
-0.3402198255062103 0.0014990100171416998 0.12924346327781677
0.38066649436950684 -0.38399338722229004 -0.10542367398738861
-0.4671972393989563 0.29664626717567444 -0.4014856815338135
-0.016377823427319527 0.14989273250102997 -0.403212308883667
0.40080368518829346 0.0031371945515275 -0.32570475339889526
0.007107398007065058 0.00603417307138443 -0.38728347420692444
0.3900369107723236 -7.053371518850327e-05 -0.08800038695335388
0.3132319152355194 0.09868916869163513 0.44870421290397644
0.5556641221046448 0.1728372722864151 0.3400489091873169
0.3913719952106476 -0.029774576425552368 -0.21776887774467468
-0.3030094802379608 0.27858853340148926 0.344952255487442
-0.05791535973548889 0.0005592615343630314 -0.3036790192127228
0.44113850593566895 -0.029483402147889137 -0.028806867077946663
-0.15299329161643982 0.14049816131591797 -0.40348467230796814
0.021284691989421844 -0.19819308817386627 0.3033657371997833
-0.5717325210571289 -0.00915283989161253 0.1053990051150322
-0.044926758855581284 0.00043523311614990234 -0.23026229441165924
0.43440577387809753 -0.0024286159314215183 0.1489616334438324
-0.3284383714199066 0.0017850850708782673 -0.27956026792526245
-0.522162914276123 0.10846235603094101 -0.29105567932128906
-0.061148010194301605 -0.6476112604141235 -0.2251078486442566
-0.45923060178756714 0.08534213155508041 0.3443579077720642
0.21034882962703705 -0.4528920352458954 0.2369472235441208
0.5684561729431152 0.24347136914730072 0.2459094375371933
0.14466510713100433 0.2635561525821686 0.34679660201072693
0.22641050815582275 -0.5662081837654114 -0.2782040536403656
-0.41283464431762695 -0.05657032132148743 -0.39687520265579224
0.18060407042503357 -0.005668004974722862 0.25831544399261475
-0.22490206360816956 -0.11393821984529495 -0.08304056525230408
0.09920760989189148 -0.009103329852223396 0.31893956661224365
-0.07158953696489334 0.0016234898939728737 -0.11055144667625427
0.1284961700439453 -0.6270642876625061 -0.10762335360050201
0.4293253719806671 0.40376439690589905 -0.056591954082250595
-0.054479166865348816 0.4026332497596741 -0.3453384339809418
0.2070850431919098 0.40454843640327454 0.0043131220154464245
0.26397421956062317 0.40072739124298096 0.09735732525587082
-0.4187769591808319 0.00574403814971447 -0.179514080286026
-0.5702568888664246 0.31950563192367554 0.22117842733860016
-0.41769853234291077 -0.0007000978803262115 -0.3123035430908203
-0.5400784015655518 0.09020408242940903 0.16322489082813263
0.25545376539230347 0.4000566303730011 0.2071896642446518
0.5853480696678162 0.34614449739456177 -0.010104362852871418
0.4224979877471924 0.40504685044288635 -0.28111523389816284
0.05766506493091583 0.1660592257976532 0.34843096137046814
-0.5810123682022095 0.20114058256149292 0.05228356271982193
0.26684609055519104 0.4744679927825928 0.43875589966773987
0.22944849729537964 -0.6236989498138428 -0.15543030202388763
0.4343947768211365 -0.12461203336715698 -0.07534824311733246
0.03676925599575043 0.3604997992515564 -0.4026619791984558
0.5768508911132812 0.09279068559408188 -0.29557865858078003
0.293708473443985 -0.6231620907783508 0.0674445778131485
-0.11685778945684433 0.19773979485034943 0.370335191488266
-0.07591065764427185 0.4007108211517334 -0.29284799098968506
-0.5757617950439453 0.17072013020515442 -0.3663786053657532
0.10135701298713684 -0.324246883392334 0.31105419993400574
0.29754289984703064 0.001285509206354618 -0.12988519668579102
0.11065055429935455 0.0008329926058650017 -0.10484316200017929
0.4274309277534485 0.4051479399204254 -0.10730956494808197
-0.012233436107635498 0.16005191206932068 0.34966400265693665
0.2935447096824646 -0.14107336103916168 -0.3065592050552368
-0.012011880055069923 0.007572829723358154 -0.38933318853378296
-0.31384339928627014 -0.0006730295717716217 -0.24496176838874817
-0.3668115437030792 0.025991983711719513 -0.1482914537191391
0.3812163174152374 0.0019785258919000626 -0.18699763715267181
-0.115439273416996 0.15103407204151154 -0.3960537612438202
0.418511301279068 0.1938711404800415 0.3438042402267456
-0.5778489708900452 0.3562135398387909 0.2803477942943573
0.23351994156837463 -0.6344462037086487 -0.22662852704524994
0.20090222358703613 0.038687482476234436 0.46407952904701233
0.02167586423456669 -0.002002597087994218 0.3258848488330841
-0.2338058352470398 -0.257917582988739 -0.07928238809108734
-0.23087477684020996 0.40111568570137024 -0.1661108136177063
0.39930352568626404 0.4021890461444855 0.15372322499752045
-0.13986119627952576 -0.652814507484436 -0.11649160832166672
-0.1861964762210846 0.17169485986232758 0.34330955147743225
-0.206335186958313 -0.048130784183740616 0.09062943607568741
-0.4061791002750397 0.09214296191930771 -0.05069747194647789
0.0585939958691597 0.40379586815834045 -0.29995760321617126
0.36766481399536133 0.39932507276535034 0.2399381697177887
0.36514726281166077 -0.3325505256652832 -0.2605988085269928
-0.5625117421150208 0.08411157876253128 -0.35452383756637573
0.10621413588523865 -0.6241276264190674 -0.2799440920352936
-0.4719041585922241 -0.09805858135223389 0.17874184250831604
-0.054089199751615524 0.39595863223075867 -0.3920876383781433
-0.02253888174891472 -0.6200379133224487 0.013376923277974129
-0.5706508159637451 0.13606633245944977 0.28657266497612
0.36632975935935974 -0.0029304493218660355 0.16546578705310822
-0.08651025593280792 0.010226713493466377 -0.39778071641921997
0.041974738240242004 0.0003965366631746292 0.14704330265522003
-0.35049933195114136 0.008767099119722843 -0.39259833097457886
0.0781293660402298 0.4036131799221039 -0.14375701546669006
0.2707740068435669 0.037872470915317535 0.34279125928878784
0.22139951586723328 -0.629479169845581 -0.2665455639362335
-0.5738948583602905 0.05346842482686043 0.15593279898166656
0.2236156314611435 -0.6178338527679443 0.0473271980881691
0.5001943707466125 0.21224293112754822 -0.4048995077610016
0.04251964017748833 0.33718401193618774 0.3431035280227661
-0.062329404056072235 -0.03555076941847801 0.25884708762168884
-0.5804688334465027 0.05661794915795326 0.3405504524707794
0.5041613578796387 0.40131819248199463 -0.36897432804107666
0.10025617480278015 0.39862313866615295 0.2375584840774536
-0.005603606812655926 0.0006677154451608658 -0.23616786301136017
-0.4302445948123932 0.10920452326536179 -0.04289255663752556
0.2814136743545532 -0.3846219480037689 0.22437337040901184
0.2918126583099365 0.2114860713481903 -0.4036145508289337
0.04612176865339279 -0.2372129112482071 -0.3676094114780426
0.3330861032009125 0.007214101031422615 0.33758479356765747
0.5895507335662842 0.39245834946632385 -0.28410273790359497
0.36677682399749756 0.0005396376363933086 -0.14331847429275513
0.3849424123764038 0.4019269645214081 0.16631795465946198
-0.12235383689403534 0.0001827804371714592 -0.19955499470233917
0.1744605451822281 -0.09386809170246124 0.38002172112464905
0.04095239192247391 2.3435335606336594e-05 0.1114228144288063
0.15632718801498413 0.4171012341976166 0.45028212666511536
-0.417245090007782 0.40303122997283936 0.3143569529056549
0.08588476479053497 -0.0037393257953226566 0.32677924633026123
-0.06374470144510269 0.0007167356088757515 -0.14440444111824036
-0.5801670551300049 0.010458787903189659 0.2677917182445526
-0.38703665137290955 0.4012785255908966 -0.3147370219230652
-0.12834100425243378 0.08834429085254669 0.34394365549087524
-0.5751631259918213 0.14704853296279907 -0.13558340072631836
0.5629822611808777 0.2134246677160263 -0.39155155420303345
0.024555126205086708 -0.6215963959693909 -0.07422289997339249
0.3006402552127838 -0.389626681804657 0.23756718635559082
-0.5817070007324219 0.28206750750541687 0.09072353690862656
-0.5737804174423218 0.07468810677528381 -0.18442876636981964
-0.5771175622940063 0.2522144317626953 -0.2216884046792984
0.11578255146741867 -0.09554921835660934 0.3284780979156494
0.022285722196102142 -0.5313324928283691 0.24793541431427002
-0.40033280849456787 0.40162092447280884 0.057369817048311234
-0.09070980548858643 0.00043503288179636 -0.31820064783096313
-0.5484277009963989 -0.0767013356089592 0.037224434316158295
-0.5904221534729004 0.008601482026278973 0.2587795555591583
-0.4263627231121063 0.136190265417099 -0.3992975652217865
0.031785283237695694 0.4001186192035675 0.17605076730251312
-0.19573096930980682 -0.07113803923130035 0.14828667044639587
0.41190800070762634 -0.28540968894958496 -0.16232913732528687
0.4046802222728729 0.3948591351509094 0.3204508423805237
-0.1769646406173706 -0.39418110251426697 -0.14841228723526
0.27131348848342896 0.001191921066492796 0.3323404788970947
0.5880036950111389 0.14546392858028412 0.21021190285682678
-0.5340059399604797 0.3923284113407135 -0.2920374870300293
0.14992010593414307 -0.3060384690761566 0.3100552558898926
-0.5371153354644775 0.07333613187074661 -0.39714738726615906
0.5662626028060913 0.1898495852947235 -0.371025413274765
0.08624465763568878 -0.6294052600860596 -0.2235710769891739
-0.09158619493246078 -0.0006640125066041946 0.062355995178222656
-0.06177600473165512 0.04911569133400917 -0.39799487590789795
-0.5822909474372864 -0.018509406596422195 -0.3564160168170929
-0.05022911727428436 -0.6341339349746704 0.16554750502109528
-0.024969937279820442 -0.621744692325592 -0.11245428025722504
0.39764726161956787 0.40072348713874817 0.0842558741569519
-0.23168952763080597 -0.18843716382980347 0.07359009981155396
0.253140389919281 -0.6527490615844727 -0.2351899892091751
-0.04742693156003952 -0.6370434761047363 -0.2372124344110489
-0.13635852932929993 -0.07894397526979446 0.20478878915309906
-0.22929368913173676 -0.34942784905433655 -0.12750595808029175
0.2001451700925827 -0.088592030107975 0.39871326088905334
-0.24159832298755646 0.0001463182270526886 -0.10592830181121826
-0.009625785052776337 0.3973158299922943 -0.3766013979911804
0.00376149988733232 -0.6302937269210815 0.17341703176498413
-0.4047224819660187 0.250122606754303 -0.40234971046447754
-0.367345929145813 0.0013133813627064228 0.19505591690540314
0.045670270919799805 0.2298515886068344 0.4538603723049164
-0.03584595397114754 -0.6230852007865906 0.0022387453354895115
-0.24004410207271576 0.07033390551805496 0.34133654832839966
-0.05872174724936485 -0.621205747127533 -0.009222814813256264
0.5716115236282349 0.20880229771137238 -0.3135181963443756
-0.05763775482773781 -0.378335177898407 0.24836373329162598
0.3093920350074768 -0.6510270833969116 -0.20364120602607727
-0.4173450171947479 0.10150628536939621 0.08502595871686935
0.4357199966907501 -0.19300593435764313 0.07075832784175873
-0.009787803515791893 0.0010739080607891083 0.10117046535015106
-0.5709272027015686 0.032523684203624725 0.2348998486995697
-0.22282774746418 -0.03541051596403122 0.07614180445671082
0.5650444626808167 0.3743320405483246 -0.31193700432777405
0.404837042093277 0.0008598668500781059 -0.06343135982751846
0.3187682032585144 -0.007143616210669279 0.23431502282619476
-0.015678562223911285 -0.6280461549758911 -0.16188834607601166
0.04961876943707466 -0.628122091293335 0.028518114238977432
0.2781151235103607 0.0005163601599633694 0.15563081204891205
-0.37260738015174866 -0.021012311801314354 0.006734969560056925
-0.4247281849384308 -0.10980480909347534 0.10511109977960587
0.008038021624088287 -0.6234057545661926 -0.003750405739992857
0.0758412778377533 0.0004235683009028435 -0.17913506925106049
-0.3999686539173126 -0.07018706202507019 -0.2380877137184143
-0.12217924743890762 -0.4879613220691681 0.1591426283121109
0.17845921218395233 0.47477975487709045 0.42112863063812256
-0.5582898259162903 -0.00031142449006438255 -0.33972522616386414
-0.5838805437088013 0.015540498308837414 -0.07628396898508072
0.4394717812538147 0.3397867679595947 0.3453492224216461
0.3272375166416168 0.0952017605304718 0.41337236762046814
-0.07426469773054123 0.00012878980487585068 0.3167690932750702
-0.5888983607292175 0.3249891996383667 -0.24480991065502167
-0.04287979006767273 0.007647304330021143 0.3346520960330963
0.27253293991088867 -0.6211525201797485 -0.026715053245425224
-0.21605414152145386 0.3962276577949524 -0.06617304682731628
0.25687602162361145 -0.38273924589157104 0.22836312651634216
0.5851768851280212 0.011507753282785416 -0.10222633928060532
0.34638264775276184 -0.4429974853992462 0.13212896883487701
-0.23300206661224365 -0.22989213466644287 0.014397542923688889
0.1212369054555893 -0.08975061029195786 0.36712348461151123
-0.5690748691558838 0.2559067904949188 -0.36336809396743774
0.3197394013404846 0.004342883359640837 0.3350687325000763
-0.18824943900108337 0.39730992913246155 0.32635483145713806
-0.38578006625175476 0.05377523973584175 -0.29701220989227295
-0.09592243283987045 0.10210969299077988 -0.40269923210144043
0.010135438293218613 -0.002431955188512802 -0.13991786539554596
0.004402052611112595 0.40289679169654846 0.10970541834831238
-0.39609745144844055 0.2893024981021881 -0.3997325599193573
-0.5556716322898865 0.15073688328266144 -0.39641517400741577
0.41749048233032227 -0.0015171589329838753 0.1280912607908249
-0.40246284008026123 -0.08064062148332596 -0.3309253454208374
0.24520353972911835 0.4011702239513397 -0.3839312493801117
-0.5693274736404419 -0.007755175232887268 -0.06393603980541229
0.03692375496029854 0.3290710747241974 0.34668198227882385
-0.5522052049636841 0.0689932107925415 -0.13348521292209625
-0.06680682301521301 -0.3913901746273041 0.22439254820346832
-0.5720738172531128 0.0038606743328273296 -0.3315851092338562
-0.30329346656799316 0.3707493841648102 -0.17327940464019775
0.5481520891189575 0.3966926336288452 0.3306281268596649
-0.11646588891744614 0.2592509090900421 -0.40232226252555847
0.2018110752105713 0.0011596931144595146 -0.05179225280880928
-0.4239170253276825 0.4003404676914215 -0.379424512386322
0.032428495585918427 -0.628935694694519 -0.05940185487270355
-0.5841627717018127 0.3082170784473419 -0.19903990626335144
-0.42502835392951965 0.08766252547502518 0.2587257921695709
-0.06947654485702515 -0.5986688137054443 0.1985102742910385
-0.5809292197227478 0.058852944523096085 -0.26281049847602844
-0.3540091812610626 0.0005535157397389412 -0.1781364381313324
0.11003415286540985 -0.6181963682174683 -0.24590471386909485
-0.09201587736606598 0.1832284778356552 0.3464975655078888
-0.053077876567840576 -0.6022295355796814 -0.276421457529068
-0.534662663936615 -0.08651434630155563 0.1749061942100525
0.35871514678001404 -0.0016305511817336082 0.22647489607334137
0.031704701483249664 0.11919426918029785 0.4547673165798187
0.04102311283349991 -0.0048845503479242325 0.4512629806995392
-0.06589716672897339 0.4010966718196869 -0.24471044540405273
0.3574684262275696 -0.3224029242992401 0.2107013761997223
-0.5747617483139038 0.3668118119239807 -0.38200080394744873
-0.37606868147850037 -0.0049146004021167755 0.22428958117961884
0.15406204760074615 0.00018429383635520935 -0.26176896691322327
-0.09579088538885117 0.032367683947086334 0.33934566378593445
0.34141454100608826 0.40217533707618713 -0.3656124472618103
-0.15349921584129333 0.4019651412963867 -0.2698913514614105
-0.22313140332698822 0.0007583745755255222 0.19460426270961761
-0.09786219894886017 -0.6274517178535461 -0.1769375056028366
-0.1582789123058319 0.007973524741828442 0.33492615818977356
