-0.2384692132472992 -0.05048142373561859 0.013142853043973446
-0.041821084916591644 -0.6368316411972046 0.21552103757858276
-0.5460997819900513 0.3910345435142517 -0.12267745286226273
-0.24992118775844574 0.33520036935806274 -0.3979998826980591
0.24677838385105133 -0.36192625761032104 0.27909067273139954
-0.09849048405885696 0.40014228224754333 -0.1509845107793808
0.14811059832572937 -0.0825437679886818 0.39108359813690186
0.381020724773407 0.0033024377189576626 -0.022459767758846283
0.1780722588300705 0.0031371284276247025 -0.005074011627584696
-0.44290074706077576 -0.10474999994039536 0.11168637871742249
0.1193399503827095 0.00013508705887943506 0.2888256311416626
-0.3967898190021515 -0.06522427499294281 -0.38335010409355164
0.38924163579940796 -0.5699652433395386 -0.018690206110477448
0.2718290686607361 0.003743695328012109 0.01225682720541954
0.25821077823638916 -0.6233442425727844 -0.12073785066604614
-0.14282603561878204 -0.6414022445678711 -0.07392061501741409
0.2506435215473175 -0.18991059064865112 0.28219085931777954
0.5376219153404236 0.0025127336848527193 -0.0112485745921731
-0.3759683668613434 0.3575083315372467 -0.1963377445936203
-0.4466058015823364 0.16094669699668884 0.3429955244064331
0.06331833451986313 -0.6228938698768616 -0.017210790887475014
-0.17140154540538788 -0.2662849724292755 0.17951089143753052
-0.000807727687060833 -0.3835660219192505 -0.3116878867149353
0.028053954243659973 0.000621529296040535 -0.2403590977191925
0.3965872824192047 -0.20960450172424316 -0.2056012898683548
-0.23185290396213531 -0.3705483376979828 0.0030815517529845238
-0.04485775902867317 6.898865103721619e-05 -0.08453737944364548
-0.5729034543037415 0.30828410387039185 0.3290266692638397
-0.3590047061443329 -0.0066200559958815575 0.28480884432792664
0.2677263021469116 -0.10728668421506882 -0.32530680298805237
0.28978946805000305 -0.3863886892795563 0.20449039340019226
0.1426280289888382 -0.09231991320848465 0.3962954580783844
-0.31796008348464966 0.4026023745536804 0.2977016568183899
-0.485678493976593 0.1152401939034462 0.2548229694366455
-0.18013396859169006 -0.4901888966560364 -0.0639348179101944
0.03826175257563591 0.4012201428413391 0.06408987939357758
0.17774389684200287 0.40200626850128174 -0.009276590310037136
-0.42713844776153564 0.4033423364162445 0.18358781933784485
-0.4828008711338043 0.32595720887184143 -0.40188470482826233
0.57634437084198 0.38828107714653015 0.28145772218704224
0.3821585178375244 -0.5083465576171875 -0.09176576137542725
0.2297026813030243 0.0025271037593483925 0.4660724997520447
-0.4198300242424011 -0.09706185758113861 0.01574140600860119
-0.5368306040763855 0.07747580111026764 -0.009351625107228756
-0.030060967430472374 -0.48133575916290283 -0.2787695825099945
0.043721798807382584 0.40354809165000916 -0.11451119184494019
0.0903361588716507 -0.36539366841316223 0.30910801887512207
-0.47330236434936523 0.38597315549850464 -0.005639821756631136
0.17037716507911682 0.0012879450805485249 0.1969544142484665
-0.31757423281669617 0.3638000190258026 0.009273514151573181
0.411643922328949 -0.24938924610614777 0.1293363720178604
-0.4532405436038971 -0.0010864948853850365 0.08270467817783356
-0.5716469287872314 0.0009097673464566469 0.2931036055088043
-0.3240315020084381 0.40282130241394043 0.06086138263344765
-0.022159764543175697 0.3917030096054077 0.3380691707134247
0.10926783084869385 0.40026479959487915 0.08470418304204941
0.12480273097753525 0.003308603074401617 -0.044173676520586014
-0.24704059958457947 0.004366723354905844 0.3362075686454773
-0.031381525099277496 0.16488543152809143 0.39534372091293335
-0.4723043441772461 0.02619338408112526 0.3600919842720032
0.4096064269542694 -0.08459006249904633 0.11981036514043808
-0.405234694480896 -0.003863191232085228 0.19617345929145813
0.40786728262901306 -0.3644315302371979 0.12380824238061905
-0.5835623145103455 0.31133002042770386 0.13163644075393677
-0.228873610496521 -0.24447977542877197 -0.11800401657819748
0.290566086769104 0.39967429637908936 -0.10205543041229248
0.4089619815349579 -0.37107646465301514 -0.16417214274406433
-0.18230794370174408 -0.000840039923787117 0.08398981392383575
0.12617747485637665 -0.4302978515625 -0.3184301555156708
-0.026683222502470016 -0.00011747889220714569 0.24254848062992096
0.1868734508752823 0.0025635387282818556 -0.20481915771961212
-0.29781484603881836 0.3772662580013275 -0.39832285046577454
0.029600840061903 0.3051404356956482 0.4463154375553131
0.30686140060424805 0.0042281728237867355 -0.18782201409339905
0.3605901300907135 -0.22750240564346313 -0.2517111003398895
-0.12256830185651779 -0.6250059604644775 -0.06610727310180664
0.0502953827381134 -0.00025519076734781265 0.059889134019613266
-0.37825915217399597 -0.06736116856336594 -0.008543522097170353
-0.11101831495761871 0.0017255935817956924 -0.1878698170185089
-0.23107042908668518 0.40361127257347107 0.07451115548610687
0.22322118282318115 0.4741843342781067 0.4000679552555084
-0.052629467099905014 0.40271496772766113 -0.15071053802967072
-0.5758910775184631 0.2114933729171753 -0.27784305810928345
0.057217054069042206 0.3767912685871124 0.3482721447944641
0.1308869570493698 -0.13233594596385956 -0.3697463572025299
-0.5738022327423096 0.048933904618024826 -0.33796238899230957
-0.12592661380767822 0.401454359292984 0.06233743578195572
0.5722127556800842 0.048553239554166794 0.32418641448020935
0.29070502519607544 0.46828094124794006 0.3813970685005188
0.33414188027381897 0.2899917960166931 0.4421806335449219
0.5698292255401611 0.010356777347624302 -0.10714129358530045
-0.5226513743400574 -0.09162423014640808 0.10530209541320801
-0.5669334530830383 -0.03214607015252113 0.1542978733778
-0.07413216680288315 0.0004645995795726776 -0.12760518491268158
0.13792628049850464 0.0014338726177811623 0.03678039833903313
-0.4357958137989044 0.12248659878969193 0.3425532877445221
0.20737744867801666 -0.6562010049819946 0.21400874853134155
-0.1152874082326889 -0.21333888173103333 0.23739904165267944
-0.36703944206237793 0.03433723747730255 0.20353323221206665
-0.12340729683637619 0.4008117914199829 -0.08495927602052689
-0.011629374697804451 0.0010089459829032421 0.24805356562137604
0.2683340311050415 -0.3750637471675873 -0.3062913715839386
-0.03982514888048172 0.0020160151179879904 0.13647831976413727
0.2487669289112091 -0.025233624503016472 0.30759596824645996
0.213187113404274 -0.10325823724269867 -0.3550604581832886
-0.5798347592353821 0.019798437133431435 0.23075123131275177
0.3412645757198334 0.01591108739376068 -0.3987993896007538
-0.5539628267288208 -0.063861183822155 0.19298188388347626
0.4089439809322357 0.4017397463321686 -0.3185926377773285
-0.11955560743808746 0.00434401910752058 -0.3823712170124054
0.16540434956550598 0.40272435545921326 -0.3084462583065033
0.052621856331825256 -0.39921507239341736 0.2601402997970581
-0.577844500541687 0.21420064568519592 0.20507587492465973
-0.10707186162471771 0.4005827009677887 -0.08077246695756912
0.027208006009459496 -0.007594417780637741 0.3407476544380188
0.5788376331329346 0.018634164705872536 0.20917180180549622
-0.21218174695968628 0.4042646288871765 -0.12835286557674408
-0.39996036887168884 0.0008018435910344124 -0.3234664797782898
-0.4504116177558899 -0.1061137467622757 -0.2244308888912201
-0.1495194286108017 0.40087610483169556 0.04665261507034302
-0.18231628835201263 -0.21668089926242828 0.16126930713653564
0.3500214219093323 0.004723796620965004 -0.007490213494747877
0.07998282462358475 -0.038135968148708344 0.46197348833084106
-0.5223918557167053 0.25079968571662903 -0.4024180769920349
-0.0017650695517659187 0.00026210304349660873 -0.0685444250702858
-0.5729816555976868 0.3107498288154602 -0.38260993361473083
-0.08229867368936539 -0.15281905233860016 -0.32125163078308105
-0.5115126967430115 -0.10216952860355377 -0.11831748485565186
0.07971455156803131 0.001298204530030489 0.24302750825881958
-0.2149878293275833 0.0005755126476287842 0.06014653667807579
0.09749408066272736 0.40409907698631287 -0.20745952427387238
0.028562268242239952 -0.009593025781214237 0.3221253752708435
-0.16026678681373596 0.0027984397020190954 0.3095166087150574
0.08501524478197098 -0.6267173886299133 -0.14979249238967896
0.2919144034385681 -0.06294159591197968 0.2590607702732086
0.041192591190338135 -0.08183281868696213 0.32794544100761414
0.5091547966003418 0.32212385535240173 -0.39839833974838257
0.1434028446674347 0.003000602126121521 -0.08319205045700073
0.21422332525253296 0.2873467803001404 0.46620020270347595
-0.1793040782213211 -0.5277622938156128 -0.07365760207176208
0.23668628931045532 0.4011183977127075 0.2292575240135193
-0.028270883485674858 -0.5143366456031799 0.22935158014297485
0.10575442016124725 0.4028114974498749 -0.07224056869745255
0.3004300892353058 0.37716567516326904 0.46347764134407043
-0.35671305656433105 -0.005001801531761885 0.25545382499694824
-0.028239984065294266 0.400568425655365 -0.05026254430413246
0.15383481979370117 0.03140782192349434 0.46153202652931213
-0.32237762212753296 0.4085630476474762 -0.025006430223584175
-0.3923531770706177 0.004161049611866474 -0.3120315372943878
-0.10543294996023178 -0.6197649240493774 -0.020925933495163918
0.03800613433122635 0.15631312131881714 0.3464578688144684
0.2762713134288788 -0.21621958911418915 -0.32288098335266113
0.24401848018169403 -0.6289789080619812 0.16467605531215668
-0.157137930393219 -0.37930557131767273 0.14531688392162323
-0.06300101429224014 0.07871390134096146 0.34283962845802307
-0.5394763350486755 0.08330382406711578 0.34230372309684753
-0.11416751146316528 0.0027482081204652786 -0.031714681535959244
-0.46863052248954773 0.3830004632472992 0.03337244689464569
0.3873434066772461 -0.28255802392959595 -0.22487813234329224
-0.1522238403558731 -0.6501395106315613 0.05784290283918381
-0.514986515045166 -0.09377991408109665 -0.07264405488967896
0.4451022446155548 -0.15958359837532043 -0.028612373396754265
-0.07636331766843796 -0.6261187195777893 0.10992325097322464
-0.25182604789733887 0.39518192410469055 -0.3973747491836548
-0.5783132910728455 0.16924796998500824 -0.3321841061115265
-0.07690674066543579 0.00233829440549016 -0.013716984540224075
-0.21235968172550201 -0.06516363471746445 -0.16875137388706207
-0.44961604475975037 0.054934240877628326 -0.400013267993927
0.582683265209198 0.2486335188150406 -0.06031059846282005
0.3869902491569519 -0.35961318016052246 -0.2098870873451233
-0.40287742018699646 0.0366242378950119 -0.4003744423389435
-0.24773338437080383 0.002196628600358963 0.22234371304512024
0.31640052795410156 -0.6365007758140564 -0.21777477860450745
-0.40255072712898254 0.3546300530433655 0.04861796647310257
-0.5663813948631287 0.005357303656637669 -0.012227961793541908
0.12423625588417053 0.3112819194793701 0.4669623374938965
-0.12319490313529968 0.0011814634781330824 -0.15653078258037567
0.30213218927383423 -0.543234646320343 -0.23535548150539398
0.006936912890523672 -0.0015480206348001957 0.28405115008354187
0.04879608750343323 -0.6248515844345093 -0.07219243049621582
-0.387366384267807 -0.06629282236099243 0.14047972857952118
0.5390143990516663 0.4030751585960388 -0.18838806450366974
-0.5043505430221558 0.00044422922655940056 -0.170281782746315
-0.2149541974067688 0.0873505175113678 0.34348294138908386
-0.16065220534801483 0.39482879638671875 -0.3926706910133362
0.2678321599960327 -0.26086974143981934 -0.32950344681739807
0.13323883712291718 -0.6425075531005859 -0.3130664527416229
-0.5249623656272888 -0.09072545915842056 -0.25434958934783936
0.08698306977748871 0.40099528431892395 0.06312376260757446
-0.43419149518013 0.3672925531864166 0.03132353723049164
-0.031132303178310394 0.0008074073120951653 -0.2127474695444107
0.4206050932407379 0.40244364738464355 0.17581705749034882
0.25421857833862305 0.00927380658686161 -0.389347642660141
0.055207256227731705 -0.163521409034729 0.3138359487056732
0.5708603262901306 0.006575586274266243 -0.2956044673919678
0.5819465517997742 0.034781888127326965 0.03291548043489456
0.26820412278175354 0.4038945138454437 0.3577088415622711
0.1636708825826645 0.0010609058663249016 0.04115831106901169
-0.08346863090991974 0.2990809977054596 0.34347236156463623
0.2523363530635834 -0.2975032925605774 0.28193095326423645
-0.57722008228302 0.2912046015262604 -0.2653544545173645
-0.20079387724399567 -0.13216303288936615 0.1389119178056717
-0.0389690175652504 0.002035771496593952 -0.22815164923667908
0.4393443763256073 -0.02671089768409729 0.04992176592350006
0.02691197395324707 0.24027281999588013 0.3730928599834442
0.1546611487865448 0.4643076956272125 0.4441797733306885
0.33026158809661865 -0.6492154002189636 -0.16163989901542664
0.11808691173791885 -0.057638537138700485 0.324220210313797
0.37845420837402344 -0.17300109565258026 0.1762682944536209
0.04139417037367821 -0.620747983455658 0.10214915126562119
-0.5725540518760681 0.06658998876810074 -0.2454005777835846
-0.5755002498626709 0.031814586371183395 0.24913731217384338
-0.5669966340065002 -0.035022370517253876 -0.08755846321582794
-0.17633086442947388 -0.5001094341278076 -0.09224268049001694
-0.06510691344738007 -0.4813896715641022 0.20643292367458344
0.06623531877994537 0.0021587538067251444 -0.2555209696292877
-0.41641151905059814 0.40356290340423584 0.21778525412082672
-0.04999024420976639 3.409292548894882e-05 -0.07853835821151733
-0.5727828741073608 -0.0008699893951416016 0.11364956945180893
-0.435769647359848 0.4043167531490326 0.2530694305896759
0.33101168274879456 0.04907120391726494 0.44288477301597595
-0.13668891787528992 0.40057098865509033 -0.14503636956214905
0.18834154307842255 0.13026654720306396 0.4665188193321228
0.18163198232650757 -0.0020439764484763145 -0.3669900894165039
-0.4172203540802002 0.00548145268112421 -0.22943644225597382
-0.5572123527526855 0.3433290123939514 -0.4012622535228729
0.06857781112194061 -0.6256558895111084 -0.24879135191440582
0.5818076729774475 0.14209075272083282 -0.15834373235702515
0.1639137864112854 0.20032905042171478 0.34417715668678284
0.344892680644989 0.001140465959906578 0.06816939264535904
0.18146950006484985 0.40349695086479187 0.3245706558227539
-0.4813310503959656 0.11624587327241898 -0.20472452044487
0.14957323670387268 -0.05060699209570885 0.4625822603702545
0.09950508177280426 0.0028670914471149445 0.056224871426820755
-0.1429215967655182 0.0011018551886081696 -0.014081111177802086
-0.23727282881736755 -0.3304953873157501 -0.06577439606189728
-0.17019806802272797 -0.27022525668144226 -0.23519586026668549
0.20514845848083496 0.1281374990940094 -0.3992496132850647
-0.3801147937774658 0.004235945176333189 -0.219697505235672
0.13846634328365326 -0.23491016030311584 -0.3701985478401184
-0.5737276077270508 0.041956450790166855 -0.01543339528143406
-0.3434079885482788 0.4012337028980255 0.300279438495636
0.1377457082271576 -0.08536256104707718 0.4079904854297638
0.5826922059059143 0.16404326260089874 0.04822974652051926
-0.3628682792186737 0.009367544203996658 -0.01590033620595932
-0.26915550231933594 0.3413199186325073 0.3466116189956665
0.17272190749645233 -0.6259109377861023 -0.062343940138816833
0.4809360206127167 0.002819756045937538 0.30696454644203186
-0.08045218884944916 -0.05102025717496872 -0.31937679648399353
0.3786891996860504 0.1144978255033493 -0.40061497688293457
0.03314320743083954 0.0031342697329819202 -0.06208876892924309
-0.4605017304420471 0.01636548899114132 -0.39759379625320435
0.47090157866477966 0.4031134843826294 -0.16639749705791473
-0.5557823777198792 -0.002434192458167672 0.12555991113185883
0.10422966629266739 0.4001677334308624 0.3376619517803192
-0.1488455981016159 -0.6367230415344238 -0.013016542419791222
0.023191651329398155 -0.016998033970594406 0.4474228620529175
-0.4660188853740692 0.0003773905336856842 -0.26878395676612854
-0.39923980832099915 0.42146092653274536 -0.11969100683927536
-0.24078616499900818 0.4041164219379425 -0.21954020857810974
-0.4659454822540283 0.40946629643440247 -0.03511185571551323
0.5817431211471558 0.25761279463768005 0.14301440119743347
0.34670913219451904 0.3423899710178375 -0.3983357548713684
-0.006302405148744583 -0.6265851259231567 -0.23416729271411896
-0.5779027938842773 0.17902255058288574 0.27504968643188477
0.0274855624884367 -0.6252793669700623 0.17702922224998474
-0.42286401987075806 0.4160609543323517 -0.11219684034585953
0.28235164284706116 0.401876300573349 -0.009075156413018703
0.16973938047885895 0.09610801190137863 0.3443724811077118
-0.10512370616197586 0.001647823373787105 0.03384656831622124
-0.09643946588039398 0.39958977699279785 0.16799846291542053
0.5825978517532349 0.28910109400749207 0.24962268769741058
-0.22692559659481049 0.40295758843421936 0.031244762241840363
0.30697908997535706 -0.19661755859851837 -0.3043822646141052
0.15345290303230286 -0.573013961315155 0.25043606758117676
0.5805524587631226 0.37211623787879944 -0.05306496098637581
0.577377438545227 0.3759661316871643 0.17193378508090973
0.0321897454559803 -0.6252990365028381 -0.14979612827301025
-0.16622158885002136 -0.644060492515564 -0.10334053635597229
0.49768301844596863 0.14042100310325623 -0.4001162648200989
-0.5800905227661133 0.1677750200033188 -0.28933507204055786
0.17453652620315552 0.0006861807778477669 -0.23891635239124298
0.5794196724891663 0.051946260035037994 -0.05702294036746025
-0.4500841796398163 0.11021040380001068 -0.152129128575325
0.1375461220741272 0.18482378125190735 0.34414324164390564
-0.07753124088048935 -0.2191280573606491 -0.3207731544971466
0.4380108416080475 0.3082434833049774 -0.39864978194236755
0.33727744221687317 0.3883284330368042 -0.3970297873020172
0.36381885409355164 -0.23086783289909363 -0.24653244018554688
0.23679962754249573 0.36376577615737915 0.4689732789993286
-0.35957273840904236 0.265653133392334 0.3449293375015259
0.37862393260002136 0.397174596786499 0.3063789904117584
0.581895649433136 0.053099822252988815 0.07475590705871582
-0.2151801735162735 -0.3405446410179138 0.10245214402675629
0.08939062803983688 0.4039830267429352 -0.14770007133483887
0.3098144829273224 0.004315308295190334 -0.04798018932342529
0.38940325379371643 -0.47734665870666504 0.030874591320753098
-0.3708578646183014 0.017013289034366608 -0.3966495096683502
0.4436333477497101 -0.1345679759979248 -0.08444321900606155
0.10848291218280792 0.4028777778148651 -0.2938545048236847
0.33054614067077637 0.19347868859767914 0.3483135402202606
-0.11701781302690506 -0.0031257534865289927 0.2273351550102234
0.16531109809875488 0.2774066627025604 -0.39990079402923584
0.5810139179229736 0.015392350032925606 -0.26806265115737915
0.07960470765829086 -0.6511014699935913 -0.3090624511241913
-0.39790257811546326 -0.09016216546297073 -0.08204995840787888
0.060476597398519516 0.004342733882367611 -0.3024647533893585
0.5757691860198975 0.3201339542865753 0.23537662625312805
0.3982488214969635 0.395962655544281 0.3406957685947418
0.15374208986759186 0.0022703767754137516 -0.22814707458019257
0.2727193832397461 0.40061527490615845 -0.18219901621341705
-0.07441328465938568 -0.4392017722129822 -0.2531091868877411
-0.04669986292719841 -0.6246817111968994 -0.03578099608421326
0.2712317705154419 0.07875775545835495 0.4661370515823364
0.42227262258529663 0.40174052119255066 -0.2735461890697479
0.5411348938941956 0.10138066112995148 -0.40245723724365234
-0.0603848397731781 -0.02527029812335968 -0.3335188925266266
-0.20546133816242218 -0.2299715131521225 0.12381459772586823
-0.5771995186805725 0.2682148218154907 -0.14338746666908264
0.45356133580207825 -0.024438656866550446 -0.05110097676515579
-0.5052999258041382 0.1076439842581749 0.17648933827877045
0.3488592207431793 -0.6561599969863892 -0.17349615693092346
0.13480457663536072 0.05417298153042793 0.4674004316329956
-0.007584333885461092 0.4037283658981323 -0.08255509287118912
0.5735265612602234 0.009247742593288422 -0.1419048011302948
0.04134323075413704 -0.624876856803894 -0.1977185308933258
0.3318934738636017 -0.513530969619751 0.14479435980319977
-0.36824145913124084 -0.028668120503425598 0.23632320761680603
-0.5701122283935547 0.07393582910299301 -0.23692713677883148
-0.3640199899673462 0.4027464985847473 -0.286590576171875
-0.12303896993398666 -0.1594880074262619 -0.2890266478061676
0.12172330915927887 0.4028318524360657 -0.1230800449848175
-0.36673641204833984 -0.024986853823065758 0.15040139853954315
-0.37071970105171204 0.048407915979623795 0.23476159572601318
0.2714010179042816 -0.07750652730464935 0.27424150705337524
0.2179146707057953 0.001460794359445572 -0.3483634293079376
0.014799682423472404 0.002361777238547802 0.024943998083472252
0.19991005957126617 -0.6274306178092957 0.015945659950375557
-0.39949530363082886 0.4071798622608185 -0.1545613557100296
-0.08304821699857712 -0.6262626051902771 -0.028536634519696236
0.1728520542383194 -0.4247432053089142 -0.3106059432029724
-0.022704562172293663 0.4035888910293579 -0.05131423845887184
0.021487761288881302 0.3227352201938629 0.3498065769672394
-0.5695827007293701 0.04548511654138565 -0.3111202120780945
-0.5735052824020386 0.08760655671358109 0.2537643611431122
-0.030766237527132034 0.2865397334098816 0.34961774945259094
0.5771499872207642 0.23127426207065582 -0.013137362897396088
0.3950233459472656 0.0027836356312036514 -0.3083278238773346
-0.390342652797699 -0.0711434930562973 -0.11291588842868805
-0.44413602352142334 -0.09867148846387863 -0.31422197818756104
0.5516971945762634 0.36635908484458923 0.3462372124195099
0.05497436970472336 0.16817587614059448 0.4624346196651459
0.15938223898410797 0.0013339929282665253 -0.03660348057746887
0.583549976348877 0.2097417712211609 0.08861974626779556
0.20298367738723755 -0.0718461275100708 0.3096751272678375
0.22509025037288666 -0.027099208906292915 0.46663790941238403
-0.13186760246753693 -0.2962183654308319 0.22393536567687988
-0.13395768404006958 -0.004465577192604542 -0.2707463204860687
0.2730448842048645 0.004147287458181381 0.46616989374160767
0.38478708267211914 0.4020715653896332 -0.39651018381118774
-0.36445385217666626 0.009084139950573444 -0.061459846794605255
0.2599189579486847 0.39843350648880005 0.13695769011974335
0.3253622055053711 0.40230774879455566 -0.16145049035549164
0.2668592929840088 -0.6220421195030212 0.05779630318284035
0.3249405026435852 0.39196109771728516 0.4171801805496216
-0.5065769553184509 0.08343560993671417 0.34844696521759033
0.06611660867929459 0.002738769631832838 -0.1403629630804062
0.5824891328811646 0.22277607023715973 0.05565473064780235
-0.48723798990249634 0.11465012282133102 0.23278973996639252
-0.11260897666215897 0.3997580409049988 -0.057996224611997604
0.05471496656537056 0.4017126262187958 0.1344795525074005
-0.36396148800849915 0.41016748547554016 -0.001785186235792935
0.09094631671905518 0.46138718724250793 0.38294243812561035
0.0823584794998169 0.2468414455652237 0.4658149182796478
-0.019287601113319397 0.002590143121778965 0.06187659502029419
-0.5192805528640747 0.34674060344696045 -0.12278303503990173
-0.06018887460231781 0.008088864386081696 -0.3839769661426544
-0.2599789500236511 0.0033463072031736374 -0.2039337158203125
0.12392748147249222 0.0025520024355500937 0.08544311672449112
-0.07231362164020538 0.39962679147720337 0.28068870306015015
-0.09302765130996704 0.00034025777131319046 0.11953826248645782
0.24126587808132172 0.003182851243764162 -0.016551148146390915
-0.5758693218231201 0.34294942021369934 -0.048142608255147934
0.18876944482326508 -0.0036685490049421787 0.308519572019577
-0.1988176703453064 -0.38354164361953735 0.020565424114465714
0.5097559094429016 0.4001339375972748 -0.38438576459884644
-0.11536035686731339 0.341169148683548 -0.4002324640750885
-0.028573904186487198 0.39969754219055176 0.15429683029651642
0.015580995008349419 -0.6256844997406006 0.16143152117729187
-0.5714719891548157 0.053721074014902115 0.2961405813694
-0.30305102467536926 0.4046688377857208 -0.24257998168468475
-0.20367658138275146 -0.3789719343185425 -0.09300915896892548
-0.17406219244003296 -0.22596518695354462 0.17152522504329681
-0.5033752918243408 0.4024512469768524 -0.23702289164066315
0.34564632177352905 0.16275478899478912 -0.3977031409740448
0.15760475397109985 0.0012811403721570969 -0.2976478040218353
-0.40815624594688416 0.001043449155986309 0.12369272857904434
-0.578076958656311 0.30772292613983154 -0.036158110946416855
0.35816439986228943 -0.004306153394281864 0.2099130004644394
-0.575537919998169 0.07136725634336472 0.22449429333209991
-0.5771991610527039 0.335665762424469 0.29870837926864624
-0.07952993363142014 0.002143272664397955 0.31510627269744873
-0.04182373359799385 -0.6238957047462463 0.21494784951210022
-0.5770450830459595 0.030177965760231018 0.21026556193828583
0.007020499091595411 -0.24783432483673096 -0.35717299580574036
-0.0232681967318058 0.0019815629348158836 -0.21650506556034088
-0.5797354578971863 0.1902671456336975 -0.013893873430788517
0.3352774977684021 0.00343555910512805 -0.16301773488521576
-0.5371162295341492 0.09500601142644882 -0.2635487914085388
-0.11472165584564209 0.39908868074417114 0.16569660604000092
-0.38075748085975647 0.049649134278297424 -0.39722171425819397
-0.24405990540981293 -0.0008630161173641682 -0.03688652440905571
-0.15575502812862396 0.3392520546913147 -0.3978293836116791
0.22063815593719482 -0.5184781551361084 -0.2919411063194275
-0.37973877787590027 0.42026305198669434 -0.04696470871567726
-0.041917555034160614 -0.441469669342041 0.2217864841222763
0.08662183582782745 -0.2941446304321289 0.3131791353225708
-0.3779185712337494 0.06556711345911026 -0.15953195095062256
-0.18512777984142303 0.0514276921749115 -0.39807242155075073
0.5638740062713623 0.39225584268569946 0.2906772196292877
-0.5388479828834534 0.199269637465477 -0.39965176582336426
-0.1136765256524086 -0.48221567273139954 -0.21609129011631012
-0.5013397932052612 0.3552893400192261 -0.08273319900035858
-0.41444075107574463 0.1537395566701889 -0.40011686086654663
-0.047156479209661484 -0.6065487861633301 0.21489450335502625
-0.346263587474823 0.4011141359806061 0.32791754603385925
-0.5782709121704102 0.3430364429950714 0.14813458919525146
-0.06660989671945572 -0.31111201643943787 -0.32753458619117737
0.4536958634853363 0.001944232266396284 -0.149911567568779
0.45224112272262573 0.018565544858574867 -0.39971432089805603
0.27622032165527344 -0.0049995556473731995 0.3208501636981964
0.32582440972328186 -0.47537559270858765 -0.2144075334072113
-0.10288310050964355 0.19716395437717438 0.3917218744754791
0.09179205447435379 -0.5535405278205872 -0.31846991181373596
0.5826552510261536 0.20907342433929443 -0.016249123960733414
0.252740740776062 -0.6245700120925903 -0.054792098701000214
0.2025759220123291 -0.1078241840004921 -0.3582897484302521
-0.5064878463745117 0.11235513538122177 -0.30810147523880005
0.2908300459384918 0.4033898413181305 -0.1566239446401596
0.4327535927295685 0.13887111842632294 -0.4024290442466736
0.33465367555618286 0.00466912891715765 0.008947210386395454
0.04467570781707764 -0.6342947483062744 -0.26007118821144104
0.5722744464874268 0.133633553981781 -0.3957113027572632
0.3998580276966095 0.20307523012161255 0.3462662994861603
0.5791721343994141 0.155230313539505 -0.02319522760808468
-0.1857990175485611 0.11774110794067383 0.34314200282096863
0.10266980528831482 -0.01795230619609356 -0.36893171072006226
0.5802383422851562 0.09045637398958206 0.073087178170681
0.5085450410842896 0.21895767748355865 -0.3987811207771301
-0.5022234916687012 0.10648413002490997 -0.33757632970809937
0.16427081823349 0.3156094551086426 0.3454836905002594
0.4562281668186188 0.028581026941537857 -0.39948487281799316
-0.5035401582717896 0.0009427890181541443 0.05972252041101456
0.06346222758293152 -0.6317548155784607 0.2105133831501007
-0.38643962144851685 0.40276286005973816 -0.2281070202589035
-0.5748606324195862 0.3538424074649811 0.10632060468196869
0.29813963174819946 0.4060693681240082 0.45622047781944275
-0.36020344495773315 -0.0009213523007929325 0.011558853089809418
-0.5757488012313843 0.016087282449007034 -0.34623831510543823
0.3312472403049469 -0.6547505855560303 0.10576482862234116
0.32155337929725647 -0.06292469054460526 0.44319382309913635
-0.155141681432724 -0.546051025390625 0.09294421970844269
0.3081773519515991 0.12113168090581894 -0.400557279586792
0.26490288972854614 -0.6221262812614441 -0.018226061016321182
-0.16721752285957336 -0.6421844959259033 0.06193689629435539
-0.57308030128479 5.299079930409789e-05 0.27741289138793945
-0.5698268413543701 0.3467371165752411 -0.0025550362188369036
-0.47029581665992737 0.4023555517196655 0.1116272434592247
-0.5770295262336731 0.12054634839296341 0.30446961522102356
0.34922388195991516 0.39857158064842224 -0.38618195056915283
-0.03264021500945091 -0.6237538456916809 0.07859860360622406
0.24462909996509552 -0.6503409743309021 -0.24869316816329956
0.5784547328948975 0.2503405213356018 -0.29630085825920105
0.002048263093456626 0.002696833573281765 -0.27837544679641724
0.042428310960531235 -0.6232085824012756 0.051941704005002975
0.0867537185549736 -0.1726832538843155 -0.3674367070198059
-0.47761428356170654 0.40462708473205566 0.288139283657074
-0.2895072102546692 0.4021749794483185 0.1142670214176178
0.1558244228363037 -0.031065572053194046 0.46312981843948364
-0.008164750412106514 -0.40046754479408264 -0.29616451263427734
-0.21030160784721375 -0.0016436879523098469 0.06952528655529022
-0.5752733945846558 0.26368704438209534 -0.2433079183101654
0.5796630382537842 0.10774251818656921 -0.11707233637571335
-0.012123920023441315 0.0015393198700621724 -0.3360424041748047
-0.579684853553772 0.3334563672542572 -0.17678582668304443
0.06031233072280884 0.002806813456118107 -0.3357071578502655
-0.4028233587741852 0.08886340260505676 -0.20917074382305145
0.26699936389923096 0.4012674391269684 -0.26306989789009094
-0.5774434208869934 0.21783559024333954 0.08548785001039505
-0.16532495617866516 0.39668264985084534 0.3321896195411682
-0.07822728157043457 0.0005189655348658562 0.20765550434589386
-0.09988966584205627 0.40102091431617737 -0.022301815450191498
-0.37206706404685974 -0.046977877616882324 0.198985293507576
-0.1390518993139267 -0.5376192927360535 -0.1808682233095169
-0.15774647891521454 -0.5280420184135437 0.0870727002620697
-0.3722365200519562 0.4098437428474426 -0.010808814316987991
-0.5366178154945374 0.09488023072481155 -0.006097739562392235
-0.14759433269500732 0.0016533799935132265 -0.04437342286109924
-0.16162338852882385 -0.0027498705312609673 -0.23351708054542542
-0.16122356057167053 -0.6523007750511169 0.060756996273994446
-0.046656325459480286 -0.28175875544548035 -0.3376043140888214
0.44157910346984863 -0.3127826154232025 -0.01553039439022541
-0.1925627738237381 -0.37086907029151917 -0.18543577194213867
0.098870187997818 0.0033764131367206573 -0.22870540618896484
-0.3702792823314667 -0.017845045775175095 -0.20998959243297577
0.5733044147491455 0.40016356110572815 -0.294204443693161
-0.23114381730556488 -0.0024542734026908875 0.1452643722295761
0.2561720907688141 0.3624224364757538 -0.4010394513607025
-0.5809646248817444 0.2518678903579712 0.23764066398143768
-0.36746618151664734 0.015736084431409836 -0.39658552408218384
-0.17375598847866058 0.4027586281299591 0.11463488638401031
-0.1653175801038742 0.347521036863327 -0.3983786404132843
-0.44521644711494446 -0.001552528701722622 -0.0019729086197912693
-0.4435066282749176 0.125637486577034 -0.3984519839286804
0.5811995267868042 0.3654894530773163 -0.05966579169034958
0.5042060613632202 0.40021011233329773 -0.08429240435361862
0.032100021839141846 -0.0029186271131038666 0.2974046766757965
0.15980923175811768 0.4016510546207428 0.3342230021953583
-0.4306398928165436 0.10747980326414108 -0.2676110565662384
-0.06581948697566986 -0.5907531380653381 -0.25894010066986084
-0.2515367269515991 0.148429274559021 0.34456706047058105
0.3130667805671692 0.39939939975738525 0.42796310782432556
-0.35718202590942383 0.0253753662109375 -0.39795318245887756
-0.07453098893165588 -0.6300599575042725 0.11415731906890869
-0.02904706448316574 -0.659308671951294 0.20213831961154938
0.04025489464402199 -0.4035763442516327 0.250485897064209
0.08638476580381393 0.2193220853805542 0.46561193466186523
-0.08289565145969391 0.23232294619083405 -0.4009403586387634
0.33577853441238403 -5.611102096736431e-06 -0.2646890878677368
0.1957586109638214 0.0008218572475016117 -0.21922613680362701
0.2509840726852417 0.2749258875846863 0.46636369824409485
-0.2993309497833252 0.31918928027153015 0.34482628107070923
0.011120151728391647 0.40323153138160706 -0.127741739153862
-0.08845171332359314 0.2915617823600769 0.3503347635269165
-0.10818462818861008 -0.3795335590839386 -0.24767276644706726
0.426645427942276 -0.3477543592453003 0.07850401103496552
0.10333553701639175 -0.6244711875915527 -0.3157385289669037
0.3829743564128876 -0.3914511799812317 -0.1077309399843216
-0.19908568263053894 -0.2775775194168091 0.13411757349967957
-0.581887423992157 0.23044830560684204 -0.14451481401920319
0.38520002365112305 0.0021541505120694637 0.004048971924930811
0.23822776973247528 0.018768934532999992 0.34066179394721985
-0.30735334753990173 0.08088487386703491 0.34622806310653687
-0.5004615187644958 0.08229797333478928 0.3468865752220154
0.07932263612747192 -0.6514875292778015 0.2511046528816223
0.02318999171257019 -0.03315480053424835 0.4435582160949707
-0.386980801820755 0.0026435423642396927 0.17940929532051086
-0.3811744451522827 0.40370795130729675 -0.31002312898635864
0.05791078507900238 0.0001493087038397789 0.31269440054893494
0.36792388558387756 0.0015854574739933014 -0.06384588032960892
-0.5707647800445557 0.0549113005399704 -0.3644718527793884
0.324191153049469 0.27176499366760254 0.4098639190196991
0.0355529747903347 -0.0030962456949055195 0.3098469078540802
-0.1179979145526886 -0.38610053062438965 -0.22717173397541046
0.24043861031532288 0.46555960178375244 0.4387502074241638
-0.5738334059715271 0.0023192972876131535 -0.05663083866238594
-0.2046959400177002 0.4000535309314728 0.008990203030407429
0.37196576595306396 0.401576966047287 -0.2267247438430786
-0.518966794013977 0.1023292988538742 -0.24508729577064514
0.12366852909326553 0.11763013899326324 -0.39932313561439514
-0.5757412314414978 0.1189301386475563 -0.28977853059768677
0.03802843019366264 0.22567977011203766 0.36362525820732117
0.020278047770261765 0.24941687285900116 0.3727213442325592
0.19715362787246704 0.4009246528148651 0.01058882474899292
-0.37538740038871765 -0.01938030496239662 -0.3567284345626831
0.21738561987876892 -0.6314898133277893 0.18026742339134216
0.12350194156169891 -0.2109362632036209 -0.36877936124801636
0.5809011459350586 0.08640608191490173 -0.1726776510477066
-0.017077689990401268 0.00239872676320374 0.11031738668680191
0.24293556809425354 0.18929463624954224 0.4680149257183075
-0.033061057329177856 0.4004480242729187 -0.38260066509246826
0.1453789472579956 0.24359971284866333 0.46624985337257385
0.5766761302947998 0.06400503218173981 0.017700012773275375
-0.4137536883354187 -0.09419886767864227 -0.22327759861946106
-0.4104244112968445 0.09636376053094864 -0.028452934697270393
0.3122565746307373 -0.1612912118434906 -0.30003735423088074
0.1693742573261261 0.002414792077615857 -0.22543808817863464
0.03112461417913437 -0.619185209274292 -0.23708990216255188
0.46500810980796814 0.0022152247838675976 -0.30393457412719727
-0.3333647549152374 0.0005477126687765121 -0.3284713923931122
-0.4982145428657532 -0.0011055981740355492 -0.06844212859869003
0.058515921235084534 0.40101152658462524 0.45432427525520325
-0.2658737301826477 -0.0008826702833175659 -0.03972527012228966
0.05975569784641266 -0.6235089898109436 0.18531560897827148
0.12544630467891693 -0.6209447383880615 0.14131154119968414
0.05043107271194458 -0.4156797528266907 0.2531847655773163
0.37346315383911133 0.1706857830286026 -0.39687037467956543
0.17940865457057953 0.2401735931634903 0.3444354236125946
0.24156628549098969 0.24627657234668732 0.3449859917163849
-0.0643514096736908 0.05718172341585159 -0.40074068307876587
0.4973186254501343 0.00938498880714178 -0.3871312737464905
-0.22602629661560059 0.12681888043880463 0.3461131751537323
0.48379790782928467 4.292745143175125e-05 0.0961119532585144
0.05533875897526741 -0.00033399462699890137 0.04615705460309982
0.20495052635669708 0.0029569563921540976 -0.3124922513961792
-0.14566254615783691 -0.6472596526145935 -0.170974001288414
-0.0018584402278065681 -0.6215234398841858 -0.21875794231891632
0.025418518111109734 -0.59693443775177 0.24614779651165009
0.49629390239715576 0.0032842857763171196 -0.15455475449562073
0.18716749548912048 -0.6218587160110474 0.10022111982107162
-0.4294610917568207 -0.0989314541220665 -0.29152968525886536
0.5788558721542358 0.33233001828193665 0.11065854132175446
-0.37879711389541626 -0.025512706488370895 -0.0846252590417862
-0.5739763975143433 0.045107487589120865 0.2465798556804657
0.27544817328453064 0.4002574682235718 0.12806391716003418
0.4021950662136078 -0.26062583923339844 -0.19287022948265076
0.5782978534698486 0.14130006730556488 -0.18434551358222961
0.3213057816028595 -0.33539092540740967 0.23736067116260529
-0.39406341314315796 0.39681506156921387 0.34005969762802124
0.41560834646224976 -0.31410253047943115 0.10873468965291977
-0.007974506355822086 0.016161398962140083 -0.39225050806999207
0.01388660166412592 -1.2705102562904358e-05 -0.014020857401192188
0.5823605060577393 0.38188377022743225 -0.10113862156867981
-0.5609732866287231 -0.05183413252234459 0.05538835749030113
-0.03825690969824791 -0.09614858776330948 -0.3418084979057312
-0.10090810060501099 0.0008593860547989607 -0.2679138481616974
0.17857713997364044 -0.40823692083358765 -0.3080091178417206
-0.32376161217689514 -0.0005574114620685577 -0.0021688274573534727
0.042296212166547775 -0.5055271983146667 -0.3067374527454376
0.1630192995071411 -0.5111464262008667 0.251211017370224
-0.19160661101341248 -0.0024065272882580757 -0.18081657588481903
0.2262142300605774 -0.62437504529953 -0.03206142410635948
-0.532747745513916 0.3964844048023224 0.047522276639938354
-0.4506146311759949 0.10592745244503021 0.1575639694929123
0.025583796203136444 0.206562340259552 0.3815602660179138
0.07462509721517563 0.16286398470401764 0.4610736072063446
-0.1431003361940384 -0.03462537005543709 -0.27060359716415405
0.3858293890953064 0.40164485573768616 -0.20056620240211487
-0.008718403056263924 0.0022109528072178364 -0.28293099999427795
-0.4387787878513336 -0.10326259583234787 0.22345687448978424
0.44445618987083435 -0.11201945692300797 -0.06252866983413696
0.13757048547267914 0.40198227763175964 -0.06460397690534592
-0.47301754355430603 0.4047415852546692 -0.3092769384384155
0.4830334782600403 0.0013437066227197647 -0.02990231290459633
0.3180181682109833 0.3087117075920105 -0.39870068430900574
0.09680011868476868 0.004253949970006943 -0.36165815591812134
-0.12850728631019592 -0.30120545625686646 0.2282637506723404
0.5717695355415344 0.008866528049111366 -0.331361323595047
0.08564889430999756 0.001474290620535612 0.18979188799858093
-0.2921684980392456 -0.0005642930045723915 -0.2540036737918854
-0.13069941103458405 -0.57469242811203 0.13715998828411102
0.5759769678115845 0.2636730670928955 0.18035076558589935
0.5704584121704102 0.17466212809085846 0.3336653411388397
0.31430691480636597 -0.0001795128919184208 0.4200775921344757
-0.05390363559126854 0.1067388653755188 -0.3998451828956604
-0.5712020397186279 -0.024801593273878098 -0.08698701113462448
-0.14897161722183228 0.40205928683280945 0.001315524335950613
0.3225902020931244 -0.6287547945976257 0.03900711610913277
0.23956555128097534 -0.6247895956039429 0.12898696959018707
-0.5204110145568848 -0.0893356055021286 -0.12967102229595184
-0.5504764318466187 -0.07414267212152481 0.20823141932487488
-0.37309473752975464 -0.05489642545580864 0.2039838582277298
-0.5681210160255432 0.06584059447050095 -0.24715936183929443
0.4069453477859497 0.0600261352956295 0.34552237391471863
-0.10139291733503342 0.0049794018268585205 0.32903945446014404
0.1358494758605957 -0.6260165572166443 0.0840631052851677
0.23411285877227783 0.002792750485241413 -0.11739514768123627
-0.3836343586444855 -0.060713548213243484 -0.25062230229377747
0.43763428926467896 -0.3708901107311249 -0.06575801968574524
0.5620354413986206 0.39608991146087646 0.00527196517214179
0.07339747250080109 -0.6368864178657532 0.21427789330482483
0.5783863067626953 0.16775836050510406 -0.06189785525202751
-0.3907068073749542 0.08327706158161163 -0.2114415466785431
0.5260608196258545 0.4001801609992981 0.12151593714952469
-0.23865345120429993 -0.07957921177148819 0.004312449600547552
-0.16635170578956604 0.0016853855922818184 0.002948773792013526
-0.5235990881919861 0.0006243426469154656 -0.16518118977546692
0.5831803679466248 0.12053315341472626 -0.1191968321800232
0.5586937069892883 0.28262224793434143 -0.3935975730419159
-0.08053423464298248 0.0018231291323900223 -0.18113870918750763
0.07795651257038116 -0.1710941642522812 -0.37028592824935913
-0.3671434223651886 -0.005880224052816629 0.2709527313709259
-0.36496201157569885 0.05035167932510376 -0.1423037350177765
-0.4560362696647644 0.40107646584510803 -0.24462532997131348
0.47544580698013306 0.05653659254312515 0.34378594160079956
0.16962707042694092 -0.3752443790435791 0.2968193292617798
0.35771363973617554 -0.6250182390213013 0.10240507870912552
0.22865262627601624 -0.3781183660030365 -0.31819647550582886
0.5216975808143616 0.39893555641174316 -0.030726101249456406
-0.0005656658904626966 0.0021416309755295515 0.10268589109182358
0.05697096139192581 -0.3798971474170685 0.2903921902179718
0.4336204528808594 0.0006077159196138382 -0.062168579548597336
-0.49717190861701965 -0.10482610762119293 -0.18748681247234344
-0.37006324529647827 -0.001270377542823553 0.25725656747817993
-0.21319875121116638 0.40354251861572266 -0.28129562735557556
-0.5694477558135986 0.010446740314364433 -0.38823217153549194
-0.1710173636674881 -0.5244995355606079 0.05341603234410286
0.058967143297195435 0.38667064905166626 0.4622678756713867
0.0704425573348999 -0.061889391392469406 -0.37300968170166016
0.2290710061788559 0.4721388816833496 0.3743728697299957
0.30608469247817993 -0.5589768886566162 0.17691156268119812
0.09274338185787201 0.15196526050567627 -0.399690717458725
0.17915838956832886 0.00266258604824543 0.12961477041244507
0.41018298268318176 0.2942313253879547 0.3451578617095947
0.36998701095581055 0.397067666053772 0.29255083203315735
0.4092508852481842 0.40087810158729553 0.18276678025722504
-0.20781083405017853 -0.13051621615886688 0.12037791311740875
0.33818116784095764 -0.13533160090446472 -0.2844464182853699
0.2271120250225067 0.24757419526576996 0.4658457934856415
0.09634523093700409 0.36582738161087036 0.46474912762641907
0.4418153166770935 -0.18747307360172272 0.019678844138979912
0.5802035927772522 0.33393439650535583 0.19991672039031982
0.47594916820526123 0.3994254469871521 0.1552693098783493
0.39215508103370667 -0.4795372784137726 -0.03270535543560982
-0.5341693162918091 0.09196457266807556 -0.32807520031929016
0.3586569130420685 0.3977512717247009 -0.39584067463874817
-0.4617697298526764 0.12935951352119446 0.34064939618110657
0.20524801313877106 0.0035265982151031494 -0.22676096856594086
-0.4107283353805542 -0.0817069485783577 -0.3793877065181732
-0.5417287945747375 0.389626145362854 0.2722896635532379
-0.5533559322357178 0.3845280110836029 -0.14525660872459412
-0.3794095516204834 0.07687237858772278 -0.14730589091777802
-0.31065911054611206 0.2610236704349518 -0.39929336309432983
0.13050997257232666 0.001450930256396532 0.06961654126644135
-0.5791795253753662 0.2985912561416626 -0.17576545476913452
0.301627516746521 -0.27860480546951294 -0.3063913583755493
-0.5763840675354004 0.02285013347864151 -0.22078777849674225
-0.1578245759010315 0.01648809015750885 0.34158313274383545
0.007832472212612629 0.39907166361808777 0.23083087801933289
0.0898299515247345 -0.623670220375061 0.1944732517004013
-0.5119002461433411 0.10698265582323074 0.2708006501197815
-0.43944528698921204 -0.1036524549126625 -0.12424179166555405
0.18541298806667328 0.03225060924887657 -0.39958620071411133
-0.23190917074680328 -0.26806333661079407 0.050795987248420715
0.28931376338005066 0.0019510835409164429 -0.27344533801078796
0.2939348518848419 0.0007006265223026276 -0.3234770596027374
-0.5452301502227783 0.023358063772320747 -0.3994733393192291
-0.14815787971019745 -0.0004270104691386223 -0.17690016329288483
-0.46418553590774536 0.002145717851817608 -0.1786087155342102
-0.5765265822410583 0.12136165797710419 0.12001729011535645
-0.5296353101730347 0.10770297050476074 0.3371036648750305
0.0801391750574112 0.45789676904678345 0.3913656175136566
-0.08027825504541397 0.0014386726543307304 -0.22341473400592804
-0.5214478373527527 0.10042962431907654 -0.11399166285991669
-0.5044580101966858 -0.10200998932123184 -0.10539831966161728
0.5805144309997559 0.042301859706640244 -0.04558858275413513
0.386893630027771 0.0008289929246529937 -0.24335183203220367
-0.39333224296569824 0.401603639125824 -0.2788054943084717
0.2544180750846863 0.0029437048360705376 0.009382128715515137
-0.4937136769294739 -0.0009307919535785913 -0.17685256898403168
-0.15117575228214264 0.0006893305107951164 0.02946305461227894
0.17263545095920563 0.4597947597503662 0.3614506423473358
0.3729538917541504 -0.3717481195926666 -0.2224511057138443
-0.5778637528419495 0.1530885547399521 -0.029552355408668518
0.02802262082695961 -0.06660135090351105 0.43253767490386963
0.2223953902721405 0.0032188352197408676 -0.1837625652551651
0.4303313195705414 -0.37192046642303467 0.036914195865392685
-0.2858634293079376 0.15126484632492065 -0.4004859924316406
0.5677138566970825 0.3956505060195923 0.16260018944740295
-0.4164479970932007 -0.09075655043125153 -0.330274373292923
0.2326454073190689 0.40354907512664795 -0.2948552072048187
0.23536552488803864 -0.17210982739925385 -0.3457717001438141
0.5816008448600769 0.1926543265581131 -0.1579156368970871
0.3284798860549927 -0.2750965654850006 -0.2842077910900116
0.19844721257686615 0.001813347451388836 0.18875594437122345
-0.4520822763442993 0.029553761705756187 -0.39898329973220825
0.09957524389028549 -0.6101984977722168 0.2594303786754608
0.04877633973956108 0.0026593217626214027 0.014390409924089909
-0.5721243619918823 0.006426605395972729 0.04258722439408302
-0.09659388661384583 0.0021029822528362274 0.012760454788804054
-0.21817712485790253 -0.07408516854047775 -0.15778258442878723
0.24795611202716827 0.398971289396286 0.3191749155521393
0.5741564631462097 0.36541542410850525 0.05591423809528351
-0.289420485496521 0.3976846933364868 0.33422523736953735
0.19754445552825928 -0.23533913493156433 -0.3556300699710846
0.0650595873594284 -0.6271419525146484 0.09683668613433838
0.21541015803813934 0.004546986892819405 0.10292822122573853
0.21942782402038574 0.10395295172929764 -0.39884519577026367
0.2492353469133377 0.08641891181468964 0.34436020255088806
0.438701868057251 -0.06318359076976776 0.012025266885757446
-0.4402421712875366 0.10907444357872009 0.31364625692367554
-0.017209500074386597 -0.623718798160553 -0.10721109807491302
-0.45337000489234924 0.11136125028133392 -0.12328779697418213
0.33710554242134094 -0.4569142460823059 0.13955524563789368
-0.1357629895210266 0.003666974836960435 -0.3725178837776184
0.5803424715995789 0.052679628133773804 -0.28661856055259705
-0.569724977016449 0.013301114551723003 -0.39014941453933716
0.48079541325569153 0.0006665958208031952 0.21344730257987976
-0.24958212673664093 0.03025376796722412 0.3433421850204468
0.10006968677043915 0.001969768898561597 -0.24244514107704163
0.5796410441398621 0.29836225509643555 -0.3696029782295227
-0.13786053657531738 -0.1436004489660263 -0.27578413486480713
0.14573809504508972 0.16385072469711304 0.4665166139602661
0.30283209681510925 0.39987385272979736 -0.3403947651386261
-0.3966422975063324 -0.07852021604776382 -0.04934939742088318
-0.19428010284900665 0.40010523796081543 -0.02041494846343994
0.20817206799983978 -0.624081015586853 0.2364741712808609
0.2283531129360199 0.0034815222024917603 -0.01624164544045925
0.5207626223564148 0.0035440889187157154 -0.32060903310775757
-0.5770254731178284 0.13671772181987762 -0.15381182730197906
-0.21107742190361023 -0.001573067158460617 0.044548869132995605
