-0.4243362247943878 -0.09672345221042633 -0.0869615226984024
0.14683859050273895 0.01241849921643734 -0.39561423659324646
0.11542373150587082 -0.6195253729820251 -0.17842166125774384
0.39704957604408264 -0.38226932287216187 0.10638730227947235
-0.40849822759628296 0.083436980843544 0.10663822293281555
-0.5590506196022034 -0.05693507567048073 0.08018779009580612
-0.390227347612381 -0.0740559846162796 -0.2635436952114105
0.14612700045108795 -0.6219944953918457 -0.024229535833001137
0.4920335114002228 0.4033757448196411 -0.24483634531497955
-0.1064508780837059 -0.2633677124977112 -0.3005164861679077
0.13278627395629883 -0.3827405571937561 0.2897929847240448
-0.2540617287158966 0.002452859655022621 0.0807470828294754
0.46196022629737854 0.37973037362098694 -0.4009052813053131
0.29778724908828735 -0.6498624086380005 0.1380075067281723
-0.5240365266799927 0.004387464374303818 -0.26226451992988586
-0.20809832215309143 0.38070255517959595 0.3408348262310028
0.2501126825809479 0.00233403779566288 -0.20503008365631104
-0.19986648857593536 0.33423954248428345 -0.39914047718048096
0.26802870631217957 0.4005686640739441 0.17305240035057068
-0.09607140719890594 0.004282073117792606 0.025098929181694984
0.5217127203941345 0.39969900250434875 -0.2195061892271042
-0.23472942411899567 -0.24395833909511566 -0.0797899067401886
-0.4195708930492401 0.3561955690383911 0.02349219098687172
0.5811344981193542 0.29244348406791687 0.32397517561912537
-0.5172614455223083 0.11078325659036636 -0.18902376294136047
-0.398639053106308 0.23118577897548676 -0.40406835079193115
-0.5429621934890747 0.09477762877941132 -0.31771859526634216
-0.47784143686294556 0.1046004369854927 -0.01950485073029995
0.3472333550453186 -0.6376431584358215 0.031370844691991806
-0.5774757862091064 0.1274300366640091 -0.38205617666244507
0.295487642288208 -0.12802502512931824 0.2625454366207123
-0.09739682078361511 0.0022939862683415413 -0.16745701432228088
-0.5737982392311096 -0.002273860853165388 0.21199730038642883
0.5809391140937805 0.11285636574029922 0.1895284652709961
0.5390825271606445 0.4012773633003235 -0.3108160197734833
-0.07959390431642532 -0.6238471269607544 -0.027974683791399002
-0.21924613416194916 0.22840870916843414 0.34395039081573486
-0.5789482593536377 0.30488407611846924 0.1277783364057541
-0.19737215340137482 0.002765404060482979 -0.18939918279647827
-0.03164195641875267 -0.2987258732318878 -0.34926146268844604
0.24892540276050568 -0.4268573820590973 -0.2774145305156708
-0.11781711876392365 0.18480168282985687 -0.39909040927886963
0.19996285438537598 0.39936167001724243 0.26402321457862854
-0.1259385496377945 0.0027940599247813225 -0.056973379105329514
0.41639599204063416 -0.1905386745929718 -0.16210444271564484
-0.10316259413957596 0.27963346242904663 -0.3987989127635956
0.26541411876678467 -0.6209080219268799 0.12744584679603577
-0.5342221856117249 -0.07764974981546402 -0.31228190660476685
0.2831980884075165 0.40173348784446716 -0.09056878834962845
-0.5147731304168701 -0.10202161967754364 -0.003309243591502309
-0.07537130266427994 -0.16267701983451843 -0.33146288990974426
0.4909854531288147 0.002164706587791443 0.0522172749042511
-0.16926659643650055 -0.6427013278007507 -0.08616797626018524
0.5785475969314575 0.1692853420972824 0.0496571846306324
-0.5202381610870361 0.0018283501267433167 0.12108183652162552
0.3513696789741516 -0.5815454125404358 0.1211877390742302
-0.44372591376304626 0.40070855617523193 -0.3188011944293976
-0.4805836081504822 0.10577348619699478 0.10559071600437164
-0.5174486041069031 0.2145485281944275 0.34471574425697327
0.1593509167432785 0.39935970306396484 -0.015532811172306538
0.3497191369533539 -0.6259315013885498 -0.01631842367351055
0.1217748373746872 -0.48384276032447815 -0.31928732991218567
0.42310672998428345 0.14680610597133636 -0.39916419982910156
-0.5438047051429749 0.08782541006803513 -0.274132639169693
-0.49956703186035156 0.40170446038246155 0.11834724247455597
0.27314493060112 0.0014326376840472221 -0.3296758234500885
0.17677798867225647 0.2926749885082245 0.34564071893692017
0.027901355177164078 0.2209901660680771 0.4465348422527313
0.009239761158823967 -0.5212359428405762 0.24794712662696838
0.08742315322160721 -0.5015262365341187 -0.3213707208633423
0.0043378835543990135 -0.6514933705329895 -0.2727484405040741
0.5531826019287109 0.4015420973300934 0.2246655821800232
0.49469438195228577 0.4001028835773468 0.22200727462768555
-0.0907171219587326 0.09782308340072632 -0.40058228373527527
0.46494796872138977 0.40205153822898865 0.16764913499355316
-0.05921603739261627 -0.6244667172431946 0.1419270783662796
-0.06681982427835464 0.03300375118851662 -0.39848366379737854
0.21617884933948517 -0.6207607388496399 0.14347684383392334
-0.16738590598106384 0.0024808323942124844 -0.14737838506698608
-0.16744475066661835 0.3033472001552582 0.34651485085487366
0.5154787302017212 0.0006182361394166946 -0.03197589889168739
0.03558209910988808 0.12518830597400665 0.40916985273361206
-0.1291876882314682 0.395194947719574 -0.3920463025569916
-0.13022667169570923 -0.2986389100551605 0.22275562584400177
-0.03797983378171921 -0.6197097897529602 0.02967146411538124
-0.36141327023506165 0.003504452295601368 0.22297349572181702
0.08680175989866257 -0.08428342640399933 0.321045845746994
0.28664061427116394 0.0037301350384950638 -0.04441598057746887
0.18872466683387756 0.001779904356226325 -0.0447223074734211
-0.5355595350265503 0.14266784489154816 -0.39526280760765076
0.08264083415269852 0.0031737172976136208 -0.029805852100253105
-0.5794181227684021 0.020541051402688026 0.24706745147705078
0.1653250753879547 0.0016056045424193144 -0.363935649394989
0.27278706431388855 0.469401091337204 0.37130895256996155
0.18962281942367554 0.27175599336624146 -0.4040921628475189
0.5848291516304016 0.14863544702529907 0.09979192167520523
-0.5709094405174255 0.31814226508140564 -0.39563116431236267
0.3667411506175995 -0.643919050693512 0.06037764623761177
0.13850994408130646 -0.0873732715845108 0.41795092821121216
0.22533874213695526 0.19209237396717072 0.46596357226371765
0.2076561599969864 0.15792137384414673 0.46534430980682373
-0.4408414363861084 0.0010645454749464989 0.32617247104644775
-0.1263926923274994 0.0026501044631004333 -0.09823712706565857
-0.36503148078918457 -0.003718281164765358 -0.14042919874191284
0.5634477734565735 0.18872791528701782 -0.39589032530784607
0.35316067934036255 -0.6350772976875305 -0.036070775240659714
-0.5108004808425903 0.10988277941942215 0.09823353588581085
0.1037764921784401 0.4006415903568268 -0.29497069120407104
-0.18118475377559662 0.40157848596572876 0.1463160216808319
-0.505851686000824 -0.07109466940164566 -0.4010505676269531
-0.07941088825464249 0.0020703617483377457 0.13393810391426086
-0.5067417025566101 -0.0014146841131150723 0.3466413915157318
-0.12024340033531189 -0.07488073408603668 0.23149484395980835
-0.03805479034781456 -0.5582686066627502 0.22440898418426514
-0.03195788711309433 0.2835189402103424 0.3610861003398895
-0.5780999064445496 0.11727304011583328 -0.2609047293663025
-0.23518526554107666 0.38089898228645325 -0.40168190002441406
-0.5226285457611084 0.3421934247016907 -0.025654159486293793
0.019989266991615295 0.11033067852258682 0.344683438539505
-0.5361996293067932 0.08603942394256592 -0.39795148372650146
-0.06050986051559448 -0.01291685551404953 0.26783815026283264
0.578804075717926 0.2976106107234955 -0.09043481200933456
0.5401703119277954 0.39976927638053894 -0.10448873788118362
0.573980987071991 0.3265434801578522 -0.3864324688911438
0.3331548869609833 -0.6226596236228943 0.017817694693803787
0.207031711935997 0.46731337904930115 0.4266699552536011
0.47286173701286316 0.3999159336090088 -0.06126237288117409
-0.5760120749473572 0.14785277843475342 0.1656743437051773
-0.0504247322678566 0.394641250371933 -0.38933053612709045
-0.38043278455734253 0.0019609397277235985 0.19605493545532227
-0.001958050997927785 0.0007283082231879234 -0.29010245203971863
0.5781100392341614 0.15291810035705566 -0.10425535589456558
0.07773549854755402 -0.6208324432373047 -0.037448279559612274
0.15242363512516022 0.003734782338142395 -0.09048128128051758
0.559268057346344 0.003477793652564287 -0.36619365215301514
-0.47707146406173706 0.3991162180900574 -0.202825129032135
-0.1055116131901741 -0.6304168701171875 0.15808477997779846
-0.4135524034500122 0.08962742239236832 0.07474389672279358
0.5306443572044373 0.002455912996083498 -0.2616337239742279
-0.2108263522386551 0.3958146870136261 0.33065930008888245
-0.5325203537940979 -0.08717504143714905 0.12107472121715546
0.07896430790424347 0.0014787870459258556 -0.027761822566390038
0.00011442380491644144 0.4009096622467041 -0.2653026282787323
-0.3524709939956665 0.034976452589035034 -0.003329082392156124
-0.5194447040557861 0.004764042794704437 -0.3815220296382904
0.23689980804920197 0.40028688311576843 0.04045424237847328
0.02378273196518421 0.2042977660894394 0.38551729917526245
-3.406131872907281e-05 -0.573194146156311 0.24081610143184662
-0.35866817831993103 -0.006604314781725407 0.25761643052101135
-0.33477240800857544 0.3576350808143616 0.03148004040122032
-0.3807477355003357 0.27251753211021423 -0.3998257517814636
0.3966459631919861 -0.2665908932685852 -0.20505088567733765
0.13714535534381866 0.2563037574291229 -0.39756155014038086
0.5758308172225952 0.31939420104026794 -0.021052740514278412
-0.4192315638065338 0.0985586941242218 -0.24190187454223633
0.28665876388549805 -0.6183065176010132 -0.05242738500237465
-0.29410499334335327 0.4068368375301361 0.14277634024620056
0.04311865568161011 -0.6204925775527954 0.10326758027076721
-0.38143453001976013 -0.05726895481348038 -0.33461275696754456
0.3492983281612396 -0.3735775649547577 -0.2642545700073242
-0.5133381485939026 0.37125363945961 -0.059892937541007996
0.2806418240070343 -0.13027870655059814 -0.3188183605670929
-0.5777783393859863 0.2797210216522217 -0.2349364012479782
-0.06224320828914642 -0.16345112025737762 -0.3308869004249573
-0.5300624966621399 0.0977795198559761 0.08988938480615616
0.3368145227432251 0.3991256356239319 0.4261452257633209
-0.20126040279865265 0.4007568657398224 -0.23149245977401733
-0.5110176801681519 0.3979465961456299 0.31584110856056213
-0.23713384568691254 -0.13074202835559845 -0.050324440002441406
0.23038576543331146 0.2842472493648529 0.46577656269073486
-0.19364137947559357 0.3984350562095642 -0.292324036359787
-0.44175294041633606 0.40026065707206726 -0.2093937247991562
0.3742358982563019 0.0019445358775556087 0.09525269269943237
-0.18430104851722717 -0.4116384983062744 -0.08224182575941086
0.3173186480998993 -0.38549572229385376 0.18584659695625305
-0.22976021468639374 0.0035089608281850815 0.19784024357795715
-0.17312659323215485 -0.2984240651130676 -0.22897061705589294
0.3991756737232208 0.003078836016356945 -0.21215064823627472
-0.43583986163139343 0.39786460995674133 -0.3964035212993622
0.45938602089881897 0.40179145336151123 -0.3581049144268036
0.04977472871541977 -0.08088730275630951 0.43288639187812805
-0.42953699827194214 0.15732426941394806 -0.40171509981155396
0.10555579513311386 0.0007308898493647575 0.0013334760442376137
0.39091822504997253 -0.44251197576522827 -0.06055683642625809
0.0017856110353022814 0.002769609447568655 -0.045058246701955795
0.02259230427443981 0.07675198465585709 0.44046729803085327
0.11683856695890427 0.001876170514151454 -0.30142995715141296
0.12903504073619843 0.3994615077972412 -0.1168239489197731
-0.2490450143814087 0.21515397727489471 -0.39880281686782837
-0.5442585349082947 0.28494536876678467 -0.40131959319114685
0.24309520423412323 -0.6378186941146851 0.18103601038455963
0.36527085304260254 -0.3778047263622284 0.13719435036182404
0.017648855224251747 0.2663668990135193 0.3808651864528656
0.5804300308227539 0.12025076150894165 0.08208134770393372
-0.26892468333244324 0.40357765555381775 0.10512945055961609
-0.42588484287261963 0.005095429718494415 0.11322896182537079
0.37197941541671753 0.4012705385684967 0.002079480327665806
0.14197853207588196 0.39919477701187134 0.3424527049064636
-0.16941457986831665 0.2889452576637268 0.34082186222076416
0.4430667757987976 0.027217257767915726 0.34287211298942566
0.24782057106494904 0.3914651572704315 -0.3959542214870453
0.5851001143455505 0.35289230942726135 -0.11647209525108337
-0.003779736580327153 -0.6204612851142883 0.031611647456884384
-0.5502316355705261 0.07179077714681625 -0.19048160314559937
0.31068000197410583 -0.6395503878593445 0.11906718462705612
-0.01763080060482025 -0.49116969108581543 -0.2863204777240753
0.5828225016593933 0.14872556924819946 0.17073705792427063
0.5740321278572083 0.01043360773473978 0.13816122710704803
-0.5737885236740112 0.011196810752153397 -0.3741517663002014
0.39363595843315125 0.012029259465634823 -0.39578375220298767
-0.05111713707447052 0.2900457978248596 -0.3977317810058594
0.5836087465286255 0.17894676327705383 -0.12464205920696259
-0.5695967674255371 0.13895800709724426 0.3300298750400543
0.2863297164440155 0.0033447067253291607 -0.09546278417110443
0.333845317363739 0.0026502825785428286 0.025486161932349205
-0.0998736172914505 -0.4689125120639801 -0.22910182178020477
0.5332067608833313 0.29262620210647583 0.3442603349685669
0.49625977873802185 0.4007115662097931 -0.2283366620540619
0.21794918179512024 0.4705359637737274 0.3774046301841736
0.38949909806251526 0.24203738570213318 -0.3985234797000885
0.2284797728061676 -0.3848870098590851 -0.3071964383125305
0.44666895270347595 -0.16774076223373413 0.0018434165976941586
-0.5615450739860535 -0.05447252094745636 0.27740588784217834
-0.3606628477573395 0.0017027338035404682 -0.37304744124412537
0.2942225933074951 0.020803386345505714 0.46088916063308716
-0.3102901875972748 0.39948952198028564 -0.36955326795578003
0.4475209712982178 -0.32605791091918945 -0.05029109865427017
0.17482443153858185 0.0018803190905600786 -0.026981722563505173
-0.5687745809555054 0.05598744377493858 0.16326218843460083
-0.08774051815271378 -0.5530188083648682 0.18421323597431183
-0.5272693037986755 -0.08513299375772476 -0.14982667565345764
0.47816869616508484 0.3337503671646118 -0.39924272894859314
0.17680688202381134 -0.36154040694236755 -0.3661274313926697
0.06873709708452225 -0.3901742994785309 0.2700396478176117
0.2771883010864258 -0.38229361176490784 0.22080738842487335
-0.18715643882751465 -0.5686720609664917 -0.04837790131568909
0.11107423901557922 0.40243175625801086 0.1573256403207779
0.010748188011348248 0.3983663320541382 0.31984248757362366
-0.07778310030698776 0.4013943076133728 -0.2972756326198578
-0.05751773715019226 -0.6206626892089844 -0.18293049931526184
0.10756058245897293 0.0005765538662672043 0.03725607320666313
0.28952670097351074 0.40168076753616333 -0.15745499730110168
0.27010148763656616 -0.28701135516166687 -0.33211371302604675
0.5782867074012756 0.02060648985207081 0.05593669041991234
-0.23260578513145447 -0.13225384056568146 -0.09854807704687119
-0.5344225764274597 0.05710108205676079 -0.40406882762908936
-0.5692179799079895 0.049163080751895905 0.1890314370393753
0.47895535826683044 0.4002133309841156 -0.25031936168670654
0.5339426398277283 0.0006233919411897659 -0.18682731688022614
0.2867642939090729 0.19001321494579315 -0.4011456072330475
0.31419607996940613 0.19402001798152924 0.3517313301563263
0.18685461580753326 0.0021188342943787575 -0.33428525924682617
0.4252606928348541 0.0025330400094389915 -0.3559446930885315
0.314863383769989 0.09401511400938034 0.3903869092464447
-0.07714883983135223 0.40186330676078796 0.14979325234889984
-0.14251744747161865 -0.6290428638458252 -0.023701714351773262
0.4505705237388611 0.01704929955303669 0.3412244915962219
0.08689062297344208 -0.3822436034679413 0.29460757970809937
-0.005748081021010876 0.4016537368297577 -0.05610232800245285
0.027300607413053513 0.40115368366241455 -0.23498372733592987
-0.4802846908569336 0.4028533697128296 -0.09318112581968307
-0.5753598213195801 0.07750458270311356 0.010971901938319206
0.3162841498851776 0.02477041818201542 0.45547083020210266
0.48031386733055115 0.4003947675228119 0.095845527946949
0.38692665100097656 0.225615456700325 -0.40001505613327026
0.24314071238040924 0.0022952500730752945 0.2619655728340149
-0.1007005125284195 0.39945781230926514 0.2584455907344818
0.011826641857624054 -0.009516109712421894 0.2923876643180847
-0.3994045555591583 0.0034103477373719215 -0.25293922424316406
-0.5809667706489563 0.04407680407166481 -0.3385038375854492
0.5727750658988953 0.39426636695861816 -0.23130127787590027
0.3949872553348541 -0.5670140981674194 -0.07791707664728165
0.5759681463241577 0.15282763540744781 -0.37576842308044434
-0.31628358364105225 0.18857498466968536 0.34442341327667236
-0.5464257597923279 -0.07062453776597977 -0.27936893701553345
-0.4196573495864868 0.004495088942348957 -0.2952587902545929
-0.011900395154953003 -0.6195385456085205 -0.14899800717830658
0.5168673396110535 0.40167173743247986 -0.1490343064069748
-0.25293058156967163 0.4009462893009186 -0.2211640328168869
0.46284958720207214 0.2686512768268585 -0.3984873592853546
0.21020707488059998 -0.002315117511898279 0.3174704611301422
0.5804421305656433 0.16249993443489075 0.2445749193429947
0.33333516120910645 0.003752165473997593 -0.21698330342769623
0.23167499899864197 0.3990331292152405 -0.07031849026679993
0.33797687292099 0.16827702522277832 0.3446584641933441
0.22632472217082977 0.0008322140201926231 0.1817093789577484
0.03143986687064171 -0.37774160504341125 0.29731249809265137
-0.09778294712305069 0.17211098968982697 0.398689329624176
-0.43710312247276306 -0.10162424296140671 0.1574140042066574
0.43733182549476624 -0.321962833404541 -0.11574425548315048
0.05777440592646599 -0.03451859951019287 0.3172313868999481
0.5827487707138062 0.15288574993610382 0.21893644332885742
0.030308738350868225 -0.559660017490387 -0.3100161552429199
-0.4595140516757965 0.17417244613170624 0.34259551763534546
0.19608762860298157 -0.14653240144252777 -0.35573866963386536
0.43334364891052246 0.00017443951219320297 0.007279182784259319
-0.10349974781274796 -0.23725993931293488 -0.309356153011322
0.4204341173171997 -0.350216269493103 0.10192167013883591
-0.41379693150520325 0.4028356969356537 0.28912609815597534
-0.4874507486820221 0.10278918594121933 0.14250972867012024
-0.2646905481815338 0.394547700881958 -0.04647662118077278
-0.39625516533851624 0.04571540653705597 -0.3994596600532532
0.571590781211853 0.3961963653564453 0.1348229944705963
-0.5408857464790344 0.07223865389823914 -0.3022858500480652
0.0797581598162651 -0.6213211417198181 -0.07007475197315216
0.15319041907787323 -0.6406851410865784 0.25464630126953125
0.03152916207909584 0.0011683106422424316 0.051464151591062546
0.30921491980552673 0.0015570196555927396 -0.2813969552516937
-0.017254648730158806 0.08627171814441681 0.3447129726409912
-0.13956482708454132 -0.3523559272289276 -0.2743436098098755
0.196493998169899 0.11953766644001007 0.46034786105155945
0.28311336040496826 0.002819242887198925 0.09746289253234863
0.4162682592868805 0.06037304177880287 -0.397897332906723
0.4388205409049988 -0.2515987455844879 -0.0987507700920105
-0.024951910600066185 -0.4613879919052124 -0.2892528176307678
0.15551890432834625 0.16831561923027039 -0.3995828330516815
-0.5107420086860657 0.11651541292667389 -0.04673708602786064
-0.5561591982841492 0.03702452778816223 -0.4008583426475525
-0.25387951731681824 0.002145133214071393 -0.19163469970226288
0.5292338728904724 0.40213388204574585 -0.29422473907470703
0.11079919338226318 -0.13893607258796692 -0.3697183132171631
0.1184079572558403 -0.08111396431922913 0.3795800507068634
-0.5478435754776001 -0.06897056847810745 0.03450912982225418
0.03724582493305206 0.3997705578804016 -0.3172256350517273
-0.3733176589012146 0.03897007554769516 -0.12287910282611847
-0.01827058009803295 -0.0019192984327673912 -0.34860214591026306
0.541164755821228 0.4002460539340973 -0.2771640717983246
-0.23077072203159332 -0.14880619943141937 0.03261436149477959
0.05845710262656212 0.00029056426137685776 -0.12120173871517181
-0.014428084716200829 0.1353360414505005 -0.4012427031993866
0.5673149824142456 0.007071031257510185 0.12437865883111954
0.2760468125343323 0.3985483646392822 -0.3588644862174988
0.3511260449886322 0.23865219950675964 -0.39960193634033203
0.13593734800815582 -0.6227014064788818 0.07469647377729416
-0.3291083574295044 0.006741735152900219 0.19466383755207062
-0.4436199963092804 0.3953118324279785 0.006302860099822283
0.22784224152565002 -0.2793954908847809 -0.3458128571510315
-0.11276478320360184 -0.6189457178115845 -0.05719660222530365
-0.039447419345378876 0.16130034625530243 0.3483447730541229
-0.570481538772583 0.2416335940361023 0.3332864046096802
0.00850092712789774 -2.289656549692154e-05 0.25466158986091614
0.01883319765329361 0.08036088943481445 0.41870230436325073
0.07007822394371033 0.0028731198981404305 -0.35606715083122253
0.16624820232391357 0.17595069110393524 -0.4016643762588501
-0.4693778157234192 -0.10704810917377472 -0.36411944031715393
0.2501361668109894 -0.09264558553695679 -0.3377457857131958
0.4306975305080414 0.4001953601837158 -0.32969528436660767
-0.5499157905578613 0.08108251541852951 0.0018902691081166267
0.022904179990291595 0.04868978634476662 0.34606289863586426
0.2922583222389221 0.4546720087528229 0.4431919753551483
0.3647814989089966 -0.4474619925022125 0.10144098848104477
-0.21362212300300598 0.34781235456466675 -0.39706647396087646
-0.39620861411094666 -0.07859519869089127 -0.25850430130958557
-0.12395011633634567 -0.3800815939903259 -0.2697537839412689
-0.3780365288257599 0.39410680532455444 -0.18437747657299042
-0.5262656211853027 -0.08249282091856003 -0.28050583600997925
-0.0144904600456357 0.16097427904605865 0.3835775554180145
-0.0890190526843071 0.009324546903371811 -0.3913370370864868
-0.4906483590602875 0.40237072110176086 0.25324004888534546
-0.16064095497131348 0.0033961981534957886 0.2693733870983124
0.3262615203857422 0.34462544322013855 -0.39645445346832275
0.48050180077552795 -0.001376347616314888 -0.3688255846500397
-0.23431915044784546 -0.16963502764701843 0.01978357695043087
0.026756228879094124 0.4032072126865387 0.14804627001285553
-0.5471128225326538 -0.002267892938107252 0.20916521549224854
-0.23169797658920288 -0.2861439287662506 0.04362332448363304
0.2720259726047516 0.3900979161262512 0.4607810378074646
-0.17505820095539093 -0.30257177352905273 0.1638914793729782
0.40919989347457886 -0.15323050320148468 -0.17905601859092712
-0.3011381924152374 0.2519286572933197 0.34472525119781494
0.3091254234313965 0.0007679625414311886 0.22296740114688873
0.33739709854125977 -0.6211234331130981 -0.05999009311199188
0.0936395674943924 -0.09234894812107086 0.33798810839653015
0.05850328132510185 0.402931272983551 0.16149772703647614
0.2942831218242645 -0.08804400265216827 0.25267186760902405
0.5433295965194702 0.40102797746658325 -0.28739050030708313
-0.446258544921875 -0.10633242130279541 0.12506996095180511
-0.5629204511642456 0.0677325427532196 -0.25523558259010315
-0.3646543323993683 0.009776497259736061 0.08467654883861542
0.1700446754693985 -0.6204620599746704 -0.0799681693315506
0.3181228041648865 -0.6254624724388123 0.06690001487731934
-0.5300058126449585 0.3740282654762268 -0.10078975558280945
0.0503179095685482 -0.6224825978279114 0.1942610889673233
0.3488696217536926 -0.3597785234451294 -0.26417848467826843
-0.061669882386922836 0.317685604095459 0.3447805941104889
0.07809796929359436 0.40173760056495667 -0.13668225705623627
0.026566335931420326 0.08413964509963989 0.37867605686187744
-0.3781348466873169 -0.052340902388095856 -0.07988764345645905
-0.5757943987846375 0.0671374723315239 -0.341704398393631
-0.08936628699302673 0.3442457616329193 -0.3991176187992096
0.581496000289917 0.30288219451904297 -0.2845957577228546
0.11493387818336487 0.23266534507274628 -0.3993167579174042
-0.5116352438926697 -0.09645732492208481 0.0759892463684082
-0.4488193094730377 0.08244588971138 -0.3984459638595581
0.20283356308937073 -0.23972627520561218 0.29881763458251953
0.35321250557899475 -0.20113864541053772 -0.265665739774704
0.25270894169807434 0.00222607608884573 -0.09198298305273056
0.11031848192214966 0.0014677154831588268 0.28654545545578003
0.279490202665329 0.3977026343345642 0.32900136709213257
-0.5796101093292236 0.12243394553661346 -0.07845396548509598
-0.5637257695198059 0.0696512907743454 -0.058850470930337906
-0.010829594917595387 0.40332165360450745 0.1394745111465454
-0.48172152042388916 0.05868850648403168 -0.39882904291152954
-0.1391785889863968 -0.6271767616271973 0.025478392839431763
-0.17379868030548096 -0.14909055829048157 -0.22920304536819458
0.027332836762070656 -0.5247339606285095 -0.30876004695892334
-0.1648329794406891 -0.6563277840614319 0.008860934525728226
-0.1520145982503891 -0.5486074686050415 -0.1597808599472046
0.2440115213394165 0.0023158960975706577 -0.13674446940422058
-0.45090481638908386 0.0034631993621587753 -0.2563190162181854
0.10262469947338104 -0.6205423474311829 0.06340193003416061
0.5773218870162964 0.17845718562602997 0.23393385112285614
0.3940414488315582 0.18681804835796356 -0.39995428919792175
0.1843007206916809 0.40123283863067627 -0.27089792490005493
0.016384558752179146 0.4009062349796295 0.1393168866634369
0.3338037431240082 0.0002666572108864784 -0.3664952218532562
-0.5074219703674316 0.004880724474787712 0.28325626254081726
-0.37060198187828064 0.003087169025093317 -0.24691881239414215
0.4297618269920349 0.36993345618247986 0.34302252531051636
-0.3966529965400696 0.07689887285232544 -0.2614698112010956
0.09913107752799988 0.46700519323349 0.38371503353118896
-0.37541574239730835 0.06712955236434937 -0.2631547749042511
-0.09025973826646805 0.40125495195388794 -0.18146803975105286
-0.35654178261756897 0.39982524514198303 -0.3180142939090729
-0.4557028114795685 0.4023912250995636 0.22396251559257507
-0.36257028579711914 -0.018987486138939857 0.18321815133094788
0.14234882593154907 -0.6218681335449219 0.12418408691883087
-0.10621017962694168 -0.621814489364624 -0.01856834627687931
0.5762885212898254 0.15718214213848114 -0.3035602569580078
0.34098851680755615 -0.6295665502548218 -0.0873188003897667
0.16962823271751404 0.0015695630572736263 0.14818541705608368
0.0853148102760315 0.38781023025512695 -0.39978161454200745
0.3675205111503601 0.4012005925178528 -0.09776508063077927
-0.07042870670557022 0.16648860275745392 0.3578169643878937
-0.06092601642012596 -0.5322036743164062 -0.2642311751842499
-0.4482593238353729 0.4016924500465393 0.008322468027472496
0.5086527466773987 0.0014492594636976719 -0.17402607202529907
-0.23624587059020996 0.1628788411617279 0.34520474076271057
-0.558928906917572 0.38013407588005066 -0.3427335321903229
-0.35816001892089844 0.03592691197991371 -0.06900455057621002
0.5695800185203552 0.39170390367507935 0.1096930205821991
-0.10222329199314117 0.40036314725875854 0.15460015833377838
-0.5771030783653259 0.02514786645770073 0.04386979714035988
0.2809027433395386 0.39936113357543945 0.34998369216918945
-0.5798412561416626 0.2706252336502075 -0.18180078268051147
-0.04473765939474106 0.006552340928465128 0.3299085795879364
0.26408788561820984 -0.18121574819087982 -0.3318139612674713
-0.5723385810852051 0.04643024504184723 0.029770376160740852
0.009639629162847996 0.040126413106918335 0.34862643480300903
0.45174020528793335 0.3986337184906006 0.13641461730003357
0.5792006254196167 0.06546143442392349 -0.18181192874908447
-0.14187803864479065 -0.3848043978214264 -0.1752161830663681
0.03266003727912903 -0.006057496182620525 0.30514195561408997
0.17923884093761444 0.002261226996779442 -0.22548402845859528
-0.2842961251735687 0.32223057746887207 -0.4007863998413086
-0.21650855243206024 0.3961299657821655 -0.3606867790222168
0.14198705554008484 0.4016914963722229 -0.07267805933952332
-0.3872145712375641 0.0576111264526844 -0.32801613211631775
0.32048550248146057 0.11967795342206955 0.34454628825187683
0.4123004972934723 -0.3634786903858185 0.1189955547451973
0.364945650100708 0.05816873535513878 -0.40284299850463867
0.4496171176433563 -0.33075183629989624 -0.06371457129716873
0.24081094563007355 -0.6216685175895691 -0.07057293504476547
0.27018097043037415 -0.4434632658958435 0.2059442102909088
0.5222728252410889 0.0008973805233836174 0.24059736728668213
0.05996032431721687 -0.6179320812225342 0.1852710247039795
0.44438260793685913 -0.23541295528411865 0.013803781010210514
0.33562180399894714 0.11561319977045059 -0.4001011848449707
0.32440584897994995 0.2001733034849167 0.34482935070991516
0.11810813099145889 0.2855421304702759 0.4619591534137726
0.4310475289821625 -0.37800702452659607 -0.10870067775249481
0.39083224534988403 -0.03251098468899727 0.1557050198316574
-0.2755981981754303 0.401674747467041 0.06557100266218185
-0.06742575764656067 0.002123861573636532 0.03600528463721275
0.28791290521621704 -0.03794916719198227 0.46261537075042725
0.16860735416412354 0.4000680446624756 0.05832260102033615
-0.18137098848819733 -0.6287972927093506 -0.02126755751669407
0.22169868648052216 0.40233635902404785 -0.10236896574497223
-0.49703994393348694 0.051354508846998215 0.3463946580886841
-0.5809822082519531 0.026030534878373146 0.2633495330810547
-0.2620367407798767 0.4004786014556885 -0.014980153180658817
0.000896017998456955 0.002225184114649892 0.10577847063541412
0.19013705849647522 -0.07437770068645477 0.4445347785949707
-0.5811267495155334 0.21395155787467957 0.15741103887557983
-0.10040589421987534 -0.4790930151939392 0.17258583009243011
-0.09906069934368134 0.0014591880608350039 0.1886228770017624
0.29159075021743774 0.36694905161857605 0.4617214500904083
0.5605115294456482 0.36212965846061707 0.3438049852848053
0.017323067411780357 0.40117985010147095 -0.22494514286518097
-0.19825777411460876 0.4023761451244354 0.3050042986869812
0.03098665177822113 -0.6185397505760193 -0.12618958950042725
0.1549636572599411 0.4006038010120392 -0.2303330898284912
-0.02179250493645668 -0.30614662170410156 -0.3477547764778137
-0.014542301185429096 0.4006396532058716 -0.3143949806690216
-0.46570637822151184 0.03549494594335556 -0.4012434184551239
-0.43712666630744934 0.002999606542289257 0.09652648866176605
0.30875521898269653 0.002783531788736582 0.006681154947727919
-0.05974819138646126 0.21791453659534454 -0.39978066086769104
-0.5728150606155396 0.07391239702701569 -0.2092120349407196
-0.3146277666091919 0.0038874209858477116 0.1802847981452942
-0.10977958887815475 0.10706862062215805 0.34252288937568665
-0.029047612100839615 0.001581120304763317 -0.13449077308177948
-0.5773164629936218 0.17645737528800964 0.005475412122905254
0.007403448689728975 -0.002131965011358261 -0.36198949813842773
0.2614569664001465 0.0022277298849076033 0.058528050780296326
0.39821457862854004 0.0015658466145396233 -0.2657583951950073
0.4261661171913147 -0.2063361406326294 0.09757436811923981
-0.368728905916214 0.40844839811325073 -0.14650945365428925
0.21803691983222961 0.0032729441300034523 -0.24489283561706543
0.29113227128982544 -0.6217668652534485 -0.15646499395370483
-0.4971253275871277 -0.10180675238370895 -0.10050152242183685
0.26346272230148315 -0.04934842512011528 0.4588134288787842
-0.5306802988052368 0.3933936655521393 -0.09256543219089508
-0.5047860145568848 0.39269256591796875 -0.12706364691257477
-0.5710548758506775 0.2349998503923416 -0.3834892809391022
-0.07501115649938583 0.4012238085269928 -0.08789253234863281
-0.3982694447040558 0.08143989741802216 0.26791849732398987
-0.012466741725802422 0.22176963090896606 0.39686664938926697
-0.5126518607139587 -0.09703528136014938 -0.010332311503589153
-0.38788309693336487 0.2974282503128052 0.3487550616264343
0.16300518810749054 0.40194207429885864 0.028659673407673836
0.4465685486793518 0.000985655002295971 -0.21032722294330597
-0.5801253318786621 0.1572771519422531 -0.1557922512292862
-0.14989575743675232 0.21321429312229156 -0.3994542956352234
0.27685093879699707 -0.32417404651641846 -0.3247222900390625
0.5846300721168518 0.3142913579940796 -0.30951017141342163
-0.12934447824954987 -0.32483118772506714 0.22245687246322632
0.509592592716217 0.29438143968582153 0.34376710653305054
-0.5740635395050049 0.04790431261062622 -0.09726405143737793
0.33166298270225525 -0.2238142043352127 0.22448720037937164
-0.3257664740085602 0.3510078191757202 0.015648500993847847
0.011346993036568165 -0.6196743845939636 -0.11672161519527435
0.022408191114664078 0.3034929633140564 0.3794412910938263
0.4182598888874054 0.0011756992898881435 0.0028381466399878263
0.0025804925244301558 -0.09215491265058517 0.301929771900177
0.35220974683761597 0.0037784939631819725 -0.11634461581707001
0.13973429799079895 0.40126538276672363 -0.15111172199249268
0.5658690929412842 0.3953704237937927 0.2934468686580658
0.5840034484863281 0.27529218792915344 -0.1464245468378067
0.13590435683727264 -0.3898968994617462 -0.32838571071624756
0.3478735089302063 -0.3908132314682007 0.1350443959236145
-0.22103774547576904 0.40138307213783264 -0.31970521807670593
-0.06689487397670746 -0.6194391250610352 0.008134056814014912
0.24540165066719055 -0.5626514554023743 0.2251100391149521
-0.23666347563266754 -0.0013935118913650513 -0.001184849999845028
0.4451946020126343 -0.17802642285823822 -0.025865526869893074
-0.009226229041814804 0.0016208826564252377 0.10081794112920761
0.047903839498758316 0.0007354654371738434 -0.06535136699676514
-0.001170057337731123 -0.3966310918331146 0.24095360934734344
0.024797525256872177 -0.6192458868026733 -0.13450665771961212
0.23813261091709137 -0.650911271572113 0.20679229497909546
0.5818917155265808 0.29803466796875 -0.17142662405967712
0.025549132376909256 0.38305893540382385 0.4512479901313782
-0.38033807277679443 0.005150972865521908 0.005110409576445818
-0.3439055383205414 0.15068939328193665 -0.40190693736076355
0.2751471698284149 0.33508485555648804 -0.3986647129058838
-0.5783342719078064 0.23321032524108887 0.25513920187950134
-0.06452001631259918 0.002707738894969225 -0.08469083160161972
0.1393471360206604 -0.06292945891618729 0.4545796811580658
0.3392062187194824 0.34285882115364075 0.3422023057937622
-0.31933581829071045 0.2734929621219635 -0.4001970887184143
0.3274644613265991 0.009283624589443207 -0.3915252089500427
0.18770359456539154 -0.2270716428756714 -0.35746532678604126
0.3187527358531952 0.39956843852996826 -0.15931841731071472
0.4488351047039032 0.0005682478658854961 -0.33151525259017944
-0.3659336566925049 0.02288798615336418 -0.3157115578651428
-0.3724317252635956 -0.027506647631525993 -0.04018856957554817
-0.3797643184661865 -0.06393005698919296 -0.057502079755067825
-0.4696792960166931 -0.10695713013410568 -0.25493791699409485
-0.10170575231313705 0.003331954125314951 0.026006706058979034
0.020071838051080704 -0.0020090071484446526 0.2821248769760132
0.09303171932697296 0.46528276801109314 0.43157392740249634
-0.07587762176990509 -0.31208983063697815 0.2699039578437805
-0.16462305188179016 0.0016979621723294258 -0.17432695627212524
0.08127421140670776 0.0028213178738951683 -0.11966314166784286
-0.2492101639509201 0.007238747086375952 -0.3841845691204071
0.08424028009176254 0.4029085338115692 -0.0502077117562294
-0.49535712599754333 0.39801084995269775 -0.2741067409515381
0.28858664631843567 0.40316838026046753 0.4561806619167328
0.095062755048275 0.002747774589806795 -0.32376837730407715
-0.0795692577958107 -0.5566964745521545 -0.24972601234912872
-0.18626657128334045 -0.10379821062088013 0.14804016053676605
-0.4618523418903351 0.3948964476585388 0.020765159279108047
0.19479714334011078 0.001739265164360404 0.23430511355400085
0.4926850497722626 0.40137946605682373 -0.2602510452270508
-0.39312705397605896 0.005189949180930853 0.04914103448390961
0.36254870891571045 -0.6366032361984253 0.10140206664800644
-0.5788795948028564 0.2574920952320099 -0.23587359488010406
0.3498726487159729 -0.301052063703537 -0.26108893752098083
0.11449422687292099 0.0017635668627917767 0.208305224776268
-0.3945936858654022 0.08653516322374344 -0.37261074781417847
-0.28929856419563293 0.11505816131830215 0.3452303111553192
0.14392545819282532 -0.6230805516242981 0.1718193143606186
0.5164312124252319 0.0015245117247104645 0.19848865270614624
0.3627234697341919 -0.31061431765556335 -0.2551806569099426
-0.307819128036499 0.3545236885547638 0.346118688583374
-0.15074312686920166 -0.6405503153800964 0.08144047856330872
-0.5714700818061829 0.006471181754022837 -0.09837808459997177
0.20701761543750763 0.0038463380187749863 -0.2342202514410019
-0.1629643440246582 -0.09339231252670288 0.1825661063194275
0.23238088190555573 -0.264251172542572 -0.34293994307518005
-0.4641103446483612 0.4041791260242462 0.15243962407112122
0.33942025899887085 0.40292999148368835 0.16686801612377167
0.33580276370048523 0.1254989504814148 0.3450649678707123
-0.4591602385044098 0.07284893095493317 0.34717077016830444
0.01328817568719387 0.002814219333231449 -0.13959462940692902
-0.4780580401420593 0.1213793158531189 0.05128912255167961
-0.020190734416246414 0.40199780464172363 0.1613258719444275
-0.5395888090133667 0.09806809574365616 -0.00496862456202507
-0.16850967705249786 0.4027597904205322 0.27340805530548096
-0.3024730086326599 0.004357954487204552 0.08527597039937973
-0.5801416039466858 0.21283964812755585 0.15977056324481964
0.5763475298881531 0.3333474397659302 0.23540569841861725
0.12111973017454147 0.004478951916098595 0.4635528326034546
-0.1139129251241684 0.0008878157823346555 -0.2495478391647339
0.33052441477775574 -0.6447941064834595 -0.1875484585762024
-0.3734385669231415 0.005573908798396587 -0.027622731402516365
-0.47542136907577515 -0.10730652511119843 -0.065457783639431
0.2166271209716797 -0.20787471532821655 0.293496698141098
-0.11486024409532547 0.0031093687284737825 -0.06502435356378555
-0.576683759689331 0.03967825695872307 0.252483993768692
0.3879673480987549 0.0008115628734230995 -0.23752567172050476
-0.5742745995521545 0.35738688707351685 -0.14467357099056244
0.25500473380088806 -0.3395976722240448 0.277485728263855
0.44806596636772156 -0.3650883436203003 -0.0376603938639164
0.3274936378002167 0.4016854465007782 0.11654835194349289
0.575962245464325 0.01485379133373499 0.12074808031320572
0.567143440246582 0.3982178270816803 -0.1396777480840683
0.4632265269756317 0.4013756215572357 -0.1779831200838089
-0.37018588185310364 -0.02294359728693962 0.33298587799072266
0.19693967700004578 0.40017199516296387 -0.1843799650669098
0.5650878548622131 0.19085951149463654 -0.3926115334033966
0.10963001847267151 0.0008816877380013466 -0.26136747002601624
0.11322548985481262 0.009557224810123444 -0.3913499414920807
0.12361259013414383 0.3873840272426605 0.3459814488887787
0.1506623774766922 -0.5092714428901672 -0.31576961278915405
0.03003385290503502 -0.14014072716236115 0.3087191879749298
0.38401705026626587 -0.37230587005615234 -0.22038568556308746
0.5791471004486084 0.03918099403381348 -0.036679770797491074
-0.02325270138680935 -0.26363274455070496 -0.35078904032707214
0.47173744440078735 0.0031399517320096493 -0.38403451442718506
0.24293513596057892 0.2148338407278061 0.3441098630428314
-0.10721269994974136 0.0029926933348178864 -0.00906413234770298
0.013934892602264881 -0.5084592700004578 0.2471662312746048
0.2929310202598572 -0.4362778067588806 -0.24784311652183533
0.26726362109184265 0.17562857270240784 0.46455246210098267
0.06244412064552307 -0.6201156377792358 -0.01817174442112446
0.5800418853759766 0.15780343115329742 0.1783280074596405
0.0921509712934494 -0.4755464494228363 -0.31846439838409424
0.4933475852012634 0.4025670886039734 0.23649628460407257
-0.32094064354896545 0.4019111394882202 0.2973828613758087
-0.14272940158843994 0.39914265275001526 0.2545090913772583
0.2442377507686615 0.4067339301109314 0.4457727372646332
0.08861593902111053 -0.030719362199306488 -0.3729364275932312
-0.38219133019447327 0.06736433506011963 0.19242966175079346
-0.31340813636779785 0.4025963544845581 -0.03244329243898392
-0.3205986022949219 0.40189996361732483 0.29491227865219116
-0.06783250719308853 -0.3840615749359131 0.2251344472169876
-0.2123088240623474 0.21106696128845215 0.3438493311405182
-0.21370400488376617 0.002410481683909893 -0.046983517706394196
-0.13558252155780792 -0.6065553426742554 0.12821772694587708
-0.23046286404132843 0.33673733472824097 0.3446217477321625
-0.5797470211982727 0.33258748054504395 -0.3538152575492859
-0.1977357119321823 0.0020077156368643045 -0.040821563452482224
-0.2273552566766739 0.3946434259414673 -0.3990255296230316
0.28397107124328613 0.39942556619644165 -0.2285560667514801
0.3603079319000244 0.3945702612400055 0.33796146512031555
-0.3580341935157776 0.001729277428239584 -0.09397663176059723
0.45175817608833313 0.4023379385471344 -0.13484828174114227
-0.10088884085416794 -0.6219708919525146 0.05186762288212776
0.1915464848279953 0.4648532569408417 0.3654438555240631
0.026457462459802628 -0.5735457539558411 0.2516011893749237
0.5301438570022583 0.3991621136665344 0.15568305552005768
0.3966095447540283 -0.5888031721115112 -0.04904819652438164
0.33346036076545715 0.28976842761039734 0.37366873025894165
-0.13566291332244873 0.1923222541809082 -0.40294602513313293
0.02052367851138115 0.2431592047214508 0.3651847243309021
-0.02290342189371586 9.260699152946472e-05 -0.35968664288520813
-0.5751473903656006 0.07033884525299072 -0.06296080350875854
0.24472375214099884 -0.08758656680583954 0.35709303617477417
-0.17203707993030548 0.0024614231660962105 -0.14829447865486145
-0.5731565356254578 0.011046026833355427 0.16444814205169678
0.08284937590360641 0.002320309169590473 -0.30269140005111694
0.16412930190563202 -0.21130655705928802 -0.36622855067253113
-0.465437114238739 0.004160421900451183 0.07162296026945114
0.405847430229187 0.0010143043473362923 -0.31053707003593445
0.16514989733695984 0.39718493819236755 -0.3670850694179535
0.5824640989303589 0.3647233545780182 0.2573566138744354
0.21039137244224548 -0.09146828949451447 0.32945334911346436
0.03105172887444496 0.0012007136829197407 -0.08007516711950302
0.36230823397636414 0.3243328034877777 -0.3984138071537018
0.2936684191226959 -0.6203367114067078 0.05452007055282593
0.10338226705789566 0.0022448294330388308 -0.024992946535348892
-0.09773416817188263 -0.619147539138794 -0.08412420749664307
0.2094302475452423 -0.00020858831703662872 0.28723078966140747
0.4346837103366852 0.25914785265922546 -0.40310022234916687
-0.09003287553787231 0.17599402368068695 0.39628860354423523
0.21670912206172943 0.4016639292240143 -0.2676061689853668
-0.37153345346450806 0.06738767772912979 0.3440152108669281
0.4437170922756195 -0.18134967982769012 0.0011589610949158669
-0.26053494215011597 0.03539242967963219 -0.3982464671134949
0.25111863017082214 -0.6202645897865295 -0.041581738740205765
-0.34307390451431274 0.008204670622944832 0.312059611082077
0.5780794620513916 0.0176052488386631 -0.15025688707828522
0.5679802298545837 0.3966306447982788 -0.2520959675312042
0.12994107604026794 0.0018976815044879913 0.012607187032699585
-0.5054685473442078 0.3735538423061371 -0.14826352894306183
0.2581115663051605 -0.12614977359771729 -0.3295882046222687
0.2462950199842453 -0.04680747911334038 0.3275037705898285
0.36357879638671875 0.4022718667984009 0.1812075823545456
0.19950875639915466 -0.6238072514533997 0.19555005431175232
-0.037762947380542755 -0.6227671504020691 0.1353810578584671
-0.026190897449851036 0.3103660047054291 0.3471929728984833
-0.11280103027820587 0.24036824703216553 0.3909192383289337
0.13290975987911224 0.20968249440193176 0.46325674653053284
-0.1200026273727417 0.18110910058021545 -0.40236201882362366
0.5781234502792358 0.06394042819738388 0.1096571534872055
0.5811329483985901 0.09311352670192719 0.11174571514129639
-0.015340495854616165 -0.6210142970085144 0.11618592590093613
0.013295997865498066 0.3001319468021393 -0.3982711136341095
-0.28673645853996277 0.40170881152153015 -0.2735433280467987
-0.06101326644420624 0.0020484542474150658 -0.23351110517978668
-0.42221134901046753 -0.09771506488323212 0.21506327390670776
0.20276743173599243 -0.1189379021525383 0.29768624901771545
-0.32132863998413086 0.3995093107223511 0.15457433462142944
-0.2068064957857132 0.005531676113605499 0.33153852820396423
0.171773299574852 -0.5290490984916687 -0.31537339091300964
0.07906211167573929 0.13883529603481293 -0.39911937713623047
-0.2845710813999176 0.35725101828575134 -0.39670857787132263
-0.5646520256996155 0.07333184778690338 -0.1706772744655609
0.22336076200008392 0.011755919083952904 -0.3944108486175537
-0.1653713583946228 0.16139669716358185 -0.4020882248878479
-0.37323734164237976 -0.05651383846998215 0.09684275835752487
-0.22912946343421936 0.04736645892262459 0.3433680832386017
0.03231997787952423 0.2654714286327362 0.4601536989212036
0.09646201133728027 -0.6215473413467407 0.035830214619636536
-0.29171618819236755 0.0010948898270726204 -0.10127938538789749
0.3860316276550293 0.002407877938821912 -0.013999647460877895
-0.26799336075782776 0.004186781123280525 0.18528777360916138
0.4427553117275238 -0.2675198018550873 0.003824397688731551
0.30770236253738403 0.002841000445187092 -0.022288436070084572
0.20368139445781708 0.002216038992628455 -0.3104851245880127
0.11630773544311523 -0.6396869421005249 -0.3139578104019165
-0.14536312222480774 -0.0018157865852117538 -0.1468765139579773
0.15362189710140228 0.3246270418167114 0.34115657210350037
-0.5619797706604004 0.06597569584846497 0.33171096444129944
-0.45691439509391785 -0.10547950863838196 -0.31615015864372253
0.27234897017478943 0.3068622350692749 0.3442175090312958
-0.36994609236717224 0.05526584014296532 0.17699867486953735
0.27449727058410645 0.40080493688583374 -0.1916370838880539
-0.49053454399108887 0.19206145405769348 -0.399872362613678
-0.37789568305015564 -0.05310320481657982 -0.3499840497970581
0.12164216488599777 0.00403966847807169 0.13864018023014069
0.23426903784275055 0.4027533531188965 0.02133885771036148
-0.5782892107963562 0.18358448147773743 0.08663026243448257
0.23245137929916382 0.3805021047592163 0.46190163493156433
0.5145677924156189 0.4010915756225586 -0.11158843338489532
-0.5720480680465698 0.06336939334869385 0.2630467712879181
-0.38364291191101074 -0.06238381937146187 0.05633334815502167
0.15856043994426727 0.45425471663475037 0.4419710636138916
-0.5672091245651245 0.16343052685260773 0.33295315504074097
-0.10954069346189499 -0.6505838632583618 0.1348642110824585
0.07498381286859512 -0.48276886343955994 0.25930866599082947
0.4664594531059265 0.399823933839798 -0.02591659314930439
0.09373454749584198 0.40108001232147217 -0.2807319164276123
0.254853755235672 0.40292295813560486 0.27853551506996155
0.3853781819343567 0.398907870054245 0.31880754232406616
0.3022993505001068 0.0026585599407553673 -0.2124755084514618
0.18414950370788574 0.31017687916755676 0.3425142467021942
0.3008231222629547 0.0024248245172202587 0.14948570728302002
0.33766695857048035 0.0035728421062231064 -0.29140856862068176
0.32861942052841187 -0.09148887544870377 -0.2869962155818939
-0.4651145339012146 0.365754097700119 -0.18637390434741974
-0.18202745914459229 -0.3769156336784363 0.13587038218975067
0.3809588551521301 0.0023295695427805185 -0.005022171884775162
0.2333775758743286 0.07178197056055069 0.3423854410648346
0.4519958794116974 -0.0006973809795454144 0.10406427830457687
0.49266180396080017 0.398976594209671 -0.3258538842201233
-0.23494313657283783 -0.11370086669921875 -0.08690766990184784
-0.09196776151657104 -0.16500212252140045 0.2528497278690338
-0.10964861512184143 -0.2506774961948395 0.2392091006040573
-0.33514806628227234 0.353877454996109 0.342790424823761
0.12986615300178528 0.0022847559303045273 0.2513979375362396
-0.1114128828048706 -0.6462315320968628 0.11993268877267838
0.46250075101852417 0.0030706683173775673 0.18413807451725006
0.1482050120830536 -0.20985321700572968 0.31077516078948975
-0.37945452332496643 -0.0037224888801574707 0.10229014605283737
0.3730173408985138 -0.36080408096313477 -0.23979884386062622
-0.5751296877861023 0.3426140546798706 -0.38360917568206787
-0.5689088106155396 0.065652035176754 -0.3909769356250763
-0.5664892196655273 0.0009332047775387764 -0.287593275308609
0.2297343909740448 -0.6235742568969727 -0.08142535388469696
-0.1785888671875 -0.39036086201667786 0.062493979930877686
