-0.5799174308776855 -0.04834120720624924 -0.33783191442489624
0.14642436802387238 0.4024377763271332 0.2031279355287552
0.0003400406567379832 0.0026926554273813963 0.237991601228714
0.41764867305755615 -0.0010318970307707787 0.10367155075073242
0.2446201741695404 0.4035014510154724 0.09024668484926224
0.09249410778284073 0.003875915426760912 0.2413206249475479
0.5677430629730225 0.10669863224029541 -0.4003971815109253
0.32636722922325134 -0.3622695803642273 0.2323555052280426
-0.11160127073526382 -0.003175973892211914 0.2677207589149475
0.4920862019062042 0.35970988869667053 0.347012460231781
-0.3835459351539612 0.07563017308712006 -0.13531474769115448
0.040701329708099365 0.26920220255851746 0.4637632668018341
0.27541443705558777 0.055148255079984665 0.4602442979812622
0.39390939474105835 -0.3110303580760956 -0.2134781926870346
0.41286566853523254 0.00011263639316894114 0.05138486623764038
0.22594568133354187 0.0021646679379045963 -0.056196290999650955
-0.01662290282547474 -0.6210708618164062 -0.13028427958488464
0.34595710039138794 -0.6426546573638916 0.08954287320375443
-0.0938354879617691 -0.2044813483953476 0.25234436988830566
0.018179574981331825 -0.38114824891090393 0.2616212069988251
0.16979281604290009 -0.6451857686042786 -0.2890467345714569
0.5409982800483704 0.004637256730347872 -0.14445675909519196
-0.5611748099327087 0.37611979246139526 -0.0025226327124983072
0.3820949196815491 0.40224942564964294 -0.20226792991161346
0.0794001892209053 0.0017458151560276747 -0.24307045340538025
0.579886794090271 0.21746790409088135 -0.3602537512779236
-0.5805757641792297 0.32383471727371216 -0.21735084056854248
0.16282771527767181 -0.21957553923130035 -0.3635709583759308
-0.3096071183681488 0.4066691994667053 -0.2708687484264374
-0.22441180050373077 0.002116456627845764 -0.19242259860038757
-0.5221616625785828 -0.07838204503059387 0.3387996256351471
0.04467922821640968 0.0017321715131402016 0.28664642572402954
0.5736281275749207 0.34601980447769165 -0.2845480740070343
-0.02172514609992504 -0.6203016042709351 0.13731832802295685
-0.12437994033098221 -0.13189509510993958 0.22927920520305634
-0.1527175009250641 -0.6247677803039551 0.023461859673261642
0.41624319553375244 -0.09347349405288696 0.11128578335046768
0.09612079709768295 -0.0005586924962699413 -0.3764071464538574
-0.5679339170455933 0.3359992802143097 -0.3490501642227173
0.42029494047164917 -0.3716372549533844 -0.029699781909585
-0.10209060460329056 -0.0006306292489171028 0.11823593825101852
0.42847391963005066 -0.1613103598356247 0.0839180126786232
-0.43355900049209595 -0.09515675902366638 0.3228139281272888
0.021901069208979607 -0.26463788747787476 -0.35940152406692505
0.34842726588249207 0.005654921289533377 -0.38171181082725525
0.11089831590652466 -0.6315106153488159 -0.319707989692688
-0.10010825842618942 0.4037579298019409 0.25732049345970154
-0.45986831188201904 0.40416353940963745 0.2138015329837799
-0.5848290920257568 0.31908971071243286 -0.400367796421051
-0.008454862982034683 0.3277786672115326 0.35031557083129883
-0.37674209475517273 0.03853759914636612 -0.3331826329231262
0.43857282400131226 -0.18762938678264618 -0.12083378434181213
0.10584293305873871 0.0012027740012854338 -0.36331912875175476
0.044685959815979004 0.4026011526584625 0.0189093966037035
0.12269743531942368 0.4727804362773895 0.39385461807250977
0.09450344741344452 0.40438181161880493 0.11563791334629059
0.32243630290031433 0.0027968119829893112 0.21504542231559753
0.44354596734046936 0.22009548544883728 0.34445422887802124
-0.5820353031158447 0.16629062592983246 -0.30579355359077454
0.5524929165840149 0.4042477309703827 0.30701199173927307
0.5261874198913574 0.2721303105354309 0.3447885513305664
0.5295820832252502 0.3972446918487549 -0.26984304189682007
-0.10957803577184677 -0.16746263206005096 -0.3035159707069397
-0.18684321641921997 0.4050564467906952 -0.20121678709983826
0.5861531496047974 0.22377434372901917 0.2244328111410141
-0.5521384477615356 0.06456150859594345 -0.29032841324806213
-0.5706735253334045 0.001193746691569686 0.26536765694618225
-0.5719552636146545 0.34858083724975586 0.08567461371421814
-0.38934561610221863 -0.0006156242452561855 0.25621315836906433
0.3190890848636627 0.30767500400543213 0.4492838382720947
-0.5791633129119873 0.08179527521133423 -0.2802102267742157
0.44175955653190613 -0.0015980515163391829 0.0026678352151066065
0.28384295105934143 0.0017420398071408272 -0.2524995505809784
-0.569042980670929 0.1496761441230774 -0.395536869764328
-0.28359368443489075 0.3849821388721466 -0.11122143268585205
0.27538809180259705 0.0010709967464208603 -0.10724306106567383
-0.12013056129217148 -0.628842294216156 -0.11740229278802872
0.21769994497299194 -0.002473406260833144 0.28256577253341675
-0.3630787134170532 0.019888952374458313 -0.37715834379196167
0.2810326814651489 6.047263741493225e-05 -0.036789942532777786
-0.1334366649389267 0.23719902336597443 -0.40358927845954895
0.2871168553829193 -0.6414468884468079 0.18419015407562256
0.3023151159286499 0.343051552772522 0.347857803106308
-0.5690866112709045 0.05229608342051506 -0.05451463535428047
-0.4114747941493988 0.0015094319824129343 -0.17001670598983765
-0.3979872465133667 0.4094870984554291 -0.1384885013103485
0.4459995925426483 0.0013864273205399513 -0.1861296147108078
-0.5770087242126465 -0.019318148493766785 0.3407050669193268
-9.862566366791725e-05 -0.6346642374992371 -0.2565910220146179
-0.15297579765319824 -0.6324694156646729 0.046115875244140625
-0.4495980143547058 0.1125483363866806 0.09237854182720184
0.16547781229019165 0.00099571468308568 -0.32171326875686646
0.4272616505622864 -0.09933911263942719 0.08214201778173447
-0.5669264197349548 0.20799364149570465 0.31895938515663147
0.2236514389514923 -0.5096288919448853 0.22889138758182526
0.20519067347049713 0.0017929461318999529 -0.14118044078350067
0.24559979140758514 -0.6193963289260864 -0.2052537053823471
-0.16697241365909576 0.06467965990304947 0.3444526195526123
0.02081158757209778 0.3450952470302582 0.4386054575443268
0.3133792579174042 -0.07365246117115021 0.3814552426338196
0.2611882984638214 -0.6218665242195129 -0.163141667842865
0.3849109709262848 0.0008021460380405188 -0.1382160186767578
0.2519708275794983 0.005301004741340876 0.3361474573612213
0.14203539490699768 -0.6177065372467041 -0.23030194640159607
-0.4989577531814575 0.20005548000335693 -0.406696081161499
-0.570727527141571 0.0751267671585083 0.10929182916879654
-0.5114494562149048 0.0019835885614156723 -0.2221394032239914
0.31667399406433105 0.39836210012435913 0.3237835168838501
-0.27046462893486023 0.17836792767047882 0.3463219702243805
-0.35373538732528687 -0.012543926015496254 -0.32437390089035034
0.45897337794303894 0.017530500888824463 -0.39699870347976685
0.4695434272289276 0.3453315794467926 -0.40302610397338867
-0.5413126945495605 -0.07320526987314224 0.31633272767066956
-0.5306228995323181 0.05695538595318794 0.34454044699668884
0.351670503616333 0.4013240933418274 -0.34289413690567017
0.13685640692710876 0.2572561204433441 0.46566060185432434
0.42025241255760193 0.006011206656694412 0.020467236638069153
-0.008021201007068157 -0.002476645167917013 -0.28568482398986816
0.4470749497413635 -0.33910417556762695 -0.06041527912020683
0.2206539362668991 0.0021921293810009956 -0.20321974158287048
0.5843877792358398 0.26584964990615845 -0.07677950710058212
-0.5800758004188538 0.11927293986082077 0.11922812461853027
0.3877016305923462 -0.5157219767570496 0.022831572219729424
0.4287455976009369 -0.15593722462654114 0.07825258374214172
-0.5662536025047302 0.17415599524974823 -0.03805060312151909
0.042800504714250565 0.0008012591861188412 -0.10040301084518433
0.3090604841709137 0.0011185992043465376 -0.3704919219017029
0.28132185339927673 -0.6175544261932373 -0.13476844131946564
0.5851751565933228 0.026654019951820374 -0.36884498596191406
0.22969432175159454 -0.13891704380512238 0.28872647881507874
0.029593398794531822 0.07744961231946945 0.37113332748413086
0.37443554401397705 -0.624893844127655 0.021717503666877747
-0.13338243961334229 0.40756702423095703 0.04216764122247696
-0.5654051303863525 0.09119553864002228 -0.37720197439193726
0.0038350922986865044 0.3570158779621124 0.3491359353065491
0.23206523060798645 0.0010982416570186615 -0.28015032410621643
0.5859816670417786 0.1473376303911209 -0.1502160131931305
-0.21175867319107056 -0.09679881483316422 0.11843064427375793
0.24942544102668762 0.40117812156677246 0.24235403537750244
-0.5607629418373108 0.06985192745923996 -0.13552741706371307
0.1919085830450058 -0.06568636000156403 -0.35094714164733887
-0.03618085756897926 0.40452271699905396 0.21950645744800568
0.052826229482889175 0.40436500310897827 -0.36747661232948303
0.11879632622003555 -0.042820367962121964 -0.36955273151397705
-0.3246603012084961 0.40685173869132996 -0.0390787199139595
-0.059859246015548706 -0.6163237690925598 -0.009370062500238419
-0.44008174538612366 -0.1021803542971611 -0.39595991373062134
-0.5813437700271606 0.030680570751428604 -0.34653419256210327
0.5790086388587952 0.36049389839172363 -0.3898535966873169
0.18289195001125336 -0.6183050870895386 0.16357454657554626
0.5710870623588562 0.20631928741931915 -0.3895036280155182
0.2109847068786621 0.37235692143440247 -0.4056481122970581
0.4526579976081848 0.40213119983673096 0.1283334344625473
0.5793728828430176 0.08754195272922516 -0.02221260406076908
-0.1515921801328659 0.3412918448448181 0.34653574228286743
-0.19847869873046875 -0.09123113751411438 0.14818724989891052
0.1855638325214386 0.22127565741539001 -0.40202096104621887
0.17563651502132416 0.0030228118412196636 -0.3818894624710083
-0.4051283895969391 -0.00559644028544426 0.19099953770637512
-0.20951378345489502 0.40544748306274414 -0.12773147225379944
-0.3563441038131714 0.3995058834552765 0.27022773027420044
0.20979489386081696 0.40210825204849243 -0.33779388666152954
0.39024409651756287 0.0011746420059353113 0.2249605506658554
-0.03447023406624794 -0.6146293878555298 0.0015459104906767607
0.571596622467041 0.08785875141620636 0.31933245062828064
0.1283077448606491 0.4047597050666809 -0.25634026527404785
-0.005423376336693764 -0.6182417273521423 0.0808342695236206
-0.5531509518623352 -0.006295728962868452 0.14921128749847412
-0.4225737154483795 0.17190061509609222 -0.40334317088127136
0.002068276982754469 0.2408084273338318 -0.40198370814323425
0.14056524634361267 -0.647748589515686 -0.30500364303588867
-0.08329305797815323 0.0012276750057935715 0.070823073387146
0.015915527939796448 0.33550480008125305 0.3809611201286316
-0.22948314249515533 0.06735717505216599 -0.3988877534866333
-0.31659069657325745 0.37457484006881714 0.0037870840169489384
0.06111740693449974 -0.2755042314529419 -0.37022972106933594
0.3214873969554901 0.031183356419205666 -0.39991509914398193
0.5415717363357544 0.4013988971710205 0.30590248107910156
-0.5723795294761658 -0.03314480185508728 -0.03673972934484482
-0.16459619998931885 0.08375004678964615 0.3443164825439453
-0.5062849521636963 0.3904799520969391 -0.09037075191736221
0.5768872499465942 0.3564774990081787 0.21709208190441132
0.3636452257633209 0.40083834528923035 0.049574531614780426
0.2721584141254425 0.40396052598953247 -0.011259449645876884
0.3726966083049774 0.24741439521312714 0.34503331780433655
0.22264008224010468 -0.007301810197532177 0.327375203371048
0.40878573060035706 0.404319703578949 0.06969330459833145
-0.5777018666267395 0.11992637813091278 -0.15985743701457977
-0.4928421676158905 0.11942983418703079 0.3192524313926697
0.2049671858549118 0.4014683961868286 -0.09680664539337158
-0.5240665674209595 -0.08930964022874832 0.06983249634504318
0.2286834418773651 0.4024454355239868 -0.22199591994285583
-0.1636812388896942 -0.4343871772289276 0.05967831611633301
-0.09283646196126938 0.40549927949905396 0.044531624764204025
0.5808209776878357 0.27876484394073486 -0.20107483863830566
-0.5706658959388733 -0.05801752954721451 -0.2597552537918091
0.19531138241291046 0.2311578094959259 0.34395831823349
-0.5181266665458679 0.39527156949043274 -0.3163374364376068
0.16989414393901825 0.0032453080639243126 -0.09518890827894211
0.3132462501525879 0.3333745300769806 0.3673315942287445
-0.564203679561615 0.0037383832968771458 0.10410188883543015
-0.3893895149230957 0.008685028180480003 0.3436868190765381
-0.22145210206508636 0.0007108496502041817 -0.1876211166381836
0.09314221888780594 0.01434063445776701 -0.39591217041015625
0.1999962031841278 0.4022861123085022 0.16631633043289185
0.06705567985773087 0.024233847856521606 0.4633106291294098
-0.026529666036367416 0.0011557263787835836 -0.03261426091194153
0.5809360146522522 0.2972572445869446 -0.34576502442359924
0.040475986897945404 0.001125819981098175 0.3257294297218323
-0.2343786656856537 0.4037039577960968 0.02596491202712059
-0.5100686550140381 0.37388303875923157 -0.15545973181724548
-0.46240195631980896 0.0002309633418917656 -0.05192675441503525
0.18180693686008453 -0.31113216280937195 0.3094766438007355
0.2763355076313019 -0.619109570980072 -0.12369184195995331
-0.3889787793159485 0.4069598615169525 0.04615368694067001
-0.5752573609352112 0.018911508843302727 -0.04194886237382889
0.0838112086057663 -0.6193533539772034 0.11254845559597015
0.5757839679718018 0.011820198968052864 0.10023625195026398
-0.2029624581336975 0.0013253260403871536 -0.187127485871315
-0.03179429844021797 0.3984411358833313 -0.06022965908050537
-0.1706976294517517 -0.00016288505867123604 -0.25899869203567505
0.15167692303657532 0.40408048033714294 -0.06598980724811554
-0.23212774097919464 -0.09336362034082413 -0.13462568819522858
0.41289815306663513 0.3347301185131073 -0.3993857502937317
0.31544703245162964 0.16451749205589294 0.44479161500930786
-0.4707205891609192 -0.11651221662759781 -0.18548284471035004
0.2009677141904831 -0.615013599395752 0.17311199009418488
-0.41203659772872925 0.15831084549427032 0.3417065441608429
0.577764093875885 0.061938997358083725 -0.18565835058689117
0.10331179946660995 -0.6164981722831726 0.19583044946193695
-0.10256197303533554 0.2760132849216461 -0.40281546115875244
-0.5719347596168518 0.17096088826656342 -0.08392604440450668
-0.2575247287750244 -0.0007596486248075962 -0.02297498844563961
0.18869061768054962 -0.22869732975959778 -0.3614649772644043
0.028122421354055405 -0.001333107240498066 -0.3322450816631317
-0.5768125057220459 0.2119322270154953 -0.23027238249778748
0.21698027849197388 -0.42911139130592346 -0.2958834767341614
-0.5736566781997681 0.23600734770298004 -0.40027791261672974
-0.5341343879699707 0.2241889387369156 0.3441356122493744
-0.11762268096208572 -0.6201587915420532 -0.059170641005039215
0.05055217817425728 -0.30900484323501587 -0.3698159456253052
-0.1516575962305069 0.40083128213882446 -0.29031965136528015
0.49205297231674194 0.40476009249687195 -0.24521809816360474
-0.2113257497549057 0.0024797040969133377 -0.0296477060765028
0.2349957823753357 0.004668207839131355 -0.04107340797781944
0.43267592787742615 -0.1661372035741806 -0.09982448071241379
-0.1085515171289444 0.4015617072582245 0.19571129977703094
0.11009558290243149 0.3073553442955017 0.3435729146003723
-0.5509743690490723 -0.00974779948592186 0.3453439772129059
-0.4997396469116211 0.4025692641735077 -0.22570674121379852
-0.48456427454948425 0.3674044609069824 -0.017817040905356407
0.15281188488006592 -0.13984660804271698 0.3136623203754425
-0.18106068670749664 -0.0942230373620987 0.17383448779582977
0.09989168494939804 0.08187161386013031 0.46564486622810364
0.2353164404630661 -0.6233226656913757 -0.04860195517539978
0.1009427011013031 -0.6172622442245483 0.042095862329006195
0.4567722678184509 0.14180071651935577 0.3445878326892853
-0.37099015712738037 0.002351614413782954 0.1711098551750183
-0.06979157775640488 0.001856459304690361 -0.05482251197099686
0.029803480952978134 -0.6186637282371521 -0.24410337209701538
-0.056577712297439575 0.0033600996248424053 0.16305793821811676
0.30065199732780457 0.003597998060286045 -0.075369693338871
0.5832922458648682 0.02991631254553795 -0.15026403963565826
-0.42716750502586365 0.40473639965057373 0.2471577376127243
0.19391588866710663 -0.3151419460773468 0.30594998598098755
-0.11629898846149445 0.2197500616312027 -0.4050554037094116
0.3085401654243469 0.0905221551656723 0.34579646587371826
0.15470479428768158 0.002334276679903269 0.25731223821640015
0.3177255094051361 0.4077363908290863 0.41813308000564575
-0.42485350370407104 0.10649215430021286 0.12009385973215103
-0.585008978843689 0.3339228928089142 0.04513433948159218
-0.5834726095199585 0.017400888726115227 -0.09621617943048477
-0.29892498254776 0.27439412474632263 -0.4058701992034912
-0.15964089334011078 -0.3776046931743622 -0.20012851059436798
-0.1751583218574524 0.0034913793206214905 0.04992998018860817
0.02915309928357601 0.4042436182498932 0.2876046299934387
0.3419022560119629 -0.16551382839679718 0.21068233251571655
-0.4466527998447418 0.25654035806655884 -0.403765469789505
0.28014323115348816 -0.528546154499054 -0.2566882371902466
-0.4968150556087494 0.1183289885520935 -0.09269320964813232
-0.1871841698884964 -0.5863854885101318 -0.07525835186243057
0.1840716153383255 0.14088837802410126 0.3436902165412903
-0.25302693247795105 0.12884849309921265 -0.4030200242996216
0.4400119483470917 0.23547647893428802 -0.40200701355934143
-0.3527401387691498 0.0027033493388444185 0.19078420102596283
-0.09966954588890076 -0.36345893144607544 -0.295401930809021
-0.04258327931165695 0.4009796679019928 -0.043302394449710846
-0.1157856211066246 0.014845496043562889 0.335373193025589
-0.5681816339492798 0.2691698670387268 0.33859336376190186
0.18954607844352722 -0.0011538751423358917 -0.21572339534759521
0.065121129155159 -0.64397132396698 0.2520458996295929
-0.1472349762916565 -0.41169288754463196 0.12208648771047592
0.582457423210144 0.3860971927642822 0.08289635181427002
0.41349855065345764 0.3982458710670471 -0.3961392939090729
0.38583678007125854 -0.48730307817459106 0.020680323243141174
0.3488509953022003 0.40083935856819153 -0.3862389028072357
-0.31343138217926025 0.38777896761894226 -0.1744903326034546
0.16227704286575317 -0.628059446811676 0.20406043529510498
0.45152583718299866 0.4005957543849945 -0.39087969064712524
-0.3587457537651062 0.00799968745559454 -0.10359077155590057
-0.2686001658439636 0.40309175848960876 0.011596069671213627
-0.09587228298187256 0.003710856894031167 0.30293309688568115
0.0853940099477768 -0.4180809259414673 0.26104244589805603
-0.46083864569664 -0.014993622899055481 0.35616958141326904
-0.49379122257232666 0.10113922506570816 0.3459409773349762
0.069887176156044 0.0016536461189389229 -0.2611613869667053
-0.22937797009944916 -0.12847654521465302 0.07226178050041199
0.30489200353622437 0.12115166336297989 0.4506063759326935
-0.029185906052589417 0.4054287075996399 -0.0326542966067791
0.2571144700050354 0.01223728246986866 -0.3938063681125641
0.5173465609550476 0.024803422391414642 0.3437614142894745
0.29223302006721497 0.4015204906463623 -0.016002124175429344
-0.0988997295498848 -0.0014891703613102436 -0.262186735868454
0.5803678035736084 0.34628430008888245 -0.28493791818618774
0.5790497660636902 0.09347609430551529 -0.05995338782668114
-0.589934766292572 0.057439062744379044 -0.19645211100578308
0.0025110230781137943 -0.15160468220710754 0.30326372385025024
0.28873705863952637 -0.3710521161556244 -0.2893829345703125
0.23389223217964172 -0.38639381527900696 -0.2824370563030243
0.28964874148368835 0.007623594254255295 -0.3943093419075012
0.38747844099998474 -0.5310901403427124 0.004282420966774225
-0.354081928730011 0.405271053314209 0.21782678365707397
-0.5921237468719482 0.16988416016101837 0.3067075312137604
-0.26244980096817017 0.012838185764849186 -0.3988192677497864
-0.5446571111679077 0.022861840203404427 0.3430083692073822
-0.37939974665641785 0.3958214521408081 0.23585616052150726
0.4503745436668396 0.4026171565055847 -0.24341125786304474
-0.5069499015808105 -0.10227920114994049 0.23437142372131348
-0.14148573577404022 0.0009542051702737808 0.17715990543365479
-0.5644782781600952 0.3446193039417267 -0.2540634870529175
-0.4850086569786072 -0.11223631352186203 -0.018428249284625053
-0.07950045168399811 -0.0010960111394524574 -0.28821107745170593
-0.2228400707244873 -0.3733854293823242 -0.12242874503135681
0.2144983857870102 -0.35958558320999146 0.28819918632507324
-0.30232247710227966 0.37353286147117615 -0.17068056762218475
-0.43131697177886963 -0.0024388546589761972 -0.3010706305503845
-0.03013911470770836 0.4054519534111023 0.2633528411388397
0.3034597337245941 0.003837212920188904 0.06553675979375839
0.05396314337849617 0.403878390789032 -0.18623600900173187
-0.32831504940986633 0.4034884572029114 0.0655379444360733
0.08741730451583862 0.00327058183029294 0.23266632854938507
0.33029183745384216 0.03158465400338173 0.35187098383903503
0.2467842996120453 -0.08704052120447159 -0.34613296389579773
0.13163506984710693 0.4044857621192932 -0.24811194837093353
-0.17006298899650574 -0.600230872631073 0.07285680621862411
0.22474096715450287 -0.047476332634687424 -0.35145193338394165
0.3564607799053192 -0.4422764480113983 -0.14372582733631134
-0.2248784601688385 -0.3215438723564148 -0.13507071137428284
0.015371269546449184 0.0025462089106440544 0.18652145564556122
0.27114444971084595 0.40282562375068665 -0.26504096388816833
0.1853371411561966 0.40048855543136597 -0.001249066786840558
0.3333956003189087 0.01088633481413126 -0.3921049237251282
0.029936451464891434 -0.011410814709961414 0.458057165145874
-0.06823673844337463 -0.21319065988063812 -0.3311375379562378
-0.4830651879310608 -0.09607147425413132 0.20033346116542816
-0.564276933670044 0.004502316005527973 0.08067961782217026
0.03865866735577583 -0.564847469329834 0.25673097372055054
0.23006483912467957 -0.1698617935180664 -0.3438907861709595
0.10400635004043579 0.46085891127586365 0.4213564097881317
-0.2135351598262787 -0.3674798309803009 -0.14577442407608032
0.5660192966461182 0.009750261902809143 -0.20897342264652252
0.544942319393158 0.0038039693608880043 -0.28633686900138855
0.10303594172000885 0.0004058089107275009 0.004420135170221329
-0.18184439837932587 -0.557991087436676 -0.10226714611053467
0.2290799915790558 -0.6184999942779541 0.16024594008922577
0.15397357940673828 -0.0008425917476415634 0.1110100969672203
-0.4485718309879303 0.4036496579647064 -0.38519448041915894
-0.5914410352706909 0.19219861924648285 0.3065640330314636
-0.5832270383834839 0.08438746631145477 -0.17853574454784393
0.033995307981967926 -0.0005804801476188004 -0.36308589577674866
0.26382744312286377 0.0017314627766609192 -0.15877744555473328
0.11693793535232544 -0.6151401996612549 0.10632333159446716
-0.4793403148651123 0.2429993450641632 0.3434988260269165
-0.07687313854694366 -0.5794894099235535 0.19805777072906494
-0.5177024602890015 0.09197027236223221 0.15969985723495483
-0.39081263542175293 0.08207399398088455 0.14951498806476593
0.5806101560592651 0.060300279408693314 -0.3918885588645935
0.17565666139125824 0.403385192155838 0.010702960193157196
0.30387815833091736 -0.0008558877743780613 -0.255912721157074
-0.29958781599998474 0.14366357028484344 -0.4002669155597687
-0.3652039170265198 -0.0036859307438135147 0.06793197989463806
-0.353501558303833 0.029716050252318382 0.27447259426116943
-0.4790521562099457 0.11198081821203232 0.07016833126544952
-0.04235367849469185 0.02867859974503517 0.34316474199295044
-0.4157536029815674 0.40402722358703613 0.12790805101394653
0.4274578094482422 -0.3660646080970764 0.046171437948942184
0.24001190066337585 -0.620607852935791 -0.07136783748865128
-0.3777029514312744 0.00713615957647562 -0.3409333825111389
-0.033791109919548035 0.4049363136291504 0.08968319743871689
0.5645543336868286 0.00849189143627882 -0.17386993765830994
-0.19428963959217072 -0.2615644037723541 -0.20388196408748627
0.18864412605762482 0.0029123621061444283 -0.16165246069431305
-0.044138628989458084 0.4056764543056488 -0.216832235455513
-0.4526944160461426 0.39963945746421814 -0.09575022011995316
0.44917863607406616 -0.24770158529281616 -0.05001942440867424
0.41891053318977356 -0.30830907821655273 0.09559816122055054
0.40180519223213196 -0.1074233204126358 -0.21213243901729584
-0.2424308955669403 0.18652915954589844 0.34546056389808655
0.15347084403038025 0.06792567670345306 0.46073010563850403
0.3353387117385864 0.3457370698451996 0.3474770486354828
0.20377995073795319 -0.0019487207755446434 -0.319466233253479
-0.06679519265890121 -0.00017888005822896957 -0.3242942690849304
-0.0782075822353363 0.4027065634727478 0.3054800033569336
0.12248830497264862 0.03326559066772461 0.3463430106639862
-0.10401845723390579 0.0017627528868615627 0.12554141879081726
0.251965194940567 0.0032654032111167908 -0.27371129393577576
0.36689502000808716 -0.5686671137809753 0.09011837840080261
-0.57292640209198 0.1268579363822937 -0.021697742864489555
-0.32273590564727783 0.005377133376896381 0.2538986802101135
0.10813689976930618 0.46452873945236206 0.42050132155418396
-0.367025226354599 -0.06267038732767105 0.13221552968025208
-0.3959544897079468 0.03705533221364021 0.33973944187164307
0.035881251096725464 0.23329803347587585 0.36823132634162903
0.12948065996170044 -0.6176965832710266 -0.25323686003685
-0.36412614583969116 0.0018439792329445481 -0.1877807229757309
0.3829306662082672 -0.5270694494247437 -0.09442543238401413
-0.07483596354722977 -0.021856509149074554 0.2516237497329712
0.3258225619792938 0.025391263887286186 -0.39957448840141296
-0.15494349598884583 0.4054115414619446 -0.23290960490703583
0.053191639482975006 0.0006777001544833183 -0.04102351889014244
0.2654470205307007 -0.6215524673461914 0.12163271009922028
-0.5748400688171387 0.3006037175655365 -0.22959637641906738
-0.33075788617134094 0.3973790109157562 0.33855336904525757
0.23333947360515594 0.46931084990501404 0.38571059703826904
0.28373295068740845 0.24847012758255005 0.45876389741897583
0.205414280295372 0.00417912844568491 0.20393112301826477
0.13148105144500732 0.0016391966491937637 -0.2765514552593231
0.4424113929271698 -0.31238073110580444 0.006856032181531191
-0.04213123768568039 0.02584904618561268 -0.4027165174484253
0.3195222318172455 0.11671878397464752 0.34738194942474365
-0.565160870552063 0.034602485597133636 0.09345334768295288
0.10893596708774567 0.2574280798435211 0.34844261407852173
-0.542415201663971 0.08380656689405441 -0.027746673673391342
-0.5724233984947205 0.23546063899993896 0.2252146154642105
-0.0872342586517334 0.2317834496498108 -0.4034082889556885
0.11061632633209229 0.0022497172467410564 0.07066835463047028
-0.5689505338668823 -0.05693039670586586 -0.02761976420879364
-0.5694361329078674 0.1746395230293274 0.11029382795095444
-0.0923362448811531 0.07563154399394989 0.3462265729904175
-0.49642622470855713 0.0029157577082514763 0.022317873314023018
0.08870932459831238 -0.04167197644710541 0.3251093327999115
0.09081823378801346 0.1901695430278778 0.34857502579689026
0.04106786102056503 -0.00014307722449302673 0.1750703752040863
-0.3568169176578522 0.005677325651049614 -0.06402229517698288
0.48878487944602966 0.40448299050331116 0.2015782594680786
0.054850608110427856 0.4096447825431824 0.3588211238384247
0.19595867395401 -0.516779899597168 0.23873499035835266
0.004406878724694252 -0.6228964328765869 0.04772139713168144
-0.2871045768260956 0.39906784892082214 0.31606951355934143
-0.05395320802927017 -0.6422492861747742 0.2073313593864441
-0.2097347378730774 0.40539976954460144 0.20867908000946045
0.3763568103313446 -0.6359814405441284 -0.1236284151673317
0.287750780582428 0.09702397137880325 0.4594760835170746
0.4437984526157379 -0.3599347174167633 -0.006550928112119436
0.31652337312698364 0.22112993896007538 0.40032005310058594
-0.27323663234710693 0.407552570104599 0.29238998889923096
0.09076668322086334 0.0005188016220927238 -0.021891942247748375
-0.43544161319732666 0.40481987595558167 0.17787384986877441
-0.3652772307395935 0.008760059252381325 -0.38080716133117676
0.30884063243865967 -0.012183710932731628 0.36991411447525024
0.2139955461025238 0.4597182273864746 0.3965006172657013
-0.12310618907213211 -0.39654746651649475 -0.22575758397579193
0.10792858898639679 -0.05981132760643959 0.4512156546115875
-0.10624639689922333 -0.3689890205860138 -0.28111523389816284
0.10110162198543549 0.002558578737080097 0.07133069634437561
0.07121594995260239 0.21111571788787842 0.3485415279865265
0.12360070645809174 -0.15687724947929382 -0.3697059750556946
0.5768438577651978 0.2014816701412201 0.19602710008621216
0.17175449430942535 -0.4357144236564636 -0.31129974126815796
-0.14237774908542633 0.40455207228660583 0.05937926471233368
0.3025582432746887 0.2816527485847473 -0.40231016278266907
0.11128171533346176 0.0020288112573325634 -0.22422197461128235
0.5727696418762207 0.36743423342704773 0.3196432888507843
-0.004091261420398951 -0.6160438060760498 -0.05545716732740402
0.06824570894241333 -0.06968893855810165 0.44702979922294617
-0.3993857800960541 0.08493360877037048 0.34166035056114197
-0.44354838132858276 -0.11504898965358734 -0.3211900591850281
-0.38753044605255127 -0.09132326394319534 -0.25107789039611816
0.15821361541748047 -0.6153265833854675 0.021209703758358955
-0.3551476299762726 -0.005848482251167297 0.019411534070968628
-0.13168732821941376 -0.6228771805763245 -0.02990715391933918
-0.5772672295570374 0.37113943696022034 -0.3889446556568146
0.16049344837665558 0.4052478075027466 -0.3293071985244751
0.12604255974292755 0.27879273891448975 0.34572720527648926
-0.32215026021003723 0.4062301814556122 0.2320973128080368
-0.04172154888510704 0.4028358459472656 -0.15415984392166138
-0.32037487626075745 0.21556882560253143 0.34726473689079285
-0.4117138981819153 -0.08285924047231674 -0.11139175295829773
-0.36690425872802734 0.022868577390909195 0.23270559310913086
0.22094762325286865 -0.6146091818809509 0.045637406408786774
-0.23713520169258118 -0.32298243045806885 -0.08125661313533783
0.0519237257540226 -0.09351915121078491 0.43711578845977783
-0.05139300972223282 -0.36729875206947327 0.27876290678977966
0.24237096309661865 0.29479581117630005 0.34770771861076355
-0.4047960937023163 0.044770948588848114 0.3369016945362091
0.17542394995689392 0.003380182199180126 -0.3418734073638916
0.4368853271007538 -0.0035889754071831703 -0.1262151598930359
0.3721383512020111 -0.37221524119377136 -0.2349260300397873
0.08014009892940521 0.0020601563155651093 -0.11000249534845352
-0.48633235692977905 0.1214679628610611 0.3297792673110962
-0.05522815138101578 -0.1979885995388031 -0.33440008759498596
-0.31590428948402405 0.0022341813892126083 -0.3028299808502197
0.2673294246196747 0.02723030559718609 -0.40081191062927246
-0.5577607154846191 0.055036190897226334 0.23115065693855286
0.1942097693681717 0.06435060501098633 0.4632263779640198
0.08559860289096832 -0.6297733187675476 -0.27459079027175903
-0.3601049780845642 -0.03445924073457718 -0.014488075859844685
0.2178027182817459 -0.6176029443740845 -0.1187438890337944
-0.31329551339149475 -0.0002644397900439799 -0.23033829033374786
0.0017535220831632614 -0.620820164680481 -0.1082683876156807
0.5257369875907898 0.4020281434059143 0.30796438455581665
-0.48325809836387634 0.4043104648590088 0.12211816757917404
0.3555479645729065 0.005939085967838764 0.3427355885505676
0.2464613914489746 0.3703778386116028 -0.39729127287864685
0.29859399795532227 0.003390868892893195 0.10983207821846008
0.14241957664489746 0.39168649911880493 0.3354555368423462
0.0749342143535614 -0.00043314509093761444 0.1893087774515152
-0.4777267873287201 0.4058879315853119 -0.044256798923015594
-0.5689889192581177 0.05511890724301338 -0.3551039397716522
0.3339301645755768 -0.28670385479927063 0.22454951703548431
0.307020366191864 -0.44257456064224243 -0.22803449630737305
0.26814794540405273 0.003040342591702938 0.18604442477226257
0.16043390333652496 0.38832393288612366 0.4600794017314911
0.28634774684906006 0.004883342422544956 -0.10319256782531738
0.3483743369579315 -0.3673674166202545 0.1607782393693924
0.23289093375205994 0.0026281061582267284 0.23542141914367676
0.21073181927204132 0.001858361647464335 -0.09141500294208527
0.16122370958328247 0.17974326014518738 0.34403353929519653
-0.4015657603740692 0.4042150378227234 -0.3805623948574066
-0.17704395949840546 -0.5940586924552917 -0.1066359207034111
0.27816054224967957 -0.6188366413116455 -0.2531772553920746
0.5798983573913574 0.24310889840126038 0.2810860276222229
0.3420037031173706 0.34452831745147705 0.3459799885749817
-0.5124574899673462 0.002821711590513587 0.01578713394701481
0.09498143941164017 -0.621239185333252 0.01721223071217537
0.18545472621917725 -0.2621077299118042 0.3058531880378723
-0.44391658902168274 0.39802590012550354 -0.03807925060391426
-0.19167377054691315 -0.46740633249282837 -0.03496944531798363
-0.13721932470798492 -0.5844834446907043 -0.2061738520860672
0.3581480085849762 0.01329911220818758 -0.3949570953845978
0.02687528170645237 -0.00213623046875 0.4445045292377472
-0.5799531936645508 0.09329493343830109 -0.3577902317047119
0.017001958563923836 0.3722243309020996 0.34891924262046814
-0.567476212978363 0.3429521322250366 -0.019021112471818924
-0.32278791069984436 0.4071533977985382 0.035141248255968094
-0.5248280763626099 0.11547594517469406 0.09665675461292267
-0.38716956973075867 0.08530019968748093 -0.3023654520511627
-0.12573163211345673 0.2064438909292221 0.380207896232605
-0.27048948407173157 0.40316104888916016 -0.33734390139579773
-0.13517768681049347 -0.6003391742706299 -0.21175095438957214
-0.32744458317756653 0.4078168570995331 -0.11603202670812607
0.005959672853350639 -0.6170488595962524 0.08678077161312103
0.1051163524389267 -0.5017927289009094 0.26001161336898804
0.14507301151752472 -0.17534038424491882 0.31316930055618286
-0.4767231047153473 -0.11810465902090073 0.26119694113731384
0.43722105026245117 -0.3283713757991791 0.016479991376399994
-0.39116817712783813 -0.09671240299940109 0.2611362040042877
-0.40691903233528137 0.4046270549297333 0.25644972920417786
-0.4108451306819916 0.008420407772064209 -0.38091763854026794
-0.19838081300258636 0.3796754777431488 -0.40175509452819824
0.3664529323577881 -0.32215404510498047 -0.245162695646286
0.05963408946990967 0.001102459616959095 -0.23367923498153687
0.2704407870769501 0.40158456563949585 0.05407858267426491
0.10752902925014496 0.28500038385391235 0.4625907838344574
0.11909866333007812 -0.6220365166664124 -0.24562209844589233
0.3797920346260071 0.1419733464717865 -0.40168851613998413
-0.5748440027236938 0.3492394983768463 -0.2780933976173401
-0.5793970227241516 0.333880215883255 -0.3702150583267212
0.3029922544956207 -0.48423275351524353 0.18066416680812836
-0.4748125970363617 0.3498537540435791 0.3435254395008087
0.1552158147096634 0.0014621850568801165 -0.034663572907447815
-0.5702914595603943 0.3241300880908966 -0.33704128861427307
-0.23242920637130737 0.008944610133767128 0.3329835534095764
-0.013567807152867317 -0.6188070774078369 0.056207310408353806
-0.5777708292007446 0.06396807730197906 -0.14330792427062988
0.04340522736310959 0.4049496352672577 -0.09479891508817673
0.26592642068862915 0.46356692910194397 0.4354613125324249
-0.03286448121070862 0.4041229486465454 0.17066125571727753
-0.1847487837076187 0.17724086344242096 0.3463587164878845
0.0768454447388649 0.40546518564224243 -0.09814637154340744
0.4462098181247711 0.3999783396720886 -0.12207510322332382
-0.5069043636322021 0.40440991520881653 0.1095518097281456
0.20824013650417328 0.0012613246217370033 0.14510256052017212
-0.09862060099840164 0.001142690540291369 -0.2234126627445221
0.43940553069114685 0.33296728134155273 0.34622514247894287
-0.13118761777877808 0.4052872061729431 0.28078922629356384
0.12910720705986023 0.0023397551849484444 -0.1784885823726654
-0.5508462190628052 0.09837453812360764 -0.346962034702301
0.1537136286497116 0.39994296431541443 -0.14187504351139069
0.12788709998130798 -0.6195545196533203 0.16791726648807526
0.03456439822912216 -0.6171379685401917 0.04827696457505226
0.21538060903549194 0.14399400353431702 -0.4040620028972626
-0.05175098404288292 -0.3245854079723358 0.27859464287757874
0.10003523528575897 0.40412813425064087 0.14965945482254028
-0.20734484493732452 0.2099473625421524 0.34749943017959595
0.15765489637851715 0.031317997723817825 -0.40195587277412415
-0.06142580509185791 -0.09415718168020248 -0.3283456861972809
0.10777556896209717 0.002257200889289379 -0.2357683926820755
-0.36944887042045593 0.08043623715639114 0.3409077823162079
0.5805058479309082 0.01410587877035141 -0.21040913462638855
-0.5439666509628296 0.3909337818622589 -0.19621583819389343
-0.5383538603782654 -0.07709964364767075 -0.13303935527801514
0.1930241584777832 -0.6175634860992432 -0.0315873846411705
-0.502181887626648 0.0034231748431921005 -0.4039842188358307
-0.384396493434906 0.001843433128669858 -0.27001553773880005
0.3101173937320709 0.28527262806892395 -0.4045320153236389
0.01801111176609993 0.18500366806983948 0.353899210691452
0.36650586128234863 -0.07381768524646759 -0.23755763471126556
-0.2345915138721466 -0.2673420310020447 0.05235624313354492
-0.38628625869750977 0.07212866097688675 0.00860771257430315
0.16813862323760986 -0.02149474248290062 0.4628753066062927
0.5277642011642456 0.40369677543640137 0.14675842225551605
0.15655384957790375 -0.39225438237190247 0.2546709179878235
-0.5273208618164062 -0.0027655647136271 -0.020436512306332588
0.014214640483260155 -0.3775879144668579 -0.3359084129333496
0.036173708736896515 -0.4448806047439575 0.25012338161468506
-0.2435477375984192 -0.21900716423988342 -0.07745901495218277
0.3698287010192871 0.40110573172569275 -0.09086354076862335
0.260549932718277 -0.6299837231636047 -0.2348046600818634
-0.17403274774551392 -0.30547741055488586 -0.2346007525920868
-0.5560593605041504 0.3738521933555603 0.2240820825099945
-0.46770814061164856 0.1181880310177803 0.31819042563438416
-0.36373603343963623 0.4042017459869385 0.1942155808210373
0.019250907003879547 -0.03008892387151718 0.3718900978565216
-0.3854021728038788 -0.06503613293170929 0.031405821442604065
0.4445599615573883 -0.1512654423713684 -0.07612591981887817
-0.5892448425292969 0.3198935091495514 -0.3685569763183594
0.44467952847480774 -0.11629395186901093 -0.05787046626210213
-0.023308897390961647 -0.41015082597732544 0.23105289041996002
-0.21117019653320312 0.0005230684764683247 0.07663843035697937
-0.5623084902763367 0.002988576190546155 0.05435730516910553
-0.3562586307525635 -0.03390586003661156 0.19512788951396942
0.22664834558963776 0.0026288400404155254 -0.17400436103343964
-0.4589080214500427 0.3085136115550995 -0.40575653314590454
0.4979073107242584 0.40291038155555725 -0.18629588186740875
0.35054850578308105 -0.38135629892349243 0.1406669318675995
0.03123682364821434 -0.0004380120662972331 -0.36020246148109436
-0.3063787817955017 0.39385294914245605 0.05162253975868225
-0.13731162250041962 -0.6323857307434082 -0.022133180871605873
-0.0644499659538269 -0.4462968707084656 0.20942391455173492
0.5457444787025452 0.40223631262779236 0.026102494448423386
0.23812131583690643 -0.30877622961997986 0.2899336516857147
0.35531046986579895 -0.6317243576049805 0.031046219170093536
0.30008092522621155 -0.16454851627349854 0.2530630826950073
0.5043166279792786 0.0016655335202813148 0.2522532045841217
0.15342524647712708 0.29935261607170105 0.4650494158267975
0.39331236481666565 -2.913316711783409e-05 0.013982037082314491
0.5198267102241516 0.09924154728651047 0.3428546190261841
-0.42211300134658813 0.08862217515707016 0.0690838098526001
0.1734122335910797 0.22000636160373688 0.3443150520324707
-0.36790230870246887 0.3939192295074463 0.04966692253947258
0.1304330825805664 -0.6216216683387756 -0.20005536079406738
0.03340665623545647 -0.11231740564107895 -0.3646777272224426
0.02723589912056923 -0.6177003383636475 -0.04013378545641899
-0.004976586904376745 0.0030633495189249516 0.3192140460014343
0.5479320287704468 0.40144282579421997 -0.03671593219041824
-0.22454848885536194 -0.1805737167596817 0.07488993555307388
-0.2274208813905716 0.15713535249233246 0.3458792567253113
-0.593589186668396 0.07791431993246078 0.2421383559703827
0.1941346377134323 -0.5561557412147522 -0.30497491359710693
0.08117003738880157 0.0011559604899957776 -0.10710828006267548
0.10328759253025055 -0.6191553473472595 -0.21715909242630005
-0.3775138258934021 0.0031524281948804855 -0.24910995364189148
0.08626329898834229 -0.6406289339065552 -0.31645840406417847
-0.11904612183570862 0.0019044484943151474 0.12511427700519562
-0.5121641755104065 -0.10370732098817825 -0.39743536710739136
0.3819873631000519 0.4045715928077698 0.057557787746191025
0.22873899340629578 0.40250059962272644 -0.26272857189178467
-0.20220261812210083 -0.38805273175239563 -0.053417835384607315
-0.0421864353120327 -0.6223448514938354 -0.20036447048187256
0.4447677731513977 -0.054283276200294495 -0.08579405397176743
-0.5753152966499329 0.1756080538034439 0.33708590269088745
0.2147168070077896 0.02288590930402279 0.46245601773262024
-0.15625905990600586 -4.37125563621521e-05 -0.32780399918556213
-0.3654920756816864 -0.011481833644211292 0.19312173128128052
0.32650381326675415 0.11548338830471039 0.42552778124809265
-0.23404376208782196 -0.3638171851634979 -0.09593354165554047
-0.16040942072868347 -0.627829909324646 -0.013319462537765503
-0.5543650984764099 -0.05562824755907059 0.33821672201156616
0.13039526343345642 0.40581128001213074 -0.286790132522583
-0.14163023233413696 -0.6109287738800049 -0.18646156787872314
-0.4805852770805359 0.10200465470552444 -0.02740148827433586
-0.5084580183029175 0.3629697263240814 -0.044212497770786285
-0.15149569511413574 -0.2398771047592163 -0.25598064064979553
0.26138558983802795 0.001286810263991356 -0.21151131391525269
-0.17393328249454498 0.38424181938171387 -0.4011131823062897
-0.36454489827156067 0.004619337618350983 0.33613231778144836
0.014615197665989399 -0.09730056673288345 -0.3610934317111969
-0.5324424505233765 0.08269330859184265 -0.4031318128108978
0.13464604318141937 0.16672804951667786 0.466464102268219
-0.34421902894973755 0.36128565669059753 0.3470057249069214
-0.5026418566703796 0.008528511971235275 -0.12364040315151215
0.3264809250831604 0.2932979166507721 -0.4051245152950287
0.030085625126957893 0.02421884797513485 0.46004948019981384
0.19535401463508606 0.003278365358710289 -0.36536964774131775
-0.12382826954126358 0.0015809189062565565 -0.18888431787490845
-0.4906977415084839 0.007733283098787069 -0.1619843691587448
-0.23146554827690125 0.404069721698761 -0.13166609406471252
0.07134316116571426 -0.6165210604667664 0.07551033794879913
0.007471921853721142 -0.6177415251731873 -0.23675870895385742
-0.5906457901000977 0.277948796749115 0.049479078501462936
-0.05087721347808838 0.001605379395186901 -0.008873815648257732
0.17754347622394562 0.265371173620224 0.3442316949367523
0.2599114775657654 -0.615311861038208 -0.03207745403051376
-0.56775963306427 0.0556207112967968 0.33299362659454346
0.04706341773271561 -0.6148893237113953 0.16528531908988953
0.3214288651943207 -0.6208660006523132 0.07092393189668655
0.38159245252609253 0.02327081933617592 -0.403037428855896
0.3206208050251007 -0.6240620017051697 0.011302194558084011
0.3391648232936859 0.002824188210070133 0.2749192714691162
-0.4956352710723877 -0.10805381834506989 0.02127675525844097
-0.4725651741027832 -0.0021380712278187275 -0.058200232684612274
-0.041536372154951096 -0.15592552721500397 -0.34699389338493347
0.1562456339597702 0.40471771359443665 0.26114776730537415
-0.5840669870376587 -0.029026567935943604 -0.16881582140922546
0.3123883008956909 -0.6208047866821289 -0.03859265148639679
0.47543424367904663 0.3124386668205261 0.34743210673332214
0.19146408140659332 -0.13878779113292694 -0.3553006649017334
-0.195382222533226 -0.3846306800842285 0.034215282648801804
0.058660272508859634 -0.6206476092338562 0.17966213822364807
0.1440858691930771 -0.6221605539321899 0.24356089532375336
-0.42421814799308777 0.40907907485961914 -0.002124861581251025
-0.5062612295150757 -0.08719611912965775 -0.13365288078784943
0.12718051671981812 0.06670452654361725 0.4651571214199066
0.39173388481140137 0.3998292088508606 0.013312393799424171
-0.5815574526786804 0.3044099509716034 -0.38987502455711365
-0.37729695439338684 -0.06508666276931763 0.08221179246902466
-0.24366509914398193 -0.0005564723396673799 0.08467670530080795
-0.05250652879476547 -0.022754712030291557 0.2824092507362366
-0.5201308131217957 0.1009802520275116 -0.3545982539653778
0.15062284469604492 -0.6389168500900269 0.2551474869251251
0.010238765738904476 -0.26570552587509155 0.3019725978374481
-0.005244534928351641 0.1607951521873474 0.35306045413017273
-0.1388547122478485 0.09707014262676239 0.34519484639167786
-0.42502161860466003 0.07958390563726425 -0.4049627184867859
-0.1433991938829422 0.0016116031911224127 0.13383470475673676
0.2831646203994751 0.39913076162338257 0.21398618817329407
0.2652713358402252 -0.2623731195926666 0.2765609323978424
-0.38233309984207153 0.26728811860084534 0.3461267054080963
-0.5602286458015442 -0.037973552942276 0.1447799950838089
0.06705114990472794 -0.6166859865188599 -0.26936036348342896
0.22579325735569 -0.09136215597391129 0.3460548222064972
0.0467672273516655 -0.6217883825302124 0.00958654098212719
0.23935531079769135 0.4706459939479828 0.37669995427131653
-0.008635311387479305 0.0008845645934343338 -0.05922555550932884
0.19792410731315613 -0.6124838590621948 0.24080245196819305
0.43601861596107483 0.002548670396208763 -0.21604520082473755
0.37701722979545593 -0.5565854907035828 -0.12783505022525787
-0.38613009452819824 -0.06390828639268875 -0.021220315247774124
0.07945778965950012 0.20469190180301666 -0.40185755491256714
0.061030492186546326 0.004057958722114563 0.2655907869338989
0.33786818385124207 -0.5630409121513367 -0.19718553125858307
0.14575086534023285 -0.6461798548698425 -0.2950814366340637
0.3656134307384491 -0.5211867690086365 0.09540698677301407
0.16013239324092865 0.39856213331222534 -0.39620983600616455
0.15283095836639404 -0.021940113976597786 0.322841614484787
-0.4801084101200104 -0.10078052431344986 0.2192809283733368
0.21299614012241364 0.002265029354020953 -0.18628357350826263
-0.41978204250335693 0.11455832421779633 -0.3201206922531128
0.5458170175552368 0.39665326476097107 -0.0374581478536129
-0.16828058660030365 -0.6354277729988098 -0.1251201331615448
-0.514007031917572 0.11124163866043091 0.0950283482670784
-0.37035712599754333 0.4046223759651184 0.2169654369354248
0.07433672249317169 -0.03351237624883652 -0.36893758177757263
-0.09744717925786972 -7.36406072974205e-05 -0.3325609266757965
0.19271668791770935 0.45102953910827637 0.4453272223472595
-0.34880679845809937 0.003913321066647768 -0.07639139145612717
-0.3860540986061096 0.0829046294093132 0.3428758382797241
0.3503290116786957 -0.653340756893158 -0.1490498185157776
-0.3187686800956726 0.32916197180747986 -0.4038028419017792
0.1787959188222885 0.046930890530347824 -0.40121543407440186
0.02871517650783062 0.0014912347542122006 0.1122882142663002
0.0031865984201431274 -0.6148834228515625 0.012037880718708038
-0.38198143243789673 -0.04638751223683357 -0.11333128064870834
-0.23738236725330353 0.3600127100944519 0.34582188725471497
-0.36440539360046387 -0.002625978086143732 -0.2644375264644623
-0.005766076501458883 -0.24156048893928528 -0.3632231652736664
0.16263873875141144 -0.4665924906730652 0.24803747236728668
0.5802972912788391 0.15469272434711456 -0.15514445304870605
0.5736292004585266 0.35989972949028015 0.27250930666923523
-0.02107604779303074 0.40499404072761536 -0.2960579991340637
0.3041742444038391 -0.21167849004268646 0.2524517774581909
-0.3756552040576935 0.00745656993240118 0.067746601998806
-0.417174756526947 0.4095466136932373 -0.02322535216808319
-0.5440709590911865 0.11740303039550781 -0.4037611782550812
0.15351805090904236 0.4046386182308197 -0.260039746761322
0.04047045484185219 -0.6270452737808228 -0.2647465765476227
-0.4166471064090729 0.0012489070650190115 0.20550699532032013
0.49619269371032715 0.002808251418173313 -0.33465662598609924
-0.12198437750339508 0.2118930071592331 0.3496844172477722
0.3417275846004486 -0.4629252254962921 0.12647289037704468
-0.5424705743789673 -0.007701847702264786 0.29225969314575195
