-0.37047499418258667 -0.0037848944775760174 -0.2267218381166458
-0.5794090032577515 0.07154082506895065 0.20347826182842255
0.5806175470352173 0.11610839515924454 -0.22858838737010956
0.5699179768562317 0.40064340829849243 -0.012829353101551533
0.16445523500442505 0.0019538486376404762 -0.12463854998350143
0.03479597717523575 0.018292974680662155 0.3420860767364502
-0.45097509026527405 -0.11520921438932419 0.31028053164482117
0.39798492193222046 0.2399556189775467 0.34544676542282104
-0.23367248475551605 -0.08924193680286407 0.061815232038497925
-0.3136453926563263 -0.0004256702959537506 0.26961615681648254
-0.4677172601222992 0.4025895297527313 -0.03679798170924187
-0.18743896484375 0.30843034386634827 0.34677258133888245
-0.12059854716062546 -0.5633638501167297 0.15531013906002045
0.2463528960943222 0.20820775628089905 0.46212607622146606
0.4833206832408905 0.0005114879459142685 0.24340008199214935
-0.37180182337760925 0.34595853090286255 -0.4025164544582367
-0.1590004712343216 -0.000819329172372818 -0.05477544665336609
0.40144190192222595 -0.05590897798538208 -0.21221642196178436
0.5769920945167542 0.04337673634290695 -0.36084163188934326
0.5797674059867859 0.07708850502967834 -0.2487279176712036
0.26147568225860596 -0.06365010142326355 0.2751796841621399
-0.5811818242073059 0.07249117642641068 -0.22344161570072174
-0.5840269923210144 0.2584179937839508 0.16032665967941284
-0.3780692219734192 0.3989928960800171 0.2989233434200287
-0.2620818316936493 0.26401957869529724 -0.40122538805007935
0.2118518352508545 0.0015288237482309341 -0.24744464457035065
0.14798368513584137 -0.0899059846997261 0.3806202709674835
-0.1690274327993393 0.1515982300043106 -0.40295323729515076
0.41127392649650574 -0.37714099884033203 -0.12480276077985764
0.21289579570293427 -0.025241805240511894 0.4647260308265686
0.31994593143463135 0.002238234505057335 -0.1482439637184143
-0.5758941173553467 0.0028253679629415274 0.22251659631729126
0.08277985453605652 -0.22870001196861267 -0.37637823820114136
0.21493300795555115 0.001971792196854949 -0.2854168117046356
-0.050600938498973846 -0.00046623917296528816 0.1326543241739273
0.3141207993030548 0.3973549008369446 -0.3530624806880951
-0.46556606888771057 0.3645864725112915 -0.18671581149101257
-0.21547654271125793 -0.291103333234787 -0.1675739735364914
0.0422610379755497 -0.0030992873944342136 0.3319796919822693
-0.17600800096988678 -0.37894806265830994 -0.20124123990535736
0.28305909037590027 -0.048573706299066544 0.3144237995147705
-0.18249766528606415 0.3501119017601013 0.3420197367668152
-0.32653146982192993 0.4058050811290741 -0.08437459915876389
0.34214580059051514 -0.16792543232440948 0.21694225072860718
-0.43956848978996277 0.36104846000671387 -0.18156571686267853
0.12018872052431107 -0.0009272154420614243 0.2853074073791504
-0.4689212441444397 -0.11273273080587387 -0.1276703178882599
0.1514185667037964 0.47452205419540405 0.38679039478302
0.10663443058729172 -0.05275481566786766 0.3210683763027191
-0.12851518392562866 0.3967219591140747 -0.37188956141471863
-0.581191897392273 0.33551350235939026 -0.06555856019258499
-0.3616788387298584 -0.001440374180674553 -0.2587730288505554
0.12797851860523224 0.39343127608299255 -0.3953877091407776
-0.2391141802072525 -0.3106613755226135 0.02339296042919159
-0.543059229850769 0.38748762011528015 -0.22385405004024506
0.03430001065135002 0.001654934138059616 -0.28763288259506226
0.009477103129029274 -0.40245872735977173 0.24515630304813385
0.16641481220722198 0.10338149964809418 0.4626135230064392
0.4549047350883484 -0.026582021266222 -0.04768363758921623
0.5510501265525818 0.002904345514252782 0.03548784554004669
0.5483220815658569 0.13492508232593536 -0.40357935428619385
-0.3664219081401825 -0.03888898342847824 0.08653415739536285
-0.20457972586154938 0.00041649118065834045 -0.06813690066337585
0.21732860803604126 -0.41489550471305847 0.2379540354013443
-0.16661036014556885 -0.24064265191555023 0.18669793009757996
0.4841650426387787 -0.0004174918867647648 -0.12065340578556061
0.3855057656764984 -0.0011288723908364773 -0.257766455411911
-0.22899110615253448 0.3986399471759796 -0.1593741774559021
0.5798724293708801 0.3277079164981842 0.34235793352127075
0.4159713685512543 0.0024214424192905426 -0.20867332816123962
0.27630364894866943 0.4017547070980072 0.13184064626693726
-0.20450446009635925 0.15669681131839752 -0.4049762487411499
-0.5058950185775757 0.001132272183895111 -0.10748187452554703
0.19038158655166626 -0.6218942403793335 0.16761915385723114
0.3757130801677704 -0.48886892199516296 -0.14786726236343384
0.3032319247722626 0.41463208198547363 0.44491198658943176
-0.020802121609449387 -0.6082899570465088 0.2236962914466858
-0.15080152451992035 -0.3170051574707031 0.2116318643093109
0.09595111012458801 -0.6175137162208557 -0.22467395663261414
0.34893298149108887 0.0026427796110510826 -0.059915781021118164
-0.042331524193286896 -0.6243177056312561 0.15659493207931519
0.5525847673416138 0.0031185653060674667 0.06808352470397949
0.07923608273267746 -0.222199946641922 -0.37600642442703247
-0.17085091769695282 -0.40866902470588684 0.0526590533554554
-0.4742593765258789 0.3797805607318878 -0.013766503892838955
0.0481257364153862 -0.4658004939556122 -0.3117203414440155
0.2886030972003937 -0.6408261060714722 -0.21045364439487457
0.585231602191925 0.3412874937057495 -0.06331144273281097
0.4274677336215973 -0.07751282304525375 -0.15075664222240448
-0.5793540477752686 0.12509684264659882 0.10219714045524597
-0.5045841932296753 -0.11281590908765793 0.22029045224189758
0.02133326418697834 -0.39706602692604065 0.24402666091918945
-0.0868287906050682 -0.00043404102325439453 0.24115338921546936
0.43968504667282104 -0.2923355996608734 0.04816024750471115
0.2236453890800476 -0.6192284822463989 -0.07125060260295868
0.30777469277381897 0.002233755774796009 -0.1396757960319519
0.27893197536468506 0.3989318013191223 0.09163292497396469
-0.2327822744846344 -0.15187662839889526 -0.13084781169891357
-0.5736021995544434 0.31790047883987427 -0.258480966091156
0.24277789890766144 -0.6487765312194824 0.17743314802646637
0.03250449150800705 -0.007894163951277733 0.3230352997779846
0.33969536423683167 -0.6351577639579773 -0.11978328227996826
-0.039345912635326385 -0.6287989616394043 -0.22483021020889282
0.2078305333852768 -0.1771978735923767 -0.3595625162124634
-0.20485050976276398 -0.36951586604118347 0.10927662253379822
0.4248344898223877 -0.371837317943573 -0.034302596002817154
-0.21494430303573608 -0.15949776768684387 0.09514611214399338
-0.4521193504333496 0.051419876515865326 -0.40151527523994446
-0.08811837434768677 0.001559603027999401 -0.039874348789453506
-0.09400279819965363 -0.24791428446769714 0.25512832403182983
0.3544258177280426 0.40334659814834595 -0.24719050526618958
0.4200457036495209 -0.2862322926521301 0.10817450284957886
-0.4185880720615387 0.3303259313106537 0.3436553478240967
0.23923976719379425 -0.6209861040115356 0.12327932566404343
0.14196908473968506 0.39309772849082947 0.34858274459838867
0.18074753880500793 0.002514502964913845 -0.08170270174741745
-0.4181860089302063 0.0035682786256074905 0.03524345904588699
0.25075027346611023 -0.16304895281791687 0.2807184159755707
0.027163274586200714 0.000523669645190239 0.07879222184419632
0.5832624435424805 0.3703455626964569 0.23267485201358795
-0.38728347420692444 0.041961897164583206 -0.12925396859645844
0.4798673689365387 0.40302813053131104 0.03682977333664894
-0.06305982172489166 0.0010648500174283981 -0.19786493480205536
0.20129062235355377 0.4014483392238617 -0.2661513388156891
-0.040347807109355927 -0.5515408515930176 0.2219889760017395
0.1075618788599968 -0.04347279667854309 0.3177601099014282
-0.09995085746049881 0.2689678966999054 0.3508617877960205
0.2665797173976898 0.4036432206630707 -0.11539351940155029
-0.05982382968068123 -0.6238225102424622 -0.16484138369560242
-0.46171966195106506 0.40450605750083923 -0.12700814008712769
-0.17998652160167694 0.003419121028855443 0.3320355713367462
0.047903358936309814 0.18247918784618378 0.45880740880966187
0.09664346277713776 -0.620376706123352 0.12175644934177399
0.583295464515686 0.340635746717453 -0.2881333529949188
0.1735660880804062 -0.0492144413292408 -0.37130099534988403
0.1850585788488388 -0.6222295761108398 -0.12331432104110718
-0.5252424478530884 -0.0004022754728794098 0.05544699728488922
-0.005447042174637318 -0.004945695400238037 0.3209790587425232
0.4287154972553253 0.4020625054836273 -0.23052608966827393
-0.5753076076507568 0.03924227133393288 -0.20521369576454163
0.2824186682701111 -0.1417216658592224 -0.32746613025665283
0.07624363899230957 -0.5819424390792847 0.2595895528793335
0.34851428866386414 -0.6386697888374329 -0.08697021007537842
-0.5789664387702942 0.10529230535030365 -0.1581367403268814
0.03794744238257408 -0.5293679237365723 -0.315568208694458
0.04718666896224022 -0.6208869814872742 -0.1428002566099167
-0.177044078707695 -0.44754183292388916 -0.10926876217126846
0.5825527310371399 0.1095968708395958 0.0062521668151021
0.46656545996665955 0.4041033387184143 -0.381811261177063
-0.09318744391202927 -0.0027913646772503853 0.2415900081396103
0.1123805046081543 -0.00015863776206970215 -0.03362051025032997
-0.18633484840393066 0.03291664272546768 0.34423336386680603
0.15007731318473816 0.22145888209342957 0.4634849429130554
-0.10340669006109238 0.40034931898117065 -0.31866806745529175
-0.5736035108566284 0.04920545220375061 0.10281166434288025
-0.3859594166278839 -0.07388072460889816 -0.32691019773483276
-0.4125439524650574 0.4025439918041229 0.0650077685713768
0.5003687739372253 0.049360062927007675 -0.3999001085758209
0.5847100615501404 0.3734329640865326 0.3296354413032532
0.419351726770401 -0.09256500005722046 0.10518293082714081
0.10615891218185425 -0.6178931593894958 -0.14897900819778442
0.012860270217061043 -0.6227183938026428 0.18380191922187805
0.3079123795032501 0.34435757994651794 0.34670597314834595
-0.15565842390060425 -0.48577848076820374 -0.1563088744878769
0.16546674072742462 0.4568946063518524 0.44125521183013916
-0.29742392897605896 0.14297319948673248 -0.4033926725387573
0.5867465734481812 0.19294476509094238 -0.24239327013492584
0.5856437087059021 0.20920409262180328 -0.012169810011982918
0.11625947803258896 -0.3752933442592621 -0.3421649634838104
-0.2986380159854889 0.3987007737159729 -0.37832286953926086
0.30508649349212646 -0.6450775861740112 -0.18756188452243805
-0.0480404831469059 0.00043307337909936905 0.037300337105989456
0.29660797119140625 0.007571324706077576 -0.3905890882015228
-0.1857430636882782 0.09628649055957794 -0.40274670720100403
-0.06179046630859375 -0.08847813308238983 -0.3306494653224945
-0.5494713187217712 -0.07900940626859665 -0.2417849600315094
-0.060587793588638306 -0.6283696889877319 -0.22888202965259552
0.1720544844865799 0.12634485960006714 0.3442523181438446
-0.5701407194137573 0.24420741200447083 0.3384016454219818
0.2508048117160797 -0.6173282861709595 -0.06648001074790955
-0.2442087084054947 -0.2035410851240158 -0.013859987258911133
0.4883244037628174 -0.0010980968363583088 -0.09163032472133636
-0.4695190489292145 0.37181520462036133 -0.40374088287353516
-0.5738519430160522 0.005638425704091787 0.16604462265968323
-0.40407639741897583 0.3748222887516022 0.025427041575312614
-0.4246051609516144 0.40212902426719666 -0.34729647636413574
0.3046663999557495 0.001959259621798992 -0.2565051019191742
0.46491533517837524 0.4036261737346649 -0.35977742075920105
-0.471176415681839 0.3642248511314392 -0.007173366844654083
-0.5329615473747253 -0.09248765558004379 -0.1496294140815735
-0.08103618770837784 -0.19518746435642242 0.2627476453781128
-0.15408547222614288 -0.6522144675254822 -0.11246596276760101
0.2836439311504364 -0.17443934082984924 -0.32816368341445923
0.4366872310638428 -0.003906955011188984 -0.12669922411441803
0.23252040147781372 0.06779266893863678 0.4612635672092438
0.32832765579223633 0.001940087415277958 0.04606914147734642
0.5184358954429626 0.2099512219429016 0.346599817276001
0.5161389112472534 0.40406179428100586 0.04799206927418709
0.5456931591033936 0.404095321893692 0.054582223296165466
0.25672173500061035 -0.48240846395492554 0.21295994520187378
0.0923050120472908 0.46777021884918213 0.42750445008277893
-0.5813971161842346 0.002612100914120674 -0.06567788124084473
0.5880311727523804 0.30499622225761414 0.13551068305969238
-0.29102590680122375 0.38776588439941406 0.34226784110069275
0.22163976728916168 -0.5166409015655518 -0.2984488010406494
-0.046074219048023224 -0.00027019926346838474 0.04683035984635353
-0.5774952173233032 0.2401934117078781 0.24192994832992554
0.08666300028562546 0.4042738080024719 0.4506984353065491
-0.004328452982008457 -0.6495538949966431 0.22009067237377167
-0.4166083037853241 0.2534438371658325 -0.40502217411994934
-0.3115743100643158 0.3463698923587799 -0.1543055921792984
0.5867209434509277 0.2977015972137451 -0.17077890038490295
-0.10932070761919022 -0.019646167755126953 0.24247807264328003
-0.5814937949180603 0.3452604115009308 0.1171201765537262
0.24554549157619476 0.39745569229125977 0.21547502279281616
0.556056797504425 0.16328702867031097 0.3424091041088104
0.4038153290748596 0.3889114558696747 0.3418987989425659
0.04997900128364563 0.0818822830915451 0.45924532413482666
0.13671348989009857 0.38834348320961 0.33652350306510925
0.05297279730439186 4.016445018351078e-05 -0.14812879264354706
-0.0967961996793747 0.39876747131347656 -0.0648389533162117
-0.5672575235366821 -0.021075109019875526 0.34301719069480896
0.3328953683376312 0.25960326194763184 0.3728788495063782
-0.332722008228302 0.4093669354915619 -0.0729738175868988
-0.17287324368953705 0.046337369829416275 -0.40184223651885986
-0.1865473836660385 0.3991686701774597 -0.20693854987621307
-0.3070549964904785 0.24125394225120544 0.3440627157688141
0.10240328311920166 -0.18428528308868408 0.31692367792129517
-0.3476932942867279 0.019015856087207794 0.004139063414186239
-0.4570271074771881 0.3925224244594574 -0.25200971961021423
0.2203483134508133 -0.07130584120750427 0.33264392614364624
0.06168279051780701 0.3881883919239044 0.33948683738708496
0.14721447229385376 -0.5517518520355225 0.2588531970977783
0.13006335496902466 -0.6178929209709167 -0.16094271838665009
0.4140484929084778 -0.0011624805629253387 -0.012324857525527477
0.5848193764686584 0.04349896311759949 -0.23013955354690552
0.027198854833841324 -0.24571897089481354 -0.36733683943748474
0.06296811252832413 0.10745889693498611 0.4627840220928192
-0.42783522605895996 0.23811869323253632 -0.403946191072464
0.24154141545295715 0.35298532247543335 0.4619874656200409
0.23275338113307953 0.0008468301966786385 -0.05500843748450279
0.1969020813703537 -0.6172679662704468 -0.04970080405473709
-0.20265360176563263 0.4018590748310089 0.13131143152713776
0.4666418731212616 0.40154117345809937 -0.06042434275150299
0.39167433977127075 0.3268333971500397 0.34151580929756165
0.4157117009162903 0.33203354477882385 -0.40109172463417053
0.4934494197368622 0.4047015309333801 0.23993375897407532
0.09122119098901749 -0.6335984468460083 -0.28321805596351624
-0.3815680146217346 0.39384719729423523 -0.17394639551639557
0.3242541551589966 0.08755455166101456 0.3463989794254303
0.4450443685054779 -0.23163682222366333 0.02005407027900219
-0.48497989773750305 0.10248392820358276 -0.39572015404701233
0.5858615636825562 0.08820613473653793 -0.09500990062952042
0.03914874419569969 0.327139675617218 0.34820595383644104
-0.0644444152712822 -0.5952181816101074 -0.2685129940509796
0.248863086104393 0.002713959664106369 0.09492050111293793
0.1292228102684021 -0.1364268958568573 0.3180457651615143
0.42261505126953125 0.40372100472450256 -0.15943290293216705
-0.30398476123809814 0.3917273283004761 -0.05618761107325554
0.5367700457572937 0.003846225328743458 0.027676481753587723
-0.40818896889686584 0.2619178295135498 0.34416887164115906
0.3739716112613678 -0.16734938323497772 0.18170540034770966
-0.11543162912130356 -0.005237414501607418 -0.3009239733219147
0.48489242792129517 0.23838195204734802 0.3458133935928345
-0.20550228655338287 0.40050995349884033 -0.145098015666008
0.14144264161586761 0.00011025974527001381 0.08040156960487366
-0.5733996629714966 0.005735110491514206 -0.20861618220806122
-0.1574820578098297 -0.3204386532306671 -0.25527480244636536
0.5290969610214233 0.003320318879559636 -0.2612835764884949
-0.2689943313598633 0.39544692635536194 0.02334185317158699
0.48058179020881653 0.345208078622818 0.34556639194488525
-0.23564840853214264 -0.20902055501937866 0.04448293149471283
0.003997246269136667 0.001193729229271412 0.052342597395181656
0.49983343482017517 -0.001549367792904377 0.05674993619322777
-0.06741859763860703 -0.6246106624603271 -0.07122662663459778
0.32690730690956116 -0.030284035950899124 0.3868032991886139
0.19646833837032318 -0.035142943263053894 0.46108773350715637
-0.54315185546875 -0.08142348378896713 -0.3022218346595764
-0.43756628036499023 0.0016428334638476372 0.26904669404029846
-0.3648538589477539 0.4030344784259796 0.0031171846203505993
0.24632564187049866 -0.4100321829319 -0.26958316564559937
-0.1390497088432312 -0.6316149234771729 -0.01978875696659088
0.1573760211467743 0.002029166556894779 -0.32375600934028625
0.3305908441543579 -0.643096923828125 0.14842663705348969
0.1346120983362198 -0.0005924273282289505 0.11136888712644577
0.14908412098884583 0.0032654134556651115 -0.3856138586997986
-0.46398910880088806 0.09792548418045044 0.06470007449388504
-0.5776700973510742 0.08184171468019485 -0.07311366498470306
-0.194133922457695 0.4002738296985626 0.24711301922798157
0.5821394920349121 0.3546934723854065 -0.15278050303459167
0.050314269959926605 -0.421586275100708 0.25346288084983826
-0.4684961140155792 0.0011196276172995567 0.10953210294246674
-0.3931875228881836 0.05109062418341637 0.3266712427139282
0.29072967171669006 -0.0028748884797096252 0.20449300110340118
0.10871601104736328 -0.0015668058767914772 0.25101199746131897
0.003019951982423663 -0.0003915990237146616 0.09064298123121262
0.027669167146086693 -0.0498257651925087 -0.366792231798172
-0.24361613392829895 -0.18814623355865479 -0.021687699481844902
0.27154937386512756 -0.4099271297454834 0.2071521282196045
-0.1250050812959671 -0.17848540842533112 0.23104041814804077
0.09094040095806122 0.17544157803058624 0.34698134660720825
-0.5835503339767456 0.29198211431503296 -0.2993684411048889
0.3688909709453583 0.0006385333836078644 -0.2604057490825653
-0.055673666298389435 -0.36821475625038147 -0.3265329897403717
0.14518746733665466 -0.6201125979423523 -0.07964487373828888
0.08100005984306335 0.24380706250667572 -0.4003039002418518
-0.005252653267234564 0.16199269890785217 0.36962708830833435
-0.1259511411190033 0.002642536535859108 0.2953818440437317
0.585015594959259 0.08621282875537872 -0.2831355929374695
-0.21020838618278503 0.2212018370628357 0.34475356340408325
-0.09640079736709595 0.1672050654888153 0.37446314096450806
0.44482123851776123 -0.3624635934829712 -0.03044435754418373
-0.011106309480965137 -0.618958592414856 0.11139202862977982
0.3477470278739929 0.3988896310329437 0.16123107075691223
0.2508951425552368 0.002743764780461788 -0.3620855212211609
0.20161187648773193 0.0009482540190219879 0.06578225642442703
-0.3470999002456665 0.1855400800704956 -0.39969491958618164
-0.06376034766435623 -0.6035701632499695 0.20336274802684784
0.13368305563926697 0.29539480805397034 -0.4003617763519287
0.2681637704372406 -0.4451276957988739 0.2084571123123169
0.1630563735961914 -0.1368410289287567 -0.37263810634613037
0.2958719730377197 0.32947838306427 0.34509533643722534
-0.5816442966461182 0.16624359786510468 -0.09776519984006882
-0.4527151882648468 0.005438264459371567 -0.25448259711265564
0.1786363571882248 0.1647682636976242 -0.4035857617855072
0.19925710558891296 -0.07614531368017197 0.41934171319007874
-0.2923692464828491 -0.00038386695086956024 0.057243622839450836
-0.5584966540336609 0.00014792662113904953 0.34113821387290955
0.5858947038650513 0.061042726039886475 0.13309797644615173
-0.5215504765510559 0.10150396823883057 -0.23285865783691406
0.006711660418659449 0.00035988958552479744 0.10285865515470505
-0.4969264268875122 -0.094770148396492 0.1442876011133194
0.39527714252471924 -0.00024380767717957497 -0.0026119081303477287
-0.5825327038764954 0.3484768867492676 0.08911168575286865
0.21366924047470093 -0.4805091321468353 0.23379497230052948
-0.578092098236084 0.2716599702835083 -0.3827672004699707
0.39258772134780884 -0.00838172435760498 0.12204659730195999
0.01182960532605648 -0.6548340320587158 0.23249481618404388
-0.4126227796077728 -0.09723560512065887 0.017592255026102066
-0.15196141600608826 0.09737840294837952 -0.40261101722717285
0.2990182638168335 -0.028360988944768906 0.4603019058704376
0.2551550269126892 0.40064874291419983 -0.283820778131485
0.3269132971763611 0.35488593578338623 0.3733178675174713
-0.017473556101322174 -0.2922143340110779 -0.34546566009521484
0.40911656618118286 0.15099889039993286 0.3461077809333801
-0.2984071969985962 0.40257105231285095 0.2853637635707855
0.049773313105106354 0.3871557116508484 0.3467962443828583
-0.026207689195871353 0.40268319845199585 0.22006966173648834
-0.1453368067741394 0.35888493061065674 -0.40076759457588196
0.17190119624137878 0.42303046584129333 0.4447377324104309
-0.5784260034561157 0.17893800139427185 0.22269631922245026
-0.5677886009216309 0.37417808175086975 0.17668162286281586
0.36177772283554077 0.00010206690058112144 -0.33692485094070435
0.27521273493766785 0.001371024176478386 0.1433403342962265
0.1325089931488037 0.0018902807496488094 -0.3538370132446289
0.08602961152791977 0.4002915918827057 0.00930418074131012
-0.48617810010910034 0.11896441131830215 0.2475127875804901
0.30846893787384033 0.015462069772183895 0.44359028339385986
0.3550521731376648 -0.19891561567783356 0.20614707469940186
-0.5339589715003967 0.0011844467371702194 0.18810705840587616
0.4317542314529419 -0.286953866481781 -0.1398664116859436
0.587609052658081 0.3614998459815979 -0.2079099863767624
0.31350839138031006 0.21552550792694092 0.45719465613365173
0.15998594462871552 0.12908338010311127 0.46297377347946167
-0.2939617931842804 -0.0006067077629268169 0.05478730425238609
-0.3054092824459076 -1.3645738363265991e-05 0.21584783494472504
0.17431917786598206 -0.5058842301368713 -0.3159754276275635
0.5886291861534119 0.33116820454597473 0.19940049946308136
0.4120742380619049 0.4038790166378021 0.183548241853714
0.55662602186203 0.4022909700870514 -0.24186134338378906
-0.04660826176404953 -0.0007124817930161953 -0.0823586955666542
-0.19436761736869812 -0.06992902606725693 -0.20585647225379944
0.013742425478994846 -0.6223791837692261 -0.03904770687222481
-0.30892160534858704 0.37144362926483154 -0.1871630996465683
0.1947445422410965 -0.6167550086975098 0.1823628693819046
0.43572700023651123 0.4027472734451294 -0.3469931185245514
0.5329681038856506 0.003250119974836707 -0.24832794070243835
-0.19108906388282776 -0.09719602763652802 0.1584530621767044
0.16930782794952393 -0.11724600940942764 -0.3707462251186371
-0.28296664357185364 0.40203094482421875 0.2821895182132721
0.01081843301653862 -0.6243330836296082 -0.16757747530937195
-0.38172733783721924 -0.06548908352851868 -0.01574563793838024
0.3782438039779663 -0.43578094244003296 0.06491585820913315
0.5467759370803833 0.05083981528878212 0.3403521180152893
0.29630380868911743 0.4018496572971344 0.08143964409828186
0.2582705020904541 0.40279754996299744 -0.05040791258215904
-0.21974438428878784 -0.17164938151836395 -0.1698797047138214
0.39233553409576416 -0.4098414182662964 0.021330788731575012
-0.055470529943704605 0.05261179432272911 -0.40036919713020325
0.3111098110675812 0.37188926339149475 -0.4074993431568146
-0.5710715651512146 0.30062171816825867 0.3362455666065216
0.5696082711219788 0.40442949533462524 -0.1903403252363205
0.5847120881080627 0.04113740473985672 0.10915224999189377
-0.5780123472213745 0.04224070906639099 0.2520923614501953
-0.22354719042778015 -0.37263232469558716 -0.07016423344612122
0.2545562982559204 0.0010592276230454445 -0.1372288018465042
0.07666665315628052 0.39068174362182617 0.3501582443714142
-0.42311492562294006 0.10416842997074127 -0.3447518050670624
-0.5758469700813293 0.04999912530183792 -0.2892683446407318
-0.2035534381866455 0.015761297196149826 0.3411182463169098
0.05912940576672554 0.001310267485678196 -0.23176725208759308
0.04603469744324684 -0.32190412282943726 -0.3715250790119171
0.4336933493614197 -0.0026225526817142963 0.030358633026480675
-0.5221310257911682 0.2848418653011322 -0.4029749035835266
0.042330436408519745 -0.6212328672409058 -0.1161639466881752
0.586442232131958 0.2088574916124344 -0.015298436395823956
0.07565462589263916 -0.6178938150405884 0.13851170241832733
0.3393119275569916 -0.1006041094660759 0.22428342700004578
-0.2878076136112213 0.4046443998813629 0.1927177608013153
0.10790734738111496 0.3348740339279175 0.4573226571083069
-0.0699734017252922 0.0023597492836415768 -0.3764677345752716
-0.5819246768951416 0.0037987115792930126 0.0008880104869604111
-0.44930407404899597 -0.0016867639496922493 0.11902960389852524
-0.1754269301891327 0.4001779854297638 -0.32912710309028625
0.3187639117240906 0.3024721145629883 0.34734588861465454
0.5862583518028259 0.06631702184677124 0.2834566533565521
0.13189896941184998 0.001828296110033989 -0.038169797509908676
-0.4368007779121399 0.10734311491250992 0.08421146124601364
0.036809809505939484 -0.6159517765045166 -0.20576469600200653
-0.5472702980041504 -0.07787992060184479 -0.26685941219329834
0.48995721340179443 0.08812538534402847 0.345593124628067
-0.3897126615047455 -0.05776004493236542 -0.25129038095474243
0.332628458738327 -0.0027937712147831917 0.3019977807998657
-0.37518930435180664 0.4005301594734192 -0.34760570526123047
0.059528715908527374 -0.42240259051322937 0.255885511636734
0.09515520185232162 -0.17851437628269196 -0.3738352358341217
-0.5210075974464417 7.881736382842064e-05 -0.055553585290908813
0.04804106801748276 -0.00014204299077391624 -0.20815680921077728
-0.18010681867599487 -0.3846583366394043 -0.1421472579240799
0.580995500087738 0.12881028652191162 -0.2496470957994461
0.3914768099784851 -0.5043327808380127 -0.039754774421453476
-0.10517089068889618 0.10155962407588959 0.34654244780540466
0.38424596190452576 0.20700344443321228 -0.4013720452785492
-0.4190913438796997 0.18083490431308746 -0.40305861830711365
0.3876093327999115 -0.18425270915031433 -0.22291384637355804
0.24921812117099762 0.4723418951034546 0.4281400144100189
-0.1418439745903015 -0.0003843788290396333 0.03357638418674469
-0.1623082160949707 0.39886951446533203 -0.36744174361228943
-0.10522976517677307 0.3990617096424103 0.3017827570438385
-0.23436130583286285 -0.05135960504412651 0.030212219804525375
-0.1919257938861847 -0.24335578083992004 0.15075145661830902
0.1579989492893219 -0.6216403245925903 -0.022821109741926193
0.20673510432243347 0.000455475936178118 0.060569003224372864
0.17737974226474762 -0.506033718585968 -0.31473371386528015
-0.34287354350090027 0.35339096188545227 -0.19252529740333557
0.03157564252614975 0.33574172854423523 0.4571070671081543
0.2878490090370178 -0.44094887375831604 0.19312262535095215
-0.5720961689949036 -0.027051497250795364 0.2799505591392517
0.4155605733394623 -0.36144155263900757 0.10273975878953934
0.3093422055244446 0.09721256047487259 0.4399562478065491
-0.46644172072410583 0.3933718204498291 -0.015801839530467987
0.023846803233027458 0.09867817163467407 0.45792457461357117
-0.5518956780433655 -0.07295526564121246 -0.362871378660202
-0.04922203719615936 0.0011039464734494686 -0.0005423709517344832
0.01523727085441351 -0.0014469206798821688 0.3294368088245392
0.5236122608184814 0.1658971756696701 -0.40384620428085327
0.03172831982374191 0.15913358330726624 0.4600902795791626
0.26585307717323303 0.4731374680995941 0.38542062044143677
0.10024809837341309 -0.6059468388557434 0.2625141441822052
-0.38796865940093994 -0.0017228862270712852 0.26355019211769104
0.3523074686527252 0.26248273253440857 0.3464715778827667
0.3858317732810974 -0.5709667205810547 -0.10021317005157471
-0.1830478459596634 -0.6207123398780823 -0.009260520339012146
-0.363937646150589 0.01126839779317379 -0.21099261939525604
0.3501816689968109 0.4039934277534485 -0.27522239089012146
-0.571621298789978 -0.041509248316287994 -0.21279309689998627
-0.0031382087618112564 -0.6238557696342468 -0.028153283521533012
-0.026935338973999023 -0.3440541625022888 0.2884754240512848
-0.19867078959941864 -0.28245311975479126 0.1436368227005005
-0.3843381702899933 -0.06586548686027527 0.04111233353614807
-0.06094762682914734 0.3998745083808899 -0.09026092290878296
0.1374352127313614 -0.6203000545501709 0.1259164661169052
0.2044346034526825 0.4023043215274811 -0.3116852343082428
-0.2289993017911911 -0.002384691499173641 0.015627671033143997
0.07175101339817047 0.0007970210281200707 -0.13150523602962494
0.5871536135673523 0.06481502950191498 -0.3307594656944275
0.28327178955078125 -0.05608108639717102 -0.32771384716033936
-0.490579754114151 0.3800448775291443 -0.1547321379184723
0.051342979073524475 0.40231555700302124 -0.17379546165466309
-0.420219749212265 0.023142134770751 -0.39863041043281555
0.5866023898124695 0.24070428311824799 -0.010117948055267334
0.031084973365068436 0.0020749149844050407 0.14029629528522491
0.3938802480697632 0.0020332392305135727 -0.28893372416496277
-0.521595299243927 0.1424562633037567 -0.40186935663223267
-0.5603142976760864 0.0384436696767807 0.33853527903556824
0.3186815679073334 0.012232039123773575 0.3544924855232239
0.36989277601242065 -0.6530933976173401 -0.09148746728897095
0.2593579590320587 0.0010604162234812975 -0.057531971484422684
0.15765736997127533 -0.5630794167518616 0.25578033924102783
0.30208292603492737 0.3823879361152649 0.45590439438819885
-0.5867195725440979 0.25029510259628296 0.038895133882761
0.16370956599712372 0.40303027629852295 -0.07611893117427826
0.12141779065132141 0.0012142916675657034 -0.1845588982105255
0.15413016080856323 0.0007111718878149986 -0.29564833641052246
-0.2732454538345337 -0.0025635124184191227 0.11790706217288971
0.48128607869148254 0.395816445350647 0.31949907541275024
0.37431982159614563 0.0013350006192922592 -0.11355731636285782
0.5682093501091003 0.13885965943336487 -0.39798471331596375
0.1593731939792633 0.4012050926685333 -0.04068208485841751
0.14845533668994904 0.3984547257423401 -0.3579151928424835
0.4327065348625183 -0.36663147807121277 -0.13297852873802185
-0.20258405804634094 -0.3805936276912689 0.09347899258136749
0.4263674020767212 -0.27572527527809143 0.10214017331600189
-0.367122620344162 -0.036477282643318176 -0.2218012660741806
0.15467417240142822 0.0021620471961796284 -0.2861937880516052
-0.19324082136154175 0.01692827418446541 -0.39783793687820435
0.48121917247772217 0.4029472768306732 -0.31753936409950256
-0.5850703120231628 0.1836838573217392 -0.025203609839081764
0.266275018453598 0.25446170568466187 -0.40208128094673157
-0.19768528640270233 -0.0009555192664265633 0.012177533470094204
-0.35755231976509094 -0.0009285192936658859 -0.18550951778888702
-0.5640723705291748 -0.00018178901518695056 -0.2508983910083771
0.1164514347910881 0.22339962422847748 0.3472057580947876
-0.09318321198225021 0.4014393389225006 0.3215808868408203
-0.4920034408569336 -0.10473312437534332 -0.17967672646045685
0.3789977431297302 0.2756902575492859 0.3460715115070343
-0.15935258567333221 0.39951181411743164 0.2062331736087799
-0.5818679332733154 0.16996388137340546 -0.22021783888339996
0.06925105303525925 0.1715371012687683 0.4595782458782196
0.584062933921814 0.2890157103538513 -0.03678199648857117
-0.07968820631504059 0.39986616373062134 0.22783561050891876
-0.03689774125814438 -0.31732940673828125 0.28709676861763
0.38681817054748535 0.04548761621117592 0.3480086922645569
0.07937605679035187 0.4026171565055847 -0.07285356521606445
-0.46364980936050415 -0.043929338455200195 0.3512350618839264
-0.18529485166072845 -0.0014751618728041649 -0.157606303691864
-0.2145986407995224 -0.37130120396614075 -0.1169876903295517
0.033155810087919235 0.39975565671920776 0.1111348494887352
0.13329893350601196 -0.13157184422016144 0.3159123659133911
0.0776657834649086 0.2870645225048065 -0.40402743220329285
-0.3247092366218567 0.11411742120981216 -0.4034259021282196
0.4366212785243988 -0.2819768488407135 0.05745619907975197
0.2903667092323303 -0.4608096778392792 0.19189520180225372
0.12144151329994202 0.4095754623413086 0.4529823064804077
0.44623687863349915 -0.14460903406143188 0.0004796115099452436
0.012388630770146847 0.0022382009774446487 -0.263651967048645
0.19529680907726288 -0.6172727942466736 0.009153122082352638
0.39061224460601807 0.4034024775028229 -0.07489441335201263
-0.24094149470329285 -0.28989261388778687 -0.0963207557797432
0.31933048367500305 -0.10498228669166565 0.2421264797449112
0.4616202116012573 0.0022627348080277443 0.25210443139076233
-0.41245096921920776 0.07864785939455032 0.3404335081577301
0.3294318914413452 -0.37439703941345215 0.20712165534496307
-0.01638815924525261 -0.000552719458937645 -0.15836234390735626
0.5867266654968262 0.21389271318912506 -0.3938813805580139
-0.38634732365608215 0.30780839920043945 -0.40416571497917175
-0.390026330947876 -0.07024387270212173 0.31731241941452026
0.19556963443756104 0.3979811668395996 0.08722946047782898
0.31960827112197876 -0.11594801396131516 -0.3012579083442688
0.2178817242383957 0.0003986051306128502 -0.3061515986919403
-0.4736865758895874 0.11881385743618011 -0.05835409089922905
-0.5856269001960754 0.2508167326450348 -0.04250667989253998
-0.37211090326309204 0.39853909611701965 -0.3084047734737396
-0.4207417070865631 0.39894524216651917 -0.2149842530488968
0.005585185252130032 0.3983961045742035 -0.24728736281394958
0.0747615173459053 -0.6184978485107422 0.0406232513487339
-0.5434381365776062 0.00303692277520895 -0.2991481423377991
-0.48801982402801514 -0.1106710284948349 0.25739356875419617
0.13504792749881744 -0.619794487953186 -0.11094523221254349
0.43946942687034607 -0.014663882553577423 -0.06521470844745636
-0.5162901878356934 0.0023763198405504227 0.26202812790870667
-0.5526376366615295 0.08072653412818909 -0.0038208402693271637
-0.0561319962143898 0.400675505399704 -0.35369452834129333
0.22516971826553345 -0.0015918617136776447 0.28017351031303406
-0.41438940167427063 -0.0733150914311409 0.34128695726394653
0.35190558433532715 -0.4746647775173187 0.11143999546766281
0.14481927454471588 -0.6197540163993835 0.14189817011356354
-0.5679293870925903 0.09409334510564804 -0.39804089069366455
-0.5848437547683716 0.16387201845645905 -0.0497366338968277
-0.2892720401287079 -0.0015474669635295868 -0.11974439024925232
0.11277420818805695 -0.6455073356628418 -0.30329445004463196
-0.2896851897239685 0.1855842024087906 0.34467440843582153
-0.16864296793937683 0.1657305508852005 0.34476545453071594
0.21232029795646667 -0.001712069846689701 -0.2783195674419403
0.583962082862854 0.35456013679504395 0.07632964849472046
0.31725606322288513 -0.3751993775367737 0.18325647711753845
-0.4221688210964203 0.10755173861980438 -0.04818348214030266
-0.3584694564342499 0.09615292400121689 -0.4013075828552246
-0.31856584548950195 0.3796215355396271 -0.0035759827587753534
-0.09708767384290695 -0.5104882121086121 0.1793530136346817
-0.06540864706039429 0.015197413973510265 0.33874115347862244
0.37360769510269165 -0.0032808659598231316 -0.24075980484485626
0.3196446895599365 -0.5935094356536865 -0.2218373864889145
0.19463591277599335 -0.6167246699333191 0.023426970466971397
-0.2123231440782547 0.3987796902656555 0.11331890523433685
-0.26016172766685486 0.34150317311286926 0.34398648142814636
0.23371368646621704 -0.6219103336334229 0.11532865464687347
0.11653031408786774 0.0008421232923865318 0.24162764847278595
-0.3964128792285919 -0.0028554173186421394 0.30332323908805847
0.32306233048439026 0.2102891504764557 -0.39788925647735596
0.5810789465904236 0.012485150247812271 -0.0003967778757214546
0.32843950390815735 0.293134868144989 0.3461972773075104
-0.24048471450805664 0.047028448432683945 -0.4022384583950043
-0.5271651744842529 0.3427978456020355 -0.10611438006162643
-0.31291431188583374 0.40771353244781494 -0.07698499411344528
-0.2061031460762024 -0.0014524506404995918 0.02708272635936737
-0.24622024595737457 -0.000990179367363453 -0.10781887918710709
0.39179444313049316 0.4029097855091095 -0.20865269005298615
0.19085487723350525 0.0011465074494481087 0.20812657475471497
-0.41000524163246155 -0.09591882675886154 0.16634196043014526
0.33300530910491943 0.1932166963815689 0.38827648758888245
-0.2860764265060425 0.15016911923885345 -0.40454480051994324
-0.5446929931640625 -0.08134344220161438 -0.1708056926727295
0.5812729001045227 0.17300823330879211 -0.3972088396549225
-0.12151975929737091 -0.624765932559967 0.005910379346460104
-0.22595039010047913 0.3990131914615631 0.3159041702747345
0.28431373834609985 0.001475847908295691 -0.31339502334594727
0.24668584764003754 0.0021156000439077616 -0.14583410322666168
-0.3884130120277405 0.39700692892074585 -0.324891060590744
-0.18499250710010529 -0.2187327891588211 0.15744897723197937
-0.14626260101795197 -0.0007994398474693298 0.14871017634868622
-0.04482712224125862 -0.5609846115112305 -0.2834296226501465
-0.27649661898612976 -0.0014624393079429865 0.24883891642093658
0.5844894051551819 0.0790550708770752 -0.23972220718860626
-0.5774549841880798 0.11583664268255234 -0.2531450092792511
0.02235415205359459 0.0014132242649793625 0.11480266600847244
0.30188891291618347 -0.618121862411499 -0.033569347113370895
0.2938027083873749 0.40159231424331665 -0.000596377591136843
0.0452265702188015 -0.0077942293137311935 0.3190559148788452
-0.13523924350738525 -0.2646944522857666 0.22465792298316956
0.44591933488845825 -0.27488115429878235 0.022693276405334473
0.1891593486070633 -0.3682699501514435 -0.3645045757293701
0.33375558257102966 0.00020370096899569035 0.14087986946105957
0.21699480712413788 0.33000123500823975 -0.40311118960380554
-0.1947445273399353 0.021665289998054504 -0.39854395389556885
0.1402692049741745 0.0002965852618217468 0.1810343861579895
-0.06580103933811188 0.2874678373336792 0.3512493968009949
-0.5774976015090942 0.0069133625365793705 -0.3640013337135315
0.4513494074344635 -0.08489514142274857 -0.02665712870657444
-0.2087215781211853 0.007203348446637392 -0.3893808126449585
0.06469765305519104 0.2815793752670288 -0.4025914669036865
0.2250307947397232 0.001931939274072647 0.09065968543291092
-0.48835769295692444 0.10201605409383774 0.31718406081199646
0.09322438389062881 -0.6207960844039917 -0.06764175742864609
0.27366068959236145 0.402478963136673 0.26896145939826965
-0.5737581253051758 -0.016350077465176582 -0.005547594279050827
0.21011710166931152 -0.46271225810050964 0.23528555035591125
0.33745431900024414 0.40148666501045227 -0.38331139087677
-0.18626783788204193 0.0010254569351673126 -0.2173844873905182
0.010368400253355503 -0.6244751811027527 -0.23719578981399536
0.5000284314155579 0.0038001444190740585 0.2610803544521332
-0.1785052865743637 -0.15497654676437378 0.16766494512557983
0.07307124882936478 -0.23778682947158813 -0.37086910009384155
0.26913997530937195 0.0015386929735541344 -0.10401292145252228
0.07886713743209839 -0.15750621259212494 -0.37535205483436584
0.10162632167339325 -0.6222336888313293 0.08893395215272903
-0.5868156552314758 0.2004033625125885 0.2742033004760742
0.14904050529003143 0.000691637396812439 -0.01694066822528839
0.3475189805030823 -0.5202538371086121 0.12686213850975037
-0.4974241554737091 0.3030208945274353 0.341511994600296
0.3150938153266907 -0.5621554851531982 0.16562846302986145
-0.08431879431009293 -0.3306931257247925 -0.3209436237812042
-0.2120523452758789 -0.08106082677841187 0.09923040866851807
0.4997026324272156 0.40282943844795227 -0.0721006914973259
0.2802739441394806 -0.08706691116094589 0.377464234828949
0.015566849149763584 0.0007381811738014221 -0.07440415024757385
0.5114470720291138 0.21078082919120789 0.34440991282463074
-0.3622383177280426 0.0021513288374990225 -0.23638154566287994
-0.08418808877468109 -0.3759312331676483 0.24265547096729279
-0.008496658876538277 -0.6230599284172058 -0.29491108655929565
-0.5819550156593323 0.17412622272968292 0.26417332887649536
-0.4522985517978668 0.17677660286426544 -0.40209415555000305
0.2894739508628845 0.0018920786678791046 -0.2307930290699005
0.13618922233581543 0.0023830432910472155 -0.27550530433654785
0.029812656342983246 0.26180127263069153 0.3626774549484253
0.015808558091521263 -0.6221908330917358 -0.13243801891803741
0.23627251386642456 0.38685381412506104 0.3461076617240906
0.2751394510269165 -0.6501448154449463 -0.24475230276584625
-0.4354497790336609 0.2006734013557434 0.34273460507392883
0.01438766997307539 -0.22406740486621857 -0.3637710511684418
-0.08507853746414185 0.21691469848155975 -0.40300098061561584
-0.37842056155204773 0.39877849817276 0.21211497485637665
0.35845547914505005 -0.6537975668907166 -0.11607605963945389
-0.5787193775177002 0.03367510810494423 0.051803164184093475
-0.5826051831245422 0.15188540518283844 0.06311632692813873
0.3243037760257721 -0.4573187828063965 0.1569909304380417
0.07228793948888779 -7.688254117965698e-05 0.02897573448717594
0.22228433191776276 -0.00023595895618200302 0.17889466881752014
0.356493204832077 -0.26404017210006714 -0.2643679976463318
-0.24492119252681732 9.254226461052895e-05 -0.20553450286388397
-0.31218045949935913 0.00012245727702975273 0.16949652135372162
-0.22865402698516846 0.40083110332489014 0.18446175754070282
0.1747369021177292 0.0005450386088341475 -0.002512982813641429
-0.5757545232772827 0.09545305371284485 0.011228621006011963
-0.09742467850446701 0.00021857954561710358 -0.2855481803417206
0.13992395997047424 -0.0033579468727111816 -0.36670389771461487
-0.17925900220870972 0.3804703652858734 -0.39665594696998596
0.14906936883926392 0.13635189831256866 -0.4038337767124176
-0.34479501843452454 0.0055272551253438 -0.22979353368282318
-0.4166117310523987 0.1005953848361969 0.09163806587457657
-0.006397219840437174 -0.6235687732696533 -0.2363419383764267
-0.07897812873125076 0.2584396302700043 -0.4025857746601105
-0.04783523827791214 -0.28487518429756165 -0.3416658043861389
0.2687133848667145 0.0774717852473259 0.46051234006881714
0.5894471406936646 0.17490451037883759 -0.24605530500411987
-0.10969274491071701 -0.6475315690040588 0.1403784453868866
-0.02816229872405529 -0.41059744358062744 0.22360964119434357
0.5827308893203735 0.13205556571483612 0.2744838297367096
0.5560211539268494 0.40293461084365845 0.09058905392885208
-0.5743027329444885 -0.016316061839461327 0.32982009649276733
-0.5795168280601501 0.3262852132320404 0.24871186912059784
-0.08070870488882065 0.10504788160324097 0.3458445072174072
-0.35232245922088623 -0.0027984119951725006 0.19084538519382477
0.5874767303466797 0.3573382794857025 -0.16382281482219696
0.033897362649440765 -0.620492696762085 0.10719515383243561
0.5855807662010193 0.27890175580978394 -0.10687784105539322
0.3551887571811676 0.24919867515563965 0.3457720875740051
0.5842944383621216 0.26446622610092163 -0.016415314748883247
0.08428788185119629 0.0011687949299812317 -0.0525541715323925
0.14915037155151367 -0.03478562831878662 0.46240895986557007
-0.44221606850624084 -0.05807189270853996 -0.39956432580947876
0.07952063530683517 -0.00828318390995264 0.30142492055892944
-0.5585436224937439 -0.0690784603357315 0.301878958940506
-0.22213955223560333 -0.10541977733373642 0.08594740182161331
0.25432223081588745 -0.11954843997955322 0.28125908970832825
-0.1247432604432106 -0.38069888949394226 0.20282788574695587
-0.22546105086803436 -0.32166942954063416 -0.13933803141117096
0.5614532232284546 0.17515148222446442 0.34244751930236816
0.5000156760215759 0.0009752267505973577 -0.28194767236709595
-0.12725847959518433 -0.1611485481262207 -0.2862550914287567
-0.5742398500442505 0.0497831366956234 -0.0001576927024871111
-0.5781044960021973 0.012007838115096092 0.23523731529712677
-0.5761710405349731 0.36224132776260376 0.17820459604263306
0.55946284532547 0.004097198136150837 0.12994025647640228
-0.5807042121887207 0.3446815311908722 -0.09666028618812561
0.3548353314399719 0.11166040599346161 0.3467153310775757
-0.3676992952823639 0.3973182737827301 -0.3826839029788971
0.1354847103357315 0.11769840866327286 0.46204662322998047
0.21224811673164368 0.003930128179490566 -0.14609354734420776
0.40194419026374817 -0.002276209183037281 -0.17569008469581604
0.3312492370605469 0.39578571915626526 -0.39656826853752136
0.25923606753349304 -0.010336101986467838 -0.3379274308681488
0.2267623245716095 -0.3519469201564789 0.2890629172325134
0.3793615698814392 0.40316638350486755 -0.34522953629493713
0.24090492725372314 -0.08293582499027252 0.4002208709716797
0.3196667432785034 -0.6197410225868225 -0.07692903280258179
0.5269557237625122 0.0020982110872864723 -0.13628511130809784
-0.18991431593894958 0.4003024697303772 0.01973903924226761
0.38195791840553284 0.15752509236335754 0.3456690013408661
0.029969053342938423 -0.6164043545722961 -0.2056986540555954
-0.5635769963264465 0.3751409649848938 -0.24664181470870972
0.028374575078487396 -0.23239019513130188 -0.3667033910751343
0.2397519052028656 -0.3088192939758301 0.29024896025657654
-0.47738707065582275 0.4009956121444702 -0.29612696170806885
0.5509212613105774 0.001336580142378807 0.15417295694351196
0.2052285522222519 -0.6226220726966858 -0.23145096004009247
-0.4275207221508026 -0.07534807920455933 0.3441276550292969
0.3965737819671631 -0.47829121351242065 -0.02573789656162262
0.5849577188491821 0.19084961712360382 0.3167348802089691
0.10369828343391418 -0.6163018941879272 -0.0752091184258461
-0.03360207378864288 0.0010397187434136868 -0.2367522418498993
-0.1608317494392395 -0.47413989901542664 -0.14639776945114136
0.5877127051353455 0.2977919578552246 0.2768994867801666
0.2366466224193573 0.40193262696266174 0.2624346613883972
-0.2960667908191681 0.37834179401397705 -0.046027980744838715
0.34054234623908997 -0.13109774887561798 -0.2854083478450775
-0.44949671626091003 0.39038655161857605 0.33622682094573975
0.09348013997077942 0.0006091287359595299 0.2559656500816345
-0.18387570977210999 -0.4968177378177643 -0.006375360768288374
0.07724937796592712 0.00020947633311152458 -0.05754515528678894
0.31196606159210205 0.059901896864175797 0.3524690568447113
-0.1252289116382599 0.0015737637877464294 0.11832742393016815
0.4648682773113251 0.013463529758155346 0.34255558252334595
-0.320281445980072 0.400076299905777 0.3279941976070404
0.4802195429801941 0.40194663405418396 -0.33596089482307434
-0.32852599024772644 0.40608927607536316 0.1496259868144989
0.17405182123184204 -0.371221661567688 -0.3623429536819458
-0.16666732728481293 0.4006142318248749 -0.12697626650333405
0.5839276909828186 0.00783059373497963 0.293927937746048
0.19549855589866638 -0.2976098656654358 0.30602890253067017
0.44831427931785583 0.3039492070674896 -0.40717026591300964
0.2908931076526642 0.403153657913208 0.14530238509178162
-0.5357942581176758 -0.08830184489488602 -0.14874742925167084
0.22069939970970154 -0.34302109479904175 -0.35436198115348816
0.374977707862854 -0.4737078845500946 0.06764440983533859
0.13259077072143555 -0.6171344518661499 -0.19496509432792664
-0.32146772742271423 0.3476674556732178 0.34374383091926575
-0.36601823568344116 0.004979001823812723 -0.07800468057394028
0.03313202038407326 0.40144407749176025 0.2055796980857849
0.5619476437568665 0.4042167365550995 -0.2658262550830841
-0.4833070635795593 0.3993573784828186 -0.26081639528274536
0.24690501391887665 -0.5367602109909058 -0.2793661057949066
0.5846701860427856 0.3083564341068268 0.337881475687027
-0.029742320999503136 0.0008648177608847618 0.07074395567178726
0.5761386156082153 0.20842547714710236 -0.3881317377090454
0.09929297864437103 -0.28038647770881653 -0.37316328287124634
-0.5772490501403809 0.11463496834039688 0.07629669457674026
0.40855735540390015 -0.3713624179363251 -0.16210292279720306
-0.583176851272583 0.22108879685401917 -0.2500890791416168
0.03722261264920235 0.10504723340272903 0.3449673056602478
0.18967799842357635 0.46457982063293457 0.43735286593437195
-0.17920348048210144 -0.3693457245826721 -0.2055213898420334
