0.06515821069478989 0.0022353120148181915 -0.2806396186351776
-0.15668606758117676 -0.23132948577404022 -0.24169886112213135
0.5802137851715088 0.25207674503326416 -0.28721681237220764
-0.39403656125068665 0.09212841838598251 0.3267211318016052
-0.5204509496688843 0.09839022904634476 0.249903604388237
-0.5459462404251099 0.005810959730297327 0.026657620444893837
0.43296465277671814 -0.013459221459925175 -0.1236010193824768
-0.126194030046463 0.0007112075109034777 -0.02692205086350441
-0.5269262790679932 0.09123865514993668 0.14307023584842682
-0.047708772122859955 0.0012042880989611149 0.0094234524294734
0.39487162232398987 0.17947997152805328 -0.3991796374320984
-0.3795015215873718 0.00606120191514492 0.13705012202262878
0.4305555522441864 -0.3117092549800873 -0.13742248713970184
0.1351311206817627 -4.77619469165802e-05 0.31181296706199646
0.0058433967642486095 0.0011014197953045368 -0.13431058824062347
-0.0868038535118103 0.39709025621414185 -0.17882022261619568
0.044776223599910736 0.03804989531636238 -0.39738765358924866
-0.2086852788925171 -0.0010160105302929878 0.07675624638795853
-0.11476099491119385 -0.6234539151191711 -0.0458490364253521
-0.5726619958877563 0.06588539481163025 0.12535373866558075
0.13995791971683502 0.03410078585147858 0.4687913954257965
-0.009941122494637966 0.00434718606993556 0.33138686418533325
-0.07292338460683823 0.39855778217315674 0.2197287529706955
0.028815580531954765 0.3984808027744293 -0.3401956856250763
-0.05415152385830879 0.0013962490484118462 0.23559562861919403
0.29698482155799866 0.299894243478775 0.4669473469257355
0.1310884952545166 0.3280884325504303 0.4630328416824341
0.021309303119778633 -0.654181182384491 0.23761513829231262
-0.012100406922399998 0.0036132363602519035 0.17628446221351624
0.1699308156967163 0.0014408280840143561 0.1633666753768921
0.07873524725437164 0.3993947505950928 0.3362676203250885
0.1641290783882141 -0.22030054032802582 -0.36946871876716614
0.5859178304672241 0.37518173456192017 -0.10729943215847015
-0.12910756468772888 -0.6311755776405334 0.03667371720075607
0.14503563940525055 -0.6216163635253906 -0.16860544681549072
0.27768176794052124 -0.3466389775276184 -0.3344065546989441
0.5901828408241272 0.17921379208564758 -0.1551288366317749
-0.36617332696914673 -0.03465666249394417 -0.24289476871490479
-0.43993863463401794 0.0034426446072757244 0.28781166672706604
-0.10413148999214172 -0.4612314999103546 -0.23195494711399078
-0.5825508832931519 0.11261418461799622 -0.2622288465499878
0.04361845180392265 -0.02299419604241848 0.46363934874534607
0.01953730173408985 -0.3776087164878845 0.25621044635772705
-0.3945600688457489 -0.07117751985788345 -0.2948874235153198
0.07970154285430908 -0.62074875831604 -0.23695863783359528
0.3244251310825348 0.0010000690817832947 -0.28091955184936523
0.35297340154647827 0.003910863772034645 0.05546955019235611
0.380819171667099 0.19042526185512543 0.34669870138168335
0.05658896267414093 0.0008880477398633957 0.007682709023356438
0.35747748613357544 -0.322612464427948 -0.2633064091205597
-0.5853848457336426 0.33866915106773376 0.09322688728570938
-0.08447295427322388 -0.06022665277123451 0.2630488872528076
-0.13143619894981384 0.3259032070636749 -0.4012681245803833
0.4611140191555023 0.022742753848433495 -0.3989819884300232
-0.3097373843193054 0.4003559648990631 0.1077059656381607
-0.22861531376838684 -0.0005883343983441591 0.14356468617916107
-0.4506121575832367 -0.0982380136847496 -0.11293413490056992
0.15512029826641083 0.07430438697338104 0.34538084268569946
0.10500345379114151 -0.5234786868095398 -0.31485292315483093
-0.02336786687374115 0.39880576729774475 -0.07318471372127533
-0.15848541259765625 -0.4567412734031677 0.08361437916755676
0.11425980925559998 -0.39013320207595825 -0.32735222578048706
-0.10822612792253494 -0.35975825786590576 -0.29751038551330566
0.5884150266647339 0.14380799233913422 0.20836788415908813
-0.5279247164726257 -0.093998022377491 -0.3498126268386841
-0.2623485326766968 0.3636414408683777 0.34190958738327026
-0.15488441288471222 -0.3917919397354126 0.11435797810554504
-0.38496530055999756 0.003567507490515709 0.1405387967824936
-0.09075947850942612 -0.624488353729248 0.03922714293003082
-0.20440205931663513 0.3998798131942749 -0.05926363170146942
-0.21402232348918915 0.3957900404930115 0.11972453445196152
0.30998551845550537 -0.08801507949829102 0.3404664993286133
-0.23588913679122925 0.39960724115371704 -0.028088953346014023
-0.2557888925075531 0.3936295509338379 -0.3901731073856354
-0.2050715833902359 0.14234817028045654 0.3431588411331177
0.2311883419752121 0.45806780457496643 0.4512835144996643
-0.5771726369857788 0.12536528706550598 -0.05258653685450554
-0.38135871291160583 0.04168069362640381 -0.2275114804506302
-0.22579824924468994 -0.37014156579971313 -0.08472803235054016
-0.02755673974752426 -0.4448719918727875 0.2239946871995926
-0.01797226257622242 0.0009352853521704674 0.20167754590511322
0.38593587279319763 -0.37879323959350586 -0.12758590281009674
0.5138619542121887 0.005636006128042936 0.32316771149635315
0.08516138046979904 0.002730527427047491 0.09077030420303345
-0.4451513886451721 0.003167111426591873 -0.0005236497381702065
0.25841593742370605 0.3967536687850952 -0.3189584016799927
-0.5640947818756104 0.12383085489273071 -0.39560309052467346
0.07648119330406189 -0.6252555251121521 -0.25188228487968445
0.3071332275867462 0.3976074159145355 0.36400750279426575
0.18336071074008942 -0.4513891637325287 -0.311187207698822
-0.13135261833667755 0.39576515555381775 0.07328939437866211
0.2903767228126526 0.0035992516204714775 -0.16795384883880615
0.5925572514533997 0.08187541365623474 -0.06453944742679596
-0.1853073090314865 0.2956083118915558 -0.40319395065307617
0.05526430532336235 0.0021990258246660233 -0.2668693959712982
-0.4242013990879059 0.39933034777641296 0.05193676799535751
-0.11939704418182373 0.0009023707825690508 0.01779337227344513
-0.03261856362223625 0.0008255131542682648 0.23046299815177917
0.5368354320526123 0.09508693218231201 -0.40124619007110596
0.021538855507969856 0.09576601535081863 0.4382925033569336
0.5424367785453796 0.3994044363498688 -0.03551078215241432
0.4474288523197174 0.36451879143714905 -0.40401691198349
-0.007651147432625294 -0.6228347420692444 -0.2238229662179947
-0.0667344406247139 -0.6225398778915405 -0.07048778980970383
0.19567036628723145 0.16744862496852875 0.4702783226966858
0.004525190219283104 -0.11757853627204895 -0.3671833574771881
0.34794411063194275 -0.22586539387702942 -0.283659428358078
0.5840974450111389 0.12349089980125427 0.029850780963897705
-0.2886272072792053 0.10101443529129028 0.34511762857437134
-0.1580609381198883 -0.23249132931232452 -0.2590786814689636
0.4747687876224518 0.14145085215568542 -0.40304625034332275
-0.05733075737953186 0.39188703894615173 0.33386585116386414
-0.001237519783899188 0.002101432764902711 0.10222072154283524
0.37499067187309265 0.19186660647392273 -0.4045431315898895
-0.38667038083076477 -0.08779828250408173 0.13596895337104797
-0.13396184146404266 -0.4973762631416321 -0.19073793292045593
0.03470747917890549 -0.4857969284057617 -0.30749714374542236
-0.061803895980119705 0.3985673487186432 0.031354378908872604
-0.22205616533756256 -0.23194892704486847 0.05337764695286751
-0.37808912992477417 0.03278473764657974 0.043018147349357605
0.5210980772972107 0.39730045199394226 0.09374670684337616
0.347589373588562 -0.45038309693336487 -0.16630670428276062
0.5098421573638916 0.4001232981681824 -0.0547855906188488
0.16968177258968353 0.463482141494751 0.3725825548171997
0.05261147767305374 -0.6249331831932068 -0.06367501616477966
-0.03160715475678444 -0.3671555519104004 0.26027852296829224
-0.1319049894809723 0.3879706561565399 0.33954063057899475
0.0608009472489357 0.25682011246681213 0.3445684611797333
0.3791702091693878 -0.3785068094730377 0.11421012133359909
-0.2516820728778839 0.3933493196964264 -0.14730539917945862
0.582175076007843 0.2867136597633362 -0.08187621086835861
0.3363986313343048 0.299156129360199 0.40176960825920105
0.11671196669340134 -0.06910031288862228 0.3219746947288513
0.32197511196136475 -0.6219112277030945 -0.21176543831825256
-0.5384195446968079 0.06409882009029388 -0.33685818314552307
-0.5698564052581787 0.05777497962117195 0.07726455479860306
-0.1020275205373764 -0.23418956995010376 -0.31340694427490234
-0.5488685369491577 0.38521596789360046 -0.18180467188358307
0.051584187895059586 0.0007456159219145775 0.2903980612754822
0.03824995085597038 0.0026429560966789722 0.16874156892299652
0.01292193029075861 -0.23820899426937103 0.30387383699417114
-0.1393515020608902 0.0012086667120456696 0.02948039583861828
-0.3622781038284302 -0.00814761035144329 -0.3797650635242462
-0.06093603000044823 -0.3773299753665924 -0.285483717918396
0.013380530290305614 0.0012035747058689594 -0.25984278321266174
0.44711631536483765 -0.24290134012699127 -0.08611520379781723
0.228909432888031 0.3703519403934479 -0.40323060750961304
0.25574737787246704 0.003302987664937973 0.009654178284108639
-0.4042433202266693 -0.09419199824333191 -0.32937803864479065
-0.08248419314622879 -0.13059556484222412 -0.32755064964294434
0.011887187138199806 0.2194955199956894 -0.40132632851600647
-0.19087956845760345 0.10937420278787613 0.34415602684020996
-0.008582817390561104 -0.36441293358802795 -0.34639132022857666
0.41538068652153015 -0.342608779668808 0.10003847628831863
0.10725126415491104 -0.596340537071228 -0.3181982636451721
0.40936070680618286 0.0018797990633174777 -0.1283571571111679
0.36368778347969055 0.002013762015849352 -0.3397117257118225
0.18696419894695282 -0.6230411529541016 0.10542995482683182
0.3008967638015747 0.3490018844604492 -0.4036591947078705
0.5796710252761841 0.3257276117801666 -0.2750389277935028
-0.2425764948129654 -0.24338163435459137 0.003306741826236248
0.24968300759792328 -0.4153590500354767 -0.2751748263835907
-0.13957267999649048 0.2378774881362915 -0.40316909551620483
0.053326040506362915 0.002536055166274309 0.08769199997186661
0.0658731684088707 0.10597772896289825 0.4667520225048065
-0.5332671403884888 -0.018841177225112915 -0.3970291018486023
-0.5584520101547241 0.3369790017604828 0.34636399149894714
-0.3538500666618347 0.006837919354438782 0.12480498850345612
-0.4057143032550812 -0.07636433094739914 -0.1840551793575287
-0.5162965059280396 0.11303186416625977 -0.40067803859710693
0.1906362920999527 -0.631066620349884 0.2027384340763092
-0.5192137956619263 -0.10078144073486328 -0.26684311032295227
-0.37092697620391846 0.022514618933200836 0.11729126423597336
0.13184550404548645 -0.6221461296081543 -0.18053989112377167
-0.13543103635311127 0.004598474130034447 -0.38341331481933594
0.21410807967185974 -0.6226300597190857 -0.10366390645503998
-0.4400560259819031 0.22798332571983337 -0.4015437066555023
-0.30225515365600586 -0.00044806674122810364 -0.13911840319633484
0.4826448857784271 0.3982670307159424 0.28815722465515137
-0.33798837661743164 0.4067475199699402 -0.004048644565045834
-0.3036324977874756 0.2510063946247101 -0.40325331687927246
-0.5010290741920471 0.0032803784124553204 -0.21257372200489044
0.24980810284614563 0.1266700029373169 -0.4004755914211273
0.2587564289569855 0.022006668150424957 -0.40113943815231323
-0.5127686858177185 0.004707425367087126 0.1744866818189621
0.22457283735275269 -0.46370115876197815 -0.2944668233394623
0.28499749302864075 0.39866361021995544 0.3556198477745056
-0.5756790041923523 -0.0074279289692640305 0.06081593036651611
0.5679807662963867 0.036970533430576324 -0.2522708475589752
-0.49481499195098877 0.4007837176322937 0.05791402980685234
-0.04558918997645378 0.00034022703766822815 -0.34593239426612854
0.43348100781440735 -0.020230144262313843 -0.1377037614583969
0.3899645507335663 -0.0018420219421386719 0.17016132175922394
0.24470090866088867 -0.6269997954368591 0.10754862427711487
0.1538107544183731 0.3967856764793396 -0.24588502943515778
-0.5850499868392944 0.23898884654045105 0.2931305766105652
-0.04844127967953682 0.3987082540988922 -0.3473198115825653
0.5927811861038208 0.0705256387591362 0.23174411058425903
0.33218660950660706 0.401108056306839 0.23427458107471466
0.5833997130393982 0.23912473022937775 0.1756686568260193
-0.23717863857746124 -0.3626003563404083 -0.06306946277618408
-0.14297699928283691 -0.5260913968086243 -0.17465265095233917
0.15240097045898438 0.18226909637451172 0.345628559589386
-0.05604947358369827 0.0009225518442690372 0.18707692623138428
0.3619324862957001 -0.15520788729190826 0.19583754241466522
-0.31035929918289185 0.002367777284234762 0.1335725486278534
-0.34680259227752686 0.41399621963500977 -0.1294027715921402
-0.14612172544002533 0.39634954929351807 -0.31838083267211914
-0.5734627842903137 0.33582624793052673 0.29610225558280945
-0.5269311666488647 0.38834911584854126 0.33696791529655457
-0.03841738402843475 0.0005593003006651998 -0.3516496419906616
0.3877626061439514 0.39917343854904175 -0.019333619624376297
-0.5587932467460632 0.32009658217430115 0.34679174423217773
0.5622500777244568 0.31523463129997253 -0.3974582254886627
0.2948550581932068 0.39772719144821167 -0.3178812861442566
-0.02494458481669426 -0.4904195964336395 0.2270771563053131
0.18254980444908142 0.0297737754881382 -0.39935579895973206
-0.23923559486865997 0.008376404643058777 -0.3857418894767761
-0.484936386346817 0.11438659578561783 -0.37601223587989807
-0.05298591032624245 -0.6268998384475708 -0.1325547844171524
0.3056211471557617 0.00332725141197443 0.2698272168636322
0.3684060275554657 -0.27617043256759644 0.17606137692928314
0.548380434513092 0.39725974202156067 -0.16665290296077728
0.0004177931696176529 0.0021308036521077156 -0.01596229150891304
0.32850271463394165 -0.4236588776111603 0.1579134166240692
0.29099196195602417 -0.6474514603614807 -0.20897221565246582
0.0780581384897232 0.3987724483013153 0.015713190659880638
-0.06144975870847702 0.0017874585464596748 0.21586860716342926
-0.07359199225902557 -0.6246085166931152 0.02140309102833271
-0.12447121739387512 -0.11321979761123657 -0.27922895550727844
-0.2567043602466583 0.0028091957792639732 0.11522265523672104
0.05734531208872795 0.39803069829940796 -0.2347366064786911
0.32752957940101624 -0.6226965188980103 -0.029294811189174652
0.1350492238998413 -0.5070788860321045 -0.3211425840854645
0.31059595942497253 0.0016930429264903069 0.20678682625293732
0.05672004818916321 0.0010772700188681483 -0.3299437463283539
-0.2263118028640747 -0.24543841183185577 -0.16846881806850433
0.3927495777606964 -0.6206199526786804 -0.08031126111745834
-0.3455968201160431 0.3564571738243103 0.029823951423168182
0.4303320646286011 0.3096020817756653 0.3457053303718567
0.42965659499168396 -0.0016019223257899284 -0.027311056852340698
-0.23516391217708588 -0.00012762658298015594 0.17006313800811768
0.09605515748262405 0.39832255244255066 -0.1160319447517395
0.5189303755760193 0.0053970227017998695 0.33288171887397766
-0.31974565982818604 0.3960162103176117 -0.1186932697892189
0.580246090888977 0.3825702965259552 -0.08448359370231628
0.4860519766807556 0.39730244874954224 -0.3943469226360321
-0.2890561521053314 0.002274994971230626 0.18733243644237518
-0.289055734872818 0.3946489095687866 -0.14615470170974731
0.25423145294189453 -0.6409615278244019 0.17085832357406616
0.26845189929008484 -0.00045578088611364365 -0.206264927983284
-0.5050289630889893 0.39327481389045715 -0.1927664875984192
0.04758778214454651 -0.6230323910713196 0.05211630463600159
-0.23641178011894226 -0.0008865599520504475 -0.030005378648638725
0.32017892599105835 0.3209696114063263 0.4655826985836029
0.2846238315105438 -0.049145981669425964 -0.32159993052482605
-0.45959189534187317 0.25198858976364136 -0.402353972196579
0.12683625519275665 -0.6222943663597107 0.14944963157176971
0.3401266932487488 0.39947059750556946 -0.23917630314826965
0.3340463936328888 -0.3721190392971039 -0.26710495352745056
-0.38956668972969055 0.09207399189472198 -0.3033086955547333
-0.03821758180856705 -0.6242225170135498 -0.10353808850049973
-0.46751466393470764 -0.1010393351316452 0.34289345145225525
-0.3176611065864563 0.402681827545166 -0.1063394695520401
0.30859869718551636 0.3974253535270691 0.2562454640865326
-0.35659343004226685 -0.014792910777032375 0.2502692937850952
-0.5792321562767029 0.30686405301094055 -0.19862179458141327
-0.23608338832855225 -0.007592570967972279 -0.06285674124956131
0.11166640371084213 0.2893720865249634 -0.4028846323490143
0.4462701976299286 0.39975693821907043 0.06609568744897842
0.07143247872591019 0.138800710439682 -0.4005633294582367
-0.1997852325439453 -0.3802778720855713 0.06946686655282974
0.22346526384353638 -0.10841313749551773 0.30586767196655273
0.5797776579856873 0.013419779017567635 -0.34067821502685547
0.5904730558395386 0.26707956194877625 -0.3336094319820404
-0.14870916306972504 -0.6404091715812683 -0.04358256980776787
0.5118610858917236 0.003062380012124777 0.19154098629951477
0.2800518870353699 0.0038145873695611954 -0.14666974544525146
0.24637295305728912 -0.5719956755638123 0.22187389433383942
-0.17937155067920685 0.39924538135528564 0.01719469577074051
0.22847309708595276 0.0025923019275069237 -0.3127375841140747
-0.5727026462554932 0.3564682602882385 -0.09335297346115112
0.40763041377067566 -0.11630971729755402 0.13805626332759857
-0.559445321559906 0.06429803371429443 -0.06244605779647827
0.21388840675354004 0.002174129942432046 -0.2885758578777313
0.3161807656288147 -0.5726751685142517 0.16362911462783813
-0.5464310646057129 -0.0802159383893013 0.14729924499988556
0.03198491781949997 -0.0004042200744152069 0.3034417927265167
0.10008782893419266 -0.13847258687019348 -0.3745243549346924
0.3127215802669525 0.2794327437877655 -0.402927041053772
-0.4221023917198181 -0.09365570545196533 0.3401808738708496
-0.5620517134666443 0.08788835257291794 -0.3952220678329468
0.43599194288253784 0.03650466725230217 0.3476785123348236
0.01904643326997757 0.002664957195520401 -0.2503634989261627
-0.09373060613870621 0.0020656175911426544 0.30914944410324097
0.09524587541818619 -0.6241916418075562 -0.16724155843257904
-0.5699167251586914 0.04841958358883858 -0.13493308424949646
0.15737579762935638 -0.6279360055923462 0.010082591325044632
0.2037951797246933 0.0029013045132160187 -0.18080422282218933
-0.17536912858486176 -0.5080263018608093 0.04176897555589676
0.16903580725193024 -0.6246393918991089 -0.10939612239599228
0.42431822419166565 0.0058461567386984825 0.3354305922985077
0.09425840526819229 0.2952186167240143 0.4640520513057709
-0.14631131291389465 -0.6559762358665466 0.05554519593715668
-0.20510411262512207 -0.0008249017409980297 0.09625992178916931
0.15564671158790588 0.003356683999300003 -0.23259933292865753
0.34651562571525574 0.40286970138549805 0.23698416352272034
0.5836348533630371 0.17151129245758057 -0.3983722925186157
-0.2742018401622772 0.0661885067820549 -0.39661937952041626
0.3346477150917053 0.0037062866613268852 -0.29310086369514465
0.14102695882320404 -0.6269868612289429 -0.0037619443610310555
-0.29474472999572754 0.006365521810948849 -0.3641902208328247
0.20149317383766174 -0.6271233558654785 -0.05084250122308731
-0.37435629963874817 0.049925561994314194 -0.15322859585285187
-0.35550928115844727 -0.02230335772037506 0.12446827441453934
0.5885681509971619 0.0708184540271759 -0.3001355826854706
-0.5714351534843445 0.1254483312368393 0.2140820175409317
0.430349737405777 0.001178954727947712 -0.30154290795326233
0.21201372146606445 0.0018509249202907085 0.09687648713588715
-0.3689209222793579 0.001644706353545189 0.04508621618151665
-0.07903008908033371 0.3423829972743988 0.3477725684642792
0.08574096858501434 -0.6252653002738953 0.09154282510280609
-0.33575162291526794 0.3956955671310425 -0.04331625998020172
0.3845563530921936 -0.3902072608470917 -0.07488516718149185
0.4944327473640442 0.3985828757286072 -0.3057979643344879
0.34662219882011414 -0.12723398208618164 -0.28911954164505005
0.0016914582811295986 -0.11498579382896423 0.3078562319278717
-0.37394750118255615 0.0013283435255289078 -0.12532030045986176
-0.23587356507778168 -0.22523190081119537 -0.07008252292871475
-0.12792740762233734 -0.5710982084274292 -0.21628542244434357
0.2956925928592682 -0.6263757348060608 -0.1389158070087433
0.5400432348251343 0.39608877897262573 0.10678686946630478
0.32427868247032166 -0.3233606219291687 0.23382578790187836
-0.5788511633872986 0.055517133325338364 0.20875325798988342
0.5427374243736267 0.3984561860561371 0.10142647475004196
0.3553013205528259 -0.2978173792362213 -0.26389646530151367
-0.33364495635032654 0.397426038980484 -0.34788599610328674
0.060911670327186584 0.3895303010940552 0.3945370018482208
0.5604802370071411 0.22913908958435059 0.34430214762687683
-0.5179839730262756 0.15205198526382446 -0.40118345618247986
-0.34839990735054016 -0.007436676882207394 0.1690993458032608
0.09560675919055939 -0.6245969533920288 -0.149211585521698
0.15673474967479706 -0.6272075176239014 -0.16000378131866455
0.1672646701335907 -0.5016304850578308 0.2509770393371582
0.013448514975607395 0.2288736253976822 0.42172858119010925
-0.056206174194812775 -0.20099982619285583 -0.3379320502281189
0.2010137140750885 0.39183998107910156 0.34028783440589905
0.32000625133514404 -0.02871410734951496 0.4559577405452728
0.09302501380443573 -0.21096114814281464 0.31733930110931396
0.23362548649311066 0.0029817838221788406 0.09265927225351334
-0.5810264348983765 0.1500488519668579 -0.06947722285985947
-0.280043363571167 0.36079585552215576 -0.012812833301723003
0.3431212902069092 -0.5499252676963806 0.13478092849254608
-0.17230744659900665 -0.6201914548873901 0.05294656381011009
0.018765395507216454 -0.3088209331035614 -0.36594250798225403
-0.5597784519195557 0.356814444065094 0.2992973029613495
0.0680093988776207 0.014638573862612247 0.3408626616001129
0.15630321204662323 0.2336101084947586 -0.40313172340393066
0.049073949456214905 0.40612176060676575 0.3614429831504822
-0.5845754742622375 0.162931427359581 -0.2226526290178299
0.5661141872406006 0.008765225298702717 0.22308816015720367
0.4135652482509613 -0.20801740884780884 0.1108010783791542
-0.05871811509132385 -0.6294799447059631 0.1276780068874359
0.2682591676712036 -0.14392858743667603 0.2760859727859497
-0.41425690054893494 -0.0799182802438736 -0.3041354715824127
0.37319812178611755 -0.5883870124816895 0.04948770999908447
-0.49999234080314636 0.0442035049200058 0.3557080626487732
-0.539679229259491 0.0645858645439148 -0.012342886999249458
-0.34859010577201843 0.003535971511155367 0.19875915348529816
0.4395471215248108 -0.20871199667453766 -0.016451332718133926
-0.11062025278806686 -0.3543834090232849 0.23472751677036285
-0.005509695038199425 0.19504740834236145 0.39635664224624634
-0.5001025795936584 0.3330654203891754 -0.033495739102363586
0.15692414343357086 0.4183695614337921 0.45964497327804565
-0.49207255244255066 -0.11832748353481293 -0.2948148548603058
-0.09294803440570831 -0.6220141649246216 -0.159612774848938
-0.41660672426223755 0.107332244515419 0.14006555080413818
0.038406144827604294 0.003064359538257122 0.1014440506696701
-0.4857911765575409 -0.1101849153637886 0.3192106783390045
-0.054537102580070496 -0.026907872408628464 0.275185227394104
0.32209300994873047 0.39069756865501404 0.345380574464798
0.27214908599853516 -0.11633245646953583 0.27474892139434814
-0.09268970787525177 0.1661427617073059 0.4052232801914215
0.39461904764175415 -0.00035464484244585037 0.15409629046916962
-0.1717473715543747 -0.4643667936325073 0.06529133766889572
0.4380743205547333 -0.19067880511283875 0.04020661115646362
0.41247081756591797 -0.18108713626861572 -0.1782703399658203
-0.35436582565307617 0.3977430760860443 -0.24542444944381714
-0.1197228729724884 0.2798875570297241 0.3487637937068939
0.31328755617141724 -0.026723861694335938 -0.30337440967559814
-0.029539987444877625 -0.6156880259513855 -0.287609726190567
-0.39881083369255066 0.3978537619113922 0.14713402092456818
0.03637976199388504 0.33980292081832886 -0.4038583040237427
0.20716162025928497 -0.43599310517311096 -0.30514824390411377
0.22812432050704956 0.0006606215611100197 -0.3331313133239746
-0.1602601259946823 -0.09009106457233429 0.19696374237537384
0.021252885460853577 0.0027024103328585625 0.03312236815690994
0.04936205595731735 0.3851694166660309 0.3465380370616913
0.28459814190864563 -0.00015418697148561478 -0.3137112259864807
0.4116063117980957 -0.07612890750169754 0.11045118421316147
0.22542428970336914 -0.5654657483100891 -0.279857873916626
-0.43583235144615173 0.007202151697129011 0.34969693422317505
0.3770730495452881 0.0012882105074822903 -0.11386766284704208
0.4252321720123291 0.17763221263885498 -0.4041944742202759
-0.15819138288497925 -0.6466771364212036 0.07146386802196503
-0.156174898147583 -0.092531718313694 -0.27951961755752563
-0.14779074490070343 -0.6485060453414917 -0.040657445788383484
0.5378682613372803 0.36522015929222107 0.34555763006210327
-0.57980877161026 0.2940535545349121 0.25385692715644836
-0.266824334859848 0.013662261888384819 0.34130290150642395
0.4095862805843353 -0.12199901044368744 -0.18960632383823395
0.560126006603241 0.01259692758321762 0.3314926028251648
0.20351609587669373 0.35110920667648315 0.3426692485809326
-0.5383344292640686 0.39482787251472473 -0.20338819921016693
0.5903468132019043 0.06311945617198944 -0.21119807660579681
-0.11069495230913162 -0.6250455379486084 -0.22715416550636292
-0.0003544851206243038 0.002333848737180233 -0.10164228826761246
0.20568978786468506 -0.29955166578292847 -0.3608848750591278
-0.5184798240661621 -0.0014554518274962902 -0.2277253121137619
0.022972742095589638 0.07972506433725357 -0.4021362066268921
0.408028781414032 0.001714106765575707 -0.02863755077123642
-0.009687745943665504 0.3985668122768402 -0.15687337517738342
0.3173017203807831 0.018471308052539825 0.4654483497142792
-0.3865859806537628 -0.04690118879079819 -0.044636428356170654
0.3933221995830536 0.18152634799480438 0.3468167185783386
0.3607049584388733 0.0010280446149408817 -0.19112266600131989
-0.4691605567932129 0.12398482114076614 0.0801587700843811
0.3672095835208893 -0.6216497421264648 0.08527219295501709
-0.09867396205663681 0.3960738778114319 0.2651401460170746
0.031034313142299652 0.005317182280123234 0.337373286485672
-0.013214955106377602 -0.5361260175704956 0.23618967831134796
0.1699831485748291 0.0029706498607993126 -0.04780478775501251
-0.2974799573421478 0.003956621512770653 0.09453307837247849
-0.23231631517410278 0.3998201787471771 0.2587064504623413
0.3235272169113159 0.2701340615749359 0.44296395778656006
-0.25774261355400085 0.33866918087005615 0.3459310829639435
0.09079870581626892 0.004059012047946453 -0.31869566440582275
0.18375670909881592 -0.5185811519622803 0.2472054809331894
-0.19027522206306458 -0.19485139846801758 0.15709251165390015
0.3809593915939331 0.13449876010417938 -0.4019658863544464
0.057782210409641266 0.18715687096118927 -0.4049544334411621
0.005551953334361315 -0.6234768033027649 0.17098893225193024
-0.3656758666038513 -0.020170867443084717 -0.18563240766525269
-0.1297072023153305 -0.16051200032234192 -0.2970917522907257
-0.35789966583251953 0.03736511245369911 0.34245309233665466
0.09878139942884445 -0.626295268535614 0.05834757164120674
0.5762500762939453 0.19225065410137177 -0.3162398040294647
-0.4856068789958954 0.11196897178888321 0.08224300295114517
0.43064555525779724 0.005183489061892033 0.018549572676420212
0.0067333318293094635 0.40262317657470703 -0.33471715450286865
-0.01390025857836008 0.21936294436454773 0.4050080478191376
-0.06275095045566559 0.39858052134513855 -0.045934781432151794
-0.4210349917411804 0.38191643357276917 0.01731225848197937
0.42587900161743164 -0.31649985909461975 -0.1361227184534073
-0.0746912732720375 -0.032410480082035065 0.264077365398407
-0.3606358468532562 0.30700623989105225 -0.40347689390182495
0.05111506208777428 0.0010156165808439255 -0.24058762192726135
-0.4379437267780304 0.39842894673347473 -0.39396369457244873
-0.07013639807701111 -0.07595010101795197 -0.33359548449516296
0.05185304582118988 0.0027303812094032764 -0.01392701081931591
-0.18274827301502228 -0.19942516088485718 0.16828382015228271
-0.007617042399942875 0.16282689571380615 -0.4030326306819916
-0.1898188441991806 0.3981376588344574 -0.2912891209125519
0.08946766704320908 -0.6274362206459045 -0.18070822954177856
-0.05398303642868996 0.3025624752044678 -0.4014894664287567
0.3788532018661499 -0.32848024368286133 0.1708686202764511
-0.40456029772758484 0.4026128649711609 -0.15134559571743011
0.33956730365753174 0.004042912274599075 -0.019633248448371887
0.37471991777420044 0.39921262860298157 0.22743970155715942
-0.437421977519989 0.08272037655115128 -0.4000645875930786
-0.4892374873161316 0.11789655685424805 -0.02428513765335083
-0.051837366074323654 -0.6249769330024719 -0.11072036623954773
-0.1684834063053131 -0.00035673787351697683 0.050097767263650894
0.46125689148902893 0.39534860849380493 -0.32089436054229736
-0.06880424916744232 -0.6268143057823181 0.1467253714799881
-0.2454787641763687 -0.34157437086105347 -0.0104181207716465
-0.052308958023786545 -0.566423773765564 0.21557468175888062
-0.5115671157836914 -0.031020617112517357 0.3518061637878418
-0.2917219400405884 0.028232011944055557 0.343351274728775
-0.5549489855766296 0.37116554379463196 -0.16544829308986664
-0.2248203009366989 -0.11708877980709076 0.06699863821268082
0.29381272196769714 -0.635452389717102 -0.1764194369316101
-0.5170375108718872 0.1124500259757042 -0.17010551691055298
-0.3749071955680847 0.35108980536460876 -0.4029903709888458
0.3314513862133026 -0.4730231761932373 0.13460685312747955
-0.4716286361217499 -0.11816605180501938 -0.27463847398757935
-0.5791394710540771 0.048699673265218735 -0.38457223773002625
-0.4267392158508301 0.06822145730257034 -0.3985525965690613
0.44578662514686584 -0.289669394493103 0.018071703612804413
-0.00990323442965746 0.39356759190559387 0.32724958658218384
0.1816805750131607 0.4274769723415375 0.36879077553749084
0.027963174507021904 -0.6261091232299805 0.03918742388486862
0.4063723683357239 -0.15050320327281952 -0.1945807933807373
0.43987491726875305 -0.13334383070468903 0.03554583340883255
0.2642064094543457 -0.6403140425682068 -0.23618917167186737
0.27059924602508545 0.30831846594810486 0.4672919511795044
0.3298446536064148 -0.01919369213283062 -0.2975490987300873
0.0014369927812367678 -0.6250399947166443 0.10717049241065979
-0.3322647213935852 0.004828524775803089 0.18605856597423553
-0.30183956027030945 0.06509435176849365 0.344356894493103
-0.387734979391098 -0.0636001005768776 -0.33453962206840515
0.44300398230552673 -0.14538437128067017 -0.040600184351205826
0.04598361998796463 -0.35029736161231995 0.3067350685596466
0.41028350591659546 -0.3589533865451813 0.10471682250499725
0.15266761183738708 -0.6308810114860535 0.09661819040775299
-0.5573980212211609 0.3851933181285858 -0.21620815992355347
-0.06905891001224518 -0.6229100823402405 -0.029792316257953644
-0.1145220547914505 -0.005800995044410229 -0.3046937882900238
-0.04180189594626427 -0.625836193561554 -0.16622130572795868
0.35914725065231323 -0.11033446341753006 -0.26193904876708984
-0.36550799012184143 -0.0035531939938664436 0.2516796886920929
0.280804306268692 0.1613006889820099 -0.4016190469264984
-0.2433636486530304 -0.17229154706001282 -0.04599244147539139
0.10562026500701904 0.002513464540243149 -0.14709261059761047
0.033675417304039 0.1432759314775467 0.359489768743515
-0.5556180477142334 0.38886502385139465 0.23478630185127258
0.2375643104314804 0.003152447985485196 0.034200478345155716
-0.15527556836605072 0.39751794934272766 -0.3474162817001343
-0.5624180436134338 0.3757968246936798 -0.23009052872657776
-0.24249838292598724 -0.00014862045645713806 -0.05861084908246994
0.4343976080417633 -0.0010474221780896187 -0.05201078578829765
0.35267382860183716 -0.500022292137146 0.11038845777511597
-0.5745090246200562 0.03377821668982506 -0.3890054523944855
-0.23936721682548523 -0.04508389160037041 0.05059541016817093
0.3910744786262512 -0.2583577334880829 -0.22671525180339813
-0.0993025004863739 0.32194802165031433 0.34833046793937683
0.05293004959821701 -0.34149593114852905 0.3093133568763733
0.30496928095817566 -0.2756907641887665 -0.3088727593421936
0.23915192484855652 0.026674985885620117 -0.39925163984298706
-0.5560150742530823 0.09474853426218033 -0.3511948883533478
0.029488394036889076 0.16722755134105682 0.45651501417160034
0.578523576259613 0.35545870661735535 0.28547361493110657
-0.36871591210365295 -0.006865395233035088 0.13317081332206726
-0.1901116669178009 -0.4478318393230438 -0.03004489280283451
-0.5697559714317322 -0.0062088374979794025 -0.39264652132987976
-0.4712580144405365 -0.04659990593791008 0.349178284406662
0.5768151879310608 0.39147666096687317 0.12691038846969604
-0.13251912593841553 0.11518243700265884 0.34335047006607056
0.31644898653030396 -0.002231944352388382 0.19563700258731842
0.29603394865989685 -0.5873413681983948 0.18679635226726532
0.29663610458374023 -0.46262016892433167 0.1818796545267105
0.3785470724105835 -0.5587397217750549 0.05588318407535553
-0.488834410905838 0.0034780679270625114 -0.030409103259444237
0.24268323183059692 -0.6233781576156616 0.08781658113002777
-0.4772484004497528 -0.09558450430631638 -0.3679785430431366
0.17212794721126556 0.0021671887952834368 0.0568903349339962
0.16719618439674377 0.39991527795791626 0.3055732548236847
-0.5780794024467468 0.011950765736401081 -0.011004514060914516
0.4982307255268097 0.005424216389656067 -0.38847866654396057
0.575276255607605 0.011119797825813293 -0.22353653609752655
0.5288306474685669 0.39895981550216675 -0.3256259560585022
-0.09215957671403885 0.00011353334411978722 -0.3219522535800934
0.5073067545890808 0.21214109659194946 -0.3948962688446045
-0.5812110900878906 0.1116071492433548 -0.37438422441482544
-0.4649589955806732 0.12226477265357971 0.1396752893924713
-0.3940287232398987 -0.00043690111488103867 0.10101429373025894
0.2972715198993683 0.0025187255814671516 0.15598323941230774
0.0073700640350580215 0.0011258735321462154 -0.27219244837760925
-0.1641196757555008 0.0006221332587301731 -0.016251005232334137
-0.21593168377876282 0.37036266922950745 -0.40294840931892395
0.5835431218147278 0.02312697470188141 0.22257958352565765
-0.3283308744430542 0.0058396365493535995 0.21262018382549286
-0.4486268162727356 0.0021407469175755978 -0.36982277035713196
0.03937571868300438 -0.23690439760684967 0.30999085307121277
0.2846096158027649 -0.6238078474998474 0.05338774248957634
0.12083365768194199 0.0022773616947233677 -0.37050509452819824
-0.35033318400382996 0.004982881247997284 -0.294110506772995
-0.05812501162290573 -0.6226919293403625 -0.16012029349803925
0.26547133922576904 0.4018372893333435 0.285511314868927
0.35943275690078735 -0.017742279917001724 0.19449834525585175
0.06537230312824249 0.40126657485961914 0.06676490604877472
-0.41364073753356934 0.3895854353904724 0.007181278429925442
-0.47130653262138367 -0.09286759793758392 0.19664348661899567
-0.5278656482696533 -0.08275079727172852 0.16428032517433167
-0.4663350284099579 0.09637407958507538 -0.4025091826915741
0.5215197801589966 0.40288007259368896 -0.22483083605766296
-0.36992913484573364 0.04561370611190796 -0.04362693801522255
0.18412891030311584 -0.626000702381134 -0.025353532284498215
-0.42253491282463074 0.03429029509425163 0.3457140028476715
0.31985604763031006 -0.5532495975494385 -0.2164521962404251
-0.18943089246749878 0.3985765874385834 0.13990351557731628
-0.4252375662326813 0.10851550847291946 0.14717607200145721
0.1619860976934433 -0.6293649077415466 -0.3114261329174042
0.1761186271905899 0.1849488765001297 -0.40188777446746826
-0.019305545836687088 -0.2849861681461334 -0.3576120138168335
-0.5369359850883484 0.35704007744789124 0.3443237543106079
0.4390825033187866 -0.350286602973938 -0.10353759676218033
0.10812036693096161 0.16157248616218567 0.4697224795818329
-0.462785005569458 0.0640309602022171 -0.4001530408859253
0.5828267335891724 0.38532423973083496 -0.13743460178375244
-0.020790351554751396 0.00245935027487576 0.3198624551296234
0.23544256389141083 0.0017993086948990822 -0.27285128831863403
0.0008955737575888634 -0.0010304879397153854 0.22571158409118652
-0.2514491081237793 -0.21983619034290314 -0.019982842728495598
0.0795883759856224 -0.6393202543258667 -0.2743295133113861
0.05546271428465843 0.1999526470899582 -0.40170523524284363
-0.10315682739019394 0.3988165855407715 0.1942860186100006
-0.010664480738341808 0.399446576833725 0.049571797251701355
0.5654178261756897 0.3931438624858856 0.26999664306640625
0.32776331901550293 -0.1495375633239746 0.2310979664325714
0.12574845552444458 -0.06623005867004395 0.3230559527873993
-0.4465893805027008 0.06435773521661758 -0.4025112986564636
-0.4847061038017273 0.3756471574306488 -0.154386967420578
0.42195597290992737 0.0032766079530119896 0.3100679814815521
0.20403920114040375 0.002732562832534313 0.05044412612915039
0.1164984256029129 -0.49557629227638245 -0.31595930457115173
-0.46194130182266235 0.09990527480840683 0.34579193592071533
-0.5758045315742493 0.24255910515785217 -0.07021214067935944
-0.10332030802965164 0.26269230246543884 0.35058432817459106
-0.02406759187579155 -0.6245551109313965 -0.04940204322338104
0.5842888951301575 0.31763002276420593 0.04700737074017525
-0.1580083668231964 -0.0035303025506436825 -0.1511905938386917
-0.29979753494262695 0.39814114570617676 -0.26849842071533203
-0.3722507357597351 -0.02260970138013363 -0.20231832563877106
0.2975761592388153 -0.38214513659477234 0.2340216040611267
-0.5709131360054016 0.06648920476436615 -0.12958748638629913
0.1508355587720871 -0.6373149156570435 0.2534320056438446
-0.38995832204818726 0.3985711336135864 0.23041921854019165
-0.5425580739974976 -0.07473251968622208 0.0666181892156601
0.16781072318553925 -0.6509116291999817 -0.28983402252197266
0.5469231009483337 0.39667031168937683 0.1382283866405487
0.03107869066298008 -0.07270533591508865 0.33995524048805237
-0.3892402648925781 -0.07472856342792511 -0.34411218762397766
-0.07996120303869247 0.0010685324668884277 0.18211427330970764
-0.3400499224662781 0.3597012460231781 0.03325914591550827
-0.5172431468963623 0.3634258806705475 -0.13557027280330658
-0.037834037095308304 -0.6269519925117493 -0.09727714955806732
0.38529908657073975 -0.6384284496307373 -0.013815679587423801
-0.2088804841041565 -0.0015780464746057987 0.09751805663108826
-0.21896886825561523 0.04681751877069473 0.3415144085884094
0.3686458170413971 0.0023805296514183283 -0.14398080110549927
0.5867732763290405 0.0587923601269722 -0.014299392700195312
-0.37162378430366516 -0.046854279935359955 -0.3123660683631897
0.29905518889427185 -0.5289145112037659 -0.24126236140727997
0.0902336910367012 0.0006346767768263817 0.2865607738494873
0.22041364014148712 0.21544045209884644 0.34710758924484253
0.14886507391929626 0.16160055994987488 0.3453010022640228
-0.5844020843505859 -0.02707352489233017 -0.17525726556777954
0.5683320164680481 0.01067778654396534 -0.3640989065170288
0.4261225163936615 -0.005029984749853611 -0.14098499715328217
-0.37067916989326477 -0.03772014006972313 0.32337871193885803
-0.00041347043588757515 0.22705823183059692 0.35399290919303894
-0.5795066356658936 0.008925766684114933 -0.25304871797561646
-0.42035144567489624 0.004141937009990215 0.2152934968471527
0.04073481261730194 0.0009331717155873775 -0.028686970472335815
0.5753142237663269 0.2876337766647339 -0.008735986426472664
-0.32069021463394165 0.38100239634513855 -0.15233562886714935
-0.0012080837041139603 0.15150360763072968 -0.40202414989471436
-0.283123254776001 0.0028463955968618393 -0.21397128701210022
-0.22939175367355347 0.0928736999630928 -0.40039852261543274
0.5558615326881409 0.3935566842556 0.3182061016559601
0.3211666941642761 0.2661706805229187 0.46174660325050354
0.1664070188999176 0.1415228247642517 0.34510257840156555
-0.0009676632471382618 -0.20199427008628845 -0.35463839769363403
0.21116478741168976 0.0023977812379598618 -0.1056688129901886
-0.16004036366939545 0.3924925923347473 -0.3970264196395874
-0.13143408298492432 -0.5934529304504395 0.13856910169124603
0.09659647196531296 -0.6276914477348328 0.2147739976644516
-0.3076668679714203 0.0029528960585594177 0.22266067564487457
-0.5710546970367432 0.041700441390275955 -0.2124568670988083
0.18915702402591705 0.0035350825637578964 -0.09541452676057816
-0.1216794028878212 -0.6302396655082703 -0.088584303855896
-0.24459928274154663 0.37270113825798035 -0.400293231010437
0.43899860978126526 -0.11321581155061722 0.034587275236845016
-0.4880945384502411 -0.003444856498390436 -0.3587779998779297
0.031530048698186874 0.3025358021259308 0.4431481659412384
-0.009920481592416763 0.1698698103427887 0.3843449652194977
0.3341832756996155 0.00019679637625813484 0.2537482976913452
-0.2377372533082962 0.3985415995121002 0.21376784145832062
-0.012321888469159603 -0.6008335947990417 -0.29569923877716064
-0.5743747353553772 0.011776456609368324 0.07785074412822723
0.08013162761926651 -0.6216150522232056 -0.08635155856609344
-0.06810136139392853 -0.4102669954299927 -0.2629988491535187
0.2263922244310379 -0.49262139201164246 0.2354414165019989
-0.5772677659988403 0.23524773120880127 0.17584627866744995
-0.5769592523574829 0.24900221824645996 -0.10632610321044922
-0.32324475049972534 0.4127931296825409 -0.07935882359743118
0.37829962372779846 -0.5175424218177795 -0.11699865758419037
-0.2400093376636505 0.39691928029060364 -0.1447182595729828
0.5739635229110718 0.24884819984436035 0.26205703616142273
0.38061419129371643 -0.5368958115577698 0.05336364358663559
0.44270583987236023 -0.13789378106594086 -0.018434446305036545
-0.5649152994155884 -0.05515454337000847 -0.10156729072332382
-0.5707831978797913 -0.041345320641994476 -0.24316614866256714
0.5923008918762207 0.31452181935310364 0.07482638955116272
-0.5246286392211914 0.21036586165428162 0.3456451892852783
-0.4095224440097809 -0.08307144045829773 0.2884345054626465
-0.1902494877576828 0.3977159261703491 -0.25290873646736145
-0.5105667114257812 -0.08077718317508698 -0.39809539914131165
0.4556034207344055 0.0019182474352419376 -0.09524182975292206
-0.14965516328811646 0.0013093911111354828 -0.2271391749382019
0.44090235233306885 -0.010671738535165787 -0.01774032600224018
0.2108096033334732 0.004238109104335308 -0.13842859864234924
-0.5706858038902283 0.37063485383987427 0.14843322336673737
0.11458180844783783 0.0017497842200100422 -0.09688947349786758
-0.07647325098514557 0.39900442957878113 -0.36837470531463623
-0.4990001618862152 0.34969836473464966 -0.11634685099124908
-0.23058144748210907 0.33617067337036133 -0.40159541368484497
-0.15118762850761414 -0.0002491166815161705 0.13799569010734558
0.37344297766685486 0.004251423291862011 -0.344275563955307
0.30454981327056885 0.002674344927072525 0.1629961133003235
0.08240393549203873 0.002540461253374815 -0.03676086291670799
0.23207886517047882 0.006851415149867535 -0.39332708716392517
0.21893256902694702 -0.6242275834083557 -0.06821417808532715
-0.021247822791337967 -0.36926424503326416 -0.33851754665374756
0.29509925842285156 -0.4802141785621643 0.18299227952957153
-0.5203336477279663 0.09076833724975586 0.25541242957115173
0.1967526078224182 0.36665868759155273 0.46293288469314575
0.19067196547985077 0.4005289375782013 -0.1465589851140976
0.1682068109512329 -0.48093312978744507 -0.30316609144210815
0.05856248363852501 -0.06498847901821136 0.3261997699737549
0.06611225754022598 -0.05055651813745499 -0.3671155571937561
0.5852150321006775 0.3608412742614746 0.15900659561157227
-0.10025765746831894 0.26859790086746216 -0.4023206830024719
-0.17902709543704987 0.3820387125015259 0.34159719944000244
-0.1408400982618332 -0.31412267684936523 -0.2757245898246765
-0.42548131942749023 -0.09675897657871246 0.33931007981300354
-0.011695781722664833 -0.5364481806755066 0.23538415133953094
-0.34105873107910156 0.3541100025177002 -0.1941496729850769
-0.4808157682418823 -0.0008406969718635082 -0.14449210464954376
-0.4550957679748535 0.35571637749671936 0.01693663001060486
-0.3174530863761902 0.3976035416126251 -0.323926717042923
0.3696424663066864 0.0012610121630132198 0.13540218770503998
0.1624242663383484 0.001680184155702591 -0.35846593976020813
-0.3831538259983063 0.39256611466407776 0.34065157175064087
-0.5444470047950745 -0.0690883919596672 -0.07863746583461761
-0.5856269598007202 0.24129198491573334 -0.3095487356185913
0.031536880880594254 0.14531941711902618 0.3533722460269928
0.20735983550548553 -0.11412034928798676 0.30574551224708557
-0.06034059450030327 0.39776477217674255 0.12391460686922073
0.04789210855960846 -0.24032548069953918 -0.36753225326538086
-0.22496159374713898 -0.24264518916606903 0.08597677201032639
0.011043654754757881 0.0019295806996524334 0.03734677657485008
0.3124270439147949 -0.6367453336715698 -0.14773955941200256
0.4423520863056183 -0.29913628101348877 -0.0811276063323021
0.08611804991960526 -0.6251105666160583 0.031925734132528305
-0.14224955439567566 0.3978104591369629 0.23613755404949188
-0.27565306425094604 0.1389184147119522 0.3469866216182709
0.23820073902606964 0.16357575356960297 -0.39939266443252563
-0.49194425344467163 0.39407649636268616 -0.12476363033056259
0.2680901885032654 -0.045944228768348694 0.3294179141521454
-0.23470227420330048 -0.1773565262556076 0.03046800196170807
0.26736533641815186 0.11365754902362823 0.4664619565010071
-0.5441797375679016 0.04638635367155075 -0.39710912108421326
-0.04679153114557266 0.0015016207471489906 -0.05612245947122574
-0.2295917272567749 -0.3460935056209564 0.03926701098680496
0.039188042283058167 -0.6515220403671265 -0.3008233904838562
-0.11875610798597336 -0.6222127676010132 -0.09795242547988892
0.3254523277282715 -0.30876287817955017 0.24194450676441193
0.11838819831609726 0.3960316479206085 -0.26117467880249023
-0.4800087511539459 0.09829260408878326 0.16005851328372955
-0.5802707672119141 0.19144612550735474 -0.2170371562242508
-0.21590979397296906 -0.06488461792469025 0.08567094802856445
-0.22126412391662598 0.3996833860874176 0.15113742649555206
0.35861513018608093 0.39990711212158203 0.23554326593875885
-0.34426599740982056 0.004895999561995268 0.31356748938560486
0.05868222936987877 0.0021175239235162735 -0.137775257229805
-0.4360072612762451 0.39743509888648987 0.11962634325027466
-0.4551865756511688 0.0935538113117218 -0.4034971594810486
0.3073229193687439 -0.2564241290092468 -0.29457709193229675
-0.2584936320781708 0.2872285842895508 0.34772807359695435
0.1246408224105835 0.002027958631515503 -0.18394948542118073
-0.06043480709195137 0.0009442605078220367 -0.2763415277004242
-0.4798583984375 -0.0013292650692164898 -0.2554253041744232
0.17830854654312134 0.18523505330085754 0.46132367849349976
0.24197816848754883 0.3951844274997711 -0.30500224232673645
0.19939354062080383 0.0657559409737587 0.46672019362449646
-0.04843223839998245 0.000729467486962676 -0.23432005941867828
0.3806649148464203 -0.31127098202705383 -0.23998035490512848
0.4419154226779938 0.004439853131771088 0.31452229619026184
0.5903754234313965 0.3397665321826935 0.08945219963788986
0.1205708235502243 0.2561262547969818 -0.4022722542285919
0.1680995672941208 -0.6222562789916992 -0.2338254749774933
-0.19357703626155853 -0.26607653498649597 0.14762035012245178
-0.41654571890830994 -0.07967845350503922 0.05526962876319885
0.22585944831371307 0.0010236547095701098 -0.33384206891059875
0.4338357150554657 -0.047216031700372696 0.019271481782197952
0.23956678807735443 0.0024818209931254387 0.13873641192913055
-0.22740572690963745 0.15138362348079681 -0.40175238251686096
0.1239498108625412 -0.08503636717796326 0.38376927375793457
-0.06512859463691711 -0.6264254450798035 -0.0023918068036437035
-0.5478549599647522 0.09437715262174606 -0.06938604265451431
0.3430005609989166 -0.6289335489273071 0.004191162995994091
-0.2502709627151489 -0.0919184759259224 -0.05982321500778198
-0.2697724997997284 0.005733787082135677 0.3083612620830536
0.1407715082168579 0.16646838188171387 0.4702966511249542
-0.3084966540336609 0.3425150513648987 -0.14030608534812927
-0.35720714926719666 0.4002121090888977 -0.356100857257843
0.47072669863700867 0.0012961914762854576 0.10103657841682434
-0.3728237450122833 -0.04541052132844925 -0.01172778569161892
