-0.5788371562957764 0.2064947634935379 -0.3394249677658081
-0.19585949182510376 -0.0028231414034962654 0.016778569668531418
-0.4745299816131592 -0.02519121579825878 -0.39926382899284363
-0.27850252389907837 0.3972093462944031 0.05798444524407387
0.3747522234916687 0.2756807506084442 0.339401513338089
-0.018977293744683266 0.08543380349874496 0.3447408974170685
0.48851609230041504 0.3567117154598236 -0.4021863639354706
-0.23641280829906464 -0.17136147618293762 -0.07856826484203339
-0.23555703461170197 -0.19606204330921173 -0.039189744740724564
-0.18688678741455078 -0.2839489281177521 0.15923023223876953
-0.3590739667415619 0.0437760204076767 0.3370860517024994
0.015490414574742317 0.002157186158001423 -0.2176278531551361
0.36822232604026794 -0.5655658841133118 0.08695387840270996
0.40546783804893494 -0.12138740718364716 -0.1982879787683487
0.2789939045906067 0.003712352365255356 0.12194247543811798
-0.3785895109176636 -0.03924364596605301 -0.0631030946969986
-0.047993388026952744 -0.6318154335021973 -0.238163024187088
-0.037918396294116974 0.40058451890945435 -0.04061786085367203
-0.1545337587594986 0.04408194124698639 0.34153035283088684
0.22894038259983063 -0.451104998588562 0.23355227708816528
0.4022901654243469 0.005538487806916237 -0.15197378396987915
-0.290271520614624 0.39962679147720337 0.2213241457939148
0.13447356224060059 -0.6213414669036865 -0.12215949594974518
0.0019987663254141808 0.001711186021566391 0.21064028143882751
-0.4417060911655426 0.0033608204685151577 -0.35955190658569336
0.02222462184727192 -0.18127962946891785 -0.3635481595993042
0.23724091053009033 0.0013871465343981981 -0.07911400496959686
0.5731107592582703 0.19586801528930664 -0.3917834460735321
0.4276980459690094 -0.3208542764186859 -0.1344546228647232
-0.2006944715976715 -0.3229813277721405 -0.18468762934207916
0.569099485874176 0.18288828432559967 0.33079272508621216
0.3192295730113983 -0.2561916708946228 -0.2947433292865753
0.2295285016298294 -0.6173447966575623 0.04076267033815384
-0.17447057366371155 -0.31403058767318726 -0.22815929353237152
-0.10562988370656967 0.0009589358232915401 0.029012544080615044
0.4178730845451355 0.3997544050216675 0.0506284274160862
0.29162701964378357 0.40318840742111206 0.45606517791748047
0.4813302457332611 0.39969316124916077 0.09700682759284973
0.07046853750944138 -0.24972942471504211 -0.3716162145137787
-0.1740003228187561 0.0019946424290537834 -0.25361570715904236
0.06753186136484146 -0.0023030629381537437 0.3129079043865204
0.3212756812572479 -0.0016971603035926819 -0.26456522941589355
-0.5839331746101379 0.2125495970249176 0.2331973761320114
-0.3685598373413086 0.00365394726395607 -0.08995407074689865
0.5820736289024353 0.2919670343399048 -0.13362471759319305
-0.28869566321372986 0.38237836956977844 -0.12066423147916794
0.1679806113243103 -0.021817388013005257 0.3113298714160919
0.505975604057312 0.3853622376918793 0.33431702852249146
0.06840124726295471 0.0022964244708418846 -0.0706503763794899
0.19422729313373566 0.4018757939338684 0.12427738308906555
-0.05449114739894867 0.060406092554330826 0.339887797832489
-0.0392390601336956 -7.587624713778496e-05 0.28990182280540466
-0.5781159996986389 0.12983542680740356 -0.21719048917293549
-0.17722204327583313 0.3974445164203644 0.17393648624420166
0.4221594035625458 -0.31189224123954773 -0.1504487693309784
-0.27186790108680725 0.004709916654974222 0.3232042193412781
-0.11505667120218277 -0.6230354905128479 0.03035896085202694
-0.5371382832527161 0.06855705380439758 0.3323415517807007
0.26960405707359314 0.4030064046382904 -0.2781733274459839
0.20649363100528717 -0.6189950108528137 -0.0929095447063446
0.06768409162759781 -0.622273862361908 -0.044093213975429535
-0.04868515580892563 0.000586619833484292 0.1345548778772354
-0.2296927571296692 -0.2923433780670166 -0.10424357652664185
0.13064661622047424 -0.0003304588608443737 0.1184256449341774
0.023805925622582436 0.0314926877617836 0.4439760446548462
-0.39734846353530884 -0.01907265931367874 -0.3963245451450348
-0.4954976737499237 0.0902695581316948 -0.401192307472229
0.27972158789634705 -0.6243849396705627 -0.1741393804550171
-0.18034067749977112 -0.10028573125600815 0.17388474941253662
-0.10783041268587112 0.001016868744045496 0.032120514661073685
-0.5809487700462341 0.05803561955690384 0.10529821366071701
0.3861734867095947 -0.5751275420188904 -0.07968723773956299
0.38716474175453186 -0.17190976440906525 0.16163556277751923
-0.23686504364013672 -0.3699035942554474 -0.0728810653090477
0.3778022229671478 -0.6251227855682373 -0.10785038769245148
0.2544298768043518 0.40084588527679443 -0.2543652057647705
0.227090522646904 0.10547751933336258 -0.40152284502983093
-0.13042977452278137 0.0014584409072995186 0.011746156960725784
-0.5020870566368103 0.11873985081911087 0.10717003047466278
-0.321518212556839 0.32013264298439026 0.33936429023742676
0.5802420377731323 0.014940733090043068 -0.2018866240978241
-0.4206683337688446 -0.08670146763324738 0.10331255197525024
-0.23851478099822998 -0.28869524598121643 -0.04221148043870926
0.40736618638038635 -0.27073004841804504 0.13222675025463104
-0.5690850019454956 0.04279229789972305 -0.15463364124298096
-0.19476318359375 -0.19835548102855682 -0.18775571882724762
0.40487369894981384 0.39664703607559204 0.27606260776519775
-0.4758160710334778 0.003793897572904825 -0.38350972533226013
0.5746235847473145 0.08215314894914627 0.3088020980358124
0.4838353395462036 0.34829968214035034 0.33907032012939453
0.03335227444767952 0.4020369350910187 -0.3370591700077057
-0.45373156666755676 0.40011122822761536 0.22979354858398438
-0.5483402609825134 0.14876192808151245 -0.3971112072467804
0.1614302396774292 0.0007683245930820704 0.03343156725168228
-0.17982251942157745 -0.45580220222473145 -0.09055739641189575
0.11333177983760834 0.0031913332641124725 -0.3874150514602661
0.4341104030609131 -0.0017780446214601398 -0.16552619636058807
0.3880181610584259 -0.38405895233154297 -0.15776781737804413
0.16239877045154572 -0.5161724090576172 0.25398343801498413
0.36978477239608765 0.3145889937877655 0.33910617232322693
-0.33787161111831665 0.14042901992797852 -0.4015842378139496
0.5803022384643555 0.3136182129383087 0.0063055576756596565
-0.52699214220047 -0.0934053435921669 -0.36608052253723145
-0.18386436998844147 -0.5253953337669373 0.018072517588734627
-0.22943462431430817 -0.26550084352493286 0.0687408298254013
0.44048696756362915 0.39867424964904785 0.2502042055130005
-0.015585551038384438 -0.6189039945602417 -0.15601696074008942
-0.07052142173051834 -0.620124101638794 0.025561727583408356
-0.20345571637153625 0.0021307040005922318 -0.18644946813583374
-0.24455568194389343 0.40370458364486694 -0.12066467106342316
-0.03413612022995949 -0.6197777986526489 0.1401256024837494
0.47257572412490845 0.3975820243358612 0.05406049266457558
0.42920854687690735 -0.3727777898311615 0.032095152884721756
0.2904336154460907 0.003065076656639576 -0.0627557560801506
0.5814008116722107 0.19325578212738037 0.18343299627304077
0.45308756828308105 0.0025633694604039192 0.20819397270679474
-0.18236477673053741 -0.5334926247596741 -0.058146994560956955
-0.5083544254302979 -0.09434931725263596 -0.0863821730017662
-0.5809862017631531 0.346088707447052 0.06579869240522385
-0.5274718999862671 0.1073213517665863 0.22538651525974274
-0.03308398276567459 0.3989022970199585 0.281393826007843
0.3348936140537262 -0.21917717158794403 0.21973182260990143
0.1884821206331253 0.17035676538944244 0.3396296799182892
0.4070448577404022 0.4017457962036133 -0.08675060421228409
0.02372618019580841 0.006661283317953348 0.3481673002243042
-0.23552653193473816 -0.35982245206832886 -0.06240026652812958
-0.008197734132409096 0.3990437984466553 0.11362490803003311
-0.11332446336746216 -0.32809343934059143 -0.29622164368629456
-0.38544154167175293 0.08013077825307846 -0.07640261948108673
0.1566392183303833 -0.09734450280666351 0.31132128834724426
-0.5795745849609375 0.30982208251953125 -0.16274498403072357
0.07455342262983322 -0.5441437363624573 0.26119986176490784
-0.013292836025357246 -0.1333228200674057 -0.35223278403282166
-0.2053765505552292 -0.2604701519012451 -0.17134374380111694
-0.5128771066665649 0.11516748368740082 0.2526125907897949
-0.16683287918567657 0.0032081129029393196 -0.16288629174232483
0.5626012086868286 0.2582288086414337 -0.3946792185306549
-0.26501086354255676 0.002610502764582634 0.27721938490867615
-0.5781335234642029 0.3004818260669708 -0.2287026047706604
0.3082878589630127 0.009448961354792118 0.4532470405101776
0.22408609092235565 -0.6231624484062195 -0.16934724152088165
-0.38432592153549194 -0.05066117271780968 -0.16091914474964142
0.3934917449951172 -0.0016902294009923935 -0.21038836240768433
0.09673912078142166 -0.6410067677497864 0.25625547766685486
0.13141976296901703 0.14867393672466278 0.46572035551071167
-0.07159366458654404 0.1594391167163849 0.3800218403339386
0.034681882709264755 -0.23380376398563385 -0.36632463335990906
-0.012264362536370754 -0.6352217197418213 0.2285829484462738
0.42949819564819336 0.39840033650398254 0.07656226307153702
-0.02498960681259632 0.27764466404914856 0.366813063621521
-0.5787404775619507 0.29049551486968994 -0.06663424521684647
0.11361689120531082 -0.6289750933647156 -0.27327683568000793
0.38567209243774414 0.20587842166423798 -0.39864271879196167
-0.4729408621788025 0.002472694031894207 0.14037027955055237
0.028665823861956596 -0.13671466708183289 0.30918219685554504
0.1954989731311798 0.0033372370526194572 -0.1165403425693512
0.32862380146980286 0.4027966856956482 -0.01247467752546072
0.0968552678823471 0.39622989296913147 0.33231085538864136
0.08415393531322479 0.0004842262715101242 -0.042169906198978424
0.008503295481204987 0.0009066509082913399 -0.03531310334801674
-0.470811128616333 0.3768649399280548 -0.4003427028656006
-0.5224679708480835 0.3959662914276123 -0.08357909321784973
0.3853999078273773 -0.003374375868588686 -0.21853789687156677
-0.28959283232688904 0.0020720111206173897 -0.10313209146261215
0.04359731078147888 -0.620771586894989 -0.08770689368247986
-0.0612197108566761 -0.6595393419265747 -0.24193012714385986
-0.11566973477602005 -0.6617375612258911 -0.19768255949020386
-0.4422183334827423 -0.09217377752065659 0.33595335483551025
0.35321903228759766 0.10912761092185974 -0.40251779556274414
-0.3008544147014618 0.29498589038848877 -0.4009171426296234
-0.4964906573295593 -0.0518680214881897 -0.4004720151424408
0.5789756774902344 0.013606789521872997 0.006697364151477814
-0.2537188231945038 0.39064517617225647 -0.3963784873485565
-0.5271692276000977 0.11034642159938812 -0.292383074760437
-0.23561473190784454 -0.08354267477989197 -0.10273515433073044
-0.5694456696510315 0.05552572011947632 0.328824907541275
0.07113246619701385 0.2558291554450989 0.3463308811187744
0.2156948745250702 -0.4485224187374115 -0.2927672863006592
0.5282476544380188 0.05546946823596954 0.3374655246734619
-0.13072378933429718 -0.5246655344963074 -0.20108415186405182
0.19746191799640656 -0.22157737612724304 0.2994724214076996
-0.4830067753791809 0.12175322324037552 -0.356854110956192
0.2214810848236084 0.40246954560279846 -0.28426286578178406
0.39125916361808777 -0.0020798034965991974 0.22894887626171112
0.23252247273921967 -0.4914358854293823 -0.28508105874061584
0.2183525711297989 0.39366400241851807 -0.39670324325561523
0.5766913294792175 0.3814465403556824 -0.05360871180891991
-0.12399730831384659 0.3988502323627472 0.1460721492767334
0.04639890789985657 0.4026717245578766 -0.09571738541126251
0.1830107718706131 -0.016507966443896294 0.32170015573501587
0.5483535528182983 0.39438873529434204 0.29488033056259155
0.31070634722709656 -0.4859470725059509 0.17048931121826172
-0.5583525896072388 -0.05571681261062622 0.24595709145069122
0.016903072595596313 0.19873300194740295 0.34717845916748047
0.5787876844406128 0.10866028815507889 0.22334766387939453
0.4456748366355896 -0.0013598809018731117 -0.14610658586025238
-0.5284059047698975 0.31726330518722534 -0.4002864360809326
-0.022132866084575653 -0.6058427691459656 0.23321469128131866
-0.11063297092914581 -0.39657124876976013 0.17339138686656952
0.37743857502937317 0.4041178822517395 -0.29279574751853943
-0.12566129863262177 0.0006648795679211617 -0.3316621780395508
0.009488372132182121 -0.6507245898246765 -0.2894444763660431
-0.10148084163665771 -0.6367589831352234 0.1278124451637268
-0.32131993770599365 0.00014620181173086166 0.2728361189365387
0.4534546136856079 0.40211763978004456 -0.21520349383354187
-0.5648349523544312 0.37359824776649475 0.3057090640068054
0.03730185329914093 -0.0013628428569063544 0.3002401888370514
0.025293268263339996 -0.22260573506355286 0.304760605096817
0.0475994348526001 -0.36757180094718933 -0.362715482711792
0.17790758609771729 0.1544657200574875 0.33828842639923096
0.2925971448421478 0.001179445069283247 0.18920572102069855
0.07192567735910416 0.21419301629066467 -0.40464240312576294
0.07527793943881989 0.06367874145507812 0.3452170789241791
0.5823018550872803 0.37365978956222534 -0.01547328568994999
-0.5693919062614441 0.03452913835644722 0.11379387229681015
-0.3701469302177429 0.4039597809314728 -0.009008798748254776
0.0673706904053688 0.0004184627905488014 -0.045349687337875366
-0.36784660816192627 0.33224937319755554 -0.40327829122543335
-0.23081350326538086 0.4012385904788971 -0.16515706479549408
0.3891199231147766 -0.2892146408557892 -0.21356114745140076
0.2714269161224365 0.39976489543914795 0.1813887059688568
0.19785921275615692 0.0008530109189450741 0.12686748802661896
-0.36341607570648193 0.13303062319755554 0.3393521308898926
0.18495304882526398 -0.6450535655021667 0.23827911913394928
0.09327026456594467 0.4264456629753113 0.359225869178772
0.021851563826203346 -0.6221103072166443 -0.17837759852409363
0.16838009655475616 0.25466328859329224 0.4617602527141571
0.1325964629650116 -0.6205953359603882 0.177620992064476
-0.5444304347038269 0.005595735274255276 -0.21478889882564545
-0.18255674839019775 -0.5329789519309998 -0.07277649641036987
-0.1451566517353058 -0.40408915281295776 -0.17814457416534424
0.21738947927951813 0.003932136110961437 -0.19401295483112335
0.0013978760689496994 -0.3630257546901703 0.29779210686683655
0.09817451238632202 0.40108561515808105 -0.11837264895439148
-0.5689023733139038 0.3716077208518982 -0.11226148158311844
0.4634178876876831 0.004017623141407967 -0.1734061986207962
-0.16256099939346313 -0.13660016655921936 -0.24135948717594147
-0.42507094144821167 0.02219725400209427 0.3574714958667755
-0.2143377959728241 0.21816322207450867 -0.4036068320274353
-0.5270832180976868 0.07463736087083817 -0.19156548380851746
-0.5785608887672424 0.04099208861589432 0.1707293689250946
0.059976011514663696 -0.42732614278793335 -0.31444430351257324
0.4138263463973999 0.40135133266448975 -0.21782252192497253
0.5374070405960083 0.004510574974119663 0.05941944941878319
0.12872172892093658 0.4016784727573395 -0.05517022684216499
0.23057900369167328 -0.385232537984848 -0.3302651345729828
0.051436811685562134 -0.17268525063991547 -0.36784276366233826
-0.36755502223968506 0.010831765830516815 0.2469647228717804
0.06405308097600937 -0.5723143219947815 0.2551616430282593
0.022794010117650032 0.4021162688732147 0.003294898197054863
0.34176626801490784 -0.6490108370780945 0.09051957726478577
-0.5148154497146606 0.39833351969718933 0.16758570075035095
0.5837154984474182 0.06920326501131058 0.09653966873884201
-0.11917012929916382 0.4024195075035095 0.07454083859920502
-0.032589253038167953 -0.6208864450454712 -0.1360556036233902
-0.1604718118906021 0.401070773601532 0.1547335386276245
-0.3969669044017792 0.31104305386543274 0.34170809388160706
-0.23463284969329834 0.21206390857696533 0.3416185975074768
-0.13599786162376404 0.001040494767948985 -0.010892304591834545
0.5524582862854004 0.11406829953193665 -0.400605708360672
0.554998517036438 0.01216417457908392 -0.39226657152175903
0.07227713614702225 0.005945442710071802 -0.39098823070526123
0.5815306901931763 0.14295382797718048 -0.04713026061654091
-0.5460176467895508 0.08607753366231918 -0.373113214969635
0.5558215379714966 0.00406918628141284 -0.28069737553596497
0.14768542349338531 0.22619658708572388 0.4661898910999298
-0.006917500402778387 0.39791062474250793 0.30041971802711487
-0.18263348937034607 -0.4427182078361511 -0.050131525844335556
0.020344845950603485 -0.621860146522522 0.2449640929698944
0.4057674705982208 -0.295136034488678 -0.18762367963790894
-0.5267223715782166 0.08363771438598633 -0.28691422939300537
-0.032113149762153625 -0.6199575066566467 0.011781041510403156
-0.23823459446430206 -0.11670732498168945 -0.06355274468660355
0.1334679126739502 0.0019148960709571838 -0.31888559460639954
-0.36392879486083984 0.03144953027367592 0.22878944873809814
-0.2620532810688019 0.4008360505104065 -0.25124210119247437
-0.398669958114624 0.4017990827560425 0.2492799609899521
0.5275701880455017 0.4037070572376251 -0.2938086986541748
0.3625788986682892 -0.38000231981277466 -0.22059063613414764
-0.21188697218894958 0.4026663601398468 0.24741238355636597
0.4615360498428345 0.4003002643585205 -0.38526928424835205
0.5837488770484924 0.08254221081733704 -0.34562912583351135
-0.5040894150733948 0.40040117502212524 -0.2662245035171509
0.25454846024513245 -0.38163861632347107 0.24146594107151031
0.2934349477291107 0.2506842315196991 -0.4014410972595215
0.42898479104042053 -0.08253157138824463 -0.14777767658233643
0.46716538071632385 0.3747967481613159 -0.40179136395454407
0.10244350135326385 -0.6215327978134155 0.04135102033615112
-0.40642690658569336 0.096293143928051 0.28074580430984497
0.20048247277736664 -0.6208120584487915 0.05966198444366455
-0.3607387840747833 0.021395325660705566 -0.03566309064626694
-0.08703694492578506 -0.4467715322971344 -0.24454569816589355
-0.05929825082421303 -0.3103366792201996 -0.33085644245147705
-0.3756285011768341 0.4002549648284912 -0.29559987783432007
0.577377438545227 0.18447983264923096 -0.1602257490158081
-0.12389635294675827 0.05933656916022301 0.33796751499176025
-0.516191303730011 0.3512333929538727 0.33817338943481445
0.0645885095000267 -0.6195110082626343 0.035367850214242935
-0.462240070104599 0.005386757664382458 -0.2771097421646118
0.3827800750732422 0.400310754776001 0.1551966816186905
0.2397221177816391 0.17429155111312866 0.4616634249687195
0.4001327455043793 0.3764685392379761 0.3366803228855133
0.09984702616930008 0.31625500321388245 0.45999661087989807
0.36411556601524353 -0.5965542793273926 -0.1349399834871292
0.40004560351371765 0.1793971210718155 -0.40087759494781494
0.35973644256591797 0.3993361294269562 -0.19994577765464783
0.20509423315525055 0.4019934833049774 -0.09739373624324799
0.579598605632782 0.26868176460266113 0.3026386499404907
-0.2692472040653229 0.06688465923070908 0.3397425711154938
-0.10353787988424301 0.009318757802248001 -0.3873291611671448
0.16873402893543243 0.4016364812850952 -0.26937827467918396
-0.5404812693595886 0.09684901684522629 -0.16788752377033234
0.4459199011325836 -0.15766596794128418 0.009332115761935711
-0.3869694173336029 -0.07071135193109512 0.22156502306461334
0.034247010946273804 0.293636292219162 0.458834171295166
0.059847380965948105 -0.5653001666069031 0.25999465584754944
0.3116625249385834 0.40044957399368286 0.16271133720874786
0.27001774311065674 0.0021735697519034147 -0.2481684684753418
-0.3009914755821228 0.37975943088531494 -0.1055799350142479
-0.07650776207447052 -0.09991267323493958 0.26686856150627136
0.1981121003627777 0.04855671897530556 0.3403799533843994
0.08501748740673065 -0.04195316880941391 0.3197435140609741
0.153201624751091 -0.06922949105501175 0.31529107689857483
0.4283997416496277 -0.38007548451423645 -0.0191193837672472
0.22575516998767853 0.002492322586476803 -0.2259693741798401
-0.4669286012649536 0.40182262659072876 -0.2576024532318115
-0.3772630989551544 0.38306713104248047 0.026151325553655624
0.18277159333229065 0.3939114809036255 0.4616745710372925
-0.007860749028623104 0.4023585021495819 -0.21661889553070068
-0.07655052095651627 0.4005437195301056 -0.18919847905635834
0.14585484564304352 -0.6284996867179871 -0.2845539152622223
-0.5354421138763428 0.2993428409099579 0.3393297791481018
0.029201002791523933 0.20310693979263306 0.3510415554046631
-0.22624588012695312 0.1683446615934372 0.3414739668369293
-0.18856312334537506 -0.4506125748157501 -0.028570855036377907
0.3006087839603424 0.0012651337310671806 0.16536682844161987
0.09377013146877289 0.1859358847141266 0.4624582529067993
-0.23359408974647522 -0.09265021234750748 0.0556500218808651
-0.51170814037323 -0.09960059076547623 0.11147850751876831
-0.5353831052780151 0.38119184970855713 -0.40018728375434875
0.041348472237586975 -0.6308066248893738 -0.26401594281196594
0.03151650354266167 0.28741151094436646 0.4551461338996887
0.5831637382507324 0.2718546390533447 -0.004267849959433079
-0.48689591884613037 0.39961567521095276 0.14337214827537537
0.020273104310035706 0.4022388756275177 -0.18846756219863892
-0.3076257109642029 0.16726210713386536 0.3443380296230316
-0.046825721859931946 0.40220895409584045 -0.19346877932548523
0.2889729142189026 0.03408041596412659 -0.40124979615211487
0.004211322404444218 0.4017292857170105 -0.036548957228660583
0.17515939474105835 -0.6305652856826782 0.2454879730939865
0.3325091600418091 0.002094467170536518 -0.03263421729207039
0.4712543785572052 -0.00012244563549757004 0.10274471342563629
-0.528099775314331 0.03925075754523277 0.3435083329677582
0.20439094305038452 -0.4783114790916443 0.24995708465576172
-0.47955310344696045 0.40101683139801025 0.18460828065872192
0.41784510016441345 -0.28760191798210144 0.11041969805955887
0.3786301910877228 -0.4879377782344818 0.05762543901801109
0.11633030325174332 -0.050612445920705795 -0.37518975138664246
-0.19052979350090027 0.00334221962839365 -0.10084759443998337
0.3103911876678467 0.004367168992757797 -0.29008886218070984
-0.12703265249729156 -0.13856647908687592 0.2264394611120224
0.21180576086044312 -0.31634432077407837 0.29618075489997864
0.37372052669525146 0.3996468782424927 0.021279679611325264
0.4457293152809143 -0.10546961426734924 -0.05175818130373955
0.5757613778114319 0.2847974896430969 0.33568114042282104
-0.1237601786851883 -0.6204552054405212 -0.07973107695579529
-0.08532228320837021 0.009396407753229141 0.3305368423461914
0.08766861259937286 0.0016358057036995888 -0.08800793439149857
0.021520031616091728 -0.06496687233448029 0.40440747141838074
0.2654554843902588 -0.40569716691970825 -0.2803395688533783
-0.08280724287033081 0.0012073996476829052 0.04527217522263527
0.22963903844356537 0.39951789379119873 0.24258287250995636
0.2656761109828949 0.40330639481544495 0.2659662067890167
0.09759052842855453 -0.6188874244689941 0.14057838916778564
-0.15516190230846405 -0.06005166843533516 0.19900073111057281
0.19327495992183685 -0.07589651644229889 -0.3610593378543854
0.2929495871067047 -0.5228952765464783 -0.24004870653152466
0.40539371967315674 0.40056246519088745 0.05566379427909851
0.13776053488254547 -0.616196870803833 0.20102548599243164
0.5801282525062561 0.3519775867462158 -0.3266461193561554
0.18959562480449677 0.06460113823413849 0.4648284614086151
-0.3020869493484497 0.0018891219515353441 -0.011921069584786892
0.24711892008781433 0.39767202734947205 0.44340652227401733
-0.020833885297179222 -0.6234570741653442 0.14032883942127228
-0.18276813626289368 0.00106155127286911 0.08516284078359604
0.34366124868392944 0.0028122784569859505 -0.15260648727416992
0.5320274829864502 0.013783126138150692 -0.4012337327003479
-0.10363990068435669 -0.6355622410774231 -0.16010047495365143
-0.47382739186286926 -0.11654187738895416 -0.14692585170269012
-0.45473676919937134 0.012249000370502472 -0.39567679166793823
-0.5212783813476562 0.1152237206697464 0.1542423665523529
0.3170817792415619 -0.5578638911247253 -0.2242765724658966
0.45204663276672363 -0.0010171224130317569 -0.15220823884010315
-0.16923169791698456 -0.46381449699401855 0.07831098884344101
-0.29659977555274963 0.4007551968097687 0.3289079964160919
0.17629311978816986 -0.03533002361655235 0.45964914560317993
0.11383255571126938 0.1577295958995819 0.4615449011325836
-0.470391184091568 0.10298915207386017 -0.39685574173927307
-0.5300372242927551 -0.09464520961046219 -0.06633136421442032
-0.5022445917129517 0.3717380464076996 -0.15884047746658325
0.499416321516037 0.39765793085098267 -0.032190605998039246
0.5438762903213501 0.008692857809364796 0.3119393587112427
-0.26603636145591736 0.3295789361000061 -0.40128034353256226
-0.2346695363521576 -0.17536494135856628 0.029875587671995163
0.5045920014381409 0.07884444296360016 0.3367753028869629
-0.03536248579621315 0.0005297885509207845 -0.22671620547771454
-0.03477495536208153 0.2743579149246216 0.34624335169792175
0.07070479542016983 -0.6227670907974243 -0.07838928699493408
-0.06491129845380783 -0.631435215473175 -0.2555413842201233
0.15606191754341125 0.001956529915332794 -0.31805968284606934
-0.35593268275260925 0.30036041140556335 -0.40057262778282166
-0.36907830834388733 0.04988895356655121 0.3322473168373108
-0.5596328377723694 0.3718573749065399 -0.2606632113456726
0.578329861164093 0.1747557371854782 0.08319584280252457
-0.5696674585342407 -0.04543318971991539 0.3059844970703125
-0.3505192697048187 0.02024010568857193 -0.3975413739681244
-0.49207842350006104 0.19092591106891632 -0.40055447816848755
0.1574476957321167 -0.0016047870740294456 0.2918602228164673
-0.06115296483039856 -0.23802095651626587 0.2752397358417511
0.5819582343101501 0.3055645525455475 0.2706316411495209
-0.5509216785430908 -0.08207511901855469 -0.21853585541248322
0.13962963223457336 0.4331511855125427 0.3513885736465454
-0.14592868089675903 -0.5015334486961365 0.1250121295452118
0.3107209801673889 0.39817893505096436 0.14843018352985382
0.4481891989707947 -0.07268296182155609 -0.03201931715011597
0.34791645407676697 -0.6311875581741333 -0.04715336859226227
0.4767833948135376 0.2967543303966522 -0.40290120244026184
-0.4897387623786926 -0.02323511615395546 -0.398566335439682
-0.16434310376644135 0.13519766926765442 -0.40346845984458923
-0.4258546233177185 -0.0449201725423336 0.34029635787010193
0.5804489850997925 0.2599104642868042 -0.04000440612435341
-0.031079130247235298 0.18848778307437897 -0.40222492814064026
0.5145820379257202 0.0013945521786808968 -0.14367824792861938
-0.5610699653625488 0.07223408669233322 0.3365982174873352
-0.5776150226593018 0.247126504778862 0.009254511445760727
0.5796131491661072 0.1309640258550644 -0.32068195939064026
-0.1767207831144333 -0.5665685534477234 0.04785213991999626
0.2478604018688202 0.4007885754108429 -0.024225184693932533
0.03685068339109421 0.4013015329837799 -0.0859154611825943
-0.016208799555897713 0.2840408980846405 0.34689605236053467
0.009435655549168587 -0.6207900047302246 -0.0008288800017908216
0.25781628489494324 0.003394678235054016 -0.21762774884700775
0.3904094099998474 -0.6148021221160889 -0.08304665237665176
-0.1754526048898697 -0.41895827651023865 -0.12418357282876968
-0.1960887610912323 -0.04479259252548218 -0.2114771157503128
0.2866098880767822 -0.615458071231842 -0.24681726098060608
-0.27979472279548645 0.38327476382255554 -0.10907545685768127
0.5814738869667053 0.25561514496803284 0.12428920716047287
0.24976740777492523 -0.19218049943447113 0.28233715891838074
0.25443780422210693 0.4012688994407654 -0.015362665988504887
0.5388134717941284 0.290228933095932 -0.3996277153491974
-0.20688267052173615 -0.014102784916758537 -0.18432998657226562
0.13773475587368011 0.07509320229291916 -0.4027620255947113
0.21008381247520447 0.40254008769989014 -0.3072044551372528
-0.42253434658050537 0.11171083152294159 0.21268503367900848
0.21344906091690063 -0.6231279373168945 0.10444905608892441
-0.47724226117134094 0.39783498644828796 -0.22442416846752167
-0.23079334199428558 -0.042486771941185 -0.11676142364740372
0.19139625132083893 0.28023576736450195 0.4649159014225006
0.05934371054172516 -0.5314022898674011 0.25871285796165466
0.30409306287765503 0.45658886432647705 0.37755075097084045
0.2561398446559906 0.40018969774246216 0.14581748843193054
0.3229508697986603 -0.6457725167274475 0.13590073585510254
0.3978715240955353 0.3646438419818878 -0.4007745087146759
-0.5784598588943481 0.10073456168174744 0.33199065923690796
-0.4818268418312073 -0.11007767170667648 -0.22417080402374268
-0.5734062790870667 0.0522708036005497 -0.35453593730926514
0.3265557587146759 0.000434190034866333 0.10804258286952972
0.2924083471298218 0.40392982959747314 -0.10652570426464081
-0.28449660539627075 0.08188827335834503 -0.4013506770133972
-0.43606263399124146 0.35934436321258545 -0.4021702706813812
0.266567587852478 0.46544381976127625 0.41047438979148865
-0.40920326113700867 -0.08961803466081619 -0.06829576939344406
-0.22646330296993256 0.39470240473747253 -0.22654643654823303
-0.10680040717124939 0.00041566602885723114 -0.23936104774475098
-0.4192441403865814 0.07737252116203308 -0.11663933843374252
0.061714667826890945 0.22349902987480164 -0.40045619010925293
-0.10635223239660263 0.4018785059452057 -0.32151368260383606
-0.08442702889442444 -0.23158638179302216 -0.31918850541114807
0.5769724249839783 0.16960684955120087 -0.31320714950561523
0.2655450105667114 -0.36901816725730896 -0.3236377239227295
0.27041682600975037 0.4023279845714569 0.34341999888420105
-0.048674412071704865 -0.5664733052253723 0.21566011011600494
0.5754789710044861 0.380393385887146 0.2685936689376831
0.026977146044373512 -0.6202556490898132 0.11184781044721603
0.08924920111894608 0.001085249474272132 -0.05329740047454834
0.4450646638870239 -0.06187327578663826 0.0002681897021830082
0.11945036798715591 0.4014710485935211 0.23618139326572418
0.15173722803592682 0.22811032831668854 0.3416910767555237
0.05433349683880806 -0.0071473876014351845 0.46026474237442017
0.371967077255249 0.40229350328445435 -0.19352203607559204
0.04061628505587578 -0.618753969669342 0.17055368423461914
-0.5294333696365356 0.002001168206334114 -0.2049391269683838
0.3971220552921295 -0.0015437006950378418 -0.11838696897029877
-0.0866658091545105 -0.6241505146026611 0.013458916917443275
-0.5274045467376709 0.3964356780052185 0.21579784154891968
0.07112935930490494 0.23724104464054108 0.34667807817459106
-0.579704225063324 0.18617916107177734 -0.08292818069458008
-0.3559300899505615 0.012941529974341393 0.19910648465156555
0.3117258846759796 -0.07838937640190125 -0.29418203234672546
-0.4494422674179077 0.010840710252523422 -0.4031336009502411
0.3061401844024658 0.0018908698111772537 -0.025042515248060226
-0.4055476188659668 0.08869293332099915 -0.34634363651275635
0.13707198202610016 0.001772065181285143 0.217874214053154
-0.4049069285392761 0.0018413513898849487 0.25804251432418823
-0.10771191120147705 0.3409040868282318 0.3435819447040558
0.28524184226989746 0.001929048914462328 -0.05550849810242653
-0.21151742339134216 -0.00032850634306669235 0.08359494805335999
0.08695078641176224 0.39410507678985596 0.3171139359474182
-0.011600540019571781 0.15205910801887512 0.34518197178840637
0.3077758848667145 0.04453153908252716 0.3418479263782501
0.3910112977027893 -0.0008058781386353076 0.0921078622341156
0.5530551671981812 0.3988444209098816 0.170261949300766
0.5215896368026733 0.00911344401538372 0.3201931118965149
-0.5788438320159912 -0.014952917583286762 -0.2831108868122101
-0.47662943601608276 -0.04227335378527641 -0.40050554275512695
-0.329301118850708 0.0023611346259713173 0.22906795144081116
0.2767508327960968 0.2309495508670807 0.4593319892883301
0.5830475091934204 0.23905639350414276 0.06402713805437088
0.4050706624984741 0.01142138708382845 -0.3972497582435608
-0.08494725823402405 0.3974906802177429 -0.3894183933734894
-0.2553839683532715 0.39232337474823 -0.03175606206059456
-0.4805043041706085 0.39907488226890564 -0.24953535199165344
-0.5759859085083008 0.22448812425136566 0.31920579075813293
-0.5144554972648621 0.09131599217653275 -0.2372843623161316
0.2051941156387329 -0.6238144636154175 -0.0957418903708458
0.2520569860935211 -0.5901283025741577 -0.274227112531662
-0.0283257644623518 0.0014255004934966564 -0.018578844144940376
-0.202538400888443 0.30984559655189514 0.3397267460823059
-0.5772597193717957 -0.016462188214063644 0.3105081021785736
0.19153563678264618 0.003016331233084202 -0.16113068163394928
0.2600783109664917 0.001858746400102973 -0.11880563199520111
-0.5667741894721985 0.3681650459766388 -0.023448459804058075
0.1628623604774475 0.39801135659217834 0.08488208800554276
0.04073302820324898 -0.6310239434242249 -0.2707970440387726
-0.35920587182044983 0.0051471213810145855 -0.3433154821395874
0.2074941247701645 -0.4787914752960205 -0.2960752546787262
0.22155433893203735 -0.6202750205993652 -5.3328112699091434e-05
0.34753113985061646 -0.6291359663009644 -0.07059214264154434
-0.08106592297554016 0.0018339753150939941 -0.2182881236076355
0.25457409024238586 -0.6355363130569458 0.1726640909910202
0.16852712631225586 0.4005644619464874 0.10052254796028137
-0.38988280296325684 0.07428045570850372 -0.3638497591018677
-0.41391992568969727 0.006631180178374052 -0.39928072690963745
-0.1763714700937271 -0.0007502799853682518 0.1128518357872963
0.08016221970319748 0.3987695276737213 -0.30253225564956665
-0.18324656784534454 -0.2592325210571289 -0.21324610710144043
-0.16904258728027344 -0.39077064394950867 0.10484889149665833
-0.39187923073768616 0.39537084102630615 0.33558714389801025
-0.4330001175403595 -0.06374853104352951 0.34183260798454285
0.37823474407196045 0.00045048538595438004 0.10322277992963791
0.14183102548122406 -0.07848187536001205 0.3741804361343384
0.37106069922447205 0.0028340741991996765 -0.2134326845407486
-0.04047059640288353 -5.8037228882312775e-05 0.0150131331756711
0.13124074041843414 -0.620669424533844 0.1962798833847046
-0.5778366327285767 0.18030154705047607 -0.1734524518251419
-0.511814296245575 -0.11006461828947067 0.24415560066699982
-0.12064261734485626 -0.6315239667892456 -0.13444434106349945
0.07265045493841171 -0.48627233505249023 0.2610170543193817
0.5722724199295044 0.3922291100025177 -0.07524795830249786
0.26121076941490173 0.12032771855592728 0.46057838201522827
0.2508864104747772 0.39976513385772705 0.16755570471286774
0.15446679294109344 0.4004099667072296 -0.21681296825408936
0.38631340861320496 -0.6090875267982483 0.016300147399306297
0.3669262230396271 -0.5016628503799438 0.08816777914762497
-0.5670840740203857 -0.01011750940233469 0.26857510209083557
0.29953646659851074 -0.07511688023805618 0.2556970417499542
-0.2859942317008972 -0.0001696581020951271 -0.026154743507504463
-0.03907899558544159 0.003531048074364662 0.32167869806289673
-0.5157507658004761 0.36318567395210266 -0.13229364156723022
-0.07594449818134308 -0.6227726340293884 -0.07160717248916626
-0.3595705032348633 -0.0016810884699225426 0.1664700210094452
-0.5769012570381165 0.31269004940986633 -0.18766705691814423
-0.17320507764816284 -0.6285197734832764 -0.10804851353168488
0.3234024941921234 0.07428218424320221 0.37842825055122375
0.28315791487693787 0.0022630279418081045 -0.22289958596229553
0.15394172072410583 0.05225018784403801 0.4610905945301056
-0.16386304795742035 -0.05349850654602051 -0.2375044822692871
-0.23969928920269012 0.39045169949531555 -0.39597079157829285
-0.14357571303844452 -0.653270959854126 0.06479595601558685
0.38728615641593933 -0.15842638909816742 0.16161353886127472
-0.23947685956954956 0.4022311270236969 -0.35795727372169495
0.276358038187027 0.4025886058807373 -0.2408357411623001
0.48120713233947754 0.2872730493545532 0.3369278609752655
-0.04120783880352974 0.402887761592865 -0.3802419900894165
0.2404152899980545 0.002796710468828678 0.22095738351345062
-0.12269783020019531 -0.5610588192939758 0.15424321591854095
-0.5745574235916138 0.03581405431032181 -0.3230571746826172
-0.09965609759092331 0.19180971384048462 -0.4025469124317169
0.16608163714408875 0.07555519789457321 0.4622997045516968
0.2600274682044983 0.00098868936765939 0.10396597534418106
-0.23005186021327972 0.00023976201191544533 0.22940222918987274
-0.23807401955127716 0.11485117673873901 0.34052813053131104
-0.40003353357315063 -0.09449373185634613 -0.3805188834667206
-0.47760823369026184 -0.11626091599464417 0.13158707320690155
0.3642204999923706 -0.5305582284927368 0.09901804476976395
0.2629297375679016 0.40226611495018005 -0.17164546251296997
-0.5006157159805298 -0.004807748831808567 -0.048720285296440125
-0.339661180973053 0.010921193286776543 -0.39671868085861206
-0.2161714732646942 0.39406511187553406 -0.06467445194721222
0.5527759790420532 0.004358423873782158 0.1791001260280609
-0.30988457798957825 0.3458435833454132 0.0018396767554804683
0.3870193362236023 0.4008907377719879 -0.18370559811592102
-0.2402416318655014 -0.04997149482369423 -0.03154584392905235
0.2028571218252182 0.002513832412660122 -0.0704755187034607
0.2269068956375122 0.39997097849845886 0.02857390232384205
-0.11241500824689865 -0.32663384079933167 -0.29687750339508057
-0.0316319540143013 -0.06286609917879105 0.28811296820640564
-0.47844284772872925 0.1275879144668579 0.2815620005130768
-0.0849456712603569 -0.620007336139679 -0.004659585654735565
-0.49270933866500854 -0.04650511220097542 -0.401017963886261
0.09065797924995422 -0.4571647047996521 -0.32238277792930603
-0.23728300631046295 -0.23574188351631165 0.03043591044843197
-0.5330981016159058 0.09830674529075623 -0.36425259709358215
-0.055640969425439835 -0.3201465606689453 0.27346423268318176
0.30487826466560364 -0.15664245188236237 0.2475661337375641
0.18554483354091644 0.4005783796310425 0.22090411186218262
0.24231766164302826 -0.636066198348999 -0.27097195386886597
-0.5758571028709412 0.21827374398708344 -0.3483283519744873
-0.537882387638092 0.39329996705055237 0.05048362538218498
0.18054825067520142 -0.6170142889022827 0.15076471865177155
0.2623239755630493 0.40425601601600647 0.4508984088897705
0.23152697086334229 0.38953131437301636 0.3443269431591034
-0.5102638602256775 0.09140807390213013 0.09436354786157608
0.3006972670555115 0.25262075662612915 -0.40107259154319763
-0.42361196875572205 0.1670467108488083 -0.40024223923683167
0.11609143018722534 -0.5717383027076721 -0.3202228248119354
-0.3955591917037964 -0.07189000397920609 0.24444761872291565
0.3209701478481293 0.08573105186223984 0.3413409888744354
-0.09373094141483307 0.0026018954813480377 0.13737402856349945
0.4598804712295532 -0.0029988237656652927 0.007562443148344755
-0.4656809866428375 0.003400087356567383 0.16482777893543243
-0.28890782594680786 0.0010888807009905577 0.07774297147989273
-0.20578508079051971 -0.2971924841403961 -0.17956724762916565
-0.5737916827201843 0.08079054206609726 0.15010672807693481
-0.2620420455932617 -0.0008227641228586435 0.09038523584604263
0.28824570775032043 -0.18019163608551025 -0.31606507301330566
-0.22113963961601257 -0.3792695105075836 0.022211145609617233
-0.16398198902606964 -0.0012303590774536133 0.14688682556152344
-0.06261347979307175 0.39562687277793884 0.3101131021976471
-0.2520698606967926 0.0026754382997751236 -0.07149638235569
0.2707348167896271 0.0023688694927841425 -0.1523224264383316
-0.5635040998458862 0.37557563185691833 0.03589925915002823
0.19265063107013702 -0.6577590107917786 -0.28790929913520813
0.26699841022491455 0.39989331364631653 0.07515554130077362
0.000641870079562068 0.40262049436569214 -0.06300796568393707
0.20354460179805756 -0.6216986775398254 0.1320899873971939
0.33854514360427856 0.39969196915626526 -0.2046959549188614
0.053611937910318375 0.3865657150745392 0.3738209009170532
0.1668214201927185 0.4643266201019287 0.3662726879119873
0.13011164963245392 -0.6177036762237549 0.1172323003411293
-0.07158037275075912 -0.6466264724731445 0.16365253925323486
-0.5726620554924011 0.3639611303806305 2.7446425519883633e-05
0.2603052854537964 -0.6254331469535828 -0.18844756484031677
0.49078917503356934 -0.0002839153166860342 -0.014989118091762066
0.008612807840108871 0.28658491373062134 0.34490251541137695
-0.10183725506067276 -0.6512373089790344 -0.18664097785949707
0.5786194205284119 0.26270461082458496 0.14062705636024475
0.4412584900856018 -0.14162111282348633 0.007131773512810469
0.23232221603393555 -0.630439043045044 -0.228329136967659
-0.10280897468328476 -0.6273941397666931 0.0711231529712677
0.209433913230896 0.4325645864009857 0.3521726429462433
-0.018311817198991776 -0.6193937659263611 -0.19520948827266693
-0.29925572872161865 0.39306947588920593 -0.2014659196138382
-0.32706987857818604 0.3354189395904541 0.33999103307724
0.22432179749011993 -0.0011659247102215886 0.3083430826663971
-0.1274246722459793 0.35108789801597595 0.3387537896633148
0.050227146595716476 0.17513002455234528 0.4574236571788788
-0.21265749633312225 -0.0011053462512791157 0.033396340906620026
0.5038021802902222 0.000498991459608078 0.3156028985977173
-0.24106237292289734 -0.311878502368927 0.031237570568919182
0.0915037989616394 0.33013099431991577 0.3368280231952667
0.3914005756378174 -0.6016491055488586 -0.006796767003834248
0.4812109172344208 0.3998902142047882 0.057430949062108994
-0.3327440023422241 0.4001833200454712 -0.0658249631524086
0.42539992928504944 -0.38182297348976135 0.022280823439359665
-0.17966997623443604 0.3985167145729065 -0.03028217889368534
0.3065367639064789 0.40288570523262024 0.11386614292860031
-0.4639727473258972 0.39833173155784607 -0.1846349835395813
-0.2687518894672394 0.40316447615623474 -0.12593546509742737
-0.43618181347846985 0.4021519124507904 0.06299863755702972
-0.5597957968711853 -0.05512404814362526 -0.2608531713485718
-0.5363853573799133 0.08620382845401764 -0.1554109752178192
-0.24863426387310028 0.3988914489746094 -0.027522040531039238
0.39276835322380066 -0.6028581857681274 -0.058741599321365356
-0.4414732754230499 0.4121586084365845 -0.1369594782590866
0.3486703634262085 -0.5267056226730347 -0.1742783486843109
0.3607248067855835 -0.3085598647594452 0.20469532907009125
-0.5770573019981384 0.18703217804431915 -0.36703020334243774
0.28903183341026306 -0.05654236674308777 0.2601696848869324
-0.20333176851272583 0.0015785444993525743 -0.07259833067655563
0.07818828523159027 -0.3913777470588684 -0.3317893147468567
0.4192410409450531 0.40159130096435547 -0.21438799798488617
0.13073062896728516 -0.1378805786371231 0.31105419993400574
0.40681853890419006 -0.043571360409259796 -0.17454460263252258
-0.5760579705238342 0.006211175583302975 0.12574689090251923
0.034447964280843735 -0.4451640844345093 -0.3100813031196594
-0.014411063864827156 0.29384738206863403 0.33828485012054443
0.2500012516975403 0.33128634095191956 0.4607042670249939
0.17159388959407806 -0.24381674826145172 -0.3666561543941498
-0.10081113129854202 -0.003753494471311569 0.2347240447998047
0.1354319155216217 0.46450039744377136 0.37350016832351685
-0.5586341619491577 -0.06405647099018097 0.10509667545557022
-0.2727498412132263 0.00237222108989954 -0.2504824697971344
-0.4721595346927643 0.002847215160727501 -0.024488303810358047
0.4025941789150238 -0.2447756677865982 -0.19126394391059875
0.3880781829357147 -0.37920573353767395 -0.16185234487056732
-0.4057355225086212 0.3970644772052765 -0.39578959345817566
-0.232728511095047 -0.002552731428295374 0.052966080605983734
0.5810887813568115 0.027626831084489822 0.3181876838207245
0.4215434789657593 -0.2756376564502716 -0.1571771502494812
-0.026755522936582565 -0.45841139554977417 -0.28772038221359253
0.1049075573682785 0.46529364585876465 0.3859785497188568
-0.5593065619468689 0.22237348556518555 0.34054797887802124
-0.49982497096061707 0.0945446714758873 0.23536962270736694
-0.3843260109424591 -0.030020814388990402 -0.3918185234069824
-0.09272042661905289 0.17906548082828522 0.39233753085136414
0.13955256342887878 0.008739329874515533 0.4612427353858948
-0.5281900763511658 0.10907892882823944 -0.28825798630714417
-0.23077993094921112 0.033197999000549316 -0.403451532125473
0.22168375551700592 0.0020160716958343983 -0.0567040778696537
0.3881246745586395 -0.5181188583374023 0.02278953418135643
-0.5687049627304077 0.05577375367283821 0.16203151643276215
-0.0481521300971508 -0.6199369430541992 -0.11381544917821884
0.30741143226623535 -0.6207489967346191 0.01122145913541317
0.10320566594600677 0.33047497272491455 0.3384897708892822
-0.22550280392169952 0.0019374070689082146 0.30561649799346924
0.5816283226013184 0.3933351933956146 0.19886034727096558
0.11053179949522018 0.023131610825657845 0.33771762251853943
0.5787294507026672 0.3991486430168152 -0.3586094081401825
-0.11874841153621674 0.0006572349229827523 -0.05605066567659378
0.23241977393627167 -0.20930737257003784 -0.3510270118713379
-0.48313698172569275 0.3993995189666748 0.27369555830955505
0.41175082325935364 0.28327301144599915 -0.40240100026130676
0.3500750958919525 -0.4035271108150482 0.12412328273057938
-0.36268556118011475 -0.005090069957077503 -0.3793109357357025
-0.1753835678100586 -0.5505606532096863 -0.11399263888597488
-0.19098731875419617 0.0015621075872331858 -0.19146014750003815
-0.18791815638542175 -0.0012225229293107986 0.03273530304431915
0.20336845517158508 0.3440398871898651 -0.39913538098335266
0.2916986346244812 0.07724104821681976 -0.3995281457901001
-0.4870937168598175 0.002846762537956238 0.032373830676078796
0.5102995038032532 0.4014413058757782 -0.12827806174755096
0.5781846046447754 0.3151707947254181 0.1313033252954483
-0.22936399281024933 0.3978816568851471 -0.03560449928045273
-0.3477341830730438 0.36540648341178894 -0.18617196381092072
-0.2097989171743393 0.401390016078949 0.2442903369665146
-0.1061846986413002 -0.5241056084632874 0.1752311736345291
-0.3436221778392792 0.0010383111657574773 0.2367188185453415
0.38366997241973877 -0.07721567898988724 -0.23377220332622528
-0.06479784846305847 0.23037444055080414 -0.40055596828460693
-0.3031540811061859 0.4000973105430603 0.09567368775606155
0.3270416855812073 -0.6276727914810181 -0.07115686684846878
0.12176261842250824 0.43621987104415894 0.44488584995269775
0.1422916203737259 -0.5267373323440552 -0.31287142634391785
-0.5127220153808594 0.1867794245481491 0.3409748077392578
-0.5538948774337769 0.006403463426977396 -0.35006198287010193
0.2300296127796173 0.39402246475219727 0.328316867351532
-0.379329651594162 0.04755844920873642 -0.15960103273391724
-0.023123523220419884 -0.6400830745697021 -0.2846641540527344
-0.5344415307044983 0.08504781126976013 -0.3987538516521454
0.3634006083011627 0.19495359063148499 -0.40085235238075256
0.5715962648391724 0.396075963973999 -0.03611735627055168
-0.22378398478031158 0.1817723959684372 0.3423304259777069
-0.13631609082221985 -0.001969878561794758 0.24108438193798065
-0.10528246313333511 0.3787229657173157 -0.40002667903900146
-0.1693510264158249 -0.0006220387294888496 -0.36348751187324524
-0.06634023040533066 0.021977322176098824 -0.4023565948009491
0.41177403926849365 -0.202289879322052 -0.1727771908044815
0.38489216566085815 -0.00018014851957559586 0.014198009856045246
-0.365560919046402 -0.023794369772076607 -0.17365728318691254
-0.42570218443870544 0.36686867475509644 0.039945971220731735
-0.2953968942165375 0.40154045820236206 0.19031056761741638
-0.44664207100868225 0.299861341714859 0.338634729385376
-0.5591528415679932 -0.04683997482061386 0.20703387260437012
0.34476688504219055 -0.0009022637968882918 0.2095034122467041
-0.3258976340293884 0.401256799697876 -0.2859537601470947
-0.502071738243103 0.004073149524629116 0.2609895169734955
-0.127801775932312 -0.2409302294254303 0.228850319981575
0.5253082513809204 0.001818276010453701 -0.28916487097740173
0.0878983587026596 -0.13880079984664917 -0.3730584681034088
-0.5145426988601685 -0.003926788456737995 0.3479783535003662
-0.0931004211306572 -0.6183210611343384 -0.09238873422145844
-0.5772899389266968 0.0024369489401578903 0.21961219608783722
0.27923741936683655 0.2595246136188507 0.4611763060092926
0.2703176736831665 -0.4847111403942108 0.2121230959892273
-0.30042338371276855 0.0018157472368329763 0.08292103558778763
-0.5749499797821045 -0.00789208710193634 0.2806068956851959
-0.5787304639816284 0.1029338464140892 0.3233790993690491
0.5805352926254272 0.17628422379493713 -0.04916439205408096
-0.007493630982935429 0.4004623293876648 0.2659088373184204
-0.06659651547670364 0.002920125611126423 -0.12391196191310883
-0.12122420221567154 0.0019704680889844894 -0.0527086965739727
