-0.1555916666984558 0.0009458800777792931 -0.15233275294303894
0.021752184256911278 -0.6221407651901245 -0.20764616131782532
-0.2330397218465805 -0.3014735281467438 0.015535153448581696
-0.35031333565711975 0.39666956663131714 -0.2368650734424591
0.22166988253593445 -0.00010398030281066895 -0.046248119324445724
0.3759271800518036 -0.2711140513420105 -0.24201971292495728
0.11584637314081192 -0.6223726868629456 -0.2236437052488327
0.020210977643728256 -0.3751344680786133 -0.3532197177410126
0.5801724791526794 0.08559957891702652 -0.07558507472276688
0.2506108283996582 -0.0846242755651474 0.3290930688381195
-0.37401023507118225 -0.0006007952615618706 -0.2404981553554535
0.2207721322774887 0.3982504904270172 0.008724087849259377
0.0012088834773749113 -0.08890347182750702 0.3005756437778473
0.2969004213809967 0.0008695907890796661 0.11345997452735901
-0.0745687484741211 0.4013899266719818 -0.2117030918598175
0.21440844237804413 0.004626551643013954 0.25702592730522156
0.21636512875556946 0.0007492154836654663 0.22440315783023834
-0.053128331899642944 0.3964216709136963 -0.3786763846874237
-0.3758542239665985 0.005688468459993601 0.0010628264863044024
-0.1166524663567543 0.007922051474452019 0.32722994685173035
-0.03437236323952675 0.000579268264118582 -0.10541118681430817
-0.37412214279174805 0.048570021986961365 -0.3985755145549774
0.09235145151615143 -0.6501962542533875 -0.30265456438064575
-0.05813617259263992 0.17470118403434753 0.3990548551082611
-0.5437338948249817 0.08297444880008698 -0.06792326271533966
0.10127747058868408 0.44793811440467834 0.3662799298763275
0.032268933951854706 0.39855629205703735 -0.2827809751033783
0.32625046372413635 0.1677323579788208 0.34303274750709534
0.39728015661239624 -0.25513410568237305 0.14476260542869568
0.4368648827075958 -0.10471468418836594 0.047240421175956726
-0.12884333729743958 0.3872724175453186 0.3374733030796051
-0.2833687663078308 0.40394335985183716 0.18501485884189606
-0.5809767842292786 0.28934890031814575 -0.13121964037418365
-0.47700053453445435 0.4014812111854553 0.16972582042217255
-0.2008330374956131 0.0018176157027482986 -0.26203683018684387
0.2556425929069519 0.24991802871227264 0.46374836564064026
0.30956122279167175 0.0741012841463089 0.4557441473007202
0.09602221101522446 -0.6191188097000122 0.1314929872751236
0.26137158274650574 0.013294922187924385 0.34441763162612915
-0.15431489050388336 0.39906585216522217 -0.27009835839271545
-0.5325376987457275 0.013051526620984077 -0.3958713710308075
0.16480445861816406 0.12596926093101501 0.46524137258529663
0.2700306177139282 0.4709566533565521 0.391772985458374
0.120750792324543 0.20119021832942963 0.34174275398254395
0.21992425620555878 -0.00021175574511289597 0.011606106534600258
0.1305609494447708 -0.6205348968505859 -0.1440242975950241
-0.5378759503364563 -0.08418717980384827 0.05596740171313286
0.32288023829460144 -0.6208420395851135 -0.0632038414478302
0.13030676543712616 0.0008846395649015903 -0.10442712903022766
0.44764426350593567 0.20003867149353027 0.34170961380004883
0.23631902039051056 0.3982032537460327 -0.22832684218883514
0.3801884651184082 -0.05189105495810509 -0.22842204570770264
0.5840481519699097 0.07738617062568665 -0.3106074929237366
0.4252054691314697 0.1410129815340042 -0.40176525712013245
0.09729231148958206 -0.04037696495652199 -0.37432771921157837
0.20088231563568115 -0.6227792501449585 -0.21249356865882874
0.07992871850728989 -0.6391922235488892 0.22000397741794586
0.08282164484262466 -0.6235214471817017 -0.17196659743785858
0.18040022253990173 -0.4040531814098358 -0.30848079919815063
0.14131447672843933 -0.32251453399658203 0.3133469820022583
0.31776484847068787 0.15344950556755066 -0.40024101734161377
0.22963044047355652 -0.6224384903907776 -0.16913706064224243
-0.007817020639777184 0.0045577771961688995 0.17840522527694702
-0.10431934893131256 0.001192782074213028 -0.020320773124694824
-0.5172414779663086 0.3824850022792816 -0.0530196838080883
-0.1291804015636444 0.3993242383003235 -0.24613890051841736
-0.00031788554042577744 0.06779682636260986 0.3442976474761963
0.04143194109201431 0.3999810814857483 -0.0056962124072015285
0.36326852440834045 -0.4626610279083252 -0.14378036558628082
0.3808912932872772 -0.642871081829071 -0.10286454856395721
0.048952821642160416 0.09059670567512512 0.3464104235172272
-0.5671130418777466 0.06460113078355789 -0.17748863995075226
0.5402020812034607 0.1330825388431549 -0.4017218351364136
0.0036643012426793575 -0.6250091195106506 -0.2132374495267868
0.20030070841312408 -0.1448080688714981 -0.355697900056839
-0.5713701248168945 0.0021044814493507147 -0.36178725957870483
0.19220159947872162 -0.6036284565925598 0.2405794858932495
0.23084518313407898 0.3428424000740051 0.46450889110565186
0.28357750177383423 0.3975263237953186 0.3284345865249634
-0.004909704905003309 -0.6228697896003723 -0.08063597977161407
-0.2786464989185333 0.40172380208969116 0.1325569897890091
-0.22945097088813782 -0.08641058206558228 0.05441035330295563
-0.41580671072006226 -0.09425228834152222 0.26848089694976807
0.12494287639856339 0.2497434765100479 0.34087425470352173
0.02481083571910858 0.2287125289440155 -0.40165355801582336
0.38835689425468445 -0.43049806356430054 -0.0351112075150013
0.08930296450853348 -0.08130774646997452 0.3162755072116852
0.32661983370780945 0.24434693157672882 0.3478023409843445
-0.46367189288139343 0.39648228883743286 0.3344905376434326
0.5869280099868774 0.31481993198394775 -0.21054872870445251
0.3289150297641754 -0.6221656203269958 -0.08038631081581116
0.5754860639572144 0.36065030097961426 -0.3866814076900482
0.44241976737976074 -0.08719814568758011 0.004795752465724945
0.15408335626125336 0.06521369516849518 0.34208881855010986
0.40344732999801636 -0.05582926794886589 0.13266964256763458
-0.45941486954689026 -0.0006121397018432617 -0.2340160459280014
-0.05410780385136604 -0.5784505009651184 -0.27189815044403076
0.2913062274456024 0.3992101550102234 0.2940371334552765
-0.13969328999519348 -0.38442254066467285 -0.2152940332889557
0.42672479152679443 -0.0008824137039482594 0.13007929921150208
0.15779827535152435 0.33915168046951294 0.46162837743759155
-0.27761271595954895 0.001712871715426445 0.2617001235485077
-0.40463966131210327 0.1847880482673645 -0.4018091559410095
-0.0690002515912056 -0.2067383974790573 0.26898106932640076
0.4166886806488037 -0.00011627934873104095 0.03618883714079857
0.17113140225410461 0.0006701964884996414 -0.22366662323474884
0.4503134787082672 0.3629269301891327 -0.4033520221710205
-0.16520434617996216 -0.09246055036783218 0.18338778614997864
0.5813100337982178 0.22999396920204163 0.061547014862298965
0.31226783990859985 0.23427623510360718 0.3473884165287018
-0.18082962930202484 -0.4954884350299835 0.014506824314594269
-0.4838765859603882 0.3820009231567383 -0.057473257184028625
0.041069645434617996 -0.6220768094062805 -0.12401468306779861
0.2122962772846222 -0.19768314063549042 -0.35437828302383423
0.11733612418174744 0.40028446912765503 0.08713044226169586
-0.474771112203598 0.1059127151966095 0.13908927142620087
-0.577680230140686 0.017557278275489807 -0.18819022178649902
0.4414932131767273 -0.3683215081691742 -0.04577495902776718
-0.39178505539894104 -0.07686655223369598 -0.10166247934103012
-0.5540041923522949 -0.0037988813128322363 0.12353738397359848
-0.2170146405696869 -0.25563204288482666 -0.1533699333667755
-0.07415761053562164 0.3977002799510956 -0.29444339871406555
-0.39465832710266113 0.2907520830631256 -0.4041321575641632
0.43705302476882935 -0.010828773491084576 0.0343419574201107
0.5838131308555603 0.25572553277015686 -0.14446163177490234
-0.5188159346580505 0.14672142267227173 -0.4012383222579956
0.5080235600471497 0.003415358252823353 0.0068520307540893555
0.13042545318603516 -0.6217736601829529 -0.18187691271305084
-0.4880894124507904 0.40150222182273865 0.07259628176689148
-0.07447268068790436 -0.0026820022612810135 -0.23271089792251587
0.3930884599685669 -0.38863933086395264 -0.0831933319568634
0.2960136830806732 -0.03527214005589485 0.25345221161842346
-0.0558847114443779 -0.5708515048027039 -0.2710493206977844
-0.3505963981151581 -0.0023229087237268686 -0.16781683266162872
-0.13713951408863068 -0.6273728609085083 -0.0035534859634935856
0.30104053020477295 0.0027316901832818985 0.18649277091026306
-0.34287941455841064 0.0029568695463240147 0.3313749432563782
-0.05826713889837265 0.39886417984962463 -0.08969762921333313
-0.43992695212364197 0.00046113692224025726 -0.3035260736942291
0.11112628132104874 -7.591769099235535e-05 0.16044458746910095
-0.2680554986000061 0.0014051448088139296 -0.2848421037197113
-0.12173222005367279 -0.005257135257124901 -0.2901022136211395
-0.5536829829216003 0.005570613779127598 0.02246209606528282
-0.32479721307754517 0.003499213606119156 0.16152317821979523
-0.30063655972480774 0.28652268648147583 0.34306323528289795
0.015462810173630714 0.21656736731529236 -0.4006751775741577
0.1437726616859436 -0.6234971880912781 0.053328949958086014
0.4568687081336975 0.2686147689819336 0.3449072241783142
0.48184457421302795 0.3993821144104004 0.25597018003463745
-0.5704749822616577 -0.03888019174337387 -0.09240551292896271
0.2540421783924103 -0.6247633695602417 -0.17575867474079132
-0.07208997011184692 -0.3464865982532501 -0.32123446464538574
-0.12845346331596375 0.10255298763513565 -0.40204715728759766
0.2598479092121124 -0.6224572658538818 -0.16772210597991943
0.4585850238800049 0.000613722950220108 -0.1823979914188385
0.23568971455097198 -0.49912455677986145 -0.28649353981018066
-0.08193698525428772 -0.0017915391363203526 0.15806348621845245
-0.3693576157093048 0.05035807192325592 -0.18482863903045654
-0.1838878095149994 -0.5028620362281799 -0.01684478670358658
0.0595521554350853 0.003985770978033543 0.23220834136009216
0.13538844883441925 -0.0007905801758170128 -0.19103781878948212
-0.4549913704395294 -0.0018422510474920273 -0.09877892583608627
-0.08554109185934067 0.3989819288253784 0.3070027530193329
-0.287479966878891 0.0018540129531174898 0.29711008071899414
0.3154344856739044 -0.6493430733680725 -0.20269113779067993
-0.1512390673160553 0.3284999132156372 0.3433332145214081
0.2842012047767639 -0.3859707713127136 -0.27463555335998535
-0.5010250806808472 0.09872431308031082 0.22561299800872803
0.2384006530046463 -0.5115618109703064 -0.28532394766807556
0.1981353908777237 0.0019645923748612404 -0.14577850699424744
0.11272217333316803 -0.622273862361908 0.0930938646197319
0.4886007308959961 0.002389300614595413 0.26548466086387634
-0.22316020727157593 -0.18623976409435272 -0.14198853075504303
0.31509169936180115 0.31516778469085693 0.457685649394989
-0.14983810484409332 -0.0015183105133473873 0.0786328986287117
-0.5762534737586975 0.15549412369728088 -0.17909526824951172
-0.0511314757168293 0.0017851389711722732 0.32981646060943604
0.5736203789710999 0.3914826512336731 -0.0397498793900013
-0.03990963473916054 -0.0027743838727474213 -0.2515704035758972
-0.22987180948257446 -0.0036066672764718533 -0.030689090490341187
-0.08541200309991837 -0.4698174297809601 -0.24914176762104034
0.3010978400707245 0.4083992838859558 0.3782602548599243
-0.04447653517127037 0.39859604835510254 0.12329725921154022
-0.3909401297569275 -0.07441005855798721 -0.09180862456560135
-0.0743929073214531 -0.622248649597168 0.07413741201162338
0.030867211520671844 -0.24863974750041962 0.305011510848999
-0.4458046853542328 0.05353144183754921 -0.40133586525917053
-0.2799253761768341 0.1285460740327835 0.3441546857357025
-0.5572218894958496 0.08677536249160767 -0.1684572845697403
0.5832682251930237 0.019807692617177963 -0.2513364553451538
-0.5789658427238464 0.1417710930109024 -0.12772639095783234
0.29476481676101685 0.3574015498161316 0.4574747681617737
-0.3727940022945404 0.00326747540384531 -0.2271060347557068
0.4451115131378174 -0.07363492250442505 -0.03922386094927788
0.29429566860198975 -0.3051183819770813 0.25156688690185547
-0.44626468420028687 0.10676667094230652 0.11792691797018051
0.2157309353351593 0.46829745173454285 0.39653918147087097
0.38808250427246094 -0.41812241077423096 -0.048272062093019485
-0.253651887178421 0.29180166125297546 -0.40252217650413513
-0.33833274245262146 0.2016027569770813 0.34241753816604614
0.4060560166835785 -0.06202050670981407 0.12736667692661285
0.562854528427124 0.3704313039779663 -0.4005981683731079
-0.4821149706840515 0.10882273316383362 -0.20604604482650757
-0.22179248929023743 -0.32257887721061707 -0.13355527818202972
-0.2709250748157501 0.007113343104720116 0.3379507064819336
-0.4717073142528534 -0.10829881578683853 0.11467357724905014
0.219866544008255 0.03177056089043617 0.340927392244339
-0.20038826763629913 0.14678551256656647 -0.40293028950691223
0.002617610851302743 -0.0011518062092363834 0.10104317218065262
0.14505444467067719 0.3552417457103729 0.3416527807712555
0.1676790565252304 -0.41623222827911377 0.2498069405555725
-0.288295179605484 0.351990282535553 -0.1329544633626938
-0.335493266582489 0.40425077080726624 0.1512196958065033
0.576427698135376 0.008863183669745922 -0.30936893820762634
-0.1835692971944809 -0.0015053153038024902 0.03264858201146126
0.09393583983182907 0.027978284284472466 0.3448179066181183
-0.41785648465156555 0.012830802239477634 -0.3979778587818146
0.10751567035913467 -0.0008665849454700947 -0.1599101573228836
-0.44311073422431946 0.35686925053596497 0.3413800597190857
-0.5787153840065002 0.23557540774345398 -0.08739323168992996
-0.36039501428604126 -0.04001870006322861 0.24185115098953247
0.05326252058148384 -0.3030399680137634 0.31175607442855835
0.1206812635064125 -0.6262601613998413 -0.28363457322120667
0.10238339006900787 -0.025524482131004333 -0.37831130623817444
0.1294727772474289 0.3856966495513916 0.4636791944503784
0.21486936509609222 0.395845502614975 -0.38554149866104126
0.42647862434387207 -0.2396509200334549 0.08092214912176132
-0.13193832337856293 -0.001484093489125371 0.08941935002803802
0.13972340524196625 0.0047108689323067665 0.3338012099266052
-0.09964073449373245 -0.6243408918380737 -0.09548040479421616
-0.26757851243019104 0.39979949593544006 0.08885318040847778
0.37536370754241943 -0.639713704586029 -0.09600459039211273
-0.42332723736763 -0.09249160438776016 0.20507250726222992
-0.5710673928260803 -0.0006844348972663283 -0.09097104519605637
-0.10037510097026825 -0.13776464760303497 0.2473434954881668
-0.5760100483894348 0.02910613641142845 0.2060285061597824
0.1504494845867157 -0.6215593218803406 -0.12650348246097565
0.06770051270723343 -0.2570057511329651 -0.36884281039237976
0.5831738710403442 0.16559110581874847 -0.18635883927345276
0.312774658203125 0.39920687675476074 -0.06081071123480797
0.3815176784992218 -0.1345592439174652 -0.23231446743011475
0.35269802808761597 0.0006747990846633911 -0.3073306679725647
-0.3731548488140106 0.39768025279045105 -0.3845292031764984
0.04036986827850342 -0.04621458053588867 -0.36863189935684204
-0.1778457760810852 -0.6389416456222534 -0.08343037962913513
0.5804539918899536 0.17491188645362854 -0.38084253668785095
-0.48180559277534485 0.10828206688165665 0.087783083319664
-0.5013135075569153 0.38951757550239563 -0.10501018911600113
0.1498504877090454 -0.41593649983406067 -0.3192307651042938
0.029398631304502487 -0.02699609473347664 0.35668376088142395
-0.4304812550544739 0.09731703996658325 0.22735810279846191
0.0787501335144043 -0.40033891797065735 -0.31733718514442444
-0.08945289999246597 0.13744063675403595 0.34623855352401733
0.5687827467918396 0.007989555597305298 0.045980311930179596
-0.575688362121582 0.3392162024974823 -0.20498163998126984
0.12762801349163055 -0.009842644445598125 0.46503981947898865
-0.18536601960659027 -0.43431970477104187 -0.04132080078125
-0.5060898661613464 -0.0017569265328347683 0.11139257252216339
-0.5717478394508362 0.06256157159805298 0.17139378190040588
0.5799925923347473 0.21693381667137146 0.17741519212722778
0.5811417698860168 0.24970699846744537 0.2799171209335327
-0.5705353021621704 0.06372236460447311 0.24308200180530548
-0.19835707545280457 0.0015313690528273582 0.2050172984600067
0.4332349896430969 -0.3632287383079529 -0.1264033317565918
-0.565604567527771 -0.045933857560157776 -0.20707489550113678
-0.18450358510017395 -0.4729715585708618 -0.03196156397461891
-0.41777947545051575 0.08547443151473999 0.3392561376094818
0.5827510356903076 0.1892567127943039 -0.31442734599113464
-0.22050593793392181 -0.00013060029596090317 -0.02713305875658989
-0.3953583538532257 -0.0828678235411644 0.3196904957294464
-0.3631962537765503 0.3961881101131439 -0.3900221884250641
0.17704921960830688 0.4004969000816345 0.18347088992595673
-0.21849225461483002 -0.08090192079544067 0.08988367021083832
0.027625534683465958 0.2687176465988159 0.4342173635959625
0.3671119213104248 0.0010578256333246827 -0.09054773300886154
0.3747672736644745 -0.6276795864105225 0.053077246993780136
-0.4608837366104126 -0.0010901452042162418 -0.016787905246019363
-0.36734622716903687 -0.0453326553106308 -0.3597376048564911
0.3874092698097229 -0.04205472022294998 -0.22060230374336243
-0.2870921492576599 0.4020128846168518 0.2703975737094879
0.06732349097728729 -0.31529465317726135 -0.3751852512359619
0.39033132791519165 -0.40025418996810913 0.0024717613123357296
-0.5771352648735046 0.02171391062438488 -0.054207298904657364
0.22815372049808502 0.0011097616516053677 0.3335912227630615
-0.04048408195376396 -0.6230489611625671 -0.19299957156181335
-0.49060073494911194 0.11212722957134247 -0.21348118782043457
0.39174503087997437 0.13846606016159058 0.3429316580295563
0.1055244654417038 -0.373340904712677 -0.3629334568977356
0.18348701298236847 0.0012649213895201683 -0.10918907076120377
0.31130969524383545 0.3462352454662323 0.4515259265899658
-0.538044273853302 0.07596007734537125 -0.216090127825737
-0.04514545574784279 0.0014402975793927908 0.17092572152614594
0.04132169857621193 -0.6241355538368225 -0.2233663946390152
-0.5687582492828369 0.004214770160615444 -0.24513433873653412
-0.07494650036096573 -0.29369914531707764 0.26783785223960876
0.029991189017891884 0.17553043365478516 0.4432554841041565
0.5135394930839539 0.09921588003635406 0.3413219153881073
-0.019972337409853935 0.3965035378932953 0.32484182715415955
-0.01628795638680458 0.2098117619752884 -0.4019852578639984
0.5799331068992615 0.3688834309577942 0.3350268602371216
-0.5010530948638916 0.3971531391143799 0.18504104018211365
0.011956624686717987 -0.5542545318603516 -0.29918479919433594
0.2577783167362213 0.16408568620681763 0.46392467617988586
-0.48451316356658936 -0.0009268259163945913 0.0817878469824791
-0.037526555359363556 0.4008571207523346 0.12032312154769897
0.5798031687736511 0.08881557732820511 0.04931081831455231
-0.1266811639070511 8.830055594444275e-05 -0.11694016307592392
0.13152632117271423 0.36623916029930115 -0.40331149101257324
-0.5058167576789856 -0.0011383574455976486 -0.3444547951221466
0.43190425634384155 0.0689745545387268 0.34157857298851013
0.15449823439121246 0.001086037140339613 -0.359175443649292
0.3664165437221527 -0.6434442400932312 0.07540543377399445
0.2553023397922516 0.0030524590983986855 -0.2243156135082245
-0.35804319381713867 -0.0052499910816550255 0.15370310842990875
-0.005620843730866909 0.40034404397010803 0.14764387905597687
-0.38019469380378723 0.13315686583518982 0.34253990650177
-0.07299795001745224 -0.0009525716304779053 0.0787714272737503
0.4442528188228607 -0.2158878892660141 -0.008954379707574844
0.11130667477846146 0.31196507811546326 0.4655943214893341
-0.5747025609016418 0.3545157015323639 -0.06844668835401535
-0.49517568945884705 0.10720040649175644 0.09105411916971207
-0.5723291635513306 -0.028267746791243553 -0.36910101771354675
-0.10260947048664093 -0.12437684834003448 0.24184992909431458
0.2556862235069275 0.45151254534721375 0.3637729585170746
-0.037371132522821426 -0.38155004382133484 0.250321626663208
-0.4584985673427582 0.10965355485677719 0.23592880368232727
0.3549901843070984 -0.6423380970954895 -6.318255327641964e-05
0.09610725939273834 0.000857299193739891 0.21917052567005157
-0.5686675310134888 0.0038307737559080124 0.0011249574599787593
0.58124178647995 0.12862558662891388 0.223402738571167
-0.012225314043462276 -0.46233880519866943 -0.2934592664241791
-0.476191908121109 0.36675989627838135 0.011622633785009384
-0.09935100376605988 -0.6233223080635071 0.07026539742946625
0.04786626249551773 4.7373585402965546e-05 -0.05081751570105553
0.041979461908340454 -0.40061384439468384 -0.31190553307533264
-0.13917291164398193 0.14791926741600037 -0.4020395874977112
-0.3321438729763031 0.17846272885799408 -0.4023244082927704
0.2736583352088928 -0.3378210663795471 0.2665870487689972
0.3691331744194031 -0.483875036239624 -0.14493165910243988
0.11604779213666916 -0.02311675250530243 0.4640592932701111
-0.5730925798416138 0.05658089742064476 0.05524767190217972
0.03020709566771984 0.14111492037773132 0.41201645135879517
-0.5367897748947144 0.0866117849946022 0.2530730068683624
-0.053406596183776855 -0.5539772510528564 0.21625058352947235
-0.03229102864861488 -0.0009952203836292028 0.10043775290250778
0.5813874006271362 0.3521783649921417 0.08941788971424103
0.08868420124053955 -0.41025683283805847 -0.31775733828544617
0.07372450083494186 0.399775892496109 0.03970934450626373
0.21007195115089417 0.0007150748861022294 -0.2238825410604477
0.2507650852203369 -0.08865687996149063 -0.3369624614715576
-0.5801962018013 0.16943274438381195 -0.20859700441360474
0.1071949303150177 0.022262150421738625 0.34037622809410095
-0.3176330327987671 0.22400403022766113 0.3454667627811432
0.32242608070373535 0.15194948017597198 0.37580782175064087
-0.049403704702854156 0.3979265093803406 -0.21930789947509766
-0.3713494539260864 3.893021494150162e-05 0.1273270845413208
0.0029548113234341145 -0.0016904184594750404 0.03953879699110985
-0.04338950291275978 0.09223273396492004 0.34243544936180115
-0.38725048303604126 0.3502664864063263 0.04389096423983574
-0.5508478879928589 -0.07137401401996613 -0.08839412033557892
-0.5771425366401672 0.005540809594094753 0.007390946615487337
0.16749489307403564 0.39961501955986023 -0.03764072433114052
0.005767539143562317 -0.3763749301433563 0.2679741680622101
-0.4270525574684143 0.39569365978240967 -0.2309303879737854
0.4194665551185608 -0.2996729612350464 0.1008215993642807
-0.05279289186000824 0.3983839452266693 -0.12905053794384003
-0.1967744678258896 -0.0010847300291061401 0.06383299827575684
0.12032341957092285 -0.6564961075782776 -0.30525538325309753
0.5109044313430786 0.3994303345680237 0.17449623346328735
0.3392975926399231 0.0012491745874285698 -0.33558517694473267
0.2815389931201935 0.0009999601170420647 0.18722333014011383
-0.07399667054414749 0.3973141610622406 -0.3445984423160553
0.10018876940011978 1.3150274753570557e-05 0.20477847754955292
0.01597009412944317 0.3898743689060211 -0.3950119912624359
-0.14963845908641815 0.39867928624153137 -0.06762228161096573
0.33428284525871277 -0.3343256711959839 0.21928314864635468
-0.5762953758239746 0.012188537046313286 0.2744343876838684
0.2742023169994354 0.00038093840703368187 0.2246139496564865
-0.008937346749007702 -0.2768328785896301 0.2952304780483246
-0.1013411208987236 0.4000735878944397 0.05998852476477623
-0.1578810065984726 0.021134179085493088 -0.3968733847141266
-0.06054157018661499 -0.37039098143577576 -0.3208319842815399
-0.19560113549232483 0.18183386325836182 -0.4019204080104828
-0.43583494424819946 -0.09939534962177277 0.14301404356956482
0.42806476354599 7.144920527935028e-05 -0.03845909610390663
0.2324434369802475 8.620880544185638e-05 0.2689947783946991
0.18779395520687103 -0.07962310314178467 -0.3638605773448944
0.32094424962997437 0.3989420533180237 -0.20245596766471863
-0.5000562071800232 0.14034245908260345 -0.3980932831764221
-0.17921073734760284 -0.5340961217880249 -0.08670849353075027
-0.4963182806968689 -0.104729063808918 -0.03666558861732483
0.31371623277664185 0.00016930163837969303 0.21051548421382904
0.2686087489128113 -0.19883126020431519 -0.3270959258079529
-0.10212060064077377 -0.6308349967002869 -0.161767840385437
0.06442952156066895 -0.6347071528434753 -0.2751445472240448
0.2219563126564026 -0.06987524777650833 0.44716453552246094
0.1387772411108017 -0.3755285441875458 0.29701367020606995
0.35975658893585205 -0.0012333462946116924 -0.2743847966194153
0.4930115342140198 0.006713692098855972 0.3284800946712494
-0.05867764726281166 -0.09453895688056946 0.2735062837600708
-0.31550726294517517 0.38137316703796387 -0.39533039927482605
-0.3653701841831207 -0.03088986687362194 0.12155541777610779
0.28789395093917847 0.3973998725414276 0.146108016371727
-0.4256058931350708 -0.00011437851935625076 0.2572800815105438
0.24370817840099335 -0.6206441521644592 0.03615294024348259
-0.5794537663459778 0.22841808199882507 0.13614213466644287
0.43917882442474365 -0.002316238358616829 0.025042757391929626
-0.22742334008216858 -0.24516378343105316 -0.15147989988327026
0.16394972801208496 0.403575599193573 0.34227776527404785
-0.06576749682426453 -0.6392689943313599 0.16990713775157928
0.21815456449985504 0.0010386928915977478 -0.2966289520263672
0.40789633989334106 0.00017733778804540634 -0.10668487101793289
0.5829019546508789 0.32387033104896545 0.09331012517213821
-0.5530646443367004 0.3112519085407257 -0.3967824876308441
0.3861057162284851 -0.0009200344793498516 0.1332252472639084
-0.5030473470687866 -0.10044989734888077 -0.37220099568367004
-0.16189397871494293 -0.09886996448040009 0.18486560881137848
0.38199982047080994 -0.3817223012447357 0.0518716499209404
0.058096982538700104 -0.3884492814540863 0.27050119638442993
-0.5049518942832947 0.3999024033546448 0.21795636415481567
-0.13805241882801056 0.3992510437965393 0.03105361945927143
-0.5788087844848633 0.25999560952186584 -0.28450390696525574
0.1927064210176468 0.0013661702396348119 -0.3696976602077484
0.14303967356681824 0.00020901032257825136 -0.23677588999271393
-0.5667636394500732 -0.0493093878030777 -0.03016570769250393
-0.35372379422187805 -0.005954613443464041 0.2188524603843689
0.4050695598125458 -0.38115301728248596 0.061486855149269104
0.32056546211242676 0.1062408834695816 0.3731670677661896
-0.44607213139533997 0.4015541076660156 0.25877952575683594
-0.04169279336929321 0.4007842540740967 0.08475491404533386
-0.4942360818386078 0.39114001393318176 -0.391671746969223
0.2777678668498993 -0.24977101385593414 0.26373758912086487
0.4485917389392853 -0.24296550452709198 -0.006474107503890991
-0.5101920366287231 0.10195702314376831 -0.12112494558095932
-0.5133861899375916 0.3802688717842102 -0.0998464897274971
0.5806007385253906 0.265946626663208 0.1903139054775238
-0.5330325961112976 0.3955807089805603 0.1684340089559555
-0.10306306928396225 0.00029962213011458516 -0.1399151235818863
0.2393840104341507 0.399441123008728 -0.13117715716362
0.13635356724262238 0.10667650401592255 0.342285692691803
0.40311673283576965 0.24822959303855896 0.3438315987586975
-0.5735493898391724 0.3618510067462921 -0.25985029339790344
-0.5750716924667358 -0.015714367851614952 0.3303590714931488
0.16587410867214203 -0.2433624565601349 -0.3670598268508911
0.582634449005127 0.1918180137872696 -0.22924894094467163
0.12277237325906754 0.3654409945011139 0.4608302116394043
-0.5549386143684387 0.3843957483768463 0.2777876555919647
0.06723145395517349 0.3988247811794281 0.18119853734970093
-0.5735225081443787 0.17934609949588776 0.3324371576309204
0.3932722508907318 -0.3874247670173645 0.0013295973185449839
0.5049419403076172 0.05186934769153595 -0.40030425786972046
-0.5760111212730408 0.02400943823158741 0.058722540736198425
-0.32451745867729187 0.18699288368225098 -0.40464332699775696
-0.38591480255126953 0.0586082898080349 -0.396472692489624
0.2982179522514343 -0.10114320367574692 0.24920809268951416
0.3130381405353546 0.27424219250679016 -0.4027974009513855
0.4921574890613556 0.18666817247867584 -0.40289363265037537
0.25823774933815 -0.6536263227462769 0.18948498368263245
-0.34841352701187134 -0.000757287722080946 0.32884135842323303
0.3091348111629486 -0.031283967196941376 -0.3030942380428314
0.17558790743350983 0.4013881981372833 0.2920839488506317
0.03071647137403488 -0.00021163863129913807 0.25881272554397583
-0.1351204365491867 -0.5976404547691345 -0.1905028373003006
0.06876762211322784 0.4006824493408203 0.19215421378612518
0.5066361427307129 0.40121445059776306 -0.22751326858997345
0.2819119095802307 0.3033890426158905 -0.4033240079879761
-0.23072881996631622 -0.0008002249523997307 -0.13042670488357544
-0.5792973637580872 0.15967059135437012 0.16389337182044983
-0.3623751401901245 0.05456842854619026 0.3399237394332886
0.012929264456033707 -0.008336156606674194 -0.36233729124069214
0.5816781520843506 0.130160853266716 0.023516563698649406
0.07390298694372177 -0.550631582736969 -0.321370929479599
0.1745273619890213 0.4687498211860657 0.40798336267471313
0.522939920425415 0.17892222106456757 0.34346961975097656
0.3480350077152252 0.0014274432323873043 -0.08129866421222687
0.15362992882728577 0.3972894251346588 -0.2888440191745758
-0.46897241473197937 0.3947782814502716 -0.18716609477996826
0.2729778587818146 -0.02777673304080963 0.32726752758026123
-0.5864987969398499 0.2438587099313736 0.27709004282951355
-0.20360881090164185 -0.17836375534534454 0.1259346604347229
0.018261488527059555 0.3990468382835388 0.024703696370124817
0.1869644820690155 0.46588224172592163 0.4388791024684906
0.3191636800765991 0.06469495594501495 0.4475298225879669
0.16667014360427856 -0.6218717694282532 0.09985999017953873
0.26724758744239807 0.001508140005171299 0.22007323801517487
-0.5125468969345093 0.028658563271164894 0.34667107462882996
0.23569564521312714 -0.6250134110450745 -0.04760679230093956
-0.36043182015419006 0.005004751030355692 0.33436399698257446
0.5730657577514648 0.011133803054690361 -0.06098040193319321
-0.46149924397468567 0.2629236876964569 0.34190332889556885
-0.4776510000228882 0.0007501400541514158 0.211583212018013
0.3074910640716553 -0.08160378038883209 0.4122827649116516
0.4878382980823517 0.3976256847381592 -0.02744230069220066
0.5635753870010376 0.005686073563992977 0.0658576637506485
-0.11230356991291046 -0.06432867050170898 -0.3001711964607239
-0.38575878739356995 0.0010593526531010866 -0.35812464356422424
0.4043055772781372 -0.2977359890937805 0.12861283123493195
0.17715786397457123 -0.6226571202278137 -0.15661342442035675
0.1389032006263733 0.3439774513244629 0.46070536971092224
0.5818338990211487 0.10733330249786377 0.0559549480676651
-0.16447213292121887 0.34361523389816284 -0.3998401463031769
-0.5820001363754272 0.32339826226234436 -0.15485334396362305
0.038951314985752106 0.09966198354959488 0.45385584235191345
-0.4031333029270172 0.08892015367746353 0.20135092735290527
-0.004769506864249706 -0.6219345927238464 0.06599093228578568
0.13177859783172607 0.0029662251472473145 -0.056305959820747375
0.22847311198711395 0.1373981386423111 0.3417345881462097
-0.5780467391014099 0.2502380311489105 -0.16670085489749908
-0.4092496931552887 0.21435825526714325 -0.4021610915660858
-0.1311522126197815 0.15940611064434052 0.3446146547794342
0.2620675563812256 0.06305725872516632 0.344793438911438
-0.4151284992694855 -0.09158768504858017 -0.2821739614009857
0.32340773940086365 -0.478244423866272 0.1573733687400818
-0.08685734122991562 -0.3930959403514862 0.19530637562274933
-0.1667531430721283 -0.0005063698627054691 -0.058693211525678635
-0.5746071934700012 0.009871168062090874 -0.3554823696613312
0.04888752102851868 0.0012827394530177116 -0.2605995833873749
0.20081216096878052 0.3994177579879761 0.2706854045391083
-0.15944194793701172 0.001511434093117714 -0.10719165951013565
0.5150444507598877 0.39880940318107605 -0.3868677318096161
0.24060828983783722 0.07041280716657639 0.34233078360557556
0.30508437752723694 -0.051768574863672256 0.45110541582107544
-0.39244112372398376 0.002460591495037079 0.15849080681800842
0.3144656717777252 0.4048406183719635 0.41608113050460815
0.2705584764480591 0.0029937345534563065 0.10031021386384964
0.4788340628147125 0.39771291613578796 0.09220986813306808
0.11790946125984192 0.3977421224117279 -0.37816959619522095
0.03767723590135574 0.17125071585178375 0.3479937016963959
0.581184983253479 0.22328515350818634 -0.04815975949168205
0.038233183324337006 0.3988303244113922 -0.18721997737884521
-0.028366005048155785 -0.47215184569358826 -0.28604164719581604
-0.37419483065605164 0.05938472971320152 0.2191222608089447
-0.5652356147766113 -0.04588370397686958 -0.3450195789337158
0.1956454962491989 -0.053970661014318466 0.3122548758983612
-0.027973253279924393 -0.6243236660957336 0.14097414910793304
-0.49341389536857605 0.0027301525697112083 0.2996602952480316
0.31698867678642273 -0.6336907744407654 0.1254923939704895
-0.5768876075744629 0.2625519633293152 -0.17607076466083527
-0.4671280086040497 -0.10741777718067169 0.2125607579946518
-0.5661329627037048 0.03318152576684952 -0.3908013105392456
-0.5504003763198853 0.111518494784832 0.3369956910610199
0.3897015452384949 0.35134053230285645 -0.4024618864059448
0.3884129226207733 -0.6096272468566895 -0.08945487439632416
0.5814061760902405 0.1668197214603424 0.2298964262008667
-0.22218908369541168 0.4017286002635956 0.23680397868156433
-0.22976234555244446 -0.3611430823802948 0.03528850898146629
-0.024325255304574966 -0.6196222901344299 -0.004200409632176161
0.3275050222873688 0.0275859497487545 -0.3986651599407196
0.3662447929382324 0.0012769618770107627 -0.10395462810993195
0.10141266137361526 0.13867348432540894 -0.4016319215297699
0.03556780889630318 0.390521377325058 0.3706291913986206
0.23766227066516876 -0.006776348687708378 0.2964515686035156
0.1327875405550003 -0.19147929549217224 0.3111858069896698
-0.17452698945999146 -0.395173579454422 0.06114057078957558
0.14162558317184448 -0.6239666938781738 -0.03050609491765499
0.2817067503929138 -6.682518869638443e-05 0.2446431666612625
0.04371918365359306 0.39567938446998596 0.3652127683162689
-0.3892371952533722 0.07725176215171814 0.10612580180168152
0.24839575588703156 0.002430305350571871 -0.00988936796784401
-0.015468966215848923 0.13866567611694336 0.3469047546386719
-0.1990915685892105 0.3970194160938263 -0.37816888093948364
-0.1214674562215805 -0.6437854766845703 -0.2078370451927185
0.5643364787101746 0.004362776875495911 -0.29729413986206055
0.2544728219509125 -0.51738041639328 0.21416069567203522
0.2709112763404846 -0.26042497158050537 0.266998827457428
0.03085063211619854 0.18211741745471954 0.4440600275993347
0.40463903546333313 -0.13107165694236755 -0.19074180722236633
0.28447744250297546 -0.6167892813682556 -0.24947480857372284
-0.036491867154836655 0.39872005581855774 -0.24136555194854736
0.003377530723810196 -0.0034842188470065594 0.28785082697868347
0.2808847725391388 0.37643733620643616 -0.39924243092536926
-0.47443369030952454 0.002349472139030695 -0.2948978841304779
0.3207705020904541 -0.5135824084281921 -0.21301278471946716
0.2901541590690613 -0.22447533905506134 -0.3202466368675232
-0.5740886330604553 0.19962376356124878 0.3324282169342041
0.017178984358906746 0.3827793300151825 -0.396041601896286
0.3815675377845764 -0.534245491027832 -0.1224173903465271
-0.42664769291877747 0.3990565836429596 -0.3513154685497284
0.4341988265514374 0.39809098839759827 -0.232615664601326
-0.11544957011938095 -0.0014878250658512115 -0.299609512090683
0.4197138249874115 -0.032786667346954346 -0.1658455729484558
0.020434444770216942 -0.21716123819351196 0.30393746495246887
0.29749345779418945 -0.49732720851898193 -0.24421106278896332
0.10351239889860153 0.46957191824913025 0.3789893686771393
-0.5808015465736389 0.00843624398112297 0.3243215084075928
-0.011119786649942398 0.26718762516975403 -0.4009862542152405
-0.2714102864265442 0.2629830241203308 0.34232479333877563
0.5838450789451599 0.2578170597553253 -0.0009744182461872697
-0.03475547954440117 -0.4523242712020874 -0.2850973308086395
-0.36398109793663025 0.3954402506351471 -0.24435169994831085
0.29094693064689636 -0.6490173935890198 0.14452657103538513
0.26586127281188965 -0.3850801885128021 -0.29106539487838745
-0.22727666795253754 -0.36312976479530334 -0.1000472828745842
0.26295730471611023 0.40044716000556946 0.45899346470832825
0.39619752764701843 0.035016436129808426 0.3463989496231079
0.09214650839567184 0.39984819293022156 -0.08975425362586975
-0.5772359371185303 0.017740650102496147 -0.13750305771827698
-0.5701972842216492 0.3663332462310791 -0.05221671238541603
-0.08103185147047043 0.0013922443613409996 0.00041948817670345306
0.012730009853839874 -0.6231558322906494 0.13269048929214478
-0.5686500668525696 0.367782860994339 -0.2574561536312103
-0.07092443108558655 -0.6233870983123779 -0.04403059184551239
0.5066492557525635 0.0025898288004100323 0.24528220295906067
-0.5760595202445984 0.36551937460899353 0.32155370712280273
-0.5721540451049805 0.03353822976350784 -0.18514089286327362
-0.5781219601631165 0.18335887789726257 -0.21950776875019073
0.10041806101799011 0.0015969956293702126 0.2657500207424164
-0.0795394629240036 -0.00041004264494404197 -0.2634764313697815
-0.0025186340790241957 0.40063294768333435 0.3055247962474823
-0.17978063225746155 -0.21868784725666046 0.16025403141975403
-0.2672482430934906 0.3817081153392792 0.33840125799179077
0.361609548330307 0.16694539785385132 0.3407021462917328
0.24245357513427734 -0.0754784345626831 0.43439781665802
-0.11269025504589081 0.21307213604450226 0.3467068672180176
0.58173668384552 0.12031325697898865 0.27652907371520996
-0.22736522555351257 -0.0025637769140303135 -0.003500445280224085
0.20100460946559906 0.3979846239089966 -0.25004470348358154
0.13416080176830292 -0.6194374561309814 0.04555530101060867
-0.2927153706550598 0.40374821424484253 0.2369966208934784
-0.13095098733901978 -0.38390716910362244 0.15004794299602509
0.23956747353076935 -0.08560808002948761 0.42743510007858276
0.324347585439682 0.39780429005622864 0.3751657009124756
0.4684944748878479 0.0020304089412093163 0.3067159056663513
-0.4238181710243225 0.02797449752688408 -0.39848989248275757
-0.39952656626701355 0.025592846795916557 -0.3974927067756653
0.04203920438885689 -0.0018425565212965012 0.32165244221687317
0.32645294070243835 -0.07043297588825226 0.3772372305393219
0.24877364933490753 0.12202715128660202 -0.4000696539878845
0.06803347915410995 0.0005809089634567499 0.16642354428768158
-0.38924843072891235 0.08168508112430573 0.1481693685054779
0.2963583171367645 -0.481371134519577 -0.23795883357524872
0.13696205615997314 0.45951753854751587 0.3651967942714691
0.02806815877556801 -0.05104503408074379 -0.36419886350631714
-0.5796816945075989 0.1600797027349472 0.07550477981567383
-0.41546475887298584 -0.09068813174962997 -0.07670654356479645
-0.017771637067198753 -0.6212253570556641 0.10225509852170944
0.07512591034173965 -0.334586501121521 -0.3696407973766327
-0.24619634449481964 0.23361265659332275 0.3420008420944214
-0.22755153477191925 0.20048628747463226 -0.4030739963054657
-0.36770129203796387 0.005572886671870947 0.04300389811396599
-0.5804462432861328 0.10987284779548645 0.00361084402538836
-0.35341164469718933 -0.0023298694286495447 -0.1336224228143692
-0.42135074734687805 -0.09605812281370163 0.32538968324661255
0.12514950335025787 -0.3612755537033081 0.3069920241832733
-0.5578762888908386 -0.05886465311050415 0.2508838474750519
0.02993335947394371 0.0006492465035989881 -0.050252340734004974
-0.22022701799869537 -0.24346928298473358 -0.14881525933742523
0.12430663406848907 -0.15171955525875092 0.3134857416152954
0.5831267833709717 0.10574567317962646 -0.03937530517578125
0.09268790483474731 -0.0006914380937814713 -0.19839709997177124
0.30075061321258545 0.3909839391708374 0.4576106667518616
0.21601276099681854 0.39910081028938293 0.21354350447654724
0.43813368678092957 -0.29504337906837463 -0.11224257946014404
-0.22073253989219666 0.3214721977710724 0.34273627400398254
-0.2226966768503189 -0.22543086111545563 -0.14277485013008118
-0.1466270387172699 0.22851364314556122 -0.4022410213947296
-0.3591776490211487 0.02180354669690132 -0.09906648844480515
0.5818541646003723 0.30903974175453186 0.09019448608160019
-0.5333231091499329 -0.06955970823764801 -0.3937571942806244
0.09382440894842148 -0.6182622313499451 0.21267254650592804
-0.578680157661438 0.03494289889931679 0.2702261209487915
0.1941017508506775 0.07092907279729843 0.46572306752204895
-0.3649909794330597 -0.010930790565907955 -0.38814130425453186
0.11160430312156677 0.0005116816610097885 0.04088931530714035
-0.504570722579956 -0.10197070986032486 0.11761312186717987
0.17081311345100403 -0.6230024695396423 -0.06988457590341568
-0.5662182569503784 -0.0255829356610775 -0.19993360340595245
0.5443739891052246 0.40093323588371277 -0.1875370591878891
-0.12800423800945282 -0.5178080797195435 -0.20045527815818787
0.2826922535896301 -0.1103413999080658 0.2610485851764679
0.12473329156637192 0.3984666168689728 -0.01162030454725027
0.17406605184078217 0.39828652143478394 -0.04074005410075188
-0.038179609924554825 0.0008214914705604315 0.03138582035899162
-0.20500034093856812 0.3747633993625641 0.3433070480823517
0.12058446556329727 0.4278740882873535 0.44851744174957275
0.32456672191619873 0.03322920203208923 0.45762816071510315
0.1946365088224411 -0.6221155524253845 -0.060641806572675705
-0.2126253843307495 -0.0020309267565608025 0.12395476549863815
0.19382038712501526 -0.007639011833816767 0.3024660646915436
0.5136622190475464 0.023583626374602318 -0.4011051058769226
-0.1270923763513565 0.39803558588027954 -0.3750295042991638
0.048437025398015976 -0.6215954422950745 -0.31581056118011475
-0.36922067403793335 0.0017181974835693836 -0.29497137665748596
-0.32251885533332825 0.35708799958229065 -0.40304815769195557
-0.5776726007461548 0.28008219599723816 0.3238278329372406
-0.030915146693587303 0.39811110496520996 -0.3274439871311188
-0.5500258207321167 -0.0703740194439888 -0.10234576463699341
-0.31859493255615234 0.11969764530658722 -0.4000222980976105
0.3902220129966736 0.017631273716688156 0.33904829621315
0.5811383724212646 0.17045529186725616 0.05115940794348717
0.18834051489830017 0.39973893761634827 -0.11088059842586517
0.5872519016265869 0.3568153381347656 -0.24454820156097412
-0.39610469341278076 0.3955475687980652 -0.30030557513237
-0.2398763746023178 -0.20363782346248627 -0.013635214418172836
0.13994565606117249 -0.001034664222970605 0.039881423115730286
0.3222690224647522 0.3995012938976288 -0.33196407556533813
0.03652334213256836 0.24423855543136597 0.4563439190387726
-0.5569570064544678 0.30772626399993896 0.3368094563484192
-0.220167338848114 -0.11184544116258621 -0.15567144751548767
0.333326518535614 0.026519685983657837 0.3648659884929657
-0.05268622189760208 -0.37480390071868896 0.25937551259994507
-0.44930383563041687 0.11416793614625931 -0.0170260202139616
-0.23966050148010254 0.39972713589668274 -0.027001461014151573
-0.4085347056388855 0.0912809893488884 0.2441193014383316
-0.4154660105705261 0.3996454179286957 0.08140597492456436
0.3141155540943146 0.4289329946041107 0.3595811426639557
0.15112251043319702 0.0005637835711240768 -0.10633412003517151
-0.4297025799751282 0.09639057517051697 0.2682020366191864
0.2640342712402344 0.46643051505088806 0.43936672806739807
0.3356221318244934 0.32606422901153564 0.34519025683403015
-0.15252327919006348 0.1657181680202484 -0.401764452457428
0.3663892447948456 -0.34026652574539185 0.18137922883033752
0.13879196345806122 -0.6233409643173218 -0.027685577049851418
0.5852792859077454 0.30939367413520813 -0.20224320888519287
-0.4978288412094116 0.2302655726671219 0.3409186899662018
0.22540129721164703 -0.6213604807853699 -0.07455208152532578
-0.11659183353185654 -0.6223621964454651 -0.05987459048628807
-0.5398856997489929 0.012606844305992126 -0.3980928659439087
-0.052714381366968155 0.398727685213089 -0.1359197497367859
0.006425646599382162 0.24348942935466766 0.3515046238899231
-0.43327346444129944 -0.09999337792396545 -0.013222360983490944
-0.3056434392929077 0.38372230529785156 -0.3957197666168213
-0.3807159662246704 0.2469756305217743 0.3417969346046448
-0.5773385167121887 0.009602891281247139 -0.3197087347507477
0.16589875519275665 0.3983919024467468 -0.1738312840461731
-0.5457801222801208 -0.0753234475851059 -0.16975052654743195
-0.42159518599510193 0.10071626305580139 -0.10007898509502411
-0.363385409116745 0.0022081464994698763 -0.288968026638031
-0.397126168012619 0.0011932477355003357 -0.3226112723350525
0.26161929965019226 0.4626752734184265 0.4377395212650299
-0.5778118371963501 0.11180056631565094 -0.2671579122543335
0.01691843383014202 0.28388750553131104 0.3831025958061218
0.5239982008934021 0.003158027306199074 -0.16334639489650726
0.5741785168647766 0.010116994380950928 0.21136504411697388
0.06893343478441238 0.0002976599498651922 0.07933016866445541
0.3743399977684021 -0.2212088406085968 0.18015889823436737
0.11998826265335083 0.36015385389328003 0.33970606327056885
-0.17130744457244873 -0.3895969092845917 0.09986351430416107
-0.5728651881217957 0.09061980992555618 0.05047043040394783
0.3033882975578308 -0.5561104416847229 0.17646567523479462
-0.13552163541316986 -0.26738062500953674 -0.2703670561313629
-0.20888589322566986 -0.2236463725566864 0.11055144667625427
0.30696889758110046 0.09220424294471741 0.3440529406070709
0.22582267224788666 -0.6213697791099548 0.0033229063265025616
0.23583760857582092 -0.6225854158401489 -0.14912623167037964
0.16345582902431488 0.17327825725078583 -0.40126222372055054
0.30973830819129944 -0.29979297518730164 0.24075959622859955
0.26167699694633484 -0.4976537525653839 0.20957376062870026
-0.10082992166280746 -0.5548835396766663 0.17749789357185364
0.1846371740102768 0.3997805714607239 0.19339938461780548
-0.2935269773006439 0.4029823839664459 0.1911115199327469
-0.3461872339248657 0.26508569717407227 -0.4021364450454712
-0.03266385197639465 0.3997975289821625 -0.19059330224990845
-0.513273298740387 0.05705912783741951 -0.4013347923755646
-0.41341063380241394 0.00017685334023553878 0.3390410244464874
-0.17054669559001923 -0.6571759581565857 -0.02988317981362343
0.5842368602752686 0.27150240540504456 -0.2506774365901947
0.1353185474872589 0.468533992767334 0.3867633044719696
-0.5797908902168274 0.18884961307048798 0.004452712833881378
-0.4253123104572296 7.443316280841827e-05 -0.08764027804136276
-0.23384185135364532 -0.20290227234363556 0.02031261846423149
-0.3916516900062561 0.39654916524887085 -0.2868559658527374
0.5841780304908752 0.2826414704322815 -0.35595232248306274
-0.013581705279648304 0.04470807686448097 -0.4003988206386566
0.28178656101226807 0.003435279242694378 -0.10931289941072464
-0.3927627205848694 0.3969683349132538 -0.32137545943260193
-0.37065938115119934 0.04783882945775986 0.34011298418045044
-0.19043198227882385 -0.1110779345035553 -0.21030734479427338
0.4393523037433624 -0.35845059156417847 -0.08824412524700165
0.2691693603992462 0.0026947874575853348 -0.22596055269241333
0.020237743854522705 -0.16621406376361847 -0.36330467462539673
-0.5257779359817505 0.09291215240955353 -0.3614787757396698
-0.4082087278366089 0.02440798096358776 0.3446033298969269
-0.5068188905715942 -0.0020763417705893517 0.1285352259874344
0.31120437383651733 0.0025286125019192696 -0.0741664320230484
-0.5703129172325134 0.29621580243110657 0.3344872295856476
-0.34714704751968384 0.4016800820827484 -0.14968366920948029
-0.4611433148384094 0.3149423897266388 0.34365183115005493
0.20315991342067719 0.3046324551105499 0.3426949083805084
-0.08330389857292175 -0.6392847895622253 0.188195139169693
0.4819503128528595 0.3996233642101288 -0.16017472743988037
0.4970300495624542 0.39932069182395935 -0.27027833461761475
-0.5814168453216553 0.2751651406288147 -0.169810488820076
0.5246462821960449 0.007910985499620438 0.3355645537376404
-0.5440390110015869 -0.07976523786783218 0.17626187205314636
0.5847197771072388 0.29331591725349426 -0.2607804238796234
0.017506489530205727 -0.5875226855278015 -0.30308327078819275
0.321074515581131 0.11698509007692337 0.34505945444107056
0.30952903628349304 -0.07859776169061661 0.3535648286342621
0.250701904296875 0.0013332348316907883 0.18193061649799347
0.18508371710777283 -0.49411001801490784 0.24366602301597595
0.008051426149904728 0.30587661266326904 0.34493979811668396
