0.017991140484809875 0.0015720828669145703 0.17822898924350739
0.1069021075963974 0.2669995129108429 0.45947882533073425
0.552466869354248 0.004398005083203316 -0.03605612367391586
-0.0026622479781508446 -0.6569282412528992 -0.2712381184101105
-0.07888723164796829 0.3971502482891083 0.3064526319503784
0.22719086706638336 -0.6232614517211914 -0.07589934021234512
-0.3259962797164917 0.40503036975860596 -0.04503355547785759
-0.07050406187772751 0.0019781244918704033 -0.1432466208934784
-0.1915156990289688 -0.1713172048330307 -0.22151625156402588
0.04101132974028587 -0.6243377923965454 -0.04168092831969261
0.361117422580719 0.0007961620576679707 0.1667575091123581
0.24000483751296997 0.24526551365852356 0.3410104811191559
0.28231436014175415 -0.2527309060096741 -0.3203044533729553
0.5812391638755798 0.07981821894645691 0.20332258939743042
-0.15741421282291412 -0.316120982170105 -0.26148608326911926
-0.018661055713891983 0.3775457441806793 0.34126752614974976
-0.14831751585006714 -0.08080839365720749 0.20245197415351868
-0.16917294263839722 0.0024677030742168427 0.019789371639490128
-0.1174231618642807 0.37409013509750366 -0.39780619740486145
0.028969112783670425 -0.3849691152572632 0.2671683430671692
0.16463956236839294 0.3998466730117798 -0.2183709740638733
-0.32110920548439026 0.39956334233283997 0.06195251643657684
-0.22229798138141632 0.39981403946876526 -0.3529107868671417
-0.014747527427971363 -0.6305254101753235 0.18631114065647125
0.15275457501411438 0.40059444308280945 -0.25724709033966064
0.25735872983932495 0.003269508481025696 0.22993144392967224
0.3069816827774048 -0.0781610980629921 0.42272111773490906
-0.21551679074764252 0.003561183111742139 0.2211075872182846
0.4376240372657776 -0.2557903528213501 -0.10526436567306519
-0.18076960742473602 -0.4842122197151184 -0.0916811004281044
-0.31520089507102966 0.32172584533691406 -0.4019552171230316
0.3393360674381256 -0.12192070484161377 -0.2819462716579437
-0.30343660712242126 0.004258583299815655 0.1997753083705902
0.3292126953601837 -0.4469333589076996 0.14948855340480804
-0.3527197539806366 0.3635619878768921 -0.1876252442598343
0.022930940613150597 0.2529323995113373 0.39740821719169617
-0.0543534941971302 0.001812228001654148 -0.1590156853199005
0.2113097906112671 0.4133419990539551 0.45289385318756104
-0.1476917862892151 -0.11411114782094955 -0.2586017847061157
0.5818248391151428 0.10231709480285645 -0.011352937668561935
-0.43460702896118164 0.24854259192943573 0.341264545917511
0.308239221572876 0.3978498876094818 0.064531609416008
0.5762807726860046 0.11196156591176987 0.2973689138889313
0.20932219922542572 0.27998289465904236 0.4628481864929199
0.3954917788505554 0.07722926884889603 -0.3996879458427429
0.10347985476255417 0.3955134153366089 0.33414357900619507
0.04988017678260803 -0.6237469911575317 0.13692429661750793
0.19946224987506866 0.3990151286125183 -0.07694514840841293
0.23724955320358276 0.001875927671790123 0.009973680600523949
-0.5272192358970642 -0.09348680824041367 0.09218578040599823
0.524773359298706 0.12467758357524872 -0.40093591809272766
0.39513176679611206 0.39917653799057007 -0.2634807825088501
-0.3783223330974579 -0.0027397628873586655 -0.34680166840553284
0.1361551135778427 -0.00013163220137357712 -0.3027831017971039
-0.09170618653297424 -0.6241884231567383 0.08865230530500412
-0.5759490132331848 0.055640581995248795 -0.25075459480285645
-0.030668871477246284 0.0006271088495850563 0.3234686553478241
-0.557195782661438 0.37431031465530396 0.33047544956207275
0.19267363846302032 -0.6220033764839172 -0.12436129152774811
0.5758888721466064 0.3598428964614868 0.11953156441450119
-0.36363381147384644 0.05838198959827423 0.029402872547507286
-0.08539918065071106 -0.05060489475727081 -0.33382999897003174
-0.39604178071022034 0.3994765281677246 0.3236294090747833
-0.18298445641994476 -0.5189641118049622 0.01711966283619404
-0.020093092694878578 0.0007865056395530701 -0.20509377121925354
-0.057181473821401596 -0.6222181916236877 0.043048638850450516
-0.5801773071289062 0.18345442414283752 0.08562527596950531
-0.2010616958141327 0.4025294780731201 0.30210259556770325
0.020832695066928864 0.0006689049769192934 -0.3494865596294403
0.28915926814079285 0.002570363460108638 -0.010141881182789803
-0.5733039379119873 -0.004478516057133675 0.3331880569458008
0.40051430463790894 -0.17304320633411407 -0.202936589717865
0.20484422147274017 -0.5817764401435852 0.23890931904315948
-0.46848201751708984 0.08166925609111786 0.3377196192741394
-0.373043417930603 -0.005800280254334211 -0.24058732390403748
0.3932671844959259 0.3996117413043976 -0.0744117796421051
-0.1281033754348755 -0.1799667924642563 -0.2884819507598877
-0.5823365449905396 -0.028214890509843826 -0.28999894857406616
-0.5783916711807251 0.013905687257647514 0.08071017265319824
-0.030528919771313667 0.2965851426124573 0.34334155917167664
0.15281198918819427 0.05293473228812218 0.33926013112068176
0.3719543516635895 -0.04736071825027466 -0.2474088966846466
-0.15801078081130981 -0.649994969367981 0.0757860466837883
0.47088587284088135 0.00846872292459011 -0.3929755985736847
-0.14795908331871033 0.09867720305919647 -0.4015246033668518
0.3249691128730774 0.35546016693115234 0.4516986310482025
0.06554853916168213 -0.6227323412895203 -0.026319000869989395
-0.44883471727371216 0.11432889103889465 -0.05494413152337074
-0.10884667932987213 -0.629647433757782 0.05050220713019371
0.4096718728542328 0.0008157407864928246 -0.30808624625205994
-0.2523307800292969 0.40154358744621277 0.048060979694128036
0.42639362812042236 0.00014963638386689126 -0.254764199256897
-0.4871008098125458 0.34241488575935364 -0.4008429944515228
0.04443589597940445 -0.6247639060020447 -0.07048948109149933
0.507574200630188 0.13541364669799805 -0.40025925636291504
-0.3649744689464569 0.008531739935278893 -0.10795210301876068
0.15874546766281128 0.001154848374426365 -0.2533482611179352
-0.3880637288093567 0.07104804366827011 0.16916272044181824
-0.4125306010246277 0.3899976313114166 -0.40127602219581604
-0.2711217999458313 0.40000012516975403 -0.2140781730413437
-0.4637807309627533 0.11832115799188614 -0.3585957884788513
0.18669478595256805 0.40010854601860046 -0.0696282759308815
0.08955647051334381 -0.06979477405548096 0.3458941876888275
-0.21818773448467255 -0.04211981222033501 -0.1422848254442215
0.3245311677455902 -0.3762214183807373 0.21502892673015594
-0.5834845900535583 0.2905464172363281 -0.37206557393074036
-0.4503958523273468 0.3069075345993042 -0.403773695230484
0.36827412247657776 -0.5102387070655823 -0.14007161557674408
0.05903364717960358 -0.3478810489177704 0.31121253967285156
-0.5784956812858582 0.28751900792121887 0.3144542872905731
-0.0234878771007061 -0.000271698459982872 -0.18670068681240082
0.18331623077392578 0.0015312982723116875 -0.014753688126802444
0.5078453421592712 0.21084237098693848 0.34042486548423767
-0.31563761830329895 0.39326515793800354 -0.016400011256337166
-0.38469088077545166 -0.07021177560091019 -0.32464107871055603
0.47715243697166443 0.0010236632078886032 -0.20034296810626984
0.34951189160346985 0.3978150486946106 -0.3901221752166748
0.5776659250259399 0.37175655364990234 -0.13431549072265625
-0.1762445867061615 -0.35214295983314514 0.16973961889743805
0.18663781881332397 0.002248174976557493 -0.148326113820076
-0.35997289419174194 0.40004387497901917 -0.3557412922382355
0.36543798446655273 5.382695235311985e-05 0.15057720243930817
-0.29764994978904724 0.21048247814178467 -0.40366366505622864
0.028784366324543953 -0.0060003395192325115 0.3890984058380127
-0.4176136255264282 -0.005813451483845711 0.34071189165115356
0.4344058334827423 -0.24404960870742798 -0.11236701160669327
0.07190994173288345 -0.6239883303642273 -0.017965789884328842
0.08785372972488403 -0.6207574605941772 0.08568108826875687
-0.5811719298362732 0.11878173053264618 -0.09940245002508163
0.2998698055744171 -0.09193404763936996 0.4012170135974884
0.16982364654541016 0.3270685374736786 0.4610593020915985
-0.18740816414356232 0.40008991956710815 -0.0297622662037611
-0.09961029142141342 -0.3713412582874298 -0.3068332076072693
-0.5842167735099792 0.2873494327068329 -0.22714124619960785
0.30195352435112 -0.0010457150638103485 0.2447328269481659
0.4378049075603485 -0.3695254623889923 -0.08047564327716827
-0.4179275929927826 -0.0897303968667984 0.02553306519985199
0.40465253591537476 -0.37622326612472534 0.11949422210454941
0.02192738652229309 0.39747583866119385 -0.37929630279541016
-0.5520215034484863 -0.002990035805851221 -0.1626800149679184
-0.00264497147873044 -0.22212322056293488 -0.35763639211654663
0.3386593461036682 -0.6233758926391602 -0.023489410057663918
0.38686230778694153 0.22571156919002533 -0.40032464265823364
-0.24065877497196198 -0.11100084334611893 -0.06959836184978485
0.52274489402771 -0.00022105686366558075 0.2300422638654709
0.38555172085762024 -0.4397767186164856 -0.03920399770140648
-0.16717028617858887 0.0003878932911902666 -0.011132325045764446
-0.22541293501853943 0.40134552121162415 -0.3557109236717224
-0.026622891426086426 -0.6117445230484009 -0.2840939164161682
0.3964839577674866 -0.3506346046924591 -0.197519913315773
-0.17945346236228943 0.39826416969299316 -0.33157700300216675
0.4333266615867615 0.3998640775680542 0.08538554608821869
-0.0255933478474617 -0.6222608685493469 -0.1768222451210022
-0.40386664867401123 0.08657165616750717 -0.31755518913269043
0.013739550486207008 0.4010219871997833 0.0689932182431221
0.031262513250112534 -0.6238445043563843 -0.16589750349521637
-0.5833436846733093 0.12669892609119415 0.23626722395420074
0.31283992528915405 -0.06637675315141678 0.431902140378952
-0.573347806930542 0.13493850827217102 -0.39029696583747864
-0.029164131730794907 -0.6230207681655884 0.06715573370456696
-0.01057148166000843 0.15943872928619385 0.35103341937065125
0.569323718547821 0.02456377074122429 -0.3657374083995819
0.4393499493598938 0.002036859281361103 -0.37534263730049133
-0.2918907403945923 0.39772987365722656 0.036835480481386185
-0.43729498982429504 -0.10069771856069565 0.07494863122701645
-0.018849631771445274 -0.6390092968940735 -0.25221312046051025
-0.037452373653650284 0.09998469054698944 0.3406730592250824
0.3519122004508972 -0.4950616955757141 0.11515650898218155
0.44592204689979553 0.34051838517189026 -0.4025302529335022
0.26719507575035095 -0.26230698823928833 0.2743861973285675
0.16196155548095703 -0.6005767583847046 -0.3065597116947174
-0.480986088514328 0.3964453637599945 0.03469081223011017
0.42571526765823364 -0.19359415769577026 -0.1546819508075714
-0.19305382668972015 0.021853502839803696 -0.3994244933128357
0.3464716672897339 -0.4570029377937317 0.12314546853303909
0.04678262397646904 0.0019181580282747746 0.46023818850517273
0.3127997815608978 -0.0017687901854515076 -0.33204784989356995
-0.3642778694629669 -0.041486673057079315 0.03715229779481888
0.04248581454157829 0.3997361958026886 -0.1531212329864502
0.2737184166908264 0.00503577571362257 -0.38403213024139404
-0.5719571113586426 0.07033227384090424 0.10940364748239517
-0.05256100744009018 -0.6264890432357788 0.14357700943946838
-0.569141149520874 0.15416133403778076 0.32536226511001587
-0.5790817737579346 0.3561755120754242 -0.2916554808616638
0.4086073637008667 0.2920253574848175 -0.4022880792617798
0.524812638759613 0.39791423082351685 0.136066734790802
-0.08774272352457047 0.3333624601364136 -0.4020511507987976
0.26138144731521606 -0.4620286226272583 -0.26695436239242554
-0.539445698261261 -0.08315113186836243 -0.23326346278190613
-0.42452630400657654 0.04146131873130798 0.3480445444583893
-0.0989871397614479 0.10313879698514938 0.3388056755065918
-0.5876988172531128 0.24330049753189087 -0.16442783176898956
-0.28326383233070374 0.3567398190498352 -0.06710559129714966
-0.21047261357307434 0.0028513604775071144 -0.1643289029598236
-0.4570844769477844 0.4017067551612854 -0.11798205971717834
-0.42112797498703003 0.41369277238845825 0.011310775764286518
-0.04604123905301094 -0.6224796772003174 0.059033554047346115
-0.1190415471792221 0.24709974229335785 0.34302571415901184
-0.4890022575855255 0.38131245970726013 -0.12528878450393677
-0.5731573700904846 0.035655222833156586 -0.021245546638965607
0.09000581502914429 -0.6179474592208862 -0.1649835854768753
0.31251516938209534 -0.30373382568359375 -0.3028382658958435
0.33194488286972046 -0.3730749785900116 0.20761241018772125
-0.17310026288032532 -0.07640735059976578 0.17388221621513367
-0.17033268511295319 -0.638228714466095 0.06112681329250336
0.3467654287815094 0.14526152610778809 -0.40231308341026306
-0.5770362615585327 0.3509097397327423 0.04816511273384094
0.5811111330986023 0.11866672337055206 -0.29473498463630676
-0.5863664746284485 0.24239158630371094 -0.11691717803478241
0.06393840909004211 -0.009482111781835556 -0.37325432896614075
-0.13487987220287323 -0.5536940693855286 0.1339329183101654
-0.5661079287528992 -0.05843785032629967 -0.1391844004392624
-0.58917236328125 0.2705843448638916 -0.24017970263957977
-0.24732980132102966 -0.12506765127182007 0.022476866841316223
0.15724438428878784 -0.0156654492020607 0.4623710811138153
0.415783554315567 0.3891600966453552 -0.3949837386608124
-0.11326929181814194 -0.22274261713027954 -0.2998470664024353
-0.48383629322052 0.27396106719970703 -0.4034571945667267
0.22788190841674805 -0.6206708550453186 0.2272147834300995
0.04743029177188873 -0.03742607310414314 0.31902894377708435
-0.4466682970523834 -0.11186624318361282 0.08545897901058197
0.22212770581245422 0.39857277274131775 0.005897052586078644
-0.5636418461799622 0.0577067993581295 -0.11521457135677338
0.5793260931968689 0.3748059868812561 0.2737438678741455
0.09388231486082077 0.00146180996671319 -0.25159162282943726
0.2036811262369156 -0.6470821499824524 0.20196188986301422
-0.44966569542884827 0.36028194427490234 0.04522361978888512
-0.15111307799816132 -0.026930082589387894 0.20209406316280365
-0.37555453181266785 -0.02921302057802677 -0.39771103858947754
0.3968392610549927 -0.3701285123825073 0.14320632815361023
0.07626542448997498 0.0010591354221105576 0.029968827962875366
0.22031766176223755 0.4643396735191345 0.40892574191093445
-0.22449423372745514 -0.17528113722801208 0.05624229088425636
0.02914387732744217 0.161315456032753 0.34790730476379395
0.02975020930171013 -0.6547442078590393 -0.2801297605037689
0.38509315252304077 -0.5830817222595215 -0.0829717367887497
0.26862794160842896 -0.005459215492010117 0.27578461170196533
-0.12493506073951721 0.2205117791891098 0.34213003516197205
-0.44547775387763977 0.40116724371910095 -0.20133145153522491
0.2828940153121948 -0.6374321579933167 -0.18896599113941193
-0.048256076872348785 0.0003410894423723221 -0.30670925974845886
-0.5865773558616638 0.2780129015445709 0.17555029690265656
0.08500225841999054 0.10630115121603012 -0.4003788232803345
-0.5754992365837097 -0.03263641148805618 0.1533120721578598
0.3118516802787781 0.15905803442001343 0.46007341146469116
-0.2549878656864166 0.0017403359524905682 -0.20671184360980988
-0.5674697756767273 0.05707155168056488 0.23946088552474976
0.2599276006221771 -0.3814127445220947 0.22707942128181458
-0.5854358077049255 0.2828013598918915 0.21324864029884338
0.17990779876708984 -0.3227706253528595 -0.36788448691368103
0.36046239733695984 0.0010922439396381378 -0.30064746737480164
-0.14932726323604584 0.4000023901462555 -0.3277672231197357
-0.0695357546210289 -0.0008586184121668339 -0.28090614080429077
0.3132743835449219 0.3983638286590576 0.1421610713005066
0.04861506447196007 0.40098837018013 -0.27682971954345703
0.19397729635238647 -0.6531741619110107 0.2234087735414505
0.3128192126750946 0.10384337604045868 0.33972299098968506
-0.5057095885276794 0.001750363502651453 -0.351580411195755
-0.04765696078538895 0.00047625601291656494 0.2757999300956726
-0.013584954664111137 -0.4958269000053406 0.23782296478748322
0.5078607797622681 0.3551834225654602 0.3389747142791748
-0.5862250924110413 0.2698383331298828 0.06482609361410141
0.5741689801216125 0.2960003614425659 0.2624555230140686
0.09873181581497192 0.3998396396636963 0.0967620462179184
-0.5088357329368591 0.39333298802375793 -0.3125838339328766
0.09734143316745758 -0.6295255422592163 -0.2719159722328186
-0.4685974419116974 6.296252831816673e-05 -0.3760955333709717
-0.35672539472579956 0.032458484172821045 0.10708694159984589
0.07816058397293091 0.06853457540273666 0.46100491285324097
-0.5853378176689148 0.2442787140607834 0.28320324420928955
-0.5298687815666199 0.390601247549057 -0.07002682238817215
-0.5802061557769775 0.09570948034524918 0.32988837361335754
-0.3695935904979706 0.40077298879623413 -0.36884942650794983
0.32520169019699097 -0.622854471206665 -0.11716525256633759
0.2836255431175232 0.3978423774242401 0.18476656079292297
-0.41696661710739136 0.10594455897808075 -0.16416622698307037
0.28814348578453064 -0.6221742630004883 0.1771661341190338
-0.0348748043179512 -0.6251639723777771 0.056612323969602585
0.10809998959302902 0.4613448977470398 0.4281964898109436
0.014004643075168133 0.15173472464084625 0.376549631357193
0.24699683487415314 0.25257423520088196 0.3455544412136078
0.04813032224774361 0.000977219082415104 -0.26160573959350586
-0.12358559668064117 -0.5263750553131104 0.1510765701532364
0.21873849630355835 -0.3174695670604706 -0.3521227240562439
-0.37758803367614746 -0.05874786525964737 0.048697248101234436
0.10710008442401886 0.46013060212135315 0.4115176796913147
0.32379892468452454 0.3098636865615845 0.39091649651527405
-0.26032760739326477 0.2341766655445099 0.3396475613117218
0.21378779411315918 -0.6215323805809021 0.010326897725462914
0.2652782201766968 0.39025527238845825 -0.3940690755844116
0.5600923299789429 0.10972338914871216 -0.39726582169532776
0.44350725412368774 0.3979618549346924 -0.2564336359500885
-0.5108204483985901 0.24820558726787567 -0.40198400616645813
-0.4815334677696228 0.10173293948173523 0.18945451080799103
0.21007026731967926 0.2596069574356079 0.34479814767837524
0.38521286845207214 -0.6471830010414124 -0.03258391469717026
0.07571174204349518 -0.6234132647514343 -0.19855138659477234
0.41037696599960327 -0.00574000459164381 -0.18631963431835175
0.5815852880477905 0.1695786714553833 -0.0173637755215168
0.41120994091033936 -0.1527716964483261 -0.17937792837619781
0.16535834968090057 -0.2489076554775238 -0.3673264980316162
0.10581830143928528 0.0021165749058127403 0.018740979954600334
0.3431910276412964 -0.5420135259628296 0.13251881301403046
-0.31735074520111084 0.4069034159183502 -0.10975087434053421
-0.43124791979789734 0.39881592988967896 -0.047697167843580246
0.2425592541694641 0.3996644616127014 -0.1298580765724182
0.5244189500808716 0.010330083779990673 -0.39485228061676025
-0.06591561436653137 -0.354906290769577 0.2728630602359772
0.08579938113689423 0.0030447375029325485 0.2749284505844116
-0.06835779547691345 -0.6252402663230896 -0.16220775246620178
0.02072734571993351 0.2928861677646637 0.39871925115585327
0.31551286578178406 0.33843135833740234 -0.40070241689682007
0.43984436988830566 -0.2163453996181488 -0.08575776219367981
0.44278281927108765 0.000870763324201107 -0.26291370391845703
0.3326131999492645 0.25616657733917236 0.428523987531662
-0.4669390022754669 -0.11337728798389435 -0.3277977705001831
-0.36668509244918823 -0.002455728594213724 -0.3333449959754944
-0.43259477615356445 0.2416364550590515 0.3409945070743561
-0.27294284105300903 0.39726170897483826 -0.3646090626716614
-0.5201748013496399 -0.00022708624601364136 0.21481958031654358
-0.4515818655490875 0.09577631950378418 -0.4049403965473175
0.41028115153312683 0.39708560705184937 0.2913224697113037
-0.5767210721969604 0.31855812668800354 0.0899767130613327
0.38487473130226135 -0.623630166053772 0.009772936813533306
0.37130483984947205 0.04633049666881561 0.3421139717102051
0.12179794162511826 0.29743099212646484 -0.4004187285900116
0.5810602903366089 0.25873899459838867 0.10447204858064651
-0.5745713114738464 0.061787672340869904 -0.3304055333137512
0.00037736090598627925 0.00010997522622346878 -0.06560057401657104
-0.21479512751102448 0.00024800049141049385 -0.3215741515159607
-0.5476672053337097 -0.08287696540355682 0.13271312415599823
0.17211610078811646 0.0029478510841727257 -0.09156987071037292
0.13257266581058502 0.3987081050872803 0.012818769551813602
0.2009420394897461 -0.42546433210372925 0.2405017912387848
0.3197284936904907 0.0011387104168534279 -0.07960711419582367
0.2226373255252838 0.39946219325065613 0.27226704359054565
-0.09790679812431335 -0.1301756650209427 -0.3128010630607605
-0.17684704065322876 -0.5189116597175598 0.05098843201994896
0.3765786290168762 -0.45522570610046387 -0.12653501331806183
-0.3609338104724884 0.0037908300291746855 -0.012701369822025299
-0.06366203725337982 -0.6233363747596741 0.0063026282005012035
0.23098966479301453 -0.08222326636314392 0.41852104663848877
-0.5841266512870789 0.20594221353530884 -0.3309314548969269
-0.4535459578037262 -0.11390897631645203 0.10437960177659988
-0.03645019233226776 0.0011209424119442701 -0.27535098791122437
-0.5821976661682129 0.30809590220451355 0.2595219314098358
0.08555418252944946 0.13631120324134827 0.45943939685821533
-0.14448052644729614 0.0020891446620225906 -0.12584252655506134
0.05528508126735687 0.3613918423652649 -0.39993029832839966
-0.07217787951231003 -0.62477707862854 -0.009475333616137505
-0.16291485726833344 -0.650868833065033 -0.13615114986896515
-0.4527662992477417 0.049744755029678345 -0.40439340472221375
0.08031792938709259 0.1695614904165268 -0.4018210172653198
0.021870184689760208 0.40101152658462524 0.19988298416137695
0.0941578671336174 -0.6224352121353149 -0.03894004225730896
-0.507899820804596 0.3615474998950958 -0.13300727307796478
0.4151553511619568 -0.0031482107006013393 0.07224724441766739
0.026115668937563896 -0.6333295702934265 0.24580787122249603
-0.5830694437026978 0.3363896608352661 -0.20119726657867432
0.2755259871482849 0.028772039338946342 -0.40104877948760986
-0.5844703316688538 0.12377219647169113 -0.3126077651977539
0.09783948957920074 -0.01065114140510559 -0.37513405084609985
-0.20691260695457458 -0.0006219856441020966 -0.1090308427810669
0.09108284115791321 -0.621939480304718 0.016661575064063072
0.21051715314388275 0.15397755801677704 0.4624439477920532
0.017870141193270683 0.10973455011844635 0.35083073377609253
-0.5238457918167114 0.39815282821655273 0.21840538084506989
-0.024101553484797478 -0.36595621705055237 0.2862330377101898
0.045020751655101776 0.0012098024599254131 -0.09539267420768738
-0.23391635715961456 -0.024973122403025627 -0.11944140493869781
-0.19645483791828156 0.2230130136013031 0.3395719826221466
0.28784993290901184 0.3491690158843994 -0.3997492492198944
-0.5615394711494446 0.3783819377422333 0.023527875542640686
-0.5314576029777527 -0.0008054943755269051 0.3183435797691345
-0.5636917352676392 -0.04588303714990616 -0.3332091271877289
0.21940012276172638 -0.6262395977973938 -0.011504977941513062
-0.4633442759513855 -0.0003867293708026409 0.040949203073978424
0.11707355082035065 -0.6222786903381348 -0.23214489221572876
-0.0864330604672432 -0.20225423574447632 0.2585637867450714
0.20030808448791504 -0.6221984624862671 -0.207133486866951
-0.08519169688224792 -0.298313707113266 0.258976548910141
-0.23562368750572205 0.1067059189081192 -0.40251749753952026
0.5782845616340637 0.10580569505691528 -0.3875409662723541
-0.5757246017456055 0.044317327439785004 0.244072824716568
0.3237127959728241 -0.41051825881004333 -0.2172575742006302
0.5197891592979431 0.0044416096061468124 -0.10440189391374588
0.35468044877052307 0.3929249048233032 0.33261507749557495
-0.04520638287067413 -0.02016141638159752 -0.34034180641174316
-0.352821946144104 0.3063872456550598 0.34040316939353943
0.10101136565208435 0.15485994517803192 -0.4005027115345001
-0.2150690257549286 -0.2879507541656494 -0.17215414345264435
0.5789169073104858 0.1543414145708084 -0.10661114752292633
0.5828631520271301 0.26000699400901794 0.28210484981536865
-0.4048509895801544 0.30152884125709534 0.34162983298301697
-0.42571011185646057 0.026695499196648598 0.34530746936798096
-0.18712174892425537 -0.5746250152587891 -0.046612195670604706
0.08082302659749985 0.0014450028538703918 -0.056685034185647964
0.061344705522060394 0.001188488444313407 0.07753155380487442
-0.10750707238912582 -0.6249511241912842 -0.037331726402044296
-0.11693285405635834 -0.6296308040618896 0.06339205801486969
-0.009984433650970459 -0.6507861018180847 -0.2806066572666168
-0.25115203857421875 0.3291078805923462 0.33790791034698486
0.5774943828582764 0.04544231295585632 0.18197980523109436
0.01995265483856201 0.40120643377304077 0.06011687591671944
-0.4811651408672333 -4.350487142801285e-05 -0.16540104150772095
-0.17054212093353271 -0.000484648160636425 -0.23283237218856812
0.17866161465644836 0.0029453951865434647 0.1582358330488205
0.15847079455852509 0.003363632597029209 0.20718619227409363
-0.3798130452632904 -0.04003265127539635 -0.3872029483318329
0.28005340695381165 0.004087243229150772 0.12451630085706711
0.051629893481731415 -0.6214452385902405 -0.18461552262306213
-0.17102175951004028 -0.5746176242828369 -0.13137657940387726
0.2307586371898651 -0.39050450921058655 -0.2910185754299164
-0.4021472930908203 -0.09145654737949371 0.23090851306915283
-0.5734819173812866 0.06218329817056656 0.0018449213821440935
0.48392078280448914 0.3395065367221832 0.3441103398799896
-0.47044822573661804 0.0004926929250359535 -0.05518548935651779
0.30261170864105225 0.44514042139053345 0.35840946435928345
0.4170092046260834 -0.38321930170059204 -0.13768894970417023
0.579124391078949 0.13735829293727875 -0.06347315013408661
-0.35637366771698 -0.0017672041431069374 -0.17280548810958862
-0.537324070930481 -0.09123168140649796 0.13626381754875183
-0.3773534893989563 -0.0569218173623085 0.06850948929786682
-0.539750337600708 -0.0036379285156726837 -0.03806791827082634
0.07254856824874878 0.034433845430612564 0.3407241702079773
-0.5286309123039246 0.23192563652992249 -0.39756909012794495
0.07005923986434937 -0.5190607309341431 0.25660592317581177
-0.06238412857055664 -0.649751603603363 -0.21784761548042297
-0.10758130997419357 0.09848742187023163 0.3392592668533325
-0.4454789161682129 0.049655620008707047 0.35403379797935486
-0.1559123545885086 0.3992341458797455 -0.04365844652056694
0.26330605149269104 0.39792895317077637 -0.019720451906323433
-0.31526803970336914 0.2570642828941345 -0.4030451774597168
-0.03292500227689743 -0.11127868294715881 -0.34732678532600403
0.15983757376670837 -0.03807631507515907 0.3170505166053772
0.29245537519454956 0.36607125401496887 -0.39684876799583435
0.5853937864303589 0.14804638922214508 -0.23353329300880432
0.20706503093242645 -0.622686505317688 0.06755873560905457
-0.17796726524829865 -0.519050121307373 -0.1056564450263977
-0.18781885504722595 -0.32770925760269165 0.1572989523410797
0.3085092306137085 0.0023561776615679264 -0.1751483529806137
-0.18342739343643188 -0.6433547139167786 -0.056278206408023834
0.5633623003959656 0.39596226811408997 -0.35889121890068054
0.27616554498672485 0.25815796852111816 0.4588649868965149
-0.05224307253956795 -0.2762961685657501 -0.3344153165817261
-0.010118816047906876 0.0026096501387655735 0.2482433021068573
0.03727927803993225 -0.21113991737365723 -0.3648873567581177
0.575736403465271 0.19484762847423553 0.13498283922672272
-0.5629031658172607 0.2530204653739929 -0.401135116815567
-0.571099579334259 0.19408543407917023 -0.39975613355636597
0.21748967468738556 0.3719653785228729 0.45954200625419617
-0.23902133107185364 -0.040891021490097046 -0.10185179859399796
0.25047266483306885 0.3023900091648102 0.3404778242111206
0.23336495459079742 -0.04435279220342636 0.46003976464271545
-0.058748483657836914 -0.6277124285697937 0.13790008425712585
-0.3924708962440491 0.07571513950824738 -0.21003691852092743
0.19818326830863953 -0.37421751022338867 -0.34941574931144714
-0.31166887283325195 0.38158318400382996 -0.004906550049781799
-0.5023205280303955 -0.10709916800260544 0.029898181557655334
0.10293054580688477 0.021889450028538704 -0.4002792537212372
0.3959839940071106 -0.13926486670970917 -0.2173108160495758
0.07097803801298141 0.39925605058670044 0.07140324264764786
0.39966002106666565 -0.3826335668563843 0.00032249605283141136
0.5823151469230652 0.358696311712265 -0.2591042220592499
0.5803074836730957 0.07327798008918762 -0.0506422221660614
-0.4403001666069031 0.0894344374537468 0.038723692297935486
0.3054455816745758 -0.0024517695419490337 -0.27472710609436035
0.2377297282218933 0.09317699819803238 0.3386167883872986
0.2914949357509613 0.3572332262992859 0.4593198299407959
-0.5027878880500793 0.39610955119132996 0.1831803023815155
0.30986449122428894 0.0041923485696315765 -0.1523774266242981
0.2528565526008606 0.0021746999118477106 0.23476101458072662
0.44648250937461853 -0.2663690745830536 -0.0015071879606693983
0.15066151320934296 0.0021505476906895638 -0.0798092782497406
-0.5814117193222046 0.10397759824991226 -0.04864761233329773
-0.5854389071464539 0.30986276268959045 0.29495954513549805
0.2229304015636444 -0.22344855964183807 0.2919173240661621
0.23166963458061218 0.0032653696835041046 -0.01677776128053665
0.07901301234960556 0.12167522311210632 0.4614222049713135
-0.14850486814975739 0.39747485518455505 -0.38347968459129333
-0.11983185261487961 0.0003535137511789799 0.12959668040275574
-0.17054064571857452 -0.23864631354808807 -0.2503494620323181
-0.3487160801887512 0.3662630021572113 0.029587840661406517
0.37948837876319885 -0.09375990927219391 -0.232151597738266
0.2794207036495209 0.45887452363967896 0.36560994386672974
-0.007128326687961817 0.012009521946310997 -0.3921670615673065
0.5220717191696167 0.004841391928493977 0.14151228964328766
0.0341312475502491 0.0012736883945763111 -0.2715644836425781
-0.47676780819892883 -0.0007675578817725182 0.03711371868848801
-0.25644099712371826 0.33431705832481384 -0.4012484848499298
-0.4306856095790863 0.40030136704444885 0.25256606936454773
-0.2551988959312439 -0.00014353927690535784 0.07926937192678452
0.4277781546115875 -0.03078722022473812 -0.13086651265621185
0.5190286040306091 0.0027134940028190613 0.05639570951461792
0.24306423962116241 -0.5297511219978333 -0.2783721089363098
0.20277225971221924 -0.6220694184303284 -0.22618533670902252
-0.5674545168876648 0.3191207945346832 0.33541086316108704
-0.17694014310836792 -0.3781583905220032 0.14093835651874542
-0.42750731110572815 0.08232389390468597 0.33820635080337524
0.2428293526172638 -0.6171010136604309 -0.0020054220221936703
-0.1298508197069168 0.00010748994100140408 -0.2777429223060608
-0.4888175427913666 -0.10284163057804108 -0.15618059039115906
0.28238001465797424 -0.49657872319221497 0.19123218953609467
0.16180090606212616 0.0029121097177267075 -0.36190178990364075
0.25825145840644836 -0.6190460324287415 -0.028673099353909492
-0.2656747102737427 0.24509315192699432 -0.40162912011146545
0.4377097189426422 0.09333203732967377 -0.40044811367988586
-0.48086538910865784 0.11960557103157043 -0.25662726163864136
-0.2714563012123108 0.0022163372486829758 0.09465035051107407
0.004698112607002258 0.00013365037739276886 -0.08583338558673859
-0.10054101049900055 0.2574612498283386 0.3859114646911621
0.040029529482126236 0.39844855666160583 0.270650714635849
-0.054661113768815994 0.14568829536437988 0.37966087460517883
-0.5788389444351196 0.056510575115680695 0.10493624955415726
-0.5841467380523682 0.14227986335754395 0.11025028675794601
0.5784503221511841 0.13705140352249146 0.30685505270957947
0.09195896238088608 0.43890440464019775 0.43768802285194397
0.58006751537323 0.2153370976448059 -0.05248675495386124
0.2387327402830124 0.031674858182668686 0.46150752902030945
-0.17803236842155457 -0.4471457302570343 -0.09554984420537949
0.20153269171714783 0.39896485209465027 -0.0770931988954544
0.46305152773857117 0.39992043375968933 -0.11570193618535995
0.45062142610549927 0.38701310753822327 0.34246987104415894
-0.17429403960704803 0.14603698253631592 0.337153822183609
0.16052080690860748 0.036069996654987335 0.4622218608856201
-0.5200322866439819 0.10382737964391708 -0.135992169380188
0.33015528321266174 -0.21374139189720154 0.2261674404144287
-0.1403282880783081 0.08949916809797287 -0.40076830983161926
0.3363330066204071 0.29545140266418457 0.4052012264728546
0.1646794080734253 -0.6214022040367126 -0.0699273869395256
-0.14245110750198364 0.0004267478361725807 0.14655068516731262
-0.0053922394290566444 -0.597074568271637 0.2366710901260376
-0.190623477101326 0.0016406490467488766 -0.06277778744697571
-0.13584458827972412 0.0010095702018588781 0.06088508293032646
-0.1835661679506302 0.001561837736517191 -0.09658348560333252
-0.166983962059021 -0.38733163475990295 0.1173943430185318
0.3362583518028259 0.0802794024348259 0.35663482546806335
0.3875001072883606 -0.24553285539150238 0.16308097541332245
-0.16456298530101776 -0.3442991375923157 0.18855039775371552
-0.5621885657310486 0.35808706283569336 0.3314589858055115
0.22788242995738983 0.0011172061786055565 0.23316040635108948
-0.36704862117767334 -0.04015520587563515 0.021274670958518982
0.577256977558136 0.38775792717933655 0.009413103573024273
-0.01106372568756342 -0.62192702293396 -0.04969356581568718
0.301000714302063 -0.6241900324821472 -0.09744527190923691
-0.2051500827074051 -0.29667365550994873 -0.18150630593299866
-0.5836610198020935 0.3053954541683197 -0.049435053020715714
0.06560008972883224 0.0019552353769540787 0.13759543001651764
0.18944516777992249 -0.2298961579799652 -0.3655620813369751
0.04271334037184715 -0.18805044889450073 -0.3681280016899109
0.08807971328496933 -0.6235023736953735 -0.17965476214885712
0.36879876255989075 0.3995805084705353 -0.26855942606925964
0.4675295948982239 -0.0031258706003427505 -0.10216635465621948
-0.07403721660375595 0.0009640541393309832 0.14787127077579498
0.36469343304634094 -0.13908448815345764 -0.2515200972557068
0.18615636229515076 0.40067312121391296 -0.28422799706459045
0.4847189784049988 0.3120138645172119 -0.40045469999313354
0.04105621203780174 0.1281052827835083 0.34350258111953735
0.3134745955467224 -0.4157242476940155 0.16779689490795135
-0.4838157892227173 -0.11304040998220444 -0.3435211777687073
-0.012511779554188251 -0.0005550142377614975 0.17275840044021606
-0.41368240118026733 0.00033762946259230375 0.2083125114440918
-0.49460074305534363 0.05852682888507843 0.3461734652519226
-0.5779742002487183 0.1662180870771408 -0.11947751045227051
0.3051648437976837 -0.14476899802684784 -0.31745144724845886
0.15752239525318146 0.21703995764255524 0.3457237184047699
0.5771298408508301 0.33628755807876587 0.326751172542572
0.061036378145217896 -0.5947154760360718 0.2543356716632843
-0.07951917499303818 -0.004259421955794096 -0.2886437773704529
0.324453741312027 -0.3784782588481903 0.21162699162960052
0.5310396552085876 0.3984939455986023 0.06984344124794006
-0.32850897312164307 0.002867540344595909 0.030822262167930603
-0.3634026348590851 0.08521748334169388 0.3386378288269043
0.32029998302459717 -0.6246962547302246 -0.1271311491727829
0.2967468500137329 -0.6192540526390076 -0.048341330140829086
0.5781684517860413 0.10812292248010635 -0.11410865932703018
0.5328084230422974 0.4004242718219757 -0.2932097911834717
-0.056742310523986816 -0.056172925978899 -0.33304980397224426
0.29705142974853516 0.03997322544455528 0.45907139778137207
0.0468551367521286 -0.09488694369792938 -0.3691980838775635
0.2615867257118225 -0.5842964053153992 -0.26915648579597473
-0.5579176545143127 0.3755510747432709 0.32978373765945435
-0.4876733124256134 -0.10434840619564056 -0.03822636231780052
-0.5800290703773499 -0.012063156813383102 0.06813927739858627
-0.3867816925048828 0.25833505392074585 0.34237492084503174
-0.26981228590011597 0.4035317301750183 0.22950710356235504
-0.07049965113401413 0.1575777530670166 0.3436155319213867
0.2521587014198303 0.0025055287405848503 -0.38414040207862854
0.44621598720550537 0.3994368314743042 -0.1233672946691513
-0.10682962834835052 0.36972522735595703 0.33784985542297363
0.4187234938144684 0.39973410964012146 -0.12754327058792114
0.18668563663959503 -0.08113782107830048 0.37493404746055603
0.36520951986312866 0.007721925154328346 0.3362969160079956
0.10159420967102051 0.0008741947822272778 0.132608562707901
0.07474381476640701 -0.5050437450408936 0.2592031955718994
0.15211594104766846 0.06659391522407532 0.46053558588027954
0.4503651261329651 0.3983309864997864 0.18300552666187286
-0.584412157535553 0.13716331124305725 0.17312081158161163
-0.08924400806427002 0.38454145193099976 0.33803218603134155
-0.44462850689888 0.2411291003227234 -0.4023338854312897
-0.2960386276245117 0.03477651998400688 -0.40045759081840515
-0.3846784234046936 0.0024892021901905537 0.1409570723772049
0.13598701357841492 -0.6461105346679688 -0.26957687735557556
0.342771053314209 0.0021495544351637363 -0.16660813987255096
0.2756670117378235 0.0026376117020845413 -0.21355289220809937
-0.0947132334113121 0.2679544687271118 0.393815815448761
-0.43909111618995667 0.002709047868847847 0.14902876317501068
0.015940086916089058 -0.4731059968471527 0.24700461328029633
0.2855280637741089 -0.0004910361021757126 0.32694220542907715
-0.03523613512516022 -0.6242050528526306 -0.20863021910190582
0.3679136037826538 -0.4674285352230072 0.07952893525362015
0.20439264178276062 -0.11316545307636261 0.3001226484775543
0.268278032541275 -0.00041293539106845856 -0.32942959666252136
-0.5555195808410645 -0.06878096610307693 -0.2818215787410736
0.3692861497402191 -0.45643776655197144 -0.13045133650302887
0.4953802525997162 0.4001625180244446 -0.31360629200935364
0.09865009784698486 0.28409793972969055 0.4611299932003021
0.5775803327560425 0.2716061472892761 -0.047861985862255096
-0.5484757423400879 0.3864133954048157 0.2926439940929413
-0.21983595192432404 -0.03529421240091324 0.08022727817296982
0.13968421518802643 -0.6337080597877502 -0.265820175409317
-0.10015490651130676 -0.40984049439430237 0.17427414655685425
-0.043878208845853806 -0.6224795579910278 0.060268204659223557
0.42725685238838196 0.24725215137004852 -0.4001726508140564
0.0848931148648262 -0.0002535879611968994 0.13388961553573608
0.1096482127904892 0.0015985618811100721 0.09713173657655716
-0.04573613032698631 0.0020201364532113075 -0.012093013152480125
0.239660382270813 0.27275919914245605 0.46183326840400696
0.5765090584754944 0.3277074992656708 -0.06140105426311493
0.57014000415802 0.015380104072391987 0.2057514488697052
-0.05743281915783882 0.39668506383895874 0.28601282835006714
0.037922702729701996 0.000490298611111939 -0.13176089525222778
-0.16336378455162048 -0.00507814297452569 0.1920849233865738
0.025493793189525604 -0.5315094590187073 -0.30364108085632324
-0.4326951205730438 0.3740085959434509 -0.18206366896629333
-0.058513980358839035 0.13670209050178528 0.33996808528900146
0.3193225562572479 -0.6252239346504211 0.05766035616397858
0.0317210890352726 0.0012912573292851448 0.11718284338712692
0.5825509428977966 0.28613898158073425 0.2803991436958313
0.2230222076177597 -0.6210410594940186 -0.22453704476356506
-0.033955127000808716 0.39766424894332886 0.29208582639694214
-0.5581018924713135 0.03716240078210831 0.33890971541404724
-0.5794721245765686 0.03299783915281296 0.028264138847589493
0.4322848618030548 -0.023256370797753334 0.05498915910720825
-0.5819284915924072 0.17661474645137787 0.14411117136478424
-0.3722040057182312 0.059332046657800674 0.10302768647670746
0.16857795417308807 -0.004815954715013504 0.30454888939857483
0.1388029009103775 -0.07208319753408432 0.4422833025455475
0.5674050450325012 0.3892243504524231 0.2580379545688629
0.4255037009716034 -0.0002276841551065445 -0.11940719932317734
-0.002240161644294858 0.3988313376903534 0.26972267031669617
0.25632503628730774 -0.00015260372310876846 -0.35141611099243164
0.10831926763057709 -0.6261199116706848 -0.2639538645744324
-0.2599046528339386 0.0015407102182507515 -0.24002617597579956
0.05553045868873596 0.29374730587005615 -0.40040329098701477
0.5780109763145447 0.27358800172805786 -0.2529314160346985
-0.37649714946746826 0.0033745067194104195 -0.26419588923454285
0.48375019431114197 0.00027963053435087204 -0.2786780595779419
-0.5756972432136536 0.0308701079338789 -0.025182394310832024
-0.15320539474487305 0.3990023136138916 -0.25667744874954224
0.3276079297065735 -0.37517496943473816 -0.2506680190563202
0.42026275396347046 -0.2769128084182739 0.10273218154907227
-0.5014176368713379 0.11536676436662674 -0.096217080950737
0.2310723215341568 0.003016956150531769 0.3305494487285614
-0.4032231271266937 0.41833624243736267 -0.07690761983394623
-0.06743646413087845 0.00042707379907369614 -0.1320989727973938
0.2731497883796692 0.0022228951565921307 -0.08455565571784973
0.5743464827537537 0.38156619668006897 -0.3271515369415283
-0.1175275668501854 -0.5848649740219116 -0.22231267392635345
-0.29673463106155396 0.23185235261917114 -0.4028540253639221
-0.548330545425415 0.32143285870552063 0.3378998339176178
0.4461682140827179 -0.0029425087850540876 0.18143577873706818
-0.055424779653549194 0.0021735765039920807 -0.024215728044509888
0.11085934191942215 -0.24760454893112183 -0.37357571721076965
0.576042115688324 0.37389615178108215 -0.05256599187850952
0.03747965022921562 -0.06590500473976135 0.31102651357650757
0.1908506453037262 0.39773041009902954 0.033873625099658966
-0.49219661951065063 0.1053563579916954 -0.36856013536453247
0.12223269790410995 0.0019154082983732224 -0.016516510397195816
0.43516507744789124 -0.0003646053373813629 0.048023685812950134
-0.09096657484769821 0.0018658414483070374 0.08740885555744171
-0.17764709889888763 -0.1438383162021637 -0.22770531475543976
-0.3074401915073395 0.15208907425403595 -0.4046802222728729
0.45113223791122437 -0.0015524793416261673 0.30962803959846497
-0.3392861783504486 0.20288698375225067 0.3411743640899658
0.4459756910800934 -0.19032584130764008 -0.019466601312160492
-0.44541504979133606 -0.00041913503082469106 -0.17022088170051575
-0.00742856040596962 -0.6242039799690247 -0.005945532117038965
-0.40700531005859375 0.002888830378651619 -0.20609760284423828
0.5814425349235535 0.04666079580783844 -0.17292219400405884
0.5215274095535278 0.001840515062212944 -0.3396853506565094
0.10799884796142578 -0.6255335211753845 -0.24164153635501862
-0.042747613042593 -0.0036824247799813747 -0.3349272906780243
0.34813424944877625 -0.38845294713974 0.1429472267627716
0.01178007759153843 -0.6554125547409058 0.22257645428180695
0.11002428829669952 -0.1755836308002472 0.3172453045845032
-0.22417500615119934 -0.3780079483985901 0.006537644192576408
-0.47845399379730225 0.10141550004482269 0.03829800337553024
-0.579163670539856 0.08355674892663956 0.2637835144996643
0.394008070230484 0.39890727400779724 -0.032230135053396225
-0.20963966846466064 -0.3314569890499115 -0.17701764404773712
-0.12276338040828705 -0.6581429243087769 0.1236916109919548
0.06285278499126434 0.0014948826283216476 -0.12466016411781311
0.33719730377197266 -0.6266204714775085 0.017173422500491142
0.02439054846763611 -0.28530263900756836 0.3057493269443512
-0.11053044348955154 -0.3824079632759094 -0.24130995571613312
0.43872687220573425 -0.18595044314861298 -0.10639684647321701
-0.025344084948301315 -0.6232307553291321 0.14675188064575195
0.35288795828819275 0.0008695051074028015 0.1792205423116684
0.12629395723342896 0.3991457223892212 -0.2018967568874359
-0.48815613985061646 0.0746021494269371 -0.40300261974334717
-0.5803959965705872 0.04787945747375488 0.13010725378990173
0.15111739933490753 0.1435842514038086 -0.39963436126708984
0.5242384076118469 0.39712661504745483 -0.07891716808080673
0.5820469856262207 0.2178768813610077 0.19329530000686646
-0.13847531378269196 -0.6343660354614258 0.04607473313808441
0.09509581327438354 0.0005347495898604393 -0.24201804399490356
-0.5785102248191833 0.012488862499594688 0.07797520607709885
0.29272258281707764 -0.019815897569060326 0.4599657356739044
0.5475180149078369 0.22661584615707397 0.34238898754119873
-0.42130979895591736 -0.0942571833729744 0.10355472564697266
0.24759875237941742 -0.04685020446777344 0.3191725015640259
0.5774617791175842 0.12818913161754608 0.19460967183113098
0.32438045740127563 0.39821481704711914 0.16987918317317963
0.3286822736263275 0.3976004421710968 0.41228601336479187
-0.31563708186149597 0.40575262904167175 -0.08789841830730438
-0.16923627257347107 0.4011208415031433 -0.21368670463562012
0.006978892721235752 0.3856297433376312 -0.39835265278816223
0.5734297037124634 0.3718266785144806 -0.15768294036388397
-0.10341747105121613 -0.6247537136077881 0.009614626877009869
0.018707282841205597 -0.6242856383323669 -0.008509594015777111
0.5810450315475464 0.18235118687152863 -0.32769304513931274
-0.06670843064785004 0.39009520411491394 0.33114850521087646
-0.5878414511680603 0.21507732570171356 0.18284067511558533
0.2429042011499405 0.39889413118362427 -0.03644977882504463
-0.5754727125167847 0.08289480954408646 -0.08653685450553894
-0.17090922594070435 -0.6559658646583557 0.04313114285469055
0.5099388360977173 0.26525697112083435 0.3409338891506195
0.11507853865623474 -0.37482574582099915 0.296825110912323
0.36350250244140625 0.12872248888015747 -0.40180304646492004
0.10984950512647629 -0.3527570962905884 -0.37310752272605896
-0.48651790618896484 0.3620283603668213 -0.1540151834487915
-0.31924715638160706 0.39313170313835144 -0.2126142382621765
-0.5144147872924805 0.3955772817134857 0.1492965668439865
0.20607158541679382 -0.0005043968558311462 0.16122692823410034
0.1039590984582901 0.4000617563724518 -0.23679260909557343
-0.22705836594104767 -0.26646164059638977 -0.14193503558635712
0.16520491242408752 0.028908252716064453 0.33671560883522034
-0.5014980435371399 0.35271379351615906 -0.09468384832143784
0.07269906997680664 -0.6200443506240845 -0.2650662362575531
-0.1816704273223877 0.0002500982955098152 -0.2900644540786743
-0.5800150632858276 0.025903983041644096 0.09891863167285919
0.11565756052732468 -0.6486804485321045 -0.29507023096084595
0.32824841141700745 0.0008169403299689293 -0.21454697847366333
0.40737810730934143 -0.3688701391220093 -0.17636293172836304
0.38851597905158997 -0.42176923155784607 -0.046228233724832535
0.07424098253250122 0.09334412962198257 -0.40031394362449646
0.5013181567192078 0.40196171402931213 -0.28097620606422424
0.2709551453590393 0.3979066014289856 0.13946886360645294
0.3348958194255829 -0.3136756122112274 -0.2815369665622711
-0.20294106006622314 -0.11463097482919693 -0.18678854405879974
-0.5145686268806458 0.0004859300097450614 -0.17829091846942902
-0.13561928272247314 0.08014232665300369 0.3403932750225067
-0.07185059040784836 0.3986477255821228 -0.2667334973812103
0.3632478713989258 -0.5476771593093872 -0.15358656644821167
0.1682233214378357 -0.2918756604194641 -0.36810430884361267
-0.012073645368218422 -0.360358327627182 0.29233649373054504
0.17680825293064117 0.0019071190617978573 0.02159203588962555
-0.07377273589372635 0.23439054191112518 -0.40254729986190796
0.42407312989234924 -0.0008073123171925545 -0.15462316572666168
0.38783371448516846 -0.5779249668121338 0.022364895790815353
0.36643192172050476 -0.1445479393005371 0.19192498922348022
-0.5650076866149902 0.3599412143230438 0.13890781998634338
0.19065561890602112 0.39907175302505493 -0.1858961433172226
0.43667295575141907 -0.22182400524616241 0.05583208054304123
0.3211301863193512 -0.6231241226196289 -0.10386484116315842
-0.5077306032180786 0.3950662314891815 -0.1855880469083786
-0.3576076030731201 -0.0038054375909268856 0.024656521156430244
0.47903749346733093 0.4008767902851105 -0.1924016922712326
0.1816895753145218 -0.34033480286598206 -0.36532697081565857
-0.14271710813045502 -0.28292202949523926 -0.2784475088119507
0.44749119877815247 -0.24807804822921753 -0.03503596782684326
0.5176926255226135 0.39984771609306335 -0.23585990071296692
0.26243171095848083 0.002626846544444561 -0.1554969698190689
-0.5801611542701721 0.048096831887960434 0.02683437056839466
0.045545559376478195 0.4001586139202118 0.17126503586769104
0.0315699577331543 0.0022909240797162056 0.08001315593719482
0.4363495707511902 -0.07199201732873917 -0.11548646539449692
0.30323120951652527 0.3979036211967468 0.017077594995498657
0.42187803983688354 -0.3362385928630829 -0.15540124475955963
-0.5096937417984009 -0.10491254925727844 0.15444092452526093
