-0.5357187390327454 0.009877891279757023 -0.16686300933361053
0.32947367429733276 -0.1400120109319687 0.20976901054382324
0.2349921315908432 -0.2683706283569336 -0.3566652238368988
-0.022921506315469742 0.0018375834915786982 0.32771486043930054
-0.5544130802154541 -0.04838522523641586 0.07914663851261139
0.32651472091674805 0.24748322367668152 0.35953518748283386
0.14538031816482544 -0.3793748617172241 -0.3531627058982849
-0.4538082480430603 0.10974974185228348 0.11759760975837708
-0.4351401627063751 -0.004023464396595955 -0.3960942029953003
0.4850815236568451 0.25120142102241516 0.3468165695667267
0.31394848227500916 0.40881961584091187 -0.1751227080821991
-0.13961178064346313 0.0016834423877298832 -0.013231740333139896
0.13852883875370026 0.18627715110778809 0.35585612058639526
-0.5097460746765137 -0.11284860223531723 -0.11903896927833557
0.07330165058374405 -0.5107758045196533 0.251160591840744
0.13287045061588287 0.304460346698761 0.354337215423584
-0.5666670799255371 0.1579611450433731 -0.1571289300918579
0.1705332249403 0.0022390829399228096 0.2399527132511139
0.17983289062976837 -0.6191914677619934 -0.10479333251714706
-0.5923396944999695 0.09109736979007721 -0.030421774834394455
0.40310075879096985 -0.35581350326538086 -0.21986529231071472
0.11389955878257751 -0.0006844016606919467 -0.3087036907672882
-0.1419956386089325 -0.1602432131767273 -0.268577516078949
-0.28512415289878845 0.38559582829475403 0.10290847718715668
0.024289337918162346 0.1295301616191864 0.3750789761543274
0.36191776394844055 0.0019420888274908066 -0.11239401251077652
0.016706230118870735 -0.5271105170249939 -0.3086768686771393
0.30905938148498535 0.38826784491539 0.3608052730560303
0.3390500843524933 0.2940603494644165 0.3404938578605652
-0.023771367967128754 0.3999236226081848 -0.03944174572825432
-0.22586730122566223 -0.20042790472507477 -0.14622025191783905
0.05364155024290085 -0.0004065372049808502 0.3325807750225067
0.5431724786758423 0.020844917744398117 0.3388397693634033
-0.579184889793396 0.053563687950372696 0.15601815283298492
-0.5666451454162598 -0.03405081480741501 -0.3308655619621277
-0.10844787955284119 -0.29496216773986816 -0.3052424192428589
-0.5514068007469177 0.25848183035850525 0.34165874123573303
-0.08087657392024994 0.0011934535577893257 -0.2860308587551117
0.25830134749412537 -0.00010107224807143211 -0.3451225161552429
-0.5770962238311768 -0.017389584332704544 -0.30618879199028015
0.02222897671163082 0.00011331122368574142 -0.2233559787273407
-0.0037837657146155834 -0.0008018272928893566 -0.34502914547920227
0.37551844120025635 -0.5736317038536072 0.06734509021043777
-0.30817466974258423 0.4081609845161438 -0.018420323729515076
0.3210168480873108 0.1459389179944992 0.4450615644454956
0.12712937593460083 0.2902153730392456 0.34930720925331116
-0.019605174660682678 0.004323550499975681 0.2512322962284088
-0.11465755105018616 -0.043599724769592285 0.23013563454151154
0.1357855200767517 -0.6190672516822815 0.17972373962402344
-0.574212372303009 0.23673120141029358 -0.047141894698143005
0.20382285118103027 0.23393024504184723 0.35443973541259766
0.12208275496959686 0.18638454377651215 0.4768840968608856
0.2518802583217621 0.4018746614456177 -0.11773068457841873
0.1328466236591339 -0.6307220458984375 -0.3061468303203583
-0.1754951775074005 0.39385703206062317 -0.3848944306373596
-0.10416948050260544 0.22656017541885376 0.3508158028125763
0.31126493215560913 0.4061504602432251 -0.27218514680862427
0.29770565032958984 -0.6230810284614563 -0.031130563467741013
-0.21087689697742462 0.0011792085133492947 -0.05266571044921875
-0.007936516776680946 -0.0012714304029941559 -0.3014162480831146
0.07779784500598907 -0.6153080463409424 0.019502228125929832
-0.45229512453079224 -0.1099047064781189 0.11175436526536942
0.5527362823486328 0.01614621840417385 0.3248089849948883
0.1301288604736328 0.0020619239658117294 0.03996578976511955
0.023042602464556694 -0.0007371348328888416 -0.342924565076828
-0.0907575786113739 0.0024131033569574356 0.027160027995705605
0.25559839606285095 0.4496878683567047 0.4009092152118683
0.16971386969089508 -0.3731957674026489 0.28919315338134766
0.0733252689242363 0.03714572265744209 -0.3978535234928131
-0.41868022084236145 -0.005745811387896538 -0.02569793164730072
-0.37286314368247986 -8.468274609185755e-05 0.0057329535484313965
0.045812368392944336 0.3886435627937317 -0.2928415536880493
0.22227545082569122 0.002650344278663397 0.13194234669208527
0.12543612718582153 -0.6334763765335083 0.09510747343301773
0.05286932364106178 0.002551696728914976 0.1357194036245346
0.42553550004959106 -0.31200724840164185 0.05445115268230438
0.3877757787704468 -0.27797695994377136 -0.24866990745067596
0.022015022113919258 0.3906666338443756 0.05286773666739464
0.29086291790008545 -0.44933947920799255 0.19494542479515076
-0.45829442143440247 0.3621472418308258 -0.1965685337781906
-0.2813612222671509 0.37650156021118164 -0.10729244351387024
0.22855210304260254 -0.00036184024065732956 0.19429664313793182
-0.5641505122184753 0.008755379356443882 0.08056211471557617
0.38098204135894775 0.0007098373025655746 0.13245436549186707
0.04179714620113373 -0.0222144965082407 0.33681565523147583
0.43109235167503357 -0.2055484652519226 0.06842003017663956
0.5014498829841614 0.37150856852531433 0.34663230180740356
-0.1985168159008026 0.40751099586486816 0.33163613080978394
-0.163887619972229 -0.4612659215927124 0.11136690527200699
0.5873503684997559 0.06021414324641228 0.31560662388801575
0.17744548618793488 -0.09675009548664093 0.3159060478210449
-0.4636346697807312 0.3510459065437317 0.024184931069612503
-0.5616309642791748 0.07527314126491547 0.18142801523208618
0.2677958905696869 0.06701002269983292 0.35592976212501526
-0.3606618046760559 0.014886226505041122 -0.3326611816883087
-0.4757002890110016 -0.09919000416994095 0.2164711207151413
-0.40596967935562134 0.09231167286634445 -0.04924105480313301
0.5883985161781311 0.23673847317695618 -0.38480889797210693
0.16812153160572052 0.002958464901894331 0.29510602355003357
0.011362498626112938 -0.5563608407974243 -0.2991366684436798
0.38258981704711914 -0.37916478514671326 -0.12839193642139435
0.08138919621706009 0.4005867540836334 0.4608694314956665
0.0858115553855896 -0.6247524619102478 0.11382652074098587
-0.27405378222465515 0.3877697288990021 0.0386197566986084
-0.09827622026205063 -0.32384192943573 0.24734893441200256
-0.339968740940094 -0.0006842417642474174 0.2154896855354309
0.22304196655750275 0.0026429807767271996 -0.13096556067466736
0.5476654171943665 0.39477071166038513 0.07401608675718307
-0.42122796177864075 -0.006020774133503437 0.30207911133766174
-0.45194804668426514 0.40545690059661865 0.09731996059417725
-0.5758596062660217 0.06125612184405327 -0.21604172885417938
0.5667867064476013 0.008905959315598011 0.1374811828136444
0.04888815060257912 0.0022336570546031 -0.01749417372047901
0.5852011442184448 0.2991640567779541 0.186256542801857
-0.011824790388345718 -0.6165989637374878 0.11272647231817245
0.10068745166063309 -0.6275414824485779 -0.045903224498033524
0.3774262070655823 -0.34105539321899414 -0.24210794270038605
-0.5933762192726135 0.33961236476898193 -0.17611844837665558
-0.050320692360401154 -0.31750962138175964 0.2630370557308197
0.19332033395767212 -0.44681182503700256 -0.3035183548927307
0.5424375534057617 0.18979567289352417 -0.39857253432273865
0.17236319184303284 0.07242591679096222 0.45463958382606506
0.2715359926223755 0.05060228705406189 0.3399849534034729
-0.14633838832378387 -0.09267530590295792 0.19377394020557404
-0.1336584985256195 -0.1715831458568573 0.21271389722824097
-0.2923860251903534 0.0008291397243738174 0.029409900307655334
0.00847143866121769 0.02621549367904663 0.353934645652771
-0.010236789472401142 0.0021621575579047203 0.06333944201469421
-0.037838444113731384 0.0016295211389660835 0.1300649791955948
0.21354521811008453 -0.3194129765033722 -0.3553590774536133
0.22645920515060425 0.24367018043994904 0.4621981382369995
0.27828970551490784 -0.4279950261116028 0.1982189267873764
-0.20268256962299347 -0.2955508530139923 0.13455013930797577
-0.09602929651737213 0.3872169852256775 0.254704087972641
0.5508926510810852 0.4038184583187103 0.0690128281712532
0.37241330742836 0.0018027962651103735 0.3005056381225586
0.28792670369148254 0.027971480041742325 -0.397661417722702
0.07119263708591461 0.0008379062637686729 0.21885669231414795
0.5736706256866455 0.14028146862983704 0.29937610030174255
0.17416368424892426 0.16607758402824402 0.34727710485458374
0.3244870603084564 0.3914836049079895 0.3485514223575592
-0.40896692872047424 -0.008249255828559399 -0.0016217860393226147
-0.11380898207426071 -0.6341798305511475 -0.0030471456702798605
0.0694509893655777 0.057646073400974274 -0.38821175694465637
-0.05215004086494446 -0.6220788955688477 -0.18461422622203827
-0.4098913073539734 0.00782554317265749 0.049898337572813034
0.2236880213022232 0.002395063638687134 0.19460426270961761
0.5339481830596924 0.0039046695455908775 0.29423272609710693
0.5830837488174438 0.02596953697502613 0.10437412559986115
0.1549413502216339 0.4043123722076416 0.3430001139640808
-0.44663211703300476 -0.0008688487578183413 0.3537347614765167
-0.23729059100151062 -0.08659274876117706 0.06432788819074631
0.4637705385684967 0.3946029543876648 0.18296478688716888
-0.24498838186264038 0.006514040753245354 -0.3326350748538971
0.2209463268518448 -0.6480972170829773 -0.2879447042942047
0.2914001941680908 -0.5376399159431458 0.1830446422100067
-0.13505204021930695 0.2022266983985901 0.34480103850364685
0.16316665709018707 -0.0023006880655884743 -0.2499079704284668
0.2012566179037094 0.09245901554822922 -0.3917781710624695
-0.44067704677581787 0.40693411231040955 -0.39931023120880127
-0.10424995422363281 -0.6176087856292725 0.0516139380633831
-0.043238524347543716 -0.0022772271186113358 -0.24785089492797852
0.15043896436691284 -0.019290387630462646 0.4693461060523987
-0.5934326648712158 0.25858166813850403 -0.07185743749141693
0.5537247657775879 0.002206282690167427 0.25211894512176514
-0.2903921604156494 0.004954378120601177 0.2450401484966278
-0.1787032037973404 -0.11298008263111115 -0.22951939702033997
-0.39503663778305054 0.002188980346545577 -0.010279479436576366
-0.1408185064792633 -0.00016183685511350632 -0.34612953662872314
-0.5578134655952454 0.04898852854967117 -0.05846422538161278
0.028184184804558754 0.32419553399086 0.4140785038471222
0.10058486461639404 -0.33543509244918823 0.30320772528648376
0.3100985288619995 -0.6184162497520447 -0.17322400212287903
-0.5627615451812744 0.3761860132217407 -0.37881070375442505
0.17385470867156982 0.2221331000328064 0.34641385078430176
-0.3852525055408478 0.40873682498931885 -0.07950713485479355
-0.4200228750705719 0.13216938078403473 -0.40369516611099243
0.20134679973125458 -0.6298108100891113 0.005695534870028496
-0.30594781041145325 0.005537920631468296 -0.12718908488750458
-0.08332133293151855 0.3884948194026947 0.255874902009964
-0.46495652198791504 0.40070265531539917 0.19928044080734253
0.5518122911453247 0.1417195349931717 0.32801973819732666
0.16210976243019104 -0.42331454157829285 0.25287508964538574
-0.1926528513431549 0.0017360672354698181 0.27529019117355347
0.5254074335098267 0.4075494706630707 0.04294062778353691
-0.49586260318756104 0.08553136885166168 0.3441227376461029
-0.5667560696601868 0.3323591351509094 -0.2632600963115692
0.1675257831811905 -0.002396454568952322 0.32006701827049255
-0.13870741426944733 -0.5781239867210388 0.12899792194366455
0.22525162994861603 0.004660408012568951 0.27094417810440063
0.15837256610393524 -0.22647757828235626 -0.36900094151496887
-0.06872604042291641 -0.2189512848854065 0.27822262048721313
-0.565324068069458 0.2137700766324997 0.31637904047966003
0.1368047595024109 -0.618892252445221 0.062058039009571075
0.35567396879196167 -0.26025813817977905 0.20531857013702393
-0.29658016562461853 0.3775050640106201 -0.06323689967393875
0.3228687644004822 -0.5266128182411194 -0.2244289666414261
0.22869111597537994 -0.3416537046432495 -0.35012462735176086
-0.23852315545082092 0.12918278574943542 0.3481399714946747
-0.5411528944969177 0.010393415577709675 -0.32319945096969604
0.24196645617485046 -0.2804313600063324 0.2856021821498871
-0.34454044699668884 0.005037855822592974 0.12508460879325867
-0.08692878484725952 -0.0030997060239315033 0.26092734932899475
-0.5564683079719543 -0.05279522389173508 -0.2894677221775055
0.4339877963066101 0.21921977400779724 0.33182206749916077
0.5687016844749451 0.22528229653835297 0.145826056599617
0.32163205742836 0.0006704726256430149 -0.36133038997650146
0.20300661027431488 0.006795553490519524 -0.27775824069976807
-0.3447434902191162 0.1160895824432373 -0.409647673368454
0.5890688896179199 0.1281004399061203 0.1901232898235321
0.15991900861263275 -0.6115987300872803 -0.22882485389709473
-0.4081665873527527 -0.08866401016712189 -0.38604238629341125
-0.4450036883354187 -0.10897477716207504 -0.07318056374788284
0.5806159377098083 0.09726769477128983 0.28316164016723633
0.584284245967865 0.21191291511058807 0.2620690166950226
-0.23394638299942017 -0.06041037291288376 -0.11003172397613525
0.5536442995071411 0.002811253536492586 -0.3650025427341461
0.1085435301065445 0.40621140599250793 -0.25883638858795166
-0.3176913261413574 -0.0015392228960990906 0.10086967051029205
-0.5721505284309387 0.33800217509269714 0.027288837358355522
0.5684758424758911 0.3603733479976654 -0.13221536576747894
0.07124313712120056 0.020696746185421944 0.46709033846855164
0.15653161704540253 -0.3853159248828888 -0.33732056617736816
0.12040948122739792 -0.41477352380752563 -0.32050180435180664
-0.5700094103813171 0.021050866693258286 0.29222211241722107
-0.5351873636245728 0.004900142550468445 0.20448724925518036
-0.418198823928833 0.3270152509212494 -0.3999861776828766
0.018366334959864616 0.36611318588256836 0.44476473331451416
0.2768382728099823 0.21397551894187927 0.47091615200042725
0.5274167656898499 0.4075259864330292 -0.1351899653673172
0.34135082364082336 -0.6553849577903748 -0.045208536088466644
0.314504474401474 0.003699681954458356 0.3544371724128723
0.20078451931476593 -0.6143076419830322 -0.2906656265258789
0.08939241617918015 0.045975442975759506 0.47351551055908203
-0.11014264822006226 -0.4961712956428528 0.17811617255210876
0.23098865151405334 0.12610070407390594 0.342281311750412
-0.4430886507034302 0.4112338721752167 -0.03855779767036438
0.42905721068382263 0.0003608977422118187 -0.1417236477136612
0.1880292147397995 0.3927643597126007 0.004546834621578455
-0.027743656188249588 0.17262063920497894 0.40636706352233887
0.07458113878965378 -0.6131038069725037 -0.08055387437343597
0.033501848578453064 0.13340330123901367 0.41432303190231323
0.03822663053870201 -0.642009437084198 0.2401524782180786
0.0047411248087882996 -0.23169666528701782 -0.36822444200515747
-0.5836788415908813 0.004125822335481644 -0.2235032469034195
-0.4426683783531189 0.18826749920845032 0.3457203805446625
-0.045053210109472275 -0.6004823446273804 -0.277182936668396
0.3344566822052002 -0.06319486349821091 0.21341639757156372
-0.17162774503231049 -0.29342448711395264 0.17305253446102142
0.050369344651699066 0.0033176811411976814 0.08636898547410965
-0.12189700454473495 0.15105202794075012 0.34077537059783936
-0.2200808823108673 -0.04601610079407692 -0.1291988343000412
0.24373233318328857 -0.4639448821544647 -0.2816033959388733
0.2958664000034332 -0.6300398707389832 0.015318196266889572
-0.4343279302120209 0.011729640886187553 0.31800347566604614
-0.5193476676940918 -0.083249032497406 -0.10255607217550278
0.3630109131336212 0.3925786316394806 0.13005882501602173
-0.4350786507129669 -0.0752524882555008 0.3438166379928589
-0.5088303089141846 -0.10364393144845963 -0.05914678797125816
-0.15267114341259003 0.0018264250829815865 -0.025806790217757225
-0.47463300824165344 0.021453123539686203 0.34878334403038025
0.2035396546125412 -0.5615178942680359 0.2539117634296417
0.24054253101348877 -0.12205832451581955 0.2918241322040558
-0.17309004068374634 -0.5367879867553711 -0.15365982055664062
-0.5607479810714722 0.0404018834233284 -0.16615964472293854
-0.39695215225219727 -0.084801584482193 0.3155662417411804
0.22522875666618347 -0.6283107399940491 0.18048402667045593
-0.12109554558992386 0.00026219524443149567 0.23009629547595978
0.25753411650657654 0.013815842568874359 0.3322419226169586
0.41278553009033203 -0.21650105714797974 -0.13450391590595245
0.4885023534297943 0.19673806428909302 -0.4098251461982727
0.19591572880744934 0.17658016085624695 -0.39857780933380127
0.5688226222991943 0.14440777897834778 0.2252398431301117
-0.39527788758277893 0.08318935334682465 -0.2586946189403534
-0.06092468276619911 -0.3731718361377716 0.2039365917444229
-0.5936722755432129 0.18254253268241882 -0.30454039573669434
-0.3815928101539612 0.2552115321159363 0.33737972378730774
0.5687208771705627 0.06935397535562515 0.0746743455529213
0.38519614934921265 -0.3726350963115692 0.13515768945217133
-0.5847076773643494 0.36215662956237793 -0.18207073211669922
-0.575702965259552 0.09114276617765427 0.17290984094142914
-0.5785475373268127 -0.04651980474591255 0.28461316227912903
0.3096574544906616 0.23866717517375946 0.38599303364753723
0.567410945892334 0.3059636950492859 0.19170203804969788
0.2606044113636017 0.3477747440338135 0.3440191149711609
0.4365304708480835 0.40323224663734436 0.16765062510967255
-0.44261497259140015 0.20894423127174377 0.3453671336174011
0.04034147039055824 -0.0015844488516449928 -0.32058751583099365
-0.5573598742485046 0.06652770936489105 0.07690072804689407
-0.18358375132083893 -0.0005787138361483812 -0.24722802639007568
0.03732949122786522 -0.528706431388855 -0.2953191101551056
0.30167877674102783 -0.6236253976821899 -0.10823570191860199
-0.1834111362695694 -0.41536545753479004 -0.09426599740982056
0.1531149297952652 0.0021155006252229214 -0.07844112813472748
-0.21726426482200623 -0.3264806866645813 0.07889629155397415
0.06160222366452217 0.3906526565551758 0.35040006041526794
-0.25710996985435486 -0.0008744290098547935 -0.26516225934028625
-0.045655205845832825 0.002388015389442444 0.1836988478899002
0.35528069734573364 -0.38503700494766235 0.16483807563781738
0.5283788442611694 0.0010471269488334656 -0.09547141194343567
-0.3082670271396637 0.3057370185852051 -0.38997870683670044
0.3208868205547333 -0.06430515646934509 0.3524421155452728
-0.01750572957098484 -0.3401966392993927 0.29336854815483093
0.0955517441034317 0.403552383184433 -0.20066863298416138
0.09911177307367325 0.22916366159915924 -0.40282222628593445
0.25784051418304443 -0.36830440163612366 0.281636118888855
-0.5802308320999146 0.045787960290908813 -0.27931395173072815
-0.5790554285049438 0.09206835180521011 -0.35543957352638245
0.2608588635921478 -0.002244445728138089 0.3168700933456421
0.09467383474111557 0.0019551245495676994 0.24302248656749725
0.3529876172542572 0.0014544326113536954 0.1594199687242508
-0.5479231476783752 0.37616246938705444 -0.4043163061141968
-0.5880353450775146 0.18480858206748962 -0.3265763819217682
-0.2945654094219208 -0.00027761608362197876 -0.018280213698744774
0.3280249238014221 0.0016272906213998795 -0.09355971217155457
-0.37842199206352234 0.0076104579493403435 0.3169437646865845
0.1514330804347992 -0.6335281133651733 0.19925789535045624
-0.21053433418273926 0.0010356176644563675 -0.3625418543815613
0.33923476934432983 0.4069170653820038 -0.23557282984256744
-0.5770838856697083 0.21843956410884857 -0.18699398636817932
0.5721392631530762 0.2005203515291214 -0.34081628918647766
0.38207918405532837 -0.5946468114852905 -0.010950653813779354
-0.5540708899497986 0.06250891089439392 -0.07601898908615112
0.5827398300170898 0.1966182440519333 -0.3913693130016327
0.5901232957839966 0.3850898742675781 0.025791896507143974
0.22046944499015808 -0.37846189737319946 -0.3304941654205322
0.22430391609668732 0.4655810594558716 0.4493022561073303
0.06443731486797333 0.0016525909304618835 -0.03237765282392502
0.21722540259361267 0.4734458029270172 0.3941672444343567
-0.010721966624259949 0.073982372879982 -0.39741387963294983
-0.009386645630002022 0.15991103649139404 0.36946937441825867
-0.11264678835868835 -0.4100359082221985 -0.21758462488651276
-0.5704507827758789 0.3532800078392029 -0.08596750348806381
0.08590443432331085 0.00198258925229311 0.0024944208562374115
0.5720770359039307 0.05557643249630928 0.06382304430007935
0.3189411759376526 0.3887934684753418 0.4299941956996918
-0.08112621307373047 0.001995704136788845 0.2831474244594574
-0.2926027178764343 0.4117419719696045 -0.2742556929588318
-0.2132411003112793 0.0011519761756062508 0.10001792758703232
0.27424106001853943 -0.002098388969898224 -0.33042386174201965
0.2519437074661255 -0.4510904550552368 -0.27426931262016296
0.3237544894218445 -0.09134043008089066 -0.273187518119812
-0.5771353244781494 0.22290682792663574 0.02686416544020176
-0.11202825605869293 -0.6109628081321716 -0.10396626591682434
0.5412736535072327 0.002622338244691491 0.08217865228652954
0.37851983308792114 0.40831735730171204 0.22143645584583282
-0.025118187069892883 -0.6237492561340332 0.07725498825311661
0.44023340940475464 -0.18106748163700104 -0.10231870412826538
-0.18714173138141632 0.0022055082954466343 0.01680925488471985
-0.31738701462745667 0.39998525381088257 0.32733386754989624
-0.5815147757530212 0.35861876606941223 -0.29300013184547424
0.5759785771369934 0.12013736367225647 -0.0793941393494606
0.02687615342438221 -0.06858579814434052 0.3030717968940735
0.101246178150177 -0.6173017621040344 -0.11215901374816895
0.5763763785362244 0.014335321262478828 -0.26206082105636597
0.10138310492038727 -0.0006398555124178529 -0.3500524163246155
-0.12104928493499756 0.0001357977744191885 -0.1647123098373413
-0.5249472260475159 0.36748379468917847 -0.04202429577708244
-0.5643163919448853 0.39471936225891113 -0.1647551953792572
-0.04149806126952171 0.3891693353652954 -0.042855147272348404
-0.20548942685127258 0.021725136786699295 -0.40393662452697754
0.16569001972675323 0.06341569870710373 0.476346880197525
0.3870854675769806 -0.48865124583244324 0.017416996881365776
-0.5729930996894836 -0.061602331697940826 0.18944606184959412
-0.2623548209667206 0.21850301325321198 0.348012775182724
0.20656172931194305 0.39074528217315674 0.257953017950058
-0.5069088339805603 0.3511962890625 0.34304291009902954
-0.08328423649072647 -0.635615885257721 -0.1321386694908142
0.4172995984554291 0.3963789641857147 -0.35117587447166443
-0.08474940061569214 0.4095790982246399 0.2505861520767212
0.21681076288223267 0.37936583161354065 0.3377360701560974
0.21364957094192505 0.0003109341487288475 0.31683245301246643
-0.23717162013053894 -0.11653021723031998 0.016995251178741455
0.05419670045375824 0.3865118622779846 -0.394080251455307
0.12217175215482712 0.09285508096218109 0.4659969210624695
-0.013120055198669434 -0.05031032860279083 0.2939731478691101
0.09180551022291183 -0.1811143010854721 -0.38468948006629944
-0.1634378284215927 -0.41196054220199585 -0.11551178246736526
-0.44825631380081177 0.3928147554397583 0.1293485462665558
-0.31999683380126953 0.4112893342971802 0.06151100993156433
0.2968941926956177 -0.15742573142051697 0.26671186089515686
0.03493814915418625 -0.6156640648841858 0.018690695986151695
0.5885047316551208 0.3368203341960907 0.09500991553068161
-0.22213664650917053 0.03495093062520027 -0.4116920232772827
0.2062714844942093 0.013395966030657291 -0.39950528740882874
0.10417943447828293 0.002505922457203269 0.1376165747642517
-0.04556101933121681 0.0022404734045267105 0.21048925817012787
0.20747600495815277 -0.018972016870975494 -0.36603400111198425
-0.49860435724258423 0.4004541337490082 -0.014656683430075645
-0.4182460904121399 0.009148385375738144 0.34568852186203003
-0.3725913465023041 0.043491024523973465 0.11618269234895706
0.4953892230987549 0.05656876787543297 0.34637442231178284
-0.1890290528535843 0.3948887288570404 0.14053231477737427
-0.19324760138988495 -0.05839122086763382 -0.1966078281402588
0.2230447679758072 -0.6197534799575806 0.10132914781570435
0.32478469610214233 0.031049884855747223 0.3608592748641968
0.2985590994358063 0.0394524447619915 -0.4082210063934326
-0.1271076500415802 0.08612867444753647 0.34141838550567627
0.5832406282424927 0.36819469928741455 0.07686705142259598
-0.05997810885310173 0.0021024239249527454 0.21252407133579254
0.5785967707633972 0.06707320362329483 0.1606123000383377
-0.08826711028814316 0.002103789011016488 -0.030252715572714806
-0.4418364465236664 0.06745888292789459 -0.4093860983848572
-0.1989356130361557 -0.30185070633888245 -0.20603503286838531
0.11854919791221619 0.30030763149261475 0.4788062274456024
-0.31720301508903503 -0.0013453360879793763 -0.02730504795908928
0.45698484778404236 0.35765936970710754 -0.3862236738204956
0.5665976405143738 0.4046376943588257 -0.23672963678836823
0.3214316964149475 -0.4153061509132385 0.15738162398338318
-0.037450507283210754 -0.6602694392204285 -0.232204407453537
0.24359992146492004 -0.0027972031384706497 -0.34808534383773804
-0.4970879852771759 0.11421682685613632 0.06897993385791779
-0.29590460658073425 0.001332839485257864 -0.313658744096756
-0.5711239576339722 0.3400614857673645 -0.3891716003417969
-0.5782142281532288 0.04075168818235397 -0.05066290125250816
-0.49252089858055115 0.3927253186702728 -0.3752838969230652
-0.39999666810035706 0.4071487486362457 2.100283745676279e-05
0.2278817743062973 0.23194165527820587 -0.38881176710128784
0.4247095584869385 0.005849730223417282 0.061592765152454376
-0.04552437737584114 -0.11342260241508484 0.2904263734817505
-0.19248449802398682 -0.0014086989685893059 0.027277233079075813
0.2916054129600525 0.4103407561779022 -0.05506905913352966
0.23689986765384674 -0.6108694076538086 0.14540036022663116
0.18035200238227844 0.3766215741634369 0.469292551279068
0.055793099105358124 -0.034878332167863846 0.309766560792923
0.11302988976240158 -0.018321558833122253 0.3251611590385437
0.4402207136154175 -0.24404305219650269 0.024218890815973282
0.12257330864667892 0.13724714517593384 -0.4002258777618408
-0.3961045444011688 -0.07671654969453812 -0.04441924765706062
-0.2721007168292999 0.3121914565563202 0.345132976770401
-0.5614408850669861 0.10477703809738159 0.34798866510391235
0.23870760202407837 -0.29300692677497864 0.27774152159690857
0.22469037771224976 -0.3396919071674347 0.28546398878097534
0.284266859292984 -0.08211667835712433 0.3674301207065582
-0.22911721467971802 -0.05561850965023041 -0.01988697052001953
-0.054838716983795166 0.0020160237327218056 0.06624902039766312
-0.5624977350234985 0.08590278029441833 -0.295261949300766
0.5876035094261169 0.19983233511447906 -0.09554275870323181
-0.1970544010400772 0.1439834088087082 -0.4044719636440277
-0.36482134461402893 0.4154980480670929 -0.12689584493637085
0.2903302311897278 0.16766589879989624 -0.4040851891040802
0.09784040600061417 -0.002536390908062458 0.3160865008831024
0.5833804607391357 0.31160518527030945 0.2733173668384552
-0.15041641891002655 -0.3955974578857422 0.17042990028858185
0.2576679587364197 -0.18359915912151337 -0.3465372323989868
0.1503768265247345 0.22956305742263794 0.3500106930732727
-0.586689829826355 0.005021814256906509 -0.25744232535362244
-0.33399248123168945 0.006964512635022402 0.21960747241973877
-0.4500333368778229 -0.10177107155323029 0.33461713790893555
-0.019913962110877037 2.5857239961624146e-05 -0.3680954873561859
0.5707871317863464 0.1113755851984024 -0.14951220154762268
0.1821460872888565 0.38726720213890076 -0.23341144621372223
-0.5127611756324768 0.11650872230529785 -0.30156210064888
0.19138669967651367 -0.08483821153640747 0.356624573469162
0.5602992177009583 0.005201447289437056 -0.38658419251441956
0.17985418438911438 -0.6177204251289368 0.13307546079158783
-0.5220559239387512 0.013012196868658066 -0.025258734822273254
0.16354353725910187 -0.4191059172153473 0.2691245675086975
0.0643046498298645 0.22639742493629456 0.34106045961380005
0.04596652463078499 0.3964653015136719 0.08434634655714035
0.03937385231256485 -0.6130136847496033 -0.048156652599573135
-0.40930598974227905 0.11049805581569672 0.169986754655838
0.1964482069015503 0.34309667348861694 0.454999715089798
-0.2447117567062378 -0.31175559759140015 0.013542206957936287
0.4339025318622589 -0.17265841364860535 -0.005100754089653492
0.38041701912879944 -0.5181415677070618 -0.10558419674634933
-0.19430087506771088 -0.37996339797973633 -0.0948438048362732
0.014628719538450241 -0.03809821605682373 0.34033235907554626
0.256184846162796 -0.17274364829063416 -0.3251214027404785
-0.44794613122940063 0.012165524065494537 0.23274771869182587
-0.5805184841156006 0.1032707467675209 -0.3539756238460541
-0.2162795513868332 -0.30090150237083435 0.07229207456111908
-0.24192969501018524 0.3917694091796875 -0.2832191586494446
0.006354192271828651 0.006250159814953804 0.3159145712852478
0.2605206072330475 0.0023300806060433388 -0.07215121388435364
0.2099331170320511 0.00013743434101343155 -0.3157506287097931
0.2838921844959259 0.26977062225341797 0.33488568663597107
-0.535588800907135 0.08386674523353577 0.3171202838420868
0.21678313612937927 -0.05845683068037033 0.4595480263233185
0.19350884854793549 0.0017462248215451837 0.2672082185745239
0.28214237093925476 -0.6318656206130981 -0.03568747639656067
-0.024017341434955597 -0.00024234107695519924 -0.21592330932617188
-0.32076165080070496 0.17412438988685608 0.35002195835113525
0.24338079988956451 -0.6128280162811279 -0.034993208944797516
-0.13850556313991547 -0.39970022439956665 -0.18352432548999786
-0.1815200001001358 0.3851666748523712 -0.3329003155231476
0.07181839644908905 0.0022383120376616716 0.2554599642753601
0.3151687681674957 0.0019614105112850666 0.04046275094151497
0.019485585391521454 -0.6106817722320557 -0.12775006890296936
-0.1580689251422882 0.388113409280777 -0.0595724917948246
0.41045892238616943 -0.07120060920715332 0.13469135761260986
0.3249245285987854 0.4050748646259308 -0.30813735723495483
0.32169026136398315 -0.3037247359752655 0.22056229412555695
0.3551536202430725 -0.3116442859172821 -0.25972867012023926
0.08832442760467529 0.0015481364680454135 -0.3783089220523834
-0.434855192899704 0.008292493410408497 0.05586903169751167
-0.5293070673942566 0.09853368252515793 0.09035399556159973
-0.566563606262207 0.09506288170814514 -0.38790589570999146
-0.46363911032676697 -0.0029308293014764786 0.12898866832256317
0.337881475687027 -0.6185801029205322 -0.0964612066745758
-0.3651442527770996 0.3796859085559845 0.016907453536987305
0.09566430002450943 -0.3403756022453308 -0.3631279468536377
0.33124151825904846 -0.6335468292236328 -0.06934797763824463
0.053340181708335876 -0.6267555952072144 -0.040679894387722015
0.07452202588319778 0.0013566520065069199 -0.15040774643421173
-0.1602790802717209 -0.3528091609477997 -0.23972418904304504
0.16768135130405426 0.005974529776722193 0.33785533905029297
0.028294576331973076 0.0007869880646467209 -0.10054248571395874
0.1748347133398056 -0.5460951924324036 0.2478976845741272
0.5668356418609619 0.37910953164100647 0.12532363831996918
0.06032005324959755 -0.369309663772583 -0.37114769220352173
0.3644445538520813 -0.48855504393577576 -0.1341305524110794
0.14570878446102142 -0.07654636353254318 0.45675238966941833
-0.5275428295135498 0.3361009657382965 -0.05596478655934334
0.3990565240383148 0.0004908330738544464 0.11433577537536621
0.3314001262187958 -0.23081956803798676 -0.28336748480796814
-0.05533323809504509 -0.08016319572925568 -0.3529748320579529
-0.5684298872947693 0.12633372843265533 -0.21675972640514374
-0.5294985771179199 0.38452255725860596 0.11321662366390228
0.40431201457977295 0.3970212936401367 0.14134210348129272
0.039175283163785934 0.20536038279533386 0.35207489132881165
0.4773961305618286 0.3870721459388733 0.22752782702445984
-0.2077125608921051 -0.21175526082515717 0.10164111852645874
0.1346844583749771 0.40665310621261597 -0.27858760952949524
-0.38825270533561707 0.08746334165334702 0.2545683681964874
-0.01424568984657526 -0.3255194425582886 -0.34479770064353943
-0.5416567921638489 -0.09585992246866226 -0.20970401167869568
-0.541755735874176 -0.07321356236934662 0.31074705719947815
0.06326793134212494 -0.0011555232340469956 -0.2978549897670746
-0.09879731386899948 -0.5810368061065674 -0.23900675773620605
-0.10151612013578415 -0.03588756546378136 0.23280800879001617
0.5891298055648804 0.2801671624183655 0.1775650829076767
0.5635404586791992 0.007971655577421188 0.25691843032836914
0.05911402776837349 -0.6318158507347107 -0.11493508517742157
-0.07130004465579987 0.12368765473365784 -0.3995721936225891
0.043954163789749146 -0.6486205458641052 -0.25881004333496094
0.3893069624900818 -0.5184001326560974 0.06059820204973221
-0.43495801091194153 0.4048682153224945 -0.31953108310699463
0.12372256070375443 0.0023999782279133797 -0.04204409942030907
-0.5359687209129333 -0.06982482224702835 0.024316420778632164
0.04285302013158798 0.27084895968437195 0.3431124687194824
0.4196246862411499 -0.17398853600025177 -0.12626011669635773
0.35129374265670776 -0.6555594205856323 -0.177629753947258
0.4470953345298767 -0.05034969002008438 -0.0928293764591217
0.23370715975761414 0.0024493359960615635 -0.11024587601423264
-0.5878089070320129 0.2647523581981659 0.10087840259075165
0.15035496652126312 -0.0003825216554105282 0.30206534266471863
-0.08772245049476624 0.3898880183696747 0.30616047978401184
-0.4988202452659607 0.39653313159942627 -0.22495689988136292
0.09022844582796097 0.002256648149341345 0.22920438647270203
0.15407384932041168 0.4550098180770874 0.42670994997024536
-0.11730753630399704 0.24217988550662994 0.3776524066925049
-0.5845077633857727 0.005882106721401215 0.08714504539966583
-0.2002527266740799 -0.13030362129211426 0.12639310956001282
-0.08644581586122513 0.38582542538642883 -0.049771711230278015
0.5808529257774353 0.09711999446153641 -0.19517575204372406
-0.15500132739543915 -0.5885187387466431 -0.11963199824094772
0.12159600108861923 -0.629933774471283 -0.05311572551727295
0.08648483455181122 0.42098790407180786 0.3604010343551636
-0.2563827633857727 0.40742969512939453 0.04235907271504402
-0.37681230902671814 0.051529329270124435 -0.15424352884292603
0.004174783360213041 -0.6497501134872437 -0.2871711254119873
0.0755494087934494 0.40548989176750183 0.40207818150520325
-0.4623362421989441 0.09657739847898483 -0.2942299544811249
-0.05647646263241768 0.39462390542030334 0.12523573637008667
-0.27313128113746643 0.38671138882637024 -0.39193305373191833
0.021736741065979004 0.042684946209192276 0.46122339367866516
-0.5494455695152283 0.39106422662734985 -0.17133978009223938
-0.05274263769388199 -0.31406140327453613 -0.34216952323913574
0.22820818424224854 -0.49124181270599365 -0.27944210171699524
0.09922203421592712 0.41123926639556885 -0.2926654815673828
0.09749101847410202 0.4018509089946747 -0.057267963886260986
-0.5680920481681824 0.2352592796087265 -0.2994306981563568
0.16199016571044922 0.0009038352873176336 -0.36563482880592346
0.31945106387138367 0.24415844678878784 0.4069943130016327
-0.5016090869903564 0.11850149184465408 -0.20699262619018555
0.36595773696899414 -0.08116181194782257 0.17242631316184998
-0.24789324402809143 0.3948839604854584 -0.3435121476650238
-0.5175067186355591 0.08644736558198929 -0.2678207457065582
0.24128851294517517 0.41156041622161865 -0.13290725648403168
0.16006386280059814 0.4013370871543884 0.466037392616272
0.26815083622932434 0.0005219634622335434 -0.13602544367313385
-0.09647931903600693 -0.6095344424247742 -0.010186837054789066
0.33244481682777405 0.4005434513092041 0.36396682262420654
-0.1428980827331543 0.1986556351184845 0.34780704975128174
0.3674071431159973 -0.6202031970024109 0.10210280865430832
-0.4115554392337799 -0.09071386605501175 -0.21238158643245697
-0.09495501965284348 -0.6412272453308105 -0.18684671819210052
-0.17654182016849518 -0.3667505979537964 -0.2208004593849182
-0.11861824989318848 -0.6150057315826416 -0.04976803436875343
0.17979152500629425 0.14440079033374786 -0.4037628173828125
0.1543799489736557 -0.6197382211685181 -0.019600629806518555
0.49420490860939026 0.000495079904794693 -0.119881771504879
-0.15448172390460968 -0.5282119512557983 0.08410047739744186
-0.5344533920288086 0.0055208997800946236 -0.020871886983513832
0.3041019141674042 0.39272141456604004 0.46296194195747375
0.08653973042964935 -0.608314573764801 0.06756878644227982
-0.33312445878982544 0.05966143310070038 0.33920595049858093
0.1444309949874878 0.002240152098238468 -0.019620511680841446
0.3519183099269867 -0.4961349368095398 -0.14088602364063263
0.33471184968948364 0.3132734000682831 0.3402734100818634
0.27091917395591736 -0.2316618412733078 0.27430689334869385
-0.15803949534893036 0.2792789041996002 0.3511938452720642
0.30670303106307983 0.39774683117866516 -0.0512252151966095
0.022906329482793808 -0.0009722281247377396 -0.3442009687423706
0.1613760143518448 -0.6269341111183167 0.0291584525257349
-0.3488043248653412 0.0029310639947652817 0.14328014850616455
-0.388520747423172 0.38681909441947937 -0.2832846939563751
-0.3824077248573303 0.003086960408836603 0.15412604808807373
0.07839412242174149 0.1624731719493866 0.34258538484573364
-0.28537240624427795 0.36569368839263916 -0.03885837271809578
-0.2766554653644562 0.2229570746421814 0.33465462923049927
0.2872036099433899 -0.11240950226783752 0.26520147919654846
-0.22360843420028687 0.3789844512939453 0.3315383791923523
0.25626954436302185 -0.07686939835548401 -0.35359102487564087
-0.34738966822624207 -0.007859458215534687 -0.3916580379009247
-0.04629341512918472 0.31816673278808594 -0.40566152334213257
-0.5434640645980835 0.09704715013504028 0.04868054389953613
-0.28223517537117004 0.007558815181255341 -0.40383103489875793
-0.139408677816391 -0.5985321402549744 -0.16920065879821777
-0.21188344061374664 0.18263305723667145 0.3466774821281433
0.36970460414886475 -0.41132214665412903 -0.16164050996303558
-0.0008634213590994477 0.25294259190559387 -0.3910597562789917
0.3522741496562958 -0.5789933204650879 0.0975780338048935
0.0053556221537292 0.39233431220054626 0.01574545167386532
0.4971997141838074 0.035113923251628876 0.33873260021209717
-0.477284699678421 -0.09594450891017914 0.2682180404663086
-0.022603802382946014 -0.026971623301506042 0.27510547637939453
0.048489268869161606 0.40697628259658813 0.23825281858444214
-0.5816025733947754 0.28687089681625366 0.2685092091560364
0.1620987206697464 -0.6253437399864197 -0.05934467539191246
-0.42184603214263916 0.41139906644821167 -0.20362399518489838
0.2617986500263214 -0.6116316318511963 -0.1473536640405655
0.12928849458694458 -0.6176823973655701 -0.045272424817085266
-0.3264535367488861 0.16333316266536713 0.3459875285625458
-0.38651764392852783 -0.038262903690338135 0.13231614232063293
-0.46523091197013855 0.360604465007782 -0.18485073745250702
0.3359937071800232 0.043200477957725525 0.3354756236076355
0.27562424540519714 -0.6198821067810059 -0.19929251074790955
-0.10762421041727066 0.3917963206768036 -0.07332325726747513
-0.14655674993991852 -0.26873335242271423 -0.2823784053325653
-0.46259328722953796 0.103122778236866 -0.3375614881515503
-0.11350569874048233 0.3869357407093048 -0.05819159001111984
0.3935694694519043 -0.18727867305278778 -0.18580488860607147
0.5203171372413635 0.1802292913198471 0.3324991464614868
-0.17598973214626312 0.22050614655017853 0.34502092003822327
0.3043895661830902 0.391071081161499 0.40256860852241516
0.2861522436141968 0.21241693198680878 -0.40957507491111755
-0.5799748301506042 0.0249029491096735 0.04164789244532585
0.5729131102561951 0.08484166115522385 -0.30330729484558105
-0.5118576288223267 0.09833654761314392 -0.33908775448799133
-0.11824113130569458 0.38646581768989563 0.16070720553398132
0.04736296087503433 0.39779964089393616 0.3463441729545593
-0.4439142346382141 0.10371076315641403 -0.16779129207134247
-0.06970299035310745 -0.19568966329097748 0.2743997871875763
0.482706755399704 0.000892444746568799 -0.29423221945762634
0.581979513168335 0.16787342727184296 -0.20367246866226196
0.3375544548034668 0.407475084066391 0.19901220500469208
0.058535631746053696 0.40380430221557617 0.09442022442817688
-0.4109945297241211 0.05045903101563454 -0.39473283290863037
0.5755302309989929 0.08170560747385025 0.026709405705332756
-0.0969451293349266 -0.0005099899135529995 -0.2594456076622009
0.5616685152053833 0.2286681830883026 -0.3959735929965973
-0.36879563331604004 0.061105355620384216 -0.029301919043064117
-0.17570342123508453 0.00036635715514421463 -0.11310864239931107
0.5826568007469177 0.31455013155937195 -0.12548278272151947
0.05337958410382271 0.1298515647649765 0.34363043308258057
-0.3337387442588806 0.09431073069572449 0.35082703828811646
0.5796421766281128 0.25668320059776306 -0.14797767996788025
-0.1506974995136261 0.0029649892821907997 0.19887742400169373
0.06745088845491409 -0.6141913533210754 0.11167208850383759
0.3970209062099457 0.009144116193056107 0.34922024607658386
0.3571493327617645 -0.3894602060317993 0.139956995844841
-0.5913088321685791 0.24905355274677277 0.14989487826824188
-0.16852055490016937 -0.5661429166793823 -0.10388832539319992
0.07353029400110245 -0.19944177567958832 0.3100970983505249
0.30449530482292175 -0.0011797011829912663 -0.27664700150489807
0.005447379779070616 -0.46452537178993225 0.242014080286026
0.1389542520046234 0.4112715423107147 -0.2527458965778351
-0.5511235594749451 -0.04674718156456947 -0.3127269446849823
0.1863120049238205 0.3872275650501251 -0.36896321177482605
-0.005558202508836985 0.39270827174186707 0.2431022971868515
-0.005936847534030676 -0.047294069081544876 -0.34922853112220764
-0.5760374665260315 0.304791122674942 -0.3323137164115906
-0.15878580510616302 -0.0004320237785577774 -0.37373045086860657
-0.32546237111091614 0.3285168409347534 -0.39222484827041626
0.11293894797563553 -0.6269206404685974 -0.2212478369474411
-0.41875216364860535 0.3963286876678467 0.20667289197444916
0.008568703196942806 0.1830749213695526 0.412462055683136
0.580176830291748 0.13463997840881348 -0.08857637643814087
0.3135319650173187 0.04857218265533447 0.40629711747169495
0.3294043242931366 0.2289867103099823 -0.40320903062820435
0.2599344253540039 -0.39321282505989075 0.2205078899860382
-0.3306884765625 -0.0016948645934462547 0.28679701685905457
-0.04770486801862717 -0.0005225134082138538 -0.18741704523563385
-0.5626020431518555 -0.06761352717876434 0.1225949376821518
0.28991323709487915 0.0022331420332193375 0.18126292526721954
0.01888399012386799 0.0020500971004366875 -0.013702873140573502
0.3628982603549957 0.0013990297447890043 -0.08290278166532516
-0.43698957562446594 -0.03284604102373123 0.34283754229545593
-0.4504050016403198 0.002760745584964752 0.34013763070106506
-0.15777544677257538 -0.21454501152038574 -0.2498411238193512
0.5361555814743042 0.0028520822525024414 -0.17774350941181183
-0.3334170877933502 0.3472680151462555 0.015730833634734154
0.32058632373809814 -0.6268718838691711 -0.22233031690120697
-0.13724611699581146 -0.6163058280944824 -0.19239385426044464
0.26593124866485596 0.0013918429613113403 0.23354002833366394
-0.4223412275314331 -0.00349599146284163 -0.18742690980434418
-0.5559249520301819 -0.060766786336898804 0.09245419502258301
0.33113613724708557 -0.5859291553497314 0.16119058430194855
0.46693044900894165 0.3227959871292114 -0.3945721685886383
-0.5880559086799622 0.022543426603078842 0.2955901324748993
-0.5104451179504395 0.27897652983665466 -0.4059120714664459
0.5828857421875 0.07355102896690369 -0.17443400621414185
0.022327696904540062 0.06303223222494125 0.3596450388431549
0.4517918527126312 -0.22553576529026031 -0.011451015248894691
0.5716334581375122 0.3912396728992462 -0.352598637342453
0.01831846684217453 0.4040290415287018 0.22781971096992493
-0.42340224981307983 -0.006658042315393686 0.15496580302715302
0.2895070016384125 0.4020025432109833 0.10380435734987259
-0.13493093848228455 0.003997784573584795 0.24302780628204346
-0.21469397842884064 0.004458241164684296 0.2194453477859497
0.021756665781140327 0.0020117033272981644 0.17092680931091309
0.5146937966346741 0.001289338804781437 0.17536544799804688
0.564545750617981 0.04327757656574249 -0.030580230057239532
-0.17390473186969757 -0.020902425050735474 0.16474679112434387
0.39829951524734497 -0.23808474838733673 -0.2340192049741745
-0.16609351336956024 -0.30601397156715393 -0.2694186866283417
0.28332391381263733 0.002563413931056857 0.10939887911081314
-0.16532546281814575 0.0033154143020510674 -0.11038820445537567
-0.5701224207878113 0.24686013162136078 0.30341511964797974
-0.22206903994083405 0.032809704542160034 -0.3922387659549713
-0.5741102695465088 -0.04922455921769142 0.022930242121219635
-0.5639376640319824 0.07628161460161209 -0.2880932092666626
0.49535202980041504 0.38354235887527466 -0.377089262008667
0.49304622411727905 0.32440081238746643 -0.3934486210346222
0.39286741614341736 -0.48166507482528687 0.03830251470208168
-0.21783487498760223 0.005485866218805313 -0.017340855672955513
-0.45930325984954834 0.10004869103431702 -0.11250048130750656
-0.5548223257064819 0.013269464485347271 -0.40564948320388794
0.4422284960746765 -0.009024446830153465 0.01842810958623886
0.11420522630214691 0.22126570343971252 0.35157686471939087
-0.2672923505306244 0.38920608162879944 0.2448434978723526
0.23462118208408356 0.00018116645514965057 -0.23961393535137177
0.5235856771469116 0.38589659333229065 0.2857334017753601
-0.3572057783603668 -0.0022388482466340065 0.3279261589050293
-0.36467209458351135 0.4017295241355896 -0.35543450713157654
0.23476526141166687 -0.6099849939346313 0.16560718417167664
0.08325707912445068 0.16911354660987854 0.47357800602912903
0.019910791888833046 -0.21346406638622284 0.30909672379493713
0.3440180718898773 -0.38974010944366455 0.16149137914180756
0.5269713997840881 0.4083351194858551 -0.23654110729694366
0.2622357904911041 0.01190251111984253 0.33051732182502747
-0.34705668687820435 0.38380545377731323 -0.14704857766628265
0.23355089128017426 0.0025866320356726646 -0.27328744530677795
0.3669373691082001 -0.5610061287879944 0.10863405466079712
-0.25022807717323303 0.004162324592471123 -0.3793492615222931
0.3064347207546234 0.2393740862607956 -0.4018034338951111
-0.3584611117839813 0.4031549394130707 -0.14520218968391418
0.41484132409095764 0.04846316948533058 -0.3896384835243225
0.0790972113609314 0.0031367801129817963 -0.03227609023451805
-0.4265366792678833 -0.10802463442087173 -0.05607592687010765
0.10045568645000458 -0.1565798670053482 0.315767377614975
-0.4114431142807007 -0.07995649427175522 -0.28786078095436096
-0.17156194150447845 0.4039015471935272 0.2708203196525574
-0.5794271230697632 0.03219671919941902 0.29159703850746155
0.5656815767288208 0.12431196868419647 0.22403785586357117
-0.13436923921108246 -0.6271882057189941 -0.1273249238729477
0.012455089017748833 0.3033592104911804 0.3508424460887909
-0.16329574584960938 -0.5410199761390686 0.061564356088638306
-0.1085943877696991 -0.5986145734786987 0.1736282855272293
0.24480026960372925 -0.5709863901138306 0.22990258038043976
-0.07238297909498215 -0.6257016062736511 0.09293768554925919
-0.4443686604499817 -0.004143441095948219 -0.38490578532218933
0.032365359365940094 -0.6181042194366455 0.15947401523590088
-0.007405414246022701 0.007125550881028175 -0.31728899478912354
-0.4496058225631714 -0.11222796142101288 -0.23586173355579376
-0.02451150119304657 0.005010690074414015 0.33032867312431335
-0.17306026816368103 -0.05043240636587143 -0.21458394825458527
-0.571010947227478 -0.030240297317504883 0.34798845648765564
0.20731426775455475 0.17910023033618927 0.3444814682006836
0.020615387707948685 -0.6130073070526123 -0.09686341881752014
-0.20950768887996674 -0.3782435357570648 0.07634786516427994
-0.29311317205429077 0.0077440571039915085 0.2464125007390976
-0.3064342439174652 0.03147246688604355 0.33895763754844666
0.24063940346240997 0.40991735458374023 -0.15806718170642853
0.39337339997291565 -0.27514854073524475 -0.17888522148132324
0.3604234457015991 -0.5862855911254883 0.07018173485994339
0.4262450635433197 0.0014796983450651169 0.2239658385515213
0.4505930244922638 0.39508679509162903 0.0423019677400589
0.5726107358932495 0.09772567451000214 -0.21089094877243042
0.5800039172172546 0.2796506881713867 0.25572478771209717
