0.484862744808197 0.24497435986995697 0.3424986004829407
0.0033004276920109987 -0.35712730884552 0.29623815417289734
-0.5081924796104431 0.0012864605523645878 0.004046066664159298
0.44684478640556335 -0.07408610731363297 -0.057524990290403366
-0.281448632478714 0.37178492546081543 -0.09005150198936462
0.5388946533203125 0.004484181758016348 0.1287071406841278
-0.0964256152510643 0.0024643102660775185 -0.22472847998142242
0.34003910422325134 -0.19324567914009094 -0.2784118056297302
0.18810130655765533 -0.618456244468689 -0.006486585829406977
-0.0012339683016762137 -0.6551264524459839 -0.2761140763759613
0.0381397008895874 0.23273295164108276 0.42153090238571167
0.08606360107660294 -0.6357607841491699 0.25386321544647217
-0.41132453083992004 0.09310547262430191 -0.27696964144706726
-0.29982396960258484 0.011576510034501553 -0.38544324040412903
0.4649878442287445 0.06638333946466446 -0.3979228138923645
-0.24664369225502014 -0.12558646500110626 -0.03796925023198128
0.3795928359031677 0.13640551269054413 -0.39966392517089844
0.30147019028663635 0.11413276195526123 0.4552271366119385
-0.22882859408855438 0.0013140467926859856 -0.0013681098353117704
0.004284765105694532 0.39799222350120544 -0.03762481361627579
0.2845743000507355 -0.02398012951016426 -0.3197586238384247
-0.20988062024116516 0.24722768366336823 0.34161821007728577
-0.5562711358070374 0.05065319687128067 0.335414320230484
0.544313907623291 0.39528924226760864 0.17021410167217255
0.35384997725486755 0.020331012085080147 -0.39643463492393494
-0.45569461584091187 0.39959681034088135 -0.02532372996211052
-0.012487804517149925 0.39972546696662903 -0.2104129046201706
-0.5417544841766357 5.863621481694281e-07 -0.22153078019618988
-0.08684277534484863 0.3965519666671753 0.021852703765034676
0.1667758971452713 0.39564162492752075 0.20679500699043274
-0.06741606444120407 0.2945152819156647 0.34527748823165894
-0.28940942883491516 0.003990374505519867 -0.33220174908638
-0.14919470250606537 0.0018786294385790825 0.09033699333667755
-0.009156866930425167 0.3976871073246002 -0.24887825548648834
-0.2601092457771301 0.399717777967453 0.28184375166893005
-0.05091278627514839 0.0011797444894909859 -0.2890036404132843
0.24685855209827423 0.0028214403428137302 0.09504798799753189
-0.24277234077453613 -0.36093461513519287 -0.040513746440410614
0.12852779030799866 0.003022476565092802 -0.16243842244148254
-0.12130355089902878 -0.4624316096305847 0.13846108317375183
-0.11980702728033066 0.3966681659221649 -0.24026530981063843
-0.1803625524044037 -0.25576186180114746 -0.21536898612976074
0.4674699306488037 0.011693456210196018 -0.39249029755592346
-0.39282819628715515 0.3685510754585266 -0.18393301963806152
0.3573661744594574 0.0033852849155664444 -0.1508983075618744
0.07021069526672363 0.39932090044021606 0.01482261624187231
-0.5510458946228027 0.3795423209667206 -0.2982655167579651
-0.3837204873561859 0.06659550964832306 0.09665233641862869
-0.36985260248184204 0.0017710565589368343 0.024095449596643448
-0.09765413403511047 0.002894837409257889 -0.36386242508888245
0.37459051609039307 0.28296661376953125 -0.3973292112350464
-0.5688850283622742 0.0027867110911756754 -0.3381010591983795
0.30735352635383606 0.003080562688410282 0.18470795452594757
0.2140422910451889 -0.06904056668281555 0.32268935441970825
-0.007179758511483669 0.19517818093299866 -0.3981594443321228
-0.13075439631938934 0.0019743756856769323 0.08997516334056854
0.21318840980529785 0.35382959246635437 -0.3968874216079712
-0.21975859999656677 0.39863449335098267 -0.349435418844223
-0.22829371690750122 -0.08743193745613098 0.06555504351854324
-0.09139765053987503 0.006853637285530567 0.34362080693244934
0.14203210175037384 0.002108491025865078 -0.008113224990665913
0.2502343952655792 -0.6042565107345581 0.2201584428548813
0.35310569405555725 0.0038140788674354553 0.24555715918540955
-0.29208630323410034 0.37120673060417175 -0.06841013580560684
-0.1390322893857956 -0.12513823807239532 0.2100418210029602
-0.17900457978248596 0.3993634283542633 0.19531509280204773
0.5750138759613037 0.3691972494125366 -0.11642437428236008
0.1075773537158966 0.4650346338748932 0.39036381244659424
-0.10034143179655075 -0.10493161529302597 0.24344313144683838
-0.4775400459766388 0.35637351870536804 -0.008397133089601994
-0.477660208940506 -0.11250556260347366 0.13166721165180206
-0.396359384059906 0.39797523617744446 0.1307409256696701
0.15390324592590332 -0.6230853199958801 -0.18789763748645782
0.14548146724700928 -0.6208003759384155 0.18387271463871002
-0.5692671537399292 0.012480923905968666 0.1588817834854126
-0.49666374921798706 -0.10584287345409393 0.3386298418045044
-0.4916496276855469 -0.09667070209980011 0.28566697239875793
-0.4579598903656006 -0.11525753140449524 0.02953927218914032
0.5763514041900635 0.2702820301055908 -0.11341967433691025
0.2158389836549759 0.2301293909549713 -0.39739561080932617
-0.025092020630836487 0.3965778350830078 0.24153989553451538
-0.37699490785598755 0.3985324800014496 -0.3389812707901001
0.5549684166908264 0.0063221752643585205 0.16171090304851532
0.05301746726036072 -0.622718334197998 -0.00542126689106226
-0.10429677367210388 0.2266845554113388 0.3617301285266876
0.04144396260380745 0.39260333776474 -0.3850190341472626
0.22377170622348785 -0.4277421236038208 -0.2904103100299835
0.4268527328968048 -0.09508400410413742 0.07745926082134247
0.32015082240104675 -0.6234171986579895 -0.08935236185789108
0.3996885120868683 -0.14926892518997192 0.1403195858001709
-0.19571977853775024 -0.1976403146982193 -0.19824537634849548
0.32895195484161377 0.003447446972131729 0.06617027521133423
0.05595133826136589 -0.6245563626289368 0.1891651302576065
0.5719569325447083 0.33251726627349854 -0.3657858371734619
-0.43120813369750977 0.0003024766920134425 0.11080384254455566
0.0117848115041852 0.2107541561126709 0.40513113141059875
-0.4052235782146454 0.07405329495668411 0.19787044823169708
0.05872310325503349 0.15499365329742432 0.45704662799835205
-0.20597782731056213 0.4002232253551483 -0.2536895275115967
0.18583589792251587 -0.30748552083969116 0.3033958077430725
-0.06804770976305008 -0.6234046220779419 0.0884823426604271
0.05461212992668152 0.20126904547214508 -0.39765992760658264
-0.11424741894006729 0.1568296104669571 0.34133198857307434
0.3383392095565796 0.01964929886162281 0.38015425205230713
-0.08490821719169617 -0.5261756181716919 -0.2408222109079361
0.34776005148887634 -0.4663851857185364 0.12371107190847397
0.02788044512271881 0.39430516958236694 0.3915284276008606
-0.48812028765678406 -0.05670100077986717 0.3411548137664795
0.18739520013332367 -0.6208528876304626 -0.06975848972797394
0.23597149550914764 0.39713501930236816 -0.03127005323767662
-0.11260495334863663 -0.3514212965965271 0.23149776458740234
0.15413875877857208 0.002087261062115431 0.2547072172164917
0.5583633780479431 0.006565284915268421 -0.24508391320705414
-0.5282163619995117 0.041483066976070404 0.34517472982406616
-0.015124011784791946 0.19270743429660797 0.39873018860816956
-0.31935980916023254 0.0052826423197984695 0.09947103261947632
0.5250756740570068 0.3996119499206543 -0.23761659860610962
0.13089044392108917 0.4352860152721405 0.35521212220191956
0.1358460634946823 -0.4658133089542389 -0.31430235505104065
0.41454198956489563 -0.19129614531993866 0.12665267288684845
0.5784254670143127 0.010898947715759277 0.27957338094711304
0.5779201984405518 0.13255029916763306 -0.15575295686721802
0.4403679370880127 0.3959069550037384 -0.3476080596446991
0.2995302379131317 0.4662899076938629 0.3857380747795105
0.09926145523786545 0.00302230566740036 -0.23150531947612762
-0.4477405548095703 0.0013790815137326717 0.22492633759975433
-0.1372658908367157 -0.6544285416603088 0.08389735221862793
0.3052537739276886 -0.004633346572518349 0.33544647693634033
-0.5741081833839417 0.06280923634767532 -0.236151784658432
0.5762612819671631 0.29310232400894165 0.1978921890258789
0.23449091613292694 0.3900168836116791 0.34266397356987
0.2819315195083618 -0.0949641689658165 0.2622970640659332
-0.3865423798561096 -0.068096823990345 -0.08812015503644943
0.21825318038463593 0.3996600806713104 0.0732671320438385
0.5621114373207092 0.03966028615832329 -0.3857162892818451
-0.317209929227829 0.38061049580574036 -0.3943250775337219
-0.3747544288635254 -0.04706175625324249 -0.21118630468845367
-0.4153416156768799 -0.005067553836852312 -0.3852927088737488
-0.1772005558013916 -0.561068594455719 -0.06616804748773575
-0.27964943647384644 0.0012113065458834171 0.10140331834554672
0.28815311193466187 0.4373982548713684 0.443807989358902
-0.5730376243591309 0.05327872931957245 -0.33086273074150085
0.14669419825077057 0.3036499619483948 0.4642052948474884
0.2566250264644623 0.0028221281245350838 0.007396728731691837
-0.3617163896560669 0.4067729413509369 -0.039444636553525925
0.3346189558506012 0.0024674017913639545 0.1521550565958023
0.5820956826210022 0.12495599687099457 0.011775445193052292
-0.4789729714393616 -0.10467327386140823 0.13068847358226776
-0.5187833905220032 0.0023164586164057255 -0.07584679126739502
-0.26301392912864685 0.17785458266735077 -0.39912179112434387
-0.008341003209352493 -0.3119294047355652 0.2947061061859131
0.5308094024658203 0.0034007737413048744 -0.07529965788125992
-0.3619784712791443 0.005814449395984411 0.13606536388397217
-0.11765167862176895 -0.461140900850296 0.15728172659873962
0.14328160881996155 0.0157256368547678 -0.39478883147239685
0.12673723697662354 0.0029917298816144466 -0.1816050112247467
-0.2236224263906479 -0.049377378076314926 -0.14059118926525116
-0.11806058883666992 0.0025581889785826206 0.12262826412916183
-0.5810630917549133 0.2176356166601181 0.23204967379570007
0.3810988962650299 -0.42674973607063293 0.02201593853533268
0.29517531394958496 0.18191467225551605 0.46090027689933777
-0.13595791161060333 0.03916027396917343 -0.396594762802124
0.45827946066856384 0.0024834126234054565 -0.1952001303434372
0.2636251151561737 -0.07912711054086685 0.2730691432952881
-0.3096233904361725 0.014848832972347736 0.3349490165710449
0.17706985771656036 -0.6222307682037354 -0.076473169028759
-0.021441848948597908 -0.6239984035491943 0.009736288338899612
0.2835765480995178 0.10488943010568619 0.45978423953056335
-0.31668588519096375 0.24048738181591034 -0.39935556054115295
0.5749683976173401 0.012635473161935806 0.08689279109239578
0.5765188336372375 0.09261200577020645 -0.08197937905788422
-0.35607224702835083 0.39999502897262573 -0.21400175988674164
0.13918271660804749 -0.07516607642173767 0.313678503036499
-0.16326284408569336 0.03200715407729149 0.3392210602760315
0.1710405945777893 -0.6225998997688293 0.07965657860040665
-0.536547064781189 -0.08924997597932816 0.02906228043138981
0.5558648705482483 0.39429426193237305 -0.0924176573753357
-0.1345108151435852 0.13110868632793427 0.3412533700466156
-0.11347563564777374 -0.3516682982444763 0.23839348554611206
-0.572793185710907 0.18367145955562592 -0.18571464717388153
0.42543724179267883 -0.07372637093067169 -0.14418219029903412
-0.3713976740837097 0.043702613562345505 -0.013817824423313141
0.5573052167892456 0.25899538397789 0.3376450538635254
-0.4593152403831482 0.3869002163410187 -0.15639185905456543
-0.4886583089828491 0.3873310983181 -0.39058929681777954
0.5789403915405273 0.097345732152462 0.0540430061519146
0.14481066167354584 0.002372908405959606 -0.291676789522171
0.3409128189086914 -0.3281121850013733 0.2149621844291687
0.07809492200613022 0.4001363217830658 -0.21418744325637817
0.5262660980224609 0.005251599475741386 -0.030162250623106956
0.1311865597963333 -0.6556288003921509 0.2516574561595917
0.3271426260471344 -0.5677223801612854 0.15574033558368683
0.12931472063064575 -0.44915705919265747 -0.316147118806839
-0.10115458071231842 0.003530657384544611 0.29832860827445984
0.5487467050552368 0.00531059829518199 0.00280019105412066
0.08159250020980835 -0.6268842220306396 0.029379436746239662
0.07712613791227341 0.0032260925509035587 -0.15166603028774261
-0.07741283625364304 0.0033881468698382378 0.0749499499797821
0.06053677946329117 0.0025737304240465164 -0.3103798031806946
-0.4916572570800781 0.0022461568005383015 0.17417091131210327
0.2926955223083496 -0.033941201865673065 0.3316683769226074
-0.04840041697025299 0.3934441804885864 -0.38061535358428955
-0.34712281823158264 0.400854229927063 -0.14981210231781006
0.3681729733943939 0.39699873328208923 -0.2710205018520355
0.579384446144104 0.1378258466720581 0.2586800754070282
-0.3335192799568176 0.4030478000640869 0.04216860234737396
-0.5760623216629028 0.029747633263468742 0.006704589817672968
-0.2961876392364502 0.3960563838481903 -0.14219330251216888
-0.41325727105140686 0.11671188473701477 0.33569425344467163
0.1307133287191391 -0.6229634881019592 -0.14288300275802612
-0.37091904878616333 0.06760760396718979 -0.27616792917251587
-0.5828810930252075 0.14236868917942047 -0.02380102500319481
0.37984853982925415 -0.49144190549850464 0.05881376191973686
0.571474015712738 0.39761173725128174 -0.274041086435318
-0.17582276463508606 -0.4641357660293579 -0.08459318429231644
0.17100463807582855 0.46398019790649414 0.37033602595329285
-0.3329777121543884 0.04066166654229164 -0.39930614829063416
0.31120237708091736 0.4631280303001404 0.4219246506690979
-0.33562561869621277 0.39503395557403564 -0.1770838499069214
0.17757700383663177 -0.6203764081001282 0.10371478646993637
-0.09496204555034637 -0.6254593729972839 -0.05482606217265129
-0.40861499309539795 -0.09251117706298828 0.05874226242303848
0.17956151068210602 0.3857775926589966 0.4611998498439789
0.20480534434318542 0.0025976458564400673 0.14946013689041138
0.33843794465065 -0.5028091073036194 -0.18796570599079132
-0.0951537936925888 0.396781325340271 -0.05656932294368744
-0.5004428625106812 0.4003569185733795 0.05984542518854141
0.20771943032741547 -0.09615302830934525 -0.35385802388191223
0.335009902715683 -0.04600932449102402 0.4411863088607788
-0.19204546511173248 0.002675495110452175 0.27888035774230957
0.29945260286331177 0.24427002668380737 0.34100815653800964
0.2859097421169281 -0.36670929193496704 0.24595394730567932
-0.10962080955505371 0.0005642874166369438 -0.31706124544143677
0.3837098479270935 -0.14596183598041534 -0.22889837622642517
0.0715915858745575 -0.6211450099945068 0.12986579537391663
-0.577346920967102 0.15507645905017853 0.09933566302061081
-0.48556163907051086 -0.04014900326728821 -0.3992304801940918
-0.008433837443590164 0.002847127616405487 0.049348000437021255
-0.015097316354513168 0.0015059448778629303 0.29173171520233154
-0.12289050966501236 0.0024252100847661495 0.05772083252668381
0.5810073018074036 0.04851227253675461 0.10322780907154083
0.3713025748729706 -0.6086902022361755 -0.1311263144016266
-0.12909476459026337 -0.1543792486190796 0.2194644957780838
-0.3029877543449402 0.01239725947380066 -0.3962404429912567
-0.04889018088579178 -0.6254277229309082 -0.21205371618270874
0.3444940447807312 0.14856217801570892 -0.39869600534439087
0.20972557365894318 -0.25526246428489685 0.2929520905017853
-0.04598758742213249 -0.11240334808826447 -0.33650219440460205
-0.11872086673974991 0.0018670931458473206 0.10678582638502121
0.034888412803411484 0.3376811146736145 0.4587176740169525
0.11273670941591263 0.23746144771575928 -0.40213918685913086
0.02803289145231247 0.0024646264500916004 0.07494156062602997
0.5772057771682739 0.2224244922399521 0.05212203413248062
0.3750969171524048 -0.6244472861289978 0.04583730548620224
-0.11438892036676407 0.0039001740515232086 -0.020625708624720573
-0.3656712770462036 0.39950501918792725 -0.1624154895544052
0.021777665242552757 0.39901262521743774 -0.14021441340446472
0.16179628670215607 0.1250484436750412 -0.39659184217453003
0.23640762269496918 -0.5685467720031738 -0.27886107563972473
0.33131900429725647 -0.45071399211883545 0.1426810920238495
0.300571471452713 0.0029713502153754234 0.08872956782579422
-0.05544830113649368 -0.620871365070343 0.018052879720926285
0.53529292345047 0.3930453956127167 0.31131502985954285
-0.5742014646530151 -0.027956925332546234 -0.016665292903780937
0.07292601466178894 -0.1547994464635849 0.30924320220947266
0.06867679953575134 -0.09126589447259903 0.3349985182285309
-0.11284571141004562 -0.4023411273956299 -0.21167215704917908
0.09918198734521866 0.0032084565609693527 -0.17514756321907043
-0.43953076004981995 -0.09836823493242264 -0.21513593196868896
-0.00035277672577649355 0.0021157492883503437 0.09294377267360687
0.258230984210968 -0.5944398641586304 0.216592937707901
0.14113035798072815 -0.6375907063484192 0.21400493383407593
0.49715137481689453 0.0014035255881026387 0.09182392060756683
-0.006238267756998539 -0.6255272030830383 -0.1398053616285324
-0.40797507762908936 -0.03641467168927193 -0.3909742832183838
0.4683685898780823 0.01004441361874342 -0.3904564082622528
0.33452895283699036 0.3975459933280945 -0.19132888317108154
0.26360243558883667 -0.6538609862327576 0.19556720554828644
0.050308726727962494 -2.1891668438911438e-05 -0.213155597448349
0.5560387969017029 0.2611040771007538 0.3376298248767853
-0.3776683509349823 0.020155776292085648 0.1821688413619995
0.36572951078414917 -0.00018244516104459763 -0.2649720013141632
-0.5727531313896179 0.06685402989387512 0.3316703140735626
0.5693461894989014 0.057965077459812164 -0.39052703976631165
-0.19619059562683105 0.003516090102493763 -0.10293091833591461
0.29502591490745544 -0.6187731623649597 0.0426008403301239
-0.47339221835136414 -0.11263623833656311 -0.14877548813819885
0.1405518651008606 0.002495899796485901 -0.346756249666214
-0.5389837026596069 -0.07800136506557465 0.22617366909980774
0.241309255361557 0.39909827709198 -0.06951411068439484
-0.5714951157569885 0.17990107834339142 0.3342621326446533
-0.5515705347061157 0.07682043313980103 0.000138960313051939
0.4310151934623718 0.167525976896286 -0.4028230607509613
0.42559248208999634 0.39634549617767334 -0.3888533413410187
-0.07343368977308273 0.0032586557790637016 -0.16291877627372742
-0.16872408986091614 0.3474595546722412 -0.3954543173313141
0.31761634349823 -0.6275519728660583 -0.1596817970275879
-0.5728508830070496 -0.014990510419011116 -0.042280424386262894
0.2539640963077545 -0.6257896423339844 0.09554003924131393
-0.17388270795345306 -0.45391175150871277 -0.10119470953941345
-0.3433501720428467 0.3786134421825409 0.043892648071050644
-0.39780065417289734 0.08043742924928665 -0.13266238570213318
0.26505473256111145 0.003325744066387415 -0.009387500584125519
-0.5727211833000183 0.294996976852417 0.24680551886558533
0.28653743863105774 0.46737271547317505 0.4335763156414032
0.04236879199743271 0.0025068651884794235 0.12486816197633743
0.24765489995479584 0.4201977849006653 0.3585554361343384
0.5182229280471802 0.011082728393375874 0.32991138100624084
0.09965018182992935 -0.6424037218093872 -0.30759429931640625
0.1957845538854599 0.008398598991334438 -0.387408047914505
0.2153768092393875 -0.49487313628196716 0.2297651767730713
-0.10028041899204254 -0.22719824314117432 0.2422982156276703
0.08351577818393707 0.40057283639907837 -0.07136096805334091
-0.46211880445480347 0.1576918512582779 0.341823011636734
-0.5769174098968506 0.010815965011715889 -0.28371599316596985
-0.03782697021961212 -0.6235309839248657 0.1437058299779892
0.23697200417518616 0.23587119579315186 -0.39823776483535767
-0.11161817610263824 -0.4429108500480652 0.16216936707496643
0.25865137577056885 -2.942979335784912e-05 0.25807806849479675
0.3984777331352234 0.3963100016117096 0.18300949037075043
-0.5685201287269592 -0.006124296225607395 0.1791348159313202
-0.5811319947242737 0.28132376074790955 0.13681931793689728
-0.44599151611328125 0.06321845948696136 0.34099364280700684
-0.5202574133872986 0.0029162000864744186 -0.18008507788181305
-0.2288396954536438 0.003122554160654545 -0.3113820254802704
-0.036224812269210815 -0.6226873993873596 -0.16840970516204834
0.3789632320404053 -0.11042745411396027 -0.2283308357000351
-0.0887802392244339 -0.4079805910587311 0.18720315396785736
0.5849670767784119 0.09009873867034912 0.14997495710849762
-0.4393261969089508 0.316224068403244 0.3409481644630432
0.1099303588271141 0.023570938035845757 0.3386074900627136
-0.39254650473594666 0.08075191080570221 -0.37506306171417236
0.037416063249111176 0.17333391308784485 0.3474518358707428
0.39637690782546997 0.3974250257015228 -0.3566681444644928
0.2620939016342163 0.18394766747951508 0.3408336639404297
-0.0789298266172409 0.3981693387031555 -0.33903422951698303
0.02217600680887699 0.3987772464752197 -0.16771294176578522
0.21290834248065948 0.39699944853782654 -0.02078484743833542
-0.5291618704795837 0.39044326543807983 -0.09199853986501694
0.08149231225252151 0.39825955033302307 0.10193020105361938
0.2450534552335739 -0.6248266100883484 0.09106285125017166
0.5473190546035767 0.1659437119960785 -0.3980870544910431
-0.16255396604537964 -0.5013508200645447 -0.11710887402296066
0.38770121335983276 -0.5168662071228027 0.021522581577301025
0.4785923659801483 0.3971691131591797 0.0368170440196991
0.4959341287612915 0.003928272519260645 0.24108973145484924
0.19178354740142822 0.0027108117938041687 0.12110558897256851
-0.38425907492637634 0.3983447849750519 -0.023040682077407837
0.1927052140235901 0.12202305346727371 0.4613114893436432
0.031046710908412933 0.00286821648478508 0.13684889674186707
0.042735617607831955 -0.014683529734611511 0.3007746934890747
0.41487249732017517 0.0018393987556919456 -0.04595743492245674
-0.03398290276527405 -0.6389472484588623 -0.26891934871673584
0.15926672518253326 -0.5677382946014404 0.25385892391204834
-0.11460946500301361 0.0038118744269013405 -0.07787244021892548
0.06384039670228958 0.0031820402946323156 -0.22772543132305145
-0.1523655652999878 0.3984401822090149 0.07977717369794846
0.581834077835083 0.04421434551477432 -0.0644872710108757
0.32010337710380554 0.35217389464378357 0.35259753465652466
0.11880546808242798 0.3626163899898529 -0.40240904688835144
-0.4675367772579193 0.3792950510978699 -0.3924489915370941
0.049439217895269394 0.0024756668135523796 0.1480676680803299
-0.3647913932800293 -0.03655725717544556 0.27591782808303833
-0.5341985821723938 -0.08081037551164627 -0.3222590684890747
-0.0010957729537039995 0.4006786644458771 -0.06552794575691223
0.517230749130249 0.39452993869781494 0.3431273102760315
-0.394703209400177 0.001742442836984992 -0.08590920269489288
0.10128960013389587 0.354298859834671 0.3390718400478363
0.021097196266055107 0.10158907622098923 0.44178318977355957
0.26929202675819397 0.16082893311977386 0.46143457293510437
0.2892286777496338 -0.5320612788200378 -0.24654722213745117
-0.5738251805305481 0.17882585525512695 -0.20251858234405518
0.059724628925323486 -0.6216663122177124 0.0629207044839859
-0.07009086012840271 0.3950943648815155 -0.370747447013855
-0.5723565816879272 -0.02635488472878933 -0.08691518753767014
-0.18534770607948303 -0.3589608669281006 0.15370360016822815
-0.011778316460549831 0.39959800243377686 -0.27087846398353577
-0.3477654457092285 0.3669419288635254 -0.20179930329322815
0.5817734599113464 0.2687334716320038 -0.3024004399776459
-0.5724980235099792 0.1520247757434845 0.33362531661987305
0.3158653974533081 0.39372217655181885 0.3898962140083313
0.2685907781124115 -0.1544562429189682 -0.3236851990222931
-0.14995895326137543 -0.005321514792740345 -0.08441945165395737
-0.06881050765514374 -0.6231415271759033 -0.022028347477316856
0.31534942984580994 -0.6227976083755493 0.058917086571455
0.20741137862205505 -0.3774896264076233 -0.3270314037799835
-0.027714483439922333 0.3457133173942566 -0.3938659727573395
0.002079628175124526 0.40153080224990845 -0.018160952255129814
0.3737432360649109 0.0015456480905413628 0.223481684923172
0.2803809344768524 -0.5358036756515503 -0.2544487416744232
-0.2606046497821808 0.40106621384620667 -0.00457182340323925
0.015349246561527252 0.32676658034324646 0.34379079937934875
0.27050966024398804 -0.2100762277841568 0.26894646883010864
-0.22140847146511078 0.39870843291282654 -0.3025987446308136
-0.578532338142395 0.1251164823770523 0.10403302311897278
-0.21085740625858307 0.3974159061908722 0.10679122805595398
0.17248046398162842 -0.5572842359542847 -0.309293657541275
0.021089894697070122 -0.6256667971611023 -0.01976359449326992
0.2783094644546509 0.0029145246371626854 0.3213058412075043
-0.11192802339792252 -0.30460527539253235 0.23615629971027374
-0.5587722063064575 0.35178545117378235 0.33558428287506104
-0.06997963786125183 -0.5578107237815857 0.19884631037712097
0.31786563992500305 0.28869619965553284 0.4559648036956787
0.23942476511001587 -0.6218637228012085 -0.0826675295829773
0.41986432671546936 -0.3677138686180115 0.07205165922641754
-0.5793798565864563 0.2350788563489914 0.06231124699115753
-0.3943299353122711 -0.0758533775806427 0.13804857432842255
0.5600795149803162 0.31656840443611145 0.34364208579063416
0.13780292868614197 0.04776965454220772 -0.3987014889717102
0.15572158992290497 -0.08384766429662704 0.37494194507598877
0.3153741657733917 -0.057945314794778824 0.40787190198898315
-0.1839369684457779 -0.04776810482144356 0.1512780338525772
0.3190270960330963 -0.21753770112991333 0.23690122365951538
-0.561150312423706 -0.050035927444696426 -0.01578260399401188
-0.24642370641231537 -0.014701384119689465 -0.04256392642855644
0.516545295715332 0.37942805886268616 0.3403392434120178
-0.07149630784988403 0.39534738659858704 0.29282346367836
0.0521794892847538 0.0016372455283999443 0.16687273979187012
0.19105064868927002 0.002722860313951969 -0.06581811606884003
0.13826118409633636 -0.5154464840888977 0.2543458342552185
0.12932941317558289 -0.07603161782026291 -0.37294965982437134
-0.5750407576560974 0.08250842243432999 0.004319461062550545
0.11771244555711746 0.0029525929130613804 -0.025405889376997948
-0.11258193105459213 0.38927289843559265 -0.3966520428657532
0.24414785206317902 -0.17830871045589447 0.2833922803401947
0.08683864027261734 0.3988414406776428 -0.10756101459264755
0.18071109056472778 0.002590324729681015 -0.2857329249382019
0.17341676354408264 0.4658832252025604 0.41086503863334656
-0.41072654724121094 0.0050654103979468346 -0.38895174860954285
-0.1368575543165207 -0.6397032141685486 -0.1810096800327301
0.16697192192077637 0.0009194733574986458 0.2867719531059265
0.30502817034721375 0.3683182895183563 -0.39993783831596375
-0.48046475648880005 -0.007312517613172531 -0.3971429169178009
-0.5792893171310425 0.18847784399986267 -0.24634766578674316
0.1661265343427658 0.16844049096107483 0.3384200632572174
0.15077780187129974 0.2652346193790436 0.46616461873054504
0.5782210826873779 0.3687319755554199 -0.28562310338020325
0.033778682351112366 0.2954408526420593 0.45004796981811523
-0.12434922158718109 -0.6059553027153015 -0.19511781632900238
-0.5433798432350159 -0.07333274930715561 -0.38473016023635864
0.3915902376174927 0.01151502039283514 -0.3893158733844757
0.15064027905464172 0.06422455608844757 0.4622485339641571
-0.5421139001846313 0.389143168926239 -0.13249322772026062
-0.5739437341690063 0.29225602746009827 -0.36789244413375854
0.1864839643239975 0.0031129680573940277 -0.22239787876605988
0.2024785280227661 0.40070703625679016 0.0010693600634112954
-0.17408674955368042 -0.14486035704612732 -0.22293932735919952
-0.2972389757633209 0.396822988986969 -0.2222309559583664
0.3615269958972931 -0.6451917290687561 -0.055625610053539276
-0.1332898885011673 -0.023029206320643425 0.21080836653709412
-0.3672475814819336 0.004837873391807079 0.22185590863227844
-0.4034995436668396 -0.0778917595744133 -0.2915859520435333
0.022026769816875458 0.002965042367577553 0.02807118184864521
-0.5702012181282043 0.06476933509111404 -0.12656697630882263
0.05051185190677643 -0.17188246548175812 -0.36831575632095337
-0.17292898893356323 -0.6272701025009155 -0.08966086059808731
-0.1750684380531311 0.3962078094482422 0.18135270476341248
-0.5730443000793457 0.13343365490436554 -0.29228004813194275
-0.12937404215335846 0.39737024903297424 0.12025271356105804
0.04340068995952606 -0.5858808159828186 0.2517930567264557
0.27080246806144714 0.029690394178032875 0.33858129382133484
-0.38360899686813354 0.3541921079158783 0.029978569597005844
-0.027250900864601135 -0.6260154247283936 -0.08487027138471603
-0.3999984860420227 -0.0301156435161829 0.3400424122810364
0.39016276597976685 -0.43076756596565247 -0.06851568818092346
0.3258887827396393 0.0025922185741364956 0.17182357609272003
0.5502435564994812 0.3970620930194855 -0.29097071290016174
0.29506808519363403 0.0030841778498142958 -0.01749935746192932
-0.5786920785903931 0.026187870651483536 -0.15626543760299683
-0.03689773008227348 0.05664876475930214 -0.3980260491371155
0.08482322841882706 0.3968135416507721 0.2795132100582123
0.31283602118492126 0.398872435092926 -0.11348836869001389
-0.45030906796455383 0.0014070844044908881 -0.13676919043064117
-0.4503418207168579 -0.1107366755604744 -0.032756779342889786
-0.3177317976951599 0.1215159073472023 -0.39837297797203064
0.174758642911911 0.4005376100540161 0.3404558002948761
-0.08574781566858292 -0.6200984120368958 -0.03144106641411781
0.431897908449173 -0.07776610553264618 0.061596665531396866
0.20306891202926636 0.0435355007648468 0.3398555815219879
-0.5638096928596497 0.059412188827991486 -0.07941697537899017
0.5596654415130615 0.007605436258018017 -0.2658959925174713
-0.052132103592157364 -0.364131897687912 -0.32611045241355896
-0.33634230494499207 0.003129353979602456 -0.06759212911128998
0.3308216631412506 0.358087956905365 0.36772575974464417
0.4556063115596771 0.2856580317020416 -0.39855271577835083
0.31576529145240784 0.0019645709544420242 -0.21340899169445038
-0.3762970268726349 0.03352922946214676 0.3356204628944397
-0.23040087521076202 -0.3032606542110443 0.05266270041465759
-0.374922513961792 0.2645934522151947 -0.4024324417114258
-0.4213119149208069 0.00425861869007349 -0.06738372892141342
0.0507197268307209 -0.053932707756757736 0.3155847489833832
0.13287922739982605 0.0029641403816640377 -0.061510540544986725
0.02118416130542755 0.03620658814907074 0.40482401847839355
0.21038007736206055 -0.20756784081459045 -0.3510599136352539
0.3573795258998871 -0.12276988476514816 0.20079970359802246
0.547541618347168 0.006238649133592844 0.177268385887146
0.25269177556037903 0.23941388726234436 0.46245646476745605
-0.32775962352752686 0.07861112803220749 -0.3995986580848694
0.3000459372997284 0.04174470528960228 0.34224292635917664
-0.058112937957048416 -0.6222690343856812 0.02242201939225197
-0.2341161072254181 -0.007205297239124775 -0.05961829423904419
-0.20133890211582184 -0.20244288444519043 -0.17081166803836823
-0.2638316750526428 0.39704909920692444 -0.1908484846353531
-0.00550095085054636 0.398395299911499 -0.29639655351638794
0.14831402897834778 -0.6357768774032593 -0.2871750593185425
-0.43928393721580505 -0.09419239312410355 -0.23278063535690308
-0.35012590885162354 0.01017607469111681 0.33541321754455566
0.4909988045692444 0.23035557568073273 -0.39797696471214294
0.4330236613750458 -0.16226409375667572 -0.09966837614774704
-0.41746729612350464 -0.0005975509993731976 -0.39396604895591736
-0.5647386312484741 0.36966586112976074 0.03745909780263901
0.1732977032661438 0.09968121349811554 0.33869484066963196
0.5803551077842712 0.0632525235414505 0.04671572521328926
-0.02298140898346901 0.3712584972381592 -0.39934974908828735
-0.5622279047966003 -0.03295980766415596 -0.1496557742357254
0.12574416399002075 -0.6230611205101013 -0.24803806841373444
0.10851594805717468 0.33015865087509155 0.46094802021980286
0.472184956073761 0.3663714826107025 -0.39710140228271484
0.14677831530570984 -0.30332183837890625 -0.3717843294143677
0.2921712100505829 -0.14171573519706726 -0.30989912152290344
-0.5491902232170105 0.38249507546424866 -0.19907008111476898
0.5807042121887207 0.19582775235176086 0.13357503712177277
-0.5646924376487732 0.20959419012069702 0.33455565571784973
-0.4362185597419739 0.3955315947532654 -0.2611539959907532
-0.16378919780254364 -0.5401935577392578 -0.13273072242736816
-0.06435778737068176 -0.36292049288749695 0.2604950964450836
0.27414628863334656 -0.6189466714859009 -0.09535137563943863
-0.5706393122673035 0.014125353656709194 -0.3416450321674347
-0.47825008630752563 0.020575731992721558 0.3541693389415741
0.13852931559085846 -0.5619577765464783 -0.31692248582839966
-0.1479368954896927 -0.13350580632686615 -0.2431650310754776
-0.5283341407775879 0.11091743409633636 0.19165967404842377
-0.01927373744547367 0.003312579821795225 -0.1848040223121643
-0.5422223806381226 0.0016835170099511743 0.158757746219635
0.2471960484981537 0.3489041030406952 -0.4010792374610901
0.5280038118362427 0.2955346703529358 -0.4032851755619049
0.23924145102500916 0.39214640855789185 0.3453975021839142
-0.3821042478084564 -0.0758042186498642 -0.16971100866794586
0.08844313025474548 0.13178902864456177 0.4617357850074768
0.33915746212005615 -0.5123217701911926 0.12998703122138977
0.04501163959503174 -0.5297109484672546 -0.30576059222221375
0.39449048042297363 0.39417171478271484 0.15489205718040466
0.21616172790527344 0.029504403471946716 0.4617248773574829
-0.12203217297792435 0.39717933535575867 -0.03771762177348137
0.3889921009540558 0.3931386470794678 -0.3876188397407532
0.13349740207195282 0.19873584806919098 0.34487852454185486
-0.14418873190879822 0.0022752173244953156 -0.24643993377685547
-0.22911252081394196 0.1861122101545334 -0.40088555216789246
-0.38034260272979736 -0.05785701051354408 0.11552130430936813
0.2589423954486847 0.39845243096351624 -0.11566814035177231
-0.5670246481895447 0.3140692710876465 -0.39206448197364807
-0.2366408109664917 -0.2979349195957184 -0.07749775052070618
-0.2224610447883606 -0.37298381328582764 -0.031261835247278214
-0.19669821858406067 -0.2912996709346771 0.1348809003829956
0.4415138363838196 -0.09549955278635025 0.04052741080522537
0.29677149653434753 0.39629364013671875 0.027026180177927017
0.36541423201560974 0.3973948359489441 -0.2904953956604004
-0.4977916181087494 0.3945100009441376 -0.13959234952926636
0.4592988193035126 0.39634883403778076 0.00052415527170524
0.09720905870199203 -0.3364900052547455 -0.36983686685562134
-0.002819123910740018 0.001972552388906479 -0.32333192229270935
-0.12719930708408356 -0.6241220831871033 -0.1967715471982956
0.2694815397262573 0.0033563575707376003 -0.07824205607175827
-0.15174943208694458 -0.22771726548671722 -0.2540990710258484
-0.27797144651412964 0.3987855911254883 0.2926267087459564
0.16503892838954926 0.0024631251581013203 -0.3681585192680359
0.3370940387248993 0.0022258032113313675 -0.003162375884130597
-0.5396921038627625 0.3875276446342468 0.17255550622940063
0.3071201741695404 -0.6208536028862 -0.22473590075969696
0.11838571727275848 -0.3798316419124603 -0.34271708130836487
0.03952264413237572 0.26885566115379333 0.389634370803833
0.5845972299575806 0.2294212430715561 0.11662068217992783
0.18177485466003418 0.003070322098210454 -0.24576178193092346
-0.5745390057563782 0.3617578446865082 -0.28903335332870483
0.07614944130182266 -0.1630123257637024 -0.37227433919906616
-0.3549787998199463 0.006620944477617741 0.1257411241531372
-0.2044718712568283 -0.08966688811779022 0.1219715103507042
0.23830702900886536 0.07413963973522186 -0.3969530463218689
0.38159745931625366 -0.3145475387573242 -0.22084695100784302
0.3708474338054657 -0.38649484515190125 -0.16018076241016388
0.5798661112785339 0.05525650084018707 0.20598165690898895
-0.01775970309972763 0.3969441056251526 -0.3777047395706177
0.2995302975177765 -0.0015414459630846977 0.2841143012046814
-0.16360503435134888 -0.6530270576477051 0.04943320155143738
-0.13640941679477692 -0.26427701115608215 -0.27177056670188904
0.5794951915740967 0.14934740960597992 0.169772669672966
0.16138362884521484 -0.6444418430328369 0.24854907393455505
-0.1250450313091278 -0.02002089098095894 0.23227562010288239
-0.5506616830825806 -0.06838497519493103 0.15461628139019012
0.3641933500766754 -0.5767464637756348 -0.1470600664615631
0.12170484662055969 -0.621475100517273 -0.1859869658946991
-0.24891166388988495 0.26731494069099426 -0.39677613973617554
-0.3856830298900604 -0.0434061661362648 -0.08282041549682617
0.23732466995716095 -0.12408212572336197 0.28690215945243835
0.05561554804444313 -0.6221923828125 -0.19234073162078857
-0.20155559480190277 -0.2694763243198395 0.12406590580940247
0.09790879487991333 0.09613462537527084 0.3409890830516815
0.292419970035553 0.25241711735725403 -0.3973940312862396
0.2850629985332489 0.00416986271739006 -0.15942944586277008
0.5789378881454468 0.056600961834192276 -0.33881089091300964
0.2718457877635956 0.396171510219574 -0.3303071856498718
-0.18950451910495758 0.0016981365624815226 -0.22795292735099792
0.5734606981277466 0.36929890513420105 -0.09007702767848969
0.32298094034194946 0.2871693968772888 0.3432036340236664
-0.06428581476211548 0.0017273370176553726 -0.3281494081020355
0.3642102777957916 0.0020388122648000717 0.07999785989522934
-0.42905884981155396 0.012563081458210945 -0.3953925371170044
0.03841488063335419 0.0029715970158576965 0.12796355783939362
0.3118579089641571 0.21308186650276184 0.4496924877166748
-0.322567880153656 0.39896297454833984 0.059727489948272705
0.13268053531646729 0.3989323675632477 -0.10503637790679932
-0.15302953124046326 -0.6431784629821777 -0.1331205517053604
-0.007570513058453798 0.002443683333694935 -0.0035535963252186775
0.22284652292728424 0.002729281783103943 0.06071501597762108
-0.572554886341095 0.31614989042282104 0.01611432246863842
0.5404468178749084 0.1524011194705963 0.33884695172309875
0.5634039044380188 0.39379456639289856 -0.15098075568675995
-0.0620463602244854 0.3526464104652405 0.34062087535858154
0.0983952134847641 0.33531543612480164 0.3385956287384033
-0.46713998913764954 0.118514284491539 -0.19944171607494354
0.5792640447616577 0.3304518163204193 0.13770662248134613
-0.562059223651886 -0.05319749563932419 0.28672030568122864
-0.45216310024261475 0.09270554780960083 -0.40189239382743835
-0.5714675188064575 0.30612102150917053 -0.3560972213745117
-0.5743403434753418 0.023495005443692207 -0.19991230964660645
-0.5711310505867004 0.052870482206344604 0.0009655083995312452
0.18843258917331696 0.005858077667653561 -0.37956708669662476
-0.15514835715293884 -0.5082734823226929 0.10026298463344574
0.10315239429473877 -0.21870845556259155 -0.3737529218196869
0.05519906431436539 -0.5547365546226501 -0.3102274537086487
0.3810620605945587 -0.610619068145752 0.04638848453760147
0.2462588995695114 -0.3219754695892334 -0.3415633738040924
-0.11832354962825775 -0.6417658925056458 -0.14398668706417084
0.2993767559528351 -0.40938642621040344 0.17474032938480377
0.33887824416160583 -0.2904561758041382 -0.27459970116615295
-0.5735710859298706 0.01957906410098076 -0.03748613968491554
0.14622169733047485 0.3986407220363617 -0.26132211089134216
-0.5724245309829712 0.0018172156997025013 -0.20773722231388092
-0.5661119222640991 -0.038108959794044495 0.05373048037290573
-0.4531593918800354 0.12344473600387573 -0.013292068615555763
-0.0991501584649086 -0.5832433700561523 -0.2280096560716629
-0.4877794682979584 0.012724889442324638 -0.4010440409183502
-0.29983630776405334 0.2414732724428177 0.34673938155174255
-0.3615166246891022 0.395852267742157 -0.3818446397781372
-0.12558214366436005 0.3975168466567993 0.061292704194784164
0.24782416224479675 0.39725854992866516 -0.20862485468387604
-0.31335291266441345 0.2968316674232483 0.34056299924850464
-0.3331718146800995 0.3018893301486969 0.3408261239528656
-0.5572180151939392 -0.042615845799446106 0.20690636336803436
0.5542955994606018 0.09771336615085602 0.3356109857559204
-0.5727986097335815 0.3288239538669586 -0.0034982424695044756
-0.3713991641998291 0.0788060650229454 0.33592167496681213
-0.4798802435398102 0.11072028428316116 -0.2005043923854828
-0.3270390033721924 0.18244251608848572 -0.39891549944877625
0.4036348760128021 -0.09761118143796921 0.13945522904396057
0.16878356039524078 0.3814117908477783 0.34075728058815
0.22780480980873108 -0.46067652106285095 -0.2867654263973236
-0.3868666887283325 0.07888460904359818 -0.11309817433357239
0.31391802430152893 -0.6361680626869202 0.09611999243497849
-0.10748758912086487 -0.2976651191711426 -0.30154356360435486
0.08321116864681244 0.0025452105328440666 0.2450207769870758
-0.4462532699108124 0.3976392447948456 0.06634115427732468
-0.48342567682266235 0.39711207151412964 0.30451810359954834
0.2663199305534363 0.39759156107902527 -0.20927324891090393
0.16462913155555725 -0.30639559030532837 0.30891093611717224
0.5806412100791931 0.19363096356391907 -0.24736791849136353
0.4095184803009033 -0.29142990708351135 0.13188472390174866
-0.07841993123292923 -0.44540196657180786 -0.2488325983285904
0.11285851895809174 0.002543824724853039 0.15148018300533295
-0.1441941261291504 -0.6462131142616272 0.007249585352838039
-0.5694950222969055 0.051623594015836716 0.223471537232399
0.1507144719362259 -0.6299518346786499 -0.27692732214927673
-0.0113938944414258 0.06489285081624985 -0.39895743131637573
-0.5292518138885498 0.0009376630187034607 -0.17837347090244293
-0.16461947560310364 -0.43416300415992737 0.06574597954750061
0.34886422753334045 -0.6473715305328369 0.11227169632911682
-0.47452470660209656 0.00068067223764956 0.049483466893434525
0.17596270143985748 -0.6241533160209656 -0.05072414502501488
0.4973495602607727 0.24824553728103638 -0.3987610936164856
0.12605202198028564 0.002661990700289607 -0.14993122220039368
0.22559258341789246 -0.44516652822494507 -0.28143858909606934
0.5532656908035278 0.007638574577867985 -0.19755393266677856
0.12725016474723816 -0.6251857280731201 -0.2773289382457733
0.5805689096450806 0.08621415495872498 0.18657514452934265
0.5797838568687439 0.1326499581336975 0.28066253662109375
-0.5678877830505371 0.038505662232637405 -0.3960191607475281
-0.15311267971992493 -0.31520774960517883 0.19537882506847382
-0.564290463924408 0.37355414032936096 0.02906125783920288
0.498381108045578 0.0008348710834980011 -0.3335248827934265
-0.1896316558122635 0.35938751697540283 0.3394838273525238
0.2621968686580658 -0.6228422522544861 -0.17857882380485535
-0.06530524790287018 0.3344172239303589 -0.39643603563308716
0.027681244537234306 -0.4116726219654083 0.24701374769210815
0.2719288468360901 0.01115353498607874 -0.3906133770942688
-0.37480416893959045 -0.039181921631097794 0.2631502151489258
-0.11142504960298538 0.0020570270717144012 -0.28148436546325684
0.22376523911952972 -0.46754738688468933 0.22959841787815094
-0.5797548294067383 0.29881131649017334 -0.1458689272403717
-0.039479561150074005 0.0322745144367218 0.33863747119903564
-0.3621407151222229 0.0388670414686203 0.24742110073566437
-0.5390726923942566 -0.08074444532394409 0.09202160686254501
0.5721635818481445 0.35236433148384094 0.20882387459278107
-0.538966953754425 -0.00336616113781929 -0.2222754955291748
0.31754451990127563 -0.623065710067749 -0.018174810335040092
-0.014786208048462868 -0.6206046342849731 0.0732397809624672
0.15127716958522797 -0.14456644654273987 -0.37096723914146423
-0.5732015371322632 0.17483004927635193 0.15471118688583374
-0.1241183653473854 -0.5354150533676147 0.14890959858894348
0.44315505027770996 -0.014849471859633923 -0.007343089673668146
-0.5267513394355774 0.10841243714094162 0.2968907058238983
-0.2917369306087494 0.38064926862716675 -0.04335172474384308
0.35638076066970825 0.1904369592666626 0.3413136303424835
-0.409110426902771 0.004159596748650074 0.34147173166275024
-0.3918240964412689 -0.0031258980743587017 0.2622382938861847
0.44238772988319397 -0.06140602380037308 0.028063524514436722
-0.5765203237533569 0.12045369297266006 -0.3101758062839508
-0.3788130581378937 0.07223255187273026 -0.3584311902523041
0.5788916945457458 0.22206933796405792 -0.18056868016719818
-0.5677042603492737 0.3562391996383667 0.18442821502685547
0.41997581720352173 -0.33166325092315674 -0.14882388710975647
-0.257233202457428 0.3953823745250702 -0.3691375255584717
-0.03840092942118645 0.002189808525145054 -0.3336936831474304
-0.5047573447227478 0.3792848587036133 -0.13782279193401337
-0.278883695602417 0.010094339959323406 0.32882457971572876
-0.3880857825279236 0.3781322240829468 -0.18804357945919037
0.5837199091911316 0.12935328483581543 -0.13776254653930664
0.20723630487918854 0.10949420183897018 -0.3978733718395233
-0.3194296360015869 0.39752280712127686 0.1539950668811798
-0.4093055725097656 -0.08719968795776367 0.07521793246269226
0.14669884741306305 -0.6218085885047913 0.12944760918617249
0.038922909647226334 0.0016766267362982035 -0.09425347298383713
-0.17821663618087769 -0.4954247772693634 -0.0765528604388237
-0.3587403893470764 0.0024419566616415977 0.24822025001049042
0.5406448245048523 0.0049179112538695335 0.23822925984859467
-0.0168974120169878 0.3984302878379822 -0.29525062441825867
0.32075655460357666 0.3639056980609894 0.3599753677845001
0.276581346988678 0.002900797873735428 0.3227277398109436
0.13799771666526794 -0.6250135898590088 0.15936335921287537
-0.5803516507148743 -0.003232816234230995 0.21851485967636108
0.1065397560596466 0.0708032101392746 0.340835839509964
-0.0111805135384202 -0.5510671734809875 -0.28962165117263794
0.5595406293869019 0.006469817832112312 -0.290979266166687
-0.21715442836284637 -0.20616775751113892 -0.14604520797729492
0.2151394635438919 0.32695242762565613 -0.40004175901412964
-0.5559912919998169 -0.05302305519580841 -0.3892871141433716
-0.5722954273223877 0.047890424728393555 0.2687569558620453
0.10557719320058823 0.39966538548469543 -0.16684962809085846
0.5817371010780334 0.05419860780239105 -0.34462475776672363
0.062261637300252914 0.18058186769485474 -0.4038316011428833
0.08242537826299667 0.002290043979883194 -0.11945973336696625
0.15877869725227356 0.0033509130589663982 -0.19502975046634674
0.06197647005319595 -0.6418713331222534 0.2500789165496826
0.46373727917671204 0.2465810626745224 -0.39818572998046875
-0.5737401843070984 0.14323799312114716 -0.21780093014240265
0.34761446714401245 -0.14040838181972504 0.2086976021528244
0.04570858180522919 -0.6214859485626221 -0.001230584573931992
0.4369990825653076 -0.0007898090407252312 0.030514083802700043
0.004866644740104675 -0.6343386769294739 -0.25931575894355774
-0.0658702701330185 -0.6197946667671204 -0.155522882938385
-0.40131863951683044 0.39679569005966187 -0.3044564425945282
0.11887522041797638 -0.6244934797286987 0.0854841098189354
0.30129194259643555 0.39450445771217346 -0.3906823992729187
-0.38511037826538086 0.39793136715888977 0.28421759605407715
0.4415683448314667 -0.1094355434179306 0.05779721587896347
-0.3796754479408264 -0.03890514373779297 0.08589808642864227
0.09629533439874649 -0.39126697182655334 0.2638758718967438
-0.506085991859436 0.10754016786813736 0.04150821641087532
-0.25135520100593567 -0.0013690181076526642 0.016517601907253265
-0.37500858306884766 0.034449633210897446 0.3210839033126831
-0.43760520219802856 -0.005071294028311968 -0.39041954278945923
0.06815280765295029 -0.3382158875465393 -0.3721868395805359
0.43563899397850037 0.39787670969963074 -0.08523205667734146
0.43550583720207214 -0.28032243251800537 0.057993099093437195
0.22744226455688477 0.390602707862854 0.3394696116447449
-0.03625122830271721 -0.33315160870552063 0.283306747674942
-0.4589329659938812 0.40278980135917664 -0.11108431220054626
0.5756452083587646 0.29578396677970886 0.23129285871982574
-0.07842378318309784 -0.23104724287986755 -0.3268545866012573
-0.5586466193199158 0.0859464481472969 -0.2891136407852173
0.021131882444024086 0.07373735308647156 0.34245070815086365
0.03485403209924698 -0.04914579540491104 0.4458567798137665
-0.4459613561630249 0.40395545959472656 -0.10450461506843567
0.3463297486305237 0.003093321807682514 -0.023994727060198784
0.5783414244651794 0.37473198771476746 -0.386578232049942
-0.5754658579826355 0.12645821273326874 0.23618988692760468
-0.06500900536775589 -0.5899310111999512 -0.25558212399482727
0.0434444285929203 -0.03421097993850708 0.45597365498542786
0.324886292219162 -0.5958961248397827 -0.21108388900756836
0.1970525085926056 -0.3775671124458313 0.2888900935649872
0.18365639448165894 -0.4644845426082611 0.24222886562347412
-0.20714543759822845 -0.06687533110380173 -0.17722316086292267
0.0988755077123642 -0.005197157151997089 -0.3749520182609558
-0.38526615500450134 0.058453142642974854 0.3252842426300049
