0.5770200490951538 0.03968265652656555 0.14993615448474884
0.24582430720329285 -0.002808031626045704 0.2793351113796234
-0.4107952117919922 0.09890636801719666 -0.23498685657978058
0.16674110293388367 -0.6231936812400818 0.18466654419898987
0.06922677904367447 -0.4654679298400879 0.257739782333374
-0.23954550921916962 0.1824825257062912 -0.4014410078525543
0.5058954954147339 0.38403797149658203 0.33793142437934875
-0.13108821213245392 -0.18860183656215668 -0.28697019815444946
0.23817813396453857 -0.6223783493041992 -0.08321112394332886
0.5112500190734863 0.0008487086743116379 -0.34408363699913025
-0.42928048968315125 0.3537956476211548 -0.3992200493812561
-0.01553589291870594 -0.6352288126945496 0.1957765519618988
-0.22707772254943848 -0.12018051743507385 0.0916646346449852
0.035903818905353546 0.0004593566991388798 -0.30577734112739563
-0.2206493616104126 -0.05168173089623451 -0.16378933191299438
-0.5750425457954407 0.12035613507032394 -0.140089750289917
-0.07725173979997635 -0.44490161538124084 0.19417323172092438
0.09308605641126633 0.0020316271111369133 -0.047940049320459366
0.057314690202474594 -0.6451263427734375 -0.28499528765678406
-0.38411858677864075 0.40091025829315186 0.21837550401687622
0.44678714871406555 -0.32602205872535706 -0.052941761910915375
-0.38592010736465454 0.4083636403083801 -0.003812928218394518
-0.02520691230893135 -0.30080726742744446 -0.352192759513855
-0.49615058302879333 0.10477704554796219 0.34185731410980225
-0.5156069397926331 0.22113576531410217 -0.4005105793476105
0.33925536274909973 0.0009587584063410759 -0.19532367587089539
0.14183484017848969 0.15991546213626862 -0.3980148136615753
0.37033775448799133 -0.28297555446624756 -0.24214410781860352
0.4762280583381653 0.057530950754880905 0.3416785001754761
-0.3780752718448639 0.3949280381202698 -0.01900419220328331
0.3068934381008148 0.2022055983543396 0.3423032760620117
-0.22995206713676453 0.12720905244350433 0.3425505757331848
0.08559531718492508 0.2599208652973175 0.34191232919692993
0.35300248861312866 0.39990901947021484 -0.3665427267551422
0.37630587816238403 0.002393709495663643 -0.1603805422782898
-0.43014997243881226 0.11263284087181091 -0.10426189005374908
-0.22280631959438324 -0.0007813512347638607 -0.06733356416225433
0.5794174075126648 0.11030169576406479 -0.11579129844903946
0.19971050322055817 0.00013479869812726974 0.08760134130716324
-0.33076179027557373 0.3837072551250458 0.34032443165779114
0.25066477060317993 0.0002751629799604416 -0.30829280614852905
0.3325713276863098 -0.22284528613090515 0.2218683362007141
-0.009259588085114956 -0.06830205023288727 -0.3567551076412201
-0.12045536935329437 0.06672520935535431 -0.3993796110153198
-0.4860786497592926 -0.11040423065423965 -0.07848604768514633
-0.4416375160217285 0.10307712852954865 0.12827293574810028
0.5795170664787292 0.15239694714546204 -0.23255424201488495
0.5771724581718445 0.19314789772033691 0.2559192478656769
-0.30533698201179504 0.3592710793018341 0.34198197722435
0.22965684533119202 -0.6238141655921936 -0.180372953414917
0.3374180197715759 0.34863871335983276 0.34081414341926575
0.5737199187278748 0.3853644132614136 0.261769562959671
-0.5236842632293701 0.0971958339214325 -0.29313021898269653
0.12465713173151016 -0.018937507644295692 0.3165275752544403
0.11729806661605835 0.04234228655695915 -0.39890098571777344
-0.07400555163621902 -0.0012664683163166046 -0.3339737355709076
-0.5612303614616394 -0.05525567755103111 0.10551062971353531
0.02518259733915329 -0.3659457564353943 -0.361612468957901
-0.5822129249572754 0.26351410150527954 -0.11455231159925461
-0.37199831008911133 0.007299898657947779 -0.10753096640110016
0.029007375240325928 -0.04918297380208969 0.3746684491634369
-0.34948572516441345 0.05123458430171013 -0.39528170228004456
0.014744505286216736 -0.6270248293876648 -0.20427244901657104
-0.5004618167877197 -0.10645902901887894 0.12624816596508026
-0.5391538143157959 0.08530765026807785 0.31744903326034546
0.2438630610704422 -0.0016043437644839287 0.328315407037735
-0.40317606925964355 -0.09075134247541428 0.1655881404876709
0.006029244512319565 0.17458508908748627 0.4125601649284363
0.17202220857143402 0.35262832045555115 -0.40062418580055237
-0.3899523615837097 -0.07255777716636658 -0.28697484731674194
-0.03470367565751076 0.11575966328382492 0.3432433605194092
-0.06424000859260559 -0.2504923939704895 0.27337026596069336
0.25005802512168884 0.4316480755805969 0.4497707486152649
0.13184428215026855 -0.6322842836380005 0.20656955242156982
0.18592697381973267 -6.977561861276627e-05 -0.34706225991249084
0.35733750462532043 -0.00030500534921884537 0.2515738606452942
-0.39375489950180054 -0.08224203437566757 0.24200820922851562
0.021009337157011032 -0.05538741126656532 -0.3645875155925751
0.017512299120426178 0.24054786562919617 0.35004016757011414
0.22546322643756866 0.0016181077808141708 -0.25567004084587097
0.4256449043750763 0.022713787853717804 0.338654488325119
0.30754029750823975 -0.6166588068008423 -0.2265351414680481
-0.19409507513046265 -0.1162659078836441 0.14113816618919373
-0.42221662402153015 -0.10236317664384842 -0.11237706243991852
0.4909975230693817 0.0012245981488376856 0.22958111763000488
-0.3613514304161072 0.03657694160938263 -0.07305947691202164
0.27717068791389465 -0.6222818493843079 -0.12887383997440338
-0.08703269809484482 -0.2772931754589081 0.2572818100452423
0.30655547976493835 0.31989723443984985 0.457857221364975
-0.36788487434387207 0.4043608605861664 0.010526352562010288
-0.023883003741502762 0.03872247040271759 0.34570077061653137
0.5677664279937744 0.008688760921359062 0.06520206481218338
0.1715220957994461 0.3098602294921875 -0.39878225326538086
-0.03392498567700386 -0.5984901785850525 0.2247643917798996
0.3963928818702698 0.15496689081192017 -0.40075355768203735
-0.5450184345245361 -0.07929843664169312 0.2767559885978699
-0.4968770146369934 -0.10948166996240616 -0.056121498346328735
0.34339267015457153 -0.6395587921142578 0.045272346585989
-0.3581414520740509 -0.016034942120313644 0.08099333941936493
0.1897428035736084 0.1767866611480713 0.3386891484260559
0.43090447783470154 0.09680439531803131 0.3403145670890808
-0.5553417801856995 -0.07113578170537949 -0.05731986090540886
-0.580266535282135 0.2961845099925995 -0.04052635654807091
-0.2205389142036438 -0.050155725330114365 -0.14148099720478058
0.10408265143632889 -0.02399221993982792 0.4630686342716217
0.17136217653751373 0.46869057416915894 0.4236123859882355
-0.23982159793376923 0.39619553089141846 -0.14469853043556213
0.050903040915727615 -0.2560332715511322 0.31126096844673157
0.057389385998249054 -0.005155974067747593 0.32069388031959534
-0.0086540337651968 -0.6233420968055725 -0.06421548128128052
-0.4942110776901245 0.37869754433631897 0.3409040868282318
0.31466928124427795 0.001976725412532687 -0.12525756657123566
-0.42417779564857483 -0.0027178307063877583 0.2994251847267151
0.2779735326766968 -0.3723194897174835 0.2505243420600891
0.49355414509773254 5.811642040498555e-05 0.1797826588153839
-0.5301973819732666 0.09147264063358307 -0.0671488419175148
0.008958667516708374 -0.3687761425971985 0.2962997853755951
-0.5258411765098572 -0.0956357941031456 -0.360641211271286
-0.09124009311199188 -0.6245043873786926 -0.028163908049464226
0.5725000500679016 0.3904944360256195 0.05782068893313408
-0.07954516261816025 -0.6259520649909973 -0.1121755838394165
-0.04245448485016823 -0.6265923976898193 -0.21089021861553192
0.2464231699705124 -0.6229005455970764 0.08993066102266312
0.22891083359718323 -0.2801600992679596 -0.3473557233810425
0.08348442614078522 0.0011898623779416084 -0.11164545267820358
0.1486557573080063 -0.0006905212067067623 0.2401101291179657
0.49245360493659973 0.40092357993125916 -0.2544995844364166
0.02208113670349121 0.07022687047719955 0.43443813920021057
0.16826008260250092 0.09761876612901688 0.46382376551628113
-0.019497713074088097 -0.3770321309566498 0.27032867074012756
-0.07730460911989212 0.398041307926178 -0.16387812793254852
0.05622152239084244 -0.02040833607316017 0.46217429637908936
0.04206747189164162 -0.6239964962005615 -0.04746609181165695
-0.3477250039577484 0.007174687460064888 -0.020419958978891373
-0.028212977573275566 0.0005189944058656693 -0.22302302718162537
-0.30569806694984436 0.3724132180213928 0.3432197868824005
0.06361453980207443 -0.021927546709775925 0.4609120488166809
-0.02696959301829338 -0.0025714831426739693 -0.3461844027042389
-0.2892327606678009 0.39296954870224 -0.14586219191551208
0.49086594581604004 0.39768925309181213 -0.08280497789382935
0.418160080909729 -0.001358828041702509 -0.04490901902318001
0.19388112425804138 0.43410417437553406 0.3546319007873535
-0.0834747776389122 -0.33410289883613586 -0.32380563020706177
0.3208859860897064 0.27413174510002136 0.34251609444618225
0.20305640995502472 -0.6387393474578857 0.23403559625148773
-0.27664583921432495 0.26099950075149536 0.3415561020374298
-0.17643101513385773 0.008478890173137188 0.332830011844635
0.12224014103412628 -0.07030361890792847 0.3166711926460266
-0.19035977125167847 -0.3283742368221283 0.15365415811538696
0.34721288084983826 0.3392487168312073 -0.3991648554801941
0.5803608894348145 0.11082619428634644 -0.1496364176273346
-0.43152788281440735 0.02453956939280033 -0.40209880471229553
-0.22711782157421112 -0.3645925521850586 -0.1261148899793625
-0.3540557622909546 -0.006283051334321499 -0.15189805626869202
-0.058178748935461044 -0.0007011014968156815 -0.27355027198791504
0.04813394322991371 -0.6225061416625977 0.1330651044845581
-0.20666246116161346 -0.20102199912071228 -0.18918980658054352
-0.0967070609331131 0.00734188687056303 0.32708150148391724
-0.4699510931968689 0.0014794748276472092 0.2347882241010666
-0.45603275299072266 0.06889479607343674 0.352512925863266
-0.15146611630916595 0.3968331217765808 -0.1832541525363922
0.3831324577331543 0.4020150899887085 0.05817309767007828
0.20870092511177063 0.00021826429292559624 -0.10555752366781235
0.12032327800989151 -0.6231382489204407 0.01404582243412733
-0.17489401996135712 -0.6212539076805115 0.0564434640109539
-0.33919453620910645 0.3955230116844177 -0.12271802127361298
-0.45488378405570984 0.39350956678390503 -0.2510838806629181
-0.5761168599128723 0.29181841015815735 -0.35603588819503784
0.06836405396461487 -0.36252203583717346 -0.37154510617256165
0.358124315738678 -0.12916408479213715 0.19790522754192352
0.36202502250671387 -0.6438834071159363 0.07607211917638779
-0.5843297839164734 0.17768563330173492 0.03384106233716011
0.444377601146698 -0.07816988229751587 -0.02868032082915306
0.14151643216609955 -0.6321764588356018 -0.3088754117488861
0.2319253385066986 0.15420407056808472 0.46402639150619507
0.1779049038887024 -0.23285335302352905 0.30398455262184143
-0.50658118724823 0.4008732736110687 -0.31294021010398865
0.43932220339775085 0.25182026624679565 0.3414534330368042
0.2196233570575714 9.193550795316696e-05 -0.08852552622556686
0.48960620164871216 0.39849185943603516 -0.05182710662484169
0.12846064567565918 -9.902846068143845e-05 0.09928295761346817
0.1355784386396408 0.4635356664657593 0.4409099221229553
-0.42754992842674255 -0.09370825439691544 -0.0219825841486454
0.17508770525455475 0.002232693135738373 0.00552214914932847
-0.36140477657318115 -0.009832202456891537 0.31153053045272827
-0.5618638396263123 -0.010567551478743553 0.34001457691192627
0.4413432776927948 0.009415586479008198 0.3347386419773102
0.2566826641559601 0.0023271413519978523 0.009966431185603142
-0.4017805755138397 0.002487997990101576 -0.2513638734817505
-0.5815973281860352 0.006327894516289234 -0.25660771131515503
0.581943929195404 0.36179280281066895 -0.33570554852485657
0.018363337963819504 -0.6250771284103394 -0.03608085587620735
0.46736857295036316 0.0032108984887599945 0.29090237617492676
-0.05273152142763138 -0.0006220720242708921 0.06118479371070862
-0.09531102329492569 -0.0004746359772980213 -0.25504860281944275
0.4157848060131073 -0.20421452820301056 0.11208295822143555
0.14160771667957306 0.3973369002342224 -0.10357022285461426
0.11089494079351425 0.39830389618873596 -0.19782564043998718
0.11899396032094955 0.004433127120137215 0.46308213472366333
0.45175570249557495 -0.00014938274398446083 -0.18556787073612213
0.28245940804481506 -0.047552816569805145 0.31691139936447144
-0.058709222823381424 0.00030385563150048256 0.17369581758975983
0.26121243834495544 0.3391914367675781 -0.39964500069618225
-0.4822041690349579 0.39903944730758667 -0.04930603876709938
-0.13461008667945862 -0.6143941879272461 -0.19181562960147858
0.03842945769429207 0.0739169791340828 0.37009117007255554
-0.559734582901001 0.07820585370063782 -0.2571682035923004
0.02078867144882679 -0.0006959775928407907 0.04036598652601242
-0.4306970536708832 0.4058990478515625 -0.017767947167158127
-0.12320873886346817 -0.5433842539787292 -0.20191694796085358
0.4389287829399109 0.06732170283794403 -0.3977319598197937
-0.2241295874118805 0.20536744594573975 0.34174370765686035
-0.38269737362861633 0.030250679701566696 -0.39800411462783813
-0.5798653364181519 0.23473863303661346 -0.22825515270233154
-0.3902103006839752 0.0020663999021053314 -0.3080866038799286
0.02034430205821991 -0.023688694462180138 0.30993345379829407
-0.44456443190574646 0.40288183093070984 -0.148372620344162
0.2627752125263214 0.39873436093330383 0.08006571233272552
0.36648330092430115 0.0017406034749001265 -0.17865386605262756
-0.5024877190589905 0.11211732029914856 -0.021462468430399895
-0.3783339560031891 0.31216955184936523 0.34147584438323975
0.4575154781341553 0.39904287457466125 -0.19499564170837402
-0.2668624222278595 0.285944402217865 -0.4023686945438385
-0.0208869781345129 -0.6016544699668884 0.22621546685695648
0.3670125901699066 0.17832253873348236 0.3407630920410156
-0.5039594173431396 0.115168996155262 -0.1526661515235901
-0.49460506439208984 -0.10611910372972488 -0.1861645132303238
-0.5695613026618958 -0.039116375148296356 0.1729564070701599
0.23937837779521942 0.39786478877067566 0.30684274435043335
0.3275943696498871 -0.3891414999961853 0.14716172218322754
0.2873106002807617 -0.3526030480861664 0.25446122884750366
0.13860751688480377 0.3464340269565582 -0.4011841118335724
0.28824731707572937 -0.25414425134658813 -0.3186764717102051
0.39581403136253357 -0.37996459007263184 0.0834837332367897
0.04092690348625183 0.1386442482471466 0.45830273628234863
0.18591541051864624 -0.6257555484771729 -0.06131714582443237
0.4554493725299835 0.0024585346691310406 -0.24432599544525146
0.08082487434148788 0.0005358275957405567 -0.12958642840385437
0.5758403539657593 0.02405749447643757 -0.160725936293602
0.09290094673633575 0.0026900917291641235 -0.3700409233570099
-0.582611083984375 0.295102059841156 0.2534848749637604
0.2604754865169525 -0.2995976507663727 0.2723848223686218
0.39331451058387756 -0.026195984333753586 0.17121608555316925
-0.2369922399520874 -0.004300820175558329 0.05336172878742218
0.2384984791278839 -0.1252683848142624 0.28410494327545166
-0.17613808810710907 -0.22869567573070526 0.17137882113456726
-0.4882226288318634 0.08388111740350723 0.34181442856788635
-0.42773088812828064 -0.10283070057630539 0.14235737919807434
0.011809688061475754 -0.36966273188591003 0.2976198196411133
0.34617698192596436 0.39511436223983765 0.33066555857658386
-0.3609983026981354 0.0032380325719714165 -0.16484561562538147
-0.033130235970020294 -0.004001704044640064 0.30553650856018066
0.4457317292690277 0.4003521203994751 -0.058826811611652374
-0.3597601056098938 -0.0005251432303339243 0.10043568164110184
0.22893644869327545 -0.195787712931633 0.2897193133831024
0.0975559800863266 0.000622328370809555 -0.15691237151622772
0.29911360144615173 5.743466317653656e-06 -0.30812981724739075
-0.15182268619537354 -0.08561749011278152 -0.2717030346393585
0.3996419906616211 0.4018799364566803 0.18911826610565186
0.018571287393569946 -0.0005282179918140173 -0.35751014947891235
-0.4203413724899292 0.1066845953464508 -0.14449523389339447
-0.3265353739261627 0.33067548274993896 0.3415954113006592
-0.5783272981643677 0.26376789808273315 0.051520802080631256
0.4092998206615448 -0.0021815141662955284 0.13367927074432373
-0.4088643789291382 -0.06072311848402023 -0.39536407589912415
0.5826552510261536 0.16754011809825897 -0.13109846413135529
0.08779896795749664 0.3845193684101105 -0.3991944491863251
0.06766471266746521 0.4104626178741455 0.36844199895858765
-0.4582672119140625 0.12774096429347992 -0.40039271116256714
-0.10250157117843628 0.002082331106066704 -0.37508994340896606
-0.17130190134048462 -0.6044806838035583 -0.14900510013103485
0.24632567167282104 -0.34245172142982483 0.2795109748840332
-0.099584199488163 -0.6301332712173462 -0.10903412848711014
-0.12386757880449295 -0.40622878074645996 0.15340061485767365
0.5590517520904541 0.39929285645484924 0.28964701294898987
0.33196231722831726 -0.06058506667613983 0.38370755314826965
-0.43041473627090454 0.001351192593574524 -0.326894074678421
-0.3133862316608429 0.39898481965065 -0.03592458367347717
-0.2685212194919586 0.3990674614906311 -0.1255534291267395
0.14160428941249847 -0.5030861496925354 -0.3144799768924713
0.2506375014781952 0.3979877829551697 -0.30630210041999817
0.00782414898276329 -0.6256335377693176 -0.04498469457030296
-0.2200687825679779 -0.364200621843338 0.08603856712579727
-0.30209630727767944 0.4015170931816101 0.08616577833890915
0.04999822750687599 0.3997991383075714 0.19548442959785461
0.3578612506389618 -0.16713197529315948 -0.24747371673583984
0.49213168025016785 0.03399175405502319 -0.39730867743492126
-0.24392376840114594 0.3944477140903473 -0.1289181113243103
0.3391200304031372 0.050900064408779144 -0.39774900674819946
0.26399943232536316 0.3977612555027008 -0.038912925869226456
0.5302165150642395 0.07338422536849976 0.3375933766365051
0.03981756046414375 -0.04968656972050667 -0.36658886075019836
-0.14992888271808624 -0.6506958603858948 -0.05238013714551926
0.033623628318309784 -0.6272431015968323 -0.14283233880996704
0.49271610379219055 0.0009665358811616898 0.11708349734544754
-0.5022834539413452 0.11163375526666641 -0.2111443281173706
-0.5146054625511169 0.14097897708415985 -0.40069422125816345
0.25110623240470886 0.041920024901628494 0.46032577753067017
-0.0032603605650365353 -0.6265851259231567 -0.08525627851486206
0.2980254888534546 0.4574241638183594 0.44216281175613403
0.07754615694284439 0.19691109657287598 0.4611842632293701
0.20115694403648376 0.3984563648700714 0.22249872982501984
0.3509647846221924 -0.5897242426872253 0.11521532386541367
-0.4191092550754547 0.0009706150740385056 0.13968439400196075
-0.18446795642375946 0.38071900606155396 0.34222298860549927
-0.1687149554491043 0.0027015116065740585 0.2910292148590088
0.20971465110778809 0.171018585562706 -0.40014392137527466
-0.46665695309638977 0.10560794174671173 0.23821313679218292
0.3726387023925781 0.3931099474430084 0.33446118235588074
-0.08066656440496445 -0.37762540578842163 0.23668275773525238
0.3021213710308075 -0.40464428067207336 -0.23601728677749634
0.5799481272697449 0.22141627967357635 0.07616429030895233
-0.052839476615190506 0.2353086769580841 -0.39859244227409363
-0.34830254316329956 0.22270382940769196 0.34051981568336487
0.3301711678504944 0.25131526589393616 0.398680716753006
0.1960792988538742 -0.6250490546226501 -0.10147782415151596
0.3641934394836426 -0.004170882515609264 -0.2283501774072647
-0.23841464519500732 -0.3173043727874756 0.03515951335430145
0.11225984990596771 -0.48442012071609497 -0.3161250650882721
-0.2377195507287979 -0.14380916953086853 0.06246059760451317
-0.2021794468164444 0.3979298770427704 -0.2334548532962799
0.4450550079345703 -0.27745282649993896 -0.06871312111616135
0.2084966003894806 -0.1314968317747116 0.29709330201148987
0.0883847177028656 -0.0006193360313773155 -0.07202938199043274
-0.04491926729679108 -0.3870495557785034 0.21770358085632324
0.44144779443740845 0.33215636014938354 0.34213337302207947
0.2693195939064026 -0.260418176651001 0.26654252409935
-0.47182032465934753 0.0400550477206707 0.34498628973960876
0.27158841490745544 0.4530998170375824 0.3586054742336273
-0.14201462268829346 -0.13883808255195618 0.21717087924480438
-0.20751099288463593 0.37968674302101135 0.340565949678421
0.5776853561401367 0.28403162956237793 -0.08481695502996445
0.09235524386167526 -0.6254990696907043 -0.22329744696617126
-0.12668052315711975 -0.21441705524921417 0.22726692259311676
-0.40877965092658997 0.00452588452026248 0.34198734164237976
0.06374967843294144 -0.458986759185791 -0.3145350515842438
-0.1842627078294754 0.3340328335762024 0.34401142597198486
-0.26872509717941284 0.39881354570388794 -0.32376500964164734
-0.11065942794084549 -0.46056807041168213 -0.22056861221790314
0.4342770278453827 0.3997231125831604 0.31150680780410767
0.0654059499502182 -0.6249813437461853 -0.10081274807453156
-0.2551145851612091 0.3993831276893616 0.02718431130051613
0.29719239473342896 0.3992876410484314 0.060271359980106354
0.26025626063346863 0.0009531732648611069 0.13688525557518005
-0.4954283833503723 0.3815460801124573 -0.11843152344226837
-0.4201410412788391 0.0016855027060955763 0.20989255607128143
-0.5820227861404419 0.10677928477525711 0.24715127050876617
-0.2849535644054413 0.399522066116333 -0.3691386580467224
-0.48353973031044006 0.37327367067337036 -0.013812107965350151
0.28497129678726196 0.40571340918540955 0.4543045163154602
-0.536805272102356 0.07607995718717575 0.18766599893569946
0.12285332381725311 -0.159719780087471 -0.3710865378379822
0.35765671730041504 -0.5826482772827148 0.10169220715761185
0.58067387342453 0.11912340670824051 -0.1965772956609726
0.05279228463768959 0.2661269009113312 -0.4014183282852173
-0.5838448405265808 0.18797138333320618 0.060207169502973557
-0.2584715187549591 0.007040709722787142 0.3245712220668793
0.5782113075256348 0.29429304599761963 0.2572498917579651
-0.19293062388896942 0.39819368720054626 -0.2850988805294037
0.5806251168251038 0.19055472314357758 -0.04098034277558327
0.3247182071208954 0.0009205515962094069 -0.3628760576248169
0.10143987089395523 -0.6235923171043396 0.005700690671801567
-0.36867907643318176 0.39670905470848083 0.3212655484676361
-0.5658279657363892 0.03667139634490013 0.2389637529850006
-0.478701114654541 -0.11161128431558609 -0.3522360026836395
0.02480252832174301 0.39839237928390503 -0.1085636243224144
0.3280846178531647 0.3581477403640747 0.34100884199142456
0.3268684446811676 0.12149111181497574 0.3432093560695648
-0.4250468611717224 -0.10482276231050491 0.12808336317539215
0.016281254589557648 -0.3766074478626251 0.27189144492149353
0.008536051958799362 -0.6228262782096863 -0.2316271960735321
-0.19131214916706085 0.019498709589242935 -0.39798519015312195
-0.14874756336212158 0.006292112171649933 -0.3933247923851013
0.32078108191490173 -0.02889680117368698 0.33042821288108826
-0.05787760019302368 0.19372296333312988 -0.4034271240234375
0.026150451973080635 0.2729346752166748 0.4585234522819519
0.10658366233110428 -0.36907708644866943 -0.37049415707588196
-0.5746110081672668 0.07481905072927475 0.10455048084259033
0.2870696187019348 0.4138323664665222 0.35251012444496155
-0.43084824085235596 0.08790165185928345 -0.24864043295383453
0.3182971775531769 -0.5598657131195068 -0.21952180564403534
-0.040333788841962814 -0.00031564757227897644 0.084381602704525
0.029111946001648903 -0.3117341101169586 -0.36805209517478943
0.030690809711813927 0.4000071585178375 -0.3090716004371643
-0.07999621331691742 -0.3165612816810608 -0.3254048526287079
0.3079427480697632 -0.5808041095733643 -0.23189181089401245
-0.23563827574253082 0.10834260284900665 -0.4005821645259857
-0.12663553655147552 -0.6270826458930969 -0.036324746906757355
0.28099334239959717 -0.3878689408302307 0.19096481800079346
-0.08417624980211258 -0.38670089840888977 -0.2705994248390198
0.27602094411849976 -0.4412742257118225 -0.2576068341732025
-0.41844892501831055 0.11246544867753983 -0.34451642632484436
-0.25645798444747925 0.36567023396492004 -0.39683797955513
0.22545760869979858 -0.008763516321778297 0.31239354610443115
-0.003004386555403471 -0.6258070468902588 0.23614200949668884
-0.020199522376060486 -0.6260197758674622 -0.13344913721084595
0.4621635973453522 0.0031961030326783657 -0.3048575222492218
0.21389339864253998 -0.16438190639019012 0.2926575541496277
0.13672885298728943 -0.6273450255393982 -0.07787276059389114
-0.14795617759227753 -0.17247885465621948 0.20760013163089752
-0.44727879762649536 -0.0012431098148226738 0.2978841960430145
0.4433596134185791 -0.29502201080322266 0.008664443157613277
0.3817088305950165 -0.43952709436416626 0.029851999133825302
-0.20513413846492767 -0.2682188153266907 0.128535658121109
-0.08497422933578491 0.01411200687289238 -0.39693188667297363
0.10953956097364426 0.3985391855239868 0.34404969215393066
0.3727779984474182 -0.20996107161045074 -0.23408174514770508
-0.08753859996795654 0.39604222774505615 0.2795737087726593
0.1308470368385315 -0.005413461476564407 0.3225744366645813
0.3990277945995331 -0.3606969118118286 -0.1909777969121933
-0.05386636406183243 -0.15920567512512207 0.27746671438217163
-0.3691452145576477 0.05390617251396179 -0.39702582359313965
0.20626167953014374 -0.25922855734825134 -0.35931044816970825
-0.5291481614112854 -0.09076584130525589 0.11827397346496582
0.022268027067184448 0.0709042176604271 0.3912656307220459
-0.366676926612854 -0.03775055333971977 -0.2886415719985962
0.3475678861141205 0.001460433006286621 -0.1661835014820099
-0.11541076004505157 0.31559398770332336 0.3469410836696625
0.03016866184771061 0.08239924162626266 0.45865389704704285
0.19713369011878967 0.0058254641480743885 -0.3889925181865692
-0.48277994990348816 0.40191811323165894 -0.11446404457092285
0.47954466938972473 -0.0025770238135010004 -0.02692476101219654
0.027896899729967117 -0.05470430105924606 0.4480801522731781
0.1289120614528656 0.3986387550830841 0.1001431792974472
-0.35911425948143005 0.39917343854904175 0.20105917751789093
0.5765383839607239 0.054728616029024124 0.29848843812942505
-0.08477132767438889 -0.32592707872390747 0.25747495889663696
-0.12843406200408936 -0.2994188666343689 -0.2913564443588257
0.2638399302959442 -0.6211952567100525 -0.06682247668504715
0.5112141966819763 0.009289917536079884 -0.38084086775779724
0.07189495861530304 -0.6214848160743713 0.1475641429424286
-0.568942129611969 0.36452072858810425 0.01702743209898472
0.3093629777431488 -0.6240017414093018 -0.13531489670276642
0.2887805998325348 0.03339957818388939 -0.40090277791023254
0.24207666516304016 0.24490877985954285 0.3402736783027649
-0.16042470932006836 0.2321302890777588 0.34292998909950256
0.02556825987994671 0.02098899334669113 0.4127182960510254
0.450576514005661 -0.09721887856721878 -0.03877579793334007
-0.35045814514160156 0.2820010483264923 0.34150806069374084
-0.5769250988960266 0.09286227822303772 -0.04973164200782776
-0.20540986955165863 -0.0038592503406107426 0.13929295539855957
0.25369834899902344 0.39734944701194763 0.12964017689228058
0.5700442790985107 0.36250048875808716 -0.39147627353668213
-0.5809058547019958 0.22825710475444794 -0.17531080543994904
0.01879698783159256 0.15317761898040771 0.43595173954963684
-0.003540168749168515 0.26151150465011597 0.376079261302948
-0.5620418190956116 0.37939268350601196 0.2848058342933655
0.024805767461657524 -0.6263464093208313 -0.13918142020702362
-0.43473052978515625 0.0006900439038872719 -0.1001182273030281
0.5722581744194031 0.10156330466270447 -0.3875138759613037
-0.1539890170097351 0.05368861183524132 0.33849120140075684
-0.36910441517829895 0.06882365792989731 0.33701446652412415
0.28683754801750183 0.4014613926410675 0.24143721163272858
0.21066652238368988 0.00015924498438835144 0.09503452479839325
-0.08382537215948105 0.006989640183746815 -0.38381946086883545
0.21628908812999725 0.0015229517593979836 -0.2450275421142578
0.3218662142753601 -0.6447674632072449 0.15313713252544403
-0.059708211570978165 -0.628715991973877 0.12685096263885498
-0.063078872859478 -2.5153160095214844e-05 -0.14671199023723602
-0.07875394821166992 0.28492990136146545 0.34617745876312256
0.2607101798057556 -0.05016099289059639 0.4582490622997284
-0.44445639848709106 -0.10968867689371109 -0.13326598703861237
0.2619404196739197 0.0006652055308222771 0.1526252180337906
0.024160802364349365 -0.624639630317688 0.0975378230214119
0.07362132519483566 0.0010891524143517017 -0.32944637537002563
0.021715257316827774 0.39848771691322327 0.19707782566547394
-0.07953241467475891 0.00017617479898035526 -0.0662713497877121
-0.4135926365852356 -0.0975554808974266 -0.2374168485403061
0.5775120258331299 0.13897763192653656 0.16420169174671173
0.2783355712890625 -0.5602555274963379 -0.2545124292373657
0.33380648493766785 0.40290236473083496 0.15842929482460022
0.08741769939661026 -0.0012392092030495405 0.2898833155632019
0.11109557002782822 0.3395702838897705 -0.3984863758087158
-0.2943434715270996 0.40010035037994385 0.3121897280216217
0.5793812274932861 0.15668849647045135 0.11543405055999756
0.40730878710746765 -0.37843525409698486 0.027178920805454254
0.39295125007629395 -0.0021072300150990486 0.1352623701095581
-0.14293858408927917 -0.0012348438613116741 -0.010169564746320248
-0.5525567531585693 -0.0016334489919245243 0.12551917135715485
-0.08968710899353027 0.11279405653476715 -0.4006067216396332
-0.0703173279762268 0.0001610717736184597 -0.17552253603935242
-0.36187031865119934 0.004050435498356819 -0.05234701186418533
0.12838491797447205 -0.6399509310722351 -0.28603672981262207
-0.5792025327682495 0.1161106675863266 -0.16682876646518707
-0.23331110179424286 -0.183700829744339 -0.12171421945095062
0.05975283309817314 -0.37066468596458435 -0.35729265213012695
-0.05948268622159958 -0.0004020009655505419 0.03609279543161392
0.27387264370918274 0.0008652388351038098 0.16474676132202148
-0.328005313873291 0.39920949935913086 -0.3733678162097931
0.12496142089366913 0.13384772837162018 -0.39820170402526855
-0.3414449095726013 0.001920660026371479 -0.08604025840759277
-0.4190117418766022 0.0896720141172409 0.27210649847984314
-0.11420890688896179 -0.4811951816082001 -0.21784129738807678
0.30751779675483704 0.4007326662540436 -0.185299813747406
0.4929658770561218 0.32281801104545593 0.3415043354034424
0.090043805539608 -0.6251940131187439 -0.09065969288349152
0.30594608187675476 0.2842896580696106 0.46059730648994446
0.16259215772151947 0.1316918432712555 -0.4012293517589569
0.007568739354610443 0.3961386978626251 0.3245890140533447
-0.04318714141845703 -0.4787951707839966 -0.27125948667526245
0.36837512254714966 0.0011651776731014252 -0.09220080822706223
0.5712460279464722 0.197899729013443 -0.39123910665512085
0.15643687546253204 -0.08955605328083038 -0.36729446053504944
-0.23859623074531555 -0.19232143461704254 -0.09126300364732742
0.030655475333333015 -0.6320379376411438 0.20869453251361847
-0.12421993166208267 -0.6294630765914917 0.022223737090826035
0.18359149992465973 -0.0017600120045244694 0.2815670073032379
0.3048829436302185 -0.13300573825836182 -0.30341020226478577
0.5662547945976257 0.006176413968205452 -0.16055823862552643
-0.258385568857193 0.040672555565834045 -0.3977574110031128
0.3323635160923004 -0.3000693917274475 0.23071368038654327
0.47990667819976807 0.0026804693043231964 -0.20065240561962128
0.432323694229126 -0.11915674060583115 0.055762194097042084
-0.5806021690368652 0.2150854915380478 0.044869016855955124
-0.03402628004550934 0.006985737010836601 -0.3818354904651642
-0.5803113579750061 -0.019074968993663788 -0.24256855249404907
0.14378952980041504 -0.08198650181293488 0.39059749245643616
-0.5551983714103699 0.38011348247528076 -0.3833356201648712
0.5808581113815308 0.1523863822221756 0.03419269993901253
0.3671518862247467 -0.2969959080219269 -0.2494942545890808
0.063164621591568 0.39950406551361084 0.06503763049840927
-0.48883914947509766 0.0008290854748338461 0.13357900083065033
-0.02214936353266239 0.35819268226623535 -0.3991987407207489
0.07347293943166733 -0.626323401927948 -0.14593355357646942
0.2931598722934723 -0.6450954675674438 -0.2143925130367279
-0.5803292989730835 0.024183349683880806 0.2788276672363281
0.1476723849773407 0.09060709923505783 -0.3977189064025879
0.12575529515743256 -0.6256441473960876 0.015772368758916855
0.5825257897377014 0.21331647038459778 0.15407194197177887
0.18556223809719086 0.39905592799186707 -0.2844805419445038
0.2599273920059204 -0.17330265045166016 -0.33232390880584717
0.2604790925979614 -0.319966584444046 0.27708226442337036
-0.37199559807777405 0.006095827557146549 0.3357948660850525
0.5797724723815918 0.27608978748321533 -0.3081344962120056
0.5780158042907715 0.2458222508430481 0.30230164527893066
-0.3736017942428589 0.006919717416167259 -0.10330990701913834
-0.17744086682796478 -0.6382997632026672 0.04258713126182556
0.3901326358318329 0.0007985173724591732 -0.1716109663248062
-0.4248230457305908 -0.10179921984672546 0.18208017945289612
0.5760186910629272 0.04628736898303032 0.3194292485713959
0.12212986499071121 -0.6269615292549133 -0.22696301341056824
-0.3326842486858368 -0.0017942283302545547 -0.0188410896807909
-0.06033005937933922 -0.6262114644050598 0.010296006686985493
-0.03207363933324814 -0.06478195637464523 0.28488510847091675
0.030237143859267235 0.3983829915523529 -0.24670761823654175
-0.03291654586791992 0.018316006287932396 -0.3981838822364807
-0.3636973798274994 0.012859626673161983 -0.22047588229179382
0.01799613982439041 0.23437054455280304 0.3506493866443634
0.20657511055469513 -0.01722629740834236 -0.3495979607105255
0.20596468448638916 0.00030014989897608757 0.20791596174240112
0.5792901515960693 0.1616295576095581 0.3100927174091339
-0.13896001875400543 0.3115050196647644 -0.40162038803100586
0.5215761065483093 0.39866000413894653 -0.13880199193954468
-0.581792950630188 0.28100571036338806 0.09197204560041428
-0.4633771777153015 0.007603918667882681 -0.40079450607299805
0.5787039995193481 0.21393002569675446 -0.2956319749355316
-0.13414964079856873 0.3970572054386139 0.09980622678995132
-0.5052014589309692 -7.266085594892502e-05 -0.23579935729503632
0.5768452882766724 0.17829465866088867 0.23249399662017822
0.5773212313652039 0.33847007155418396 -0.008691074326634407
0.1675104945898056 0.2601901590824127 0.4648287296295166
-0.36437681317329407 0.006529565900564194 -0.19655776023864746
0.10308437794446945 0.1678037941455841 0.460516095161438
0.5795198678970337 0.1789150834083557 -0.2050350308418274
0.08910757303237915 0.3976065218448639 0.30273374915122986
0.183248832821846 -0.6249817609786987 -0.06767211854457855
0.19753462076187134 0.46740758419036865 0.3744703233242035
0.27897098660469055 0.001054222695529461 -0.3432157039642334
-0.1538747400045395 -0.0011014249175786972 -0.07275925576686859
-0.10490066558122635 -0.0004778117872774601 0.13000327348709106
0.35864099860191345 -0.3407800495624542 -0.25314730405807495
-0.37480461597442627 0.038978707045316696 -0.20880521833896637
-0.5016725063323975 -0.10669610649347305 -0.14965981245040894
0.20494572818279266 0.46790146827697754 0.406293660402298
-0.16379301249980927 -0.43980273604393005 0.06996861845254898
-0.36771607398986816 0.004983285441994667 0.18528315424919128
0.10923681408166885 0.0006117444136179984 -0.305707722902298
-0.3742947578430176 0.0950249582529068 0.33594393730163574
-0.009471770375967026 0.3979628384113312 -0.18120177090168
-0.3810049891471863 -0.002304326742887497 0.22978904843330383
-0.25568515062332153 0.042792219668626785 0.339592307806015
0.25469154119491577 0.0006359918043017387 0.052448563277721405
-0.4127376675605774 0.2617637515068054 -0.4033489525318146
0.4491043984889984 0.002987062791362405 -0.36894363164901733
-0.15413741767406464 -0.6154906749725342 -0.15689802169799805
0.30944541096687317 -0.004255388397723436 -0.28328046202659607
0.34504005312919617 0.004819847643375397 -0.3815586566925049
0.3772033751010895 -0.534924328327179 -0.11983676999807358
0.01998482458293438 -0.38041892647743225 -0.3335876166820526
0.4691224694252014 0.40045222640037537 -0.3393890857696533
0.08526614308357239 -0.6417977809906006 -0.2818480134010315
-0.17289665341377258 0.25821632146835327 0.34569865465164185
-0.17398647964000702 0.0004088180139660835 -0.0775047168135643
0.5556778311729431 0.4004901349544525 -0.2096589207649231
0.4109293222427368 8.394033648073673e-05 -0.12750129401683807
-0.4480591416358948 0.11289159953594208 0.33646160364151
-0.03046242520213127 -0.6449761390686035 -0.2653559446334839
0.23122863471508026 -0.2957442104816437 0.28878602385520935
0.5787109732627869 0.3902105689048767 -0.3554724454879761
0.21902696788311005 -0.17282791435718536 -0.3514702022075653
-0.5745975375175476 0.051125846803188324 0.2682094871997833
0.3830113410949707 0.4012438654899597 0.004843052010983229
-0.1970021277666092 0.38084396719932556 -0.3978443443775177
-0.4193147122859955 0.0016903900541365147 -0.08468865603208542
-0.12702679634094238 -0.6317407488822937 -0.03962380066514015
-0.573357105255127 0.25083765387535095 0.33445504307746887
0.3121218681335449 0.08944651484489441 -0.4009679853916168
0.5777919292449951 0.11054351925849915 0.24474145472049713
-0.4443455934524536 0.11025290191173553 0.09781679511070251
-0.5440367460250854 0.00010107457637786865 -0.12929557263851166
0.4825786352157593 0.39877331256866455 0.004480921663343906
0.5767787098884583 0.016376415267586708 0.20910592377185822
0.5799731016159058 0.07594290375709534 0.07352372258901596
-0.03242802992463112 0.15957039594650269 0.3828156590461731
-0.021762125194072723 -4.024337977170944e-05 0.14084941148757935
0.0431404784321785 -0.5033796429634094 -0.30636706948280334
-0.4839641749858856 -0.10984408855438232 -0.179236501455307
0.5689123272895813 0.008461661636829376 -0.008703142404556274
-0.571659505367279 -0.021526269614696503 0.3133883476257324
0.2035747766494751 0.0008710147812962532 -0.23834875226020813
0.1941923052072525 -0.5667953491210938 -0.3036547005176544
0.550851047039032 0.40323033928871155 -0.2864104211330414
0.5747461318969727 0.08401660621166229 0.24835117161273956
-0.21881915628910065 -0.37286368012428284 0.05681675672531128
-0.09541288763284683 -0.6440473794937134 -0.18259307742118835
0.35258498787879944 -0.6261893510818481 0.11120827496051788
-0.1767425835132599 -0.38115155696868896 0.14237742125988007
0.2794542908668518 -0.2929180860519409 -0.3267541229724884
0.10123325884342194 -0.6250907182693481 -0.17397646605968475
0.01101631112396717 -0.005078289657831192 0.3513481020927429
0.1471051275730133 0.011176854372024536 -0.3943937122821808
0.439299613237381 -0.08248332887887955 0.01660056598484516
0.2873149514198303 0.27748820185661316 0.45829445123672485
0.31140464544296265 0.0364956296980381 0.4579585790634155
0.38660740852355957 0.00011802557855844498 0.03466704860329628
0.4164559841156006 -0.32739004492759705 -0.16292347013950348
-0.05286502465605736 -0.00039273640140891075 -0.0009181031491607428
-0.5788880586624146 0.030391132459044456 -0.2750415503978729
-0.03682300075888634 -0.623694896697998 0.00475309556350112
0.1105436459183693 -0.6236060261726379 -0.1792190968990326
-0.5493292808532715 0.3861868977546692 0.08969760686159134
0.5676859021186829 0.29586365818977356 -0.3940517008304596
0.5334080457687378 0.1139504685997963 -0.3967493772506714
0.576802134513855 0.04969324544072151 -0.031098103150725365
0.25254201889038086 -0.6198893189430237 -0.13612061738967896
0.23042748868465424 -0.003006182610988617 0.3158656358718872
-0.038434624671936035 0.13996843993663788 0.39949700236320496
0.31386706233024597 -0.002714167581871152 -0.2969333827495575
0.3265826404094696 0.24686944484710693 0.43582719564437866
0.06308997422456741 9.009652421809733e-05 -0.1142122894525528
-0.3577865660190582 0.004125828389078379 0.3239235579967499
-0.07105458527803421 -0.5448868870735168 -0.26086851954460144
0.3588946461677551 -0.30847105383872986 0.1982356458902359
-0.47786828875541687 0.4022533595561981 0.24583949148654938
-0.4956962764263153 0.11159618198871613 0.3393059968948364
0.301135390996933 0.002139836084097624 -0.16794706881046295
-0.41019564867019653 0.3965177536010742 0.20075193047523499
0.28514841198921204 0.402396559715271 0.2190590798854828
-0.042264096438884735 0.00019896868616342545 -0.22821176052093506
0.3107353746891022 -0.0024210917763412 -0.3115185499191284
-0.298269659280777 0.3994830250740051 0.2988211512565613
-0.1729334443807602 -0.00034739403054118156 -0.12583376467227936
0.1814541518688202 -0.3448655307292938 0.3034953474998474
-0.1424742192029953 -0.5582299828529358 0.1235230565071106
0.38559070229530334 -0.5236086845397949 -0.017100905999541283
-0.04110793396830559 0.0004971353337168694 -0.0031454076524823904
0.4188580811023712 0.3985596299171448 -0.22335122525691986
0.4469299018383026 -0.2131420224905014 -0.02797325886785984
-0.40622851252555847 0.08735468983650208 -0.39767351746559143
-0.4715240001678467 -0.04314854368567467 0.34920936822891235
0.36363479495048523 -0.4082575738430023 -0.15966230630874634
0.410672128200531 -0.3769378364086151 -0.08394255489110947
0.055004362016916275 -0.6236235499382019 -0.06770755350589752
-0.19981977343559265 0.32802847027778625 -0.39929112792015076
0.2333003133535385 -0.18620333075523376 -0.3475040793418884
0.0173411313444376 0.0003708247095346451 -0.3155050575733185
0.5276544094085693 0.003816111944615841 0.27900758385658264
0.029439840465784073 -0.6257712244987488 -0.15040118992328644
-0.4422978162765503 -0.10643833875656128 -0.10790406912565231
0.2491006851196289 0.4625188112258911 0.36721426248550415
-0.1417068988084793 -0.38584354519844055 0.14237847924232483
-0.07007639110088348 -0.15749232470989227 -0.3320516347885132
0.05250070244073868 -0.00025468156673014164 0.19277159869670868
0.056328438222408295 -0.0658504068851471 0.32291877269744873
0.11406796425580978 0.4120173156261444 0.3603528141975403
0.3914664089679718 -0.11823850125074387 -0.2161184847354889
-0.3039524555206299 0.0035448065027594566 -0.21797586977481842
0.09249131381511688 -0.0006019584834575653 -0.07948528230190277
-0.38765794038772583 0.00356166809797287 -0.39766091108322144
0.4309149384498596 -0.0024446810130029917 -0.10954876244068146
-0.3680916726589203 0.3967673182487488 0.32573065161705017
0.3092567026615143 -0.3713065981864929 0.2290947437286377
0.43950825929641724 -0.15966320037841797 0.03334622457623482
-0.5813266634941101 0.13665395975112915 0.1534145325422287
-0.1608870029449463 -0.565604567527771 -0.15635760128498077
0.3823925852775574 0.0025951452553272247 0.2474130392074585
-0.0045742737129330635 0.0018758522346615791 -0.3142138421535492
0.5479270815849304 0.3993462026119232 0.16693319380283356
0.06978285312652588 0.2799569368362427 -0.3967086672782898
-0.2262330949306488 -0.2257000058889389 0.057553473860025406
0.5809041857719421 0.023978866636753082 0.10742203891277313
0.509961724281311 0.39901769161224365 -0.23948286473751068
0.4433783292770386 -0.09714249521493912 0.03445113077759743
-0.49965229630470276 0.10832981765270233 -0.15526776015758514
0.582169771194458 0.19166535139083862 0.3212512135505676
0.017065955325961113 0.0631396695971489 0.35897380113601685
0.13308921456336975 0.3280777037143707 0.4601496756076813
-0.46673384308815 0.0984189510345459 -0.3255428671836853
0.2898373305797577 0.001156204380095005 0.03765309602022171
0.434076726436615 -0.1752680093050003 -0.1203150674700737
-0.06082960218191147 -0.00026031583547592163 0.22709590196609497
0.09254223853349686 0.17126232385635376 0.46371641755104065
0.07494426518678665 -0.6255134344100952 -0.1246296614408493
0.5790115594863892 0.020676635205745697 0.08883704990148544
-0.3813910484313965 0.06563299149274826 -0.27298250794410706
0.2920922040939331 0.3976913392543793 0.026252707466483116
-0.1796296387910843 0.00011143973097205162 -0.0717889815568924
-0.20910201966762543 -0.0005304869264364243 0.13649778068065643
0.418484628200531 0.40144214034080505 -0.2529734969139099
0.10079044848680496 -0.00012794556096196175 0.14096267521381378
0.5765810608863831 0.35295671224594116 0.2007845640182495
0.21947017312049866 0.17273545265197754 0.34016698598861694
-0.15523022413253784 0.3977743685245514 0.036737434566020966
0.5790718197822571 0.29662859439849854 0.25352707505226135
0.3804386556148529 -0.4669398069381714 -0.10312283784151077
0.4136228561401367 -0.1419885754585266 -0.1668681800365448
0.06696443259716034 -0.2999577224254608 0.31161367893218994
0.5770590901374817 0.23482346534729004 0.17367510497570038
0.21933022141456604 0.4668607711791992 0.43604210019111633
-0.5720227360725403 -0.03993993252515793 -0.2601690888404846
-0.2719753086566925 0.002526654861867428 0.1978001892566681
-0.01612013205885887 0.3988167345523834 -0.15274930000305176
0.3075490891933441 -0.02937266416847706 0.24634608626365662
-0.20274138450622559 -2.9142946004867554e-05 -0.10606232285499573
0.10771729052066803 0.4499700665473938 0.36109599471092224
0.3615913391113281 -0.6502465605735779 -0.05533621460199356
0.22698114812374115 0.0006958742160350084 0.05006571486592293
0.12489977478981018 -0.37903788685798645 0.29523980617523193
0.3824487626552582 -0.5446428060531616 -0.10000370442867279
-0.24035289883613586 -0.33202841877937317 -0.05745334178209305
-0.1417975276708603 -0.38000261783599854 -0.22376373410224915
-0.39989274740219116 0.4108072519302368 0.009800005704164505
0.05630197003483772 -0.625314474105835 -0.033002570271492004
-0.43902066349983215 0.11199067533016205 -0.3284101188182831
0.1454169601202011 7.454492151737213e-05 0.006483307108283043
0.5143269300460815 0.018358444795012474 0.33905869722366333
-0.2419687807559967 0.0013426952064037323 0.2872159481048584
-0.10598951578140259 0.18272694945335388 0.3470105826854706
-0.19298222661018372 -0.2935173213481903 0.14725743234157562
0.41514021158218384 -0.3342030644416809 -0.17257006466388702
0.44867902994155884 -0.1201230064034462 -0.005578210577368736
-0.2918262481689453 -0.0014207768253982067 0.12881016731262207
-0.506014883518219 0.3976876735687256 0.3340151607990265
-0.582683801651001 0.2982557415962219 0.22523227334022522
0.34394383430480957 -0.15345783531665802 0.21165144443511963
0.007110075559467077 -0.35896146297454834 0.29714974761009216
0.37847256660461426 0.00027584750205278397 0.06597064435482025
0.37012672424316406 -0.638054370880127 0.0660693496465683
0.5787863731384277 0.14663153886795044 -0.35756897926330566
-0.19455388188362122 0.05430758744478226 -0.39763879776000977
-0.16982479393482208 -0.4517098665237427 0.0757150650024414
-0.13004587590694427 -0.4027741849422455 0.13880102336406708
-0.5237756967544556 0.10109925270080566 0.31483888626098633
-0.23084698617458344 0.202498197555542 0.3397581875324249
-0.4476284682750702 0.14931312203407288 -0.3967127501964569
0.23058223724365234 0.006197660695761442 -0.3849528133869171
0.1861603707075119 -0.6253709197044373 0.1203584223985672
0.15864500403404236 -0.027876444160938263 -0.3690468966960907
0.08090261369943619 -0.3267837166786194 0.311829149723053
-0.5352414846420288 0.39383232593536377 -0.2828551232814789
-0.1260146051645279 -0.21095940470695496 -0.2855861783027649
0.04948343336582184 -0.00433604558929801 0.31486356258392334
0.5774276256561279 0.05506494268774986 0.08200090378522873
0.3663552403450012 -0.3844905197620392 -0.16503939032554626
-0.3807307481765747 0.026679353788495064 -0.4000558853149414
0.5771718621253967 0.2826921045780182 0.19204546511173248
0.16055423021316528 -0.6246487498283386 0.16087254881858826
-0.1254187524318695 -0.02163306064903736 0.2318112701177597
0.23786063492298126 -0.19199514389038086 -0.34205469489097595
0.09555716067552567 -0.0002822047099471092 0.12592442333698273
-0.015170203521847725 -0.0062940469942986965 -0.3570432960987091
-0.42547234892845154 -0.09382446110248566 0.33483338356018066
-0.2329077273607254 0.39890754222869873 0.17669254541397095
-0.02782224677503109 -0.00046406127512454987 -0.11181851476430893
-0.13559414446353912 -0.07831723242998123 -0.2735370993614197
-0.5750242471694946 0.02344617247581482 0.05256151035428047
0.18602226674556732 -0.20693284273147583 -0.3622589111328125
-0.5712422728538513 -0.027916423976421356 -0.19150672852993011
0.26088592410087585 -0.6202641725540161 -0.13323605060577393
-0.1644560694694519 -0.3685266673564911 -0.24340026080608368
0.27348244190216064 0.0007917152252048254 0.12371180206537247
