-0.25387299060821533 0.1823875904083252 0.34200364351272583
0.4966098964214325 0.0005944408476352692 0.24753400683403015
-0.1384514421224594 0.0033376729115843773 0.31109312176704407
0.0283291544765234 -0.0010830466635525227 -0.07925411313772202
-0.5810732245445251 0.1878882646560669 -0.1407826989889145
0.26051539182662964 0.2805268466472626 0.459806889295578
-0.5223879814147949 0.043059300631284714 -0.39892417192459106
0.0955299362540245 -0.38470470905303955 0.2714638411998749
-0.20335684716701508 -0.2949782907962799 -0.18715403974056244
0.574416995048523 0.029152289032936096 -0.33371102809906006
-0.3849702477455139 -0.06605594605207443 0.056785233318805695
0.38696762919425964 0.2197115272283554 -0.40365105867385864
0.5740397572517395 0.04933205246925354 -0.05462612584233284
-0.1282406598329544 -0.44348981976509094 -0.20654800534248352
0.35597193241119385 0.3986804783344269 -0.18482743203639984
0.24858002364635468 0.2529442608356476 0.3388752341270447
0.11259970813989639 -0.37766388058662415 0.2929268181324005
-0.5342923402786255 -0.06786438822746277 0.33543509244918823
-0.15376117825508118 -0.37999579310417175 -0.22585764527320862
-0.29535970091819763 0.4038761258125305 0.15094874799251556
0.23645691573619843 0.3980901539325714 -0.29767581820487976
-0.049072351306676865 0.0031813969835639 0.3094140887260437
-0.20822113752365112 0.0009504556655883789 -0.15800367295742035
0.36644819378852844 -0.35714462399482727 0.19364099204540253
-0.176493838429451 0.010605229996144772 0.33616048097610474
-0.39960959553718567 0.0009597612079232931 0.0604415200650692
0.3707635700702667 0.039574481546878815 -0.4025226831436157
0.11002099514007568 -0.6186023354530334 0.19688016176223755
0.12748855352401733 -0.5898579955101013 0.25565794110298157
-0.11657657474279404 -0.4358629584312439 0.16713151335716248
-0.5785067081451416 0.33868855237960815 -0.16382338106632233
-0.35708871483802795 0.3984276056289673 0.27179592847824097
0.023558281362056732 -0.6250320672988892 -0.30511346459388733
0.5584688782691956 0.3894425630569458 0.24685260653495789
0.5790854096412659 0.21411195397377014 -0.07211653143167496
-0.18118661642074585 -0.39193060994148254 -0.11932352185249329
0.28638359904289246 0.39257508516311646 0.31277337670326233
-0.471874475479126 0.0017154673114418983 -0.22437936067581177
-0.10832255333662033 -0.6481314301490784 0.14068366587162018
0.41165730357170105 -0.005181990563869476 0.07977539300918579
-0.22453342378139496 0.008830703794956207 -0.39450302720069885
-0.30436593294143677 0.003543528728187084 -0.05326837673783302
-0.46472594141960144 0.3771636188030243 -0.15979155898094177
-0.44628676772117615 0.4001331329345703 0.17175646126270294
0.11506453901529312 0.3995310664176941 -0.27285128831863403
-0.18924877047538757 -0.39040228724479675 -0.06722868978977203
-0.1853492110967636 -0.5778544545173645 -0.01634250394999981
-0.4752848744392395 0.05836942791938782 0.354048490524292
-0.36644068360328674 0.06342485547065735 -0.02539113350212574
-0.28988662362098694 0.0006927894428372383 0.05990101397037506
0.038770824670791626 0.16396456956863403 0.45864638686180115
-0.5804608464241028 0.27648285031318665 0.045034319162368774
0.08922824263572693 0.00022470112890005112 -0.377990186214447
0.29568931460380554 -0.2984156012535095 -0.31588560342788696
0.06956622749567032 0.13892173767089844 0.341111958026886
-0.27135753631591797 0.3989254832267761 0.24173058569431305
-0.10044293850660324 0.19446013867855072 0.39231809973716736
0.2695106267929077 -0.3783436417579651 -0.31830328702926636
-0.049428004771471024 -0.0019801324233412743 0.16878655552864075
-0.040209487080574036 -0.605752170085907 0.22179976105690002
0.3809829354286194 0.06839858740568161 0.3416856527328491
0.029296670109033585 0.39793676137924194 0.23371748626232147
0.3002506196498871 0.3992273509502411 -0.0022259093821048737
-0.13012060523033142 -0.0036262557841837406 0.24104227125644684
-0.10918459296226501 -0.05916935205459595 0.24544793367385864
0.44386735558509827 -0.22014954686164856 -0.07785408943891525
0.06255189329385757 -0.597665548324585 0.2545892596244812
0.36290115118026733 -0.4641561210155487 0.09612575173377991
-0.5473541021347046 0.35746943950653076 0.3367101550102234
-0.15123514831066132 -0.16784079372882843 -0.2664707601070404
-0.3561481535434723 0.26457515358924866 -0.4024829864501953
0.5504280924797058 0.3973400890827179 -0.3607170581817627
0.32984212040901184 0.3965473175048828 0.26241639256477356
0.33458784222602844 0.39962878823280334 0.20260445773601532
-0.1613343209028244 -0.501871645450592 0.0943126529455185
-0.06299864500761032 -0.626464307308197 0.14614751935005188
-0.355184406042099 -0.0020389752462506294 -0.0018827657913789153
0.182003453373909 -0.6236191987991333 -0.1705300509929657
-0.3561362326145172 0.3984077572822571 -0.30909836292266846
-0.5827292203903198 0.22858381271362305 -0.14322245121002197
0.009106776677072048 -0.627605676651001 0.20063640177249908
0.16969344019889832 -0.6214250922203064 -0.1535135954618454
0.35537204146385193 0.007183881010860205 0.3320586383342743
-0.41795921325683594 0.1089247614145279 -0.31248196959495544
-0.5801213979721069 0.32264167070388794 0.07530052959918976
0.549648106098175 0.0043000467121601105 0.08150724321603775
-0.07831979542970657 0.3930751085281372 0.30685052275657654
0.29016929864883423 0.011723816394805908 -0.3990927040576935
0.5575838685035706 0.005482708103954792 -0.08153937011957169
-0.14145945012569427 -0.0002695182338356972 0.10302169620990753
0.3049335181713104 -0.12480389326810837 -0.3010861575603485
-0.5726607441902161 0.05870690569281578 0.3122103810310364
-0.23594379425048828 -0.0019144536927342415 -0.03176235407590866
-0.5630927681922913 -0.001956281717866659 0.1722709983587265
0.23392535746097565 -0.000905885361135006 0.16470296680927277
0.5801262855529785 0.1694422960281372 -0.13669031858444214
-0.406709760427475 -0.0008710213005542755 0.21969079971313477
0.07271113991737366 -0.06720979511737823 0.31673943996429443
-0.11876179277896881 0.3236280679702759 0.34104323387145996
-0.3430807590484619 0.005874777212738991 -0.058188825845718384
0.39307039976119995 -0.10880215466022491 0.15880878269672394
0.35269325971603394 -0.35993722081184387 -0.2557198703289032
-0.536942183971405 -0.09205454587936401 -0.37171781063079834
0.1566578596830368 -0.0010121967643499374 0.014362746849656105
-0.4142765700817108 -0.08724355697631836 0.15581834316253662
0.1062365397810936 -0.6213992834091187 -0.16811907291412354
-0.33810505270957947 0.4005603492259979 0.17172765731811523
-0.1262764185667038 -0.003828579094260931 0.23937241733074188
0.1525944173336029 0.0003949269885197282 -0.07097773998975754
-0.133214071393013 0.005637764930725098 -0.38092923164367676
-0.5772257447242737 0.10744067281484604 -0.23658613860607147
0.4210534691810608 -0.3828965425491333 -0.08752661943435669
-0.07092652469873428 -0.6418415904045105 0.15496979653835297
0.40181058645248413 -0.15209554135799408 0.14046882092952728
0.040994755923748016 0.3069525361061096 0.4593771994113922
-0.2963883876800537 0.4020555019378662 0.18253843486309052
-0.5804198384284973 0.14526736736297607 -0.13280200958251953
-0.3610701560974121 0.04141199588775635 0.01452290266752243
-0.575128436088562 0.023087983950972557 -0.19145649671554565
-0.0966944471001625 0.2708054780960083 -0.40247029066085815
0.17622609436511993 0.26146796345710754 0.33796972036361694
0.2531016170978546 -0.6183319687843323 0.0448821485042572
0.35024121403694153 -0.6405110359191895 -0.08484150469303131
0.43756788969039917 -0.0608065202832222 0.041847046464681625
-0.40574243664741516 0.002208434045314789 -0.2060646116733551
0.33266493678092957 0.05432725325226784 -0.40266719460487366
-0.02553274668753147 0.06584309041500092 0.34286484122276306
-0.3777037560939789 0.399668425321579 -0.2561490833759308
-0.18060463666915894 0.39965853095054626 0.028932077810168266
0.30462509393692017 0.050294771790504456 0.3419269621372223
-0.13669408857822418 -0.5440868139266968 0.1362663358449936
-0.07803334295749664 -0.4175971746444702 -0.25625982880592346
-0.14266085624694824 0.0006543295457959175 -0.3329513669013977
0.435827374458313 0.0008806753903627396 -0.10036523640155792
-0.1160089448094368 -0.6235166788101196 0.04697791486978531
-0.043404098600149155 -0.621056318283081 -0.018398690968751907
-0.015435346402227879 0.1928861439228058 -0.40323102474212646
0.20721501111984253 -0.4006583094596863 -0.2997322380542755
0.13063739240169525 -0.6399204134941101 -0.30789509415626526
0.37182459235191345 -0.28815972805023193 -0.24537986516952515
0.35189738869667053 0.03238080069422722 -0.4023113548755646
0.3948327302932739 0.00037117674946784973 0.05797666683793068
-0.48778510093688965 -0.047974567860364914 0.3440684974193573
0.35090070962905884 -0.2730448842048645 -0.2680222690105438
0.12090230733156204 -0.29224517941474915 0.31086811423301697
0.570149302482605 0.008760061115026474 0.053852323442697525
-0.18454910814762115 -0.5598122477531433 0.00862574391067028
0.25178974866867065 9.197229519486427e-05 0.018864303827285767
0.041634202003479004 0.1564263254404068 0.3463197350502014
-0.05742267146706581 0.39861536026000977 -0.11527449637651443
0.3059956431388855 0.0014431970193982124 -0.18719303607940674
0.15261292457580566 -0.6192225813865662 0.13646776974201202
0.27845045924186707 0.20456011593341827 -0.40354257822036743
-0.22637543082237244 0.39886388182640076 -0.3441530168056488
0.5095896124839783 0.0020856522023677826 -0.14138677716255188
-0.5785900354385376 0.34787240624427795 0.12125252932310104
0.30999454855918884 0.0023076506331562996 -0.023476405069231987
0.08202588558197021 -0.468465119600296 -0.3161405622959137
0.5787597894668579 0.04749377816915512 -0.3637731075286865
-0.3818930387496948 -0.06242808327078819 0.10459582507610321
0.41039618849754333 -0.0011991094797849655 -0.04452035576105118
0.001718156156130135 -0.0009516971185803413 -0.2815681993961334
0.36395159363746643 -0.31295377016067505 0.1942962110042572
0.25934484601020813 -0.6182989478111267 0.038755010813474655
-0.1650734394788742 -0.004854345694184303 -0.22416827082633972
0.15691109001636505 0.08981914818286896 0.34061893820762634
0.30154022574424744 0.0036163702607154846 -0.16555488109588623
0.16551139950752258 0.3916640877723694 0.3209966719150543
0.038867488503456116 -0.4006016254425049 -0.31392234563827515
0.2521580755710602 0.07724499702453613 -0.4015935957431793
-0.559775173664093 0.07357367873191833 -0.22088423371315002
-0.09783564507961273 -0.3741961419582367 -0.2995673418045044
0.3104328215122223 0.38858625292778015 -0.39856410026550293
-0.0024177017621695995 0.1901194453239441 -0.40232324600219727
0.3035602271556854 -0.04354351386427879 0.32757794857025146
-0.4453425705432892 0.20481878519058228 -0.3996484875679016
-0.008431867696344852 -0.6229863166809082 -0.23355811834335327
-0.45479339361190796 -0.056906260550022125 0.3450283706188202
0.02646118775010109 0.12613528966903687 0.4279530644416809
0.38336804509162903 -0.29963168501853943 0.1661030501127243
-0.46730732917785645 0.002019123174250126 0.30124038457870483
-0.5735993981361389 0.05140314996242523 -0.35534176230430603
-0.19844670593738556 0.4009849429130554 0.08609036356210709
-0.4508885443210602 -0.10812729597091675 -0.01061280071735382
-0.5743942260742188 0.3498237431049347 0.27546852827072144
-0.22300215065479279 1.2544915080070496e-06 -0.0964585393667221
-0.48638132214546204 0.10249923169612885 -0.15630798041820526
-0.12521830201148987 -0.6327871680259705 -0.20744509994983673
0.18786193430423737 -0.38104140758514404 -0.34148329496383667
0.12650448083877563 -0.08610284328460693 0.42534586787223816
0.24613361060619354 0.0021095897536724806 -0.14966434240341187
-0.22978350520133972 -0.005315081682056189 0.021182233467698097
0.31954532861709595 0.3543839454650879 0.4385460317134857
0.11772001534700394 -0.009475607424974442 0.3136290907859802
0.23263156414031982 0.4377891719341278 0.44656237959861755
-0.0454450361430645 0.1956983506679535 0.3972240686416626
0.25804466009140015 -0.6454724073410034 0.1690889149904251
0.2775571048259735 0.45707911252975464 0.40631842613220215
0.30599161982536316 0.0009963030461221933 0.3207705616950989
-0.48914411664009094 0.2751477062702179 0.34007132053375244
-0.3902624845504761 0.09056299924850464 0.19705623388290405
0.005826322361826897 -0.0009045792976394296 0.028416991233825684
0.5765033960342407 0.05593212693929672 0.22574380040168762
0.23391340672969818 -0.6195355653762817 -0.1361081898212433
0.24273048341274261 0.3952810764312744 0.2426774650812149
0.5755146145820618 0.24915583431720734 0.20229120552539825
-0.2209789901971817 -0.17440076172351837 0.08515529334545135
-0.3999321758747101 -0.0826282799243927 -0.08092586696147919
0.26625800132751465 0.0017535692313686013 -0.1729688197374344
0.3042057156562805 0.11655600368976593 0.4557340443134308
0.15760566294193268 0.39498838782310486 0.323627233505249
-0.485001802444458 0.003803902305662632 -0.4026193618774414
0.10353067517280579 0.39632752537727356 0.265178918838501
-0.17152096331119537 -0.001125322305597365 0.053238943219184875
0.20119132101535797 0.08475002646446228 0.4634667932987213
-0.06404552608728409 -0.6221145987510681 0.04361682012677193
0.25831907987594604 -0.14981362223625183 -0.33712977170944214
0.38221317529678345 -0.5853418707847595 -0.09184859693050385
0.09056961536407471 -0.2820245623588562 0.3138222396373749
-0.23147453367710114 -0.11746618896722794 0.04112742468714714
-0.40221530199050903 0.3746354877948761 -0.1946837455034256
-0.37582847476005554 0.39836061000823975 0.24850085377693176
0.4180834889411926 0.021383989602327347 0.34299924969673157
0.5764774680137634 0.011478932574391365 -0.2515065371990204
0.26965558528900146 0.14494533836841583 0.3418545722961426
-0.024869244545698166 -0.6193762421607971 0.08697144687175751
-0.12874984741210938 0.39265748858451843 0.3246877193450928
0.13751637935638428 0.4438440799713135 0.44169899821281433
-0.24641500413417816 0.005036159418523312 -0.3689071536064148
0.23421165347099304 0.39831602573394775 -0.16420242190361023
0.3878152668476105 0.3464586138725281 0.3392673432826996
-0.2929231524467468 0.40046921372413635 -0.374634325504303
0.020270315930247307 0.38011008501052856 -0.3978714048862457
-0.3024985194206238 -0.0010350998491048813 -0.24163803458213806
0.19971610605716705 0.0028909510001540184 -0.1307879537343979
0.32031387090682983 -0.2209678590297699 0.23636049032211304
0.09105262905359268 -0.45731449127197266 -0.3217560648918152
0.3320297300815582 -0.2120240479707718 0.2267545908689499
0.5797953009605408 0.2071458250284195 -0.0637972429394722
0.3272280991077423 -0.5818188786506653 0.14758233726024628
-0.23684123158454895 0.1041000634431839 -0.40327945351600647
0.5795004367828369 0.2649235129356384 -0.295285165309906
-0.5778288841247559 0.11403946578502655 -0.25240540504455566
-0.5716139078140259 0.04685262218117714 0.1764746606349945
-0.12723222374916077 0.3989376127719879 -0.2463528960943222
0.12659406661987305 -0.5992849469184875 -0.31266623735427856
-0.41235747933387756 0.0019272114150226116 0.22376900911331177
0.1194688230752945 0.22282810509204865 0.33965831995010376
-0.3522830605506897 0.3967161178588867 -0.23990386724472046
-0.5803495049476624 0.1157587394118309 -0.2596278786659241
0.22913403809070587 -0.6254140734672546 -0.2265777885913849
0.31509071588516235 0.011210434138774872 0.33871543407440186
-0.3508610725402832 0.39985743165016174 -0.015122472308576107
0.4501720666885376 0.3616161346435547 -0.4031517505645752
0.11064352840185165 -0.6527983546257019 0.2523602545261383
0.2068546861410141 0.002751699648797512 -0.30242326855659485
0.40847861766815186 0.3969627022743225 -0.24404029548168182
-0.42364612221717834 -0.09863153845071793 -0.01690061390399933
0.5787293314933777 0.061696700751781464 0.06525298207998276
0.12653246521949768 -0.5693002939224243 0.2578466236591339
0.04360385611653328 -0.6213434934616089 -0.08904784917831421
-0.11787772923707962 0.0025785276666283607 -0.0108110336586833
0.025200406089425087 0.002423071302473545 -0.32378360629081726
-0.5820721387863159 0.02735264226794243 0.282345175743103
-0.47218042612075806 0.004307972267270088 -0.40100669860839844
0.20217318832874298 0.39296048879623413 0.32747986912727356
0.09330466389656067 -0.6236965656280518 -0.06931614130735397
-0.013741306029260159 -0.00014239223673939705 -0.3040679097175598
0.11787682771682739 0.25805050134658813 -0.4016270041465759
-0.11888568848371506 -0.4183105528354645 0.1616327166557312
0.08681802451610565 0.03850839287042618 0.46489691734313965
-0.4001988172531128 0.08319001644849777 -0.27325162291526794
-0.5660234093666077 -0.04970183223485947 -0.18388338387012482
-0.5724381804466248 -0.003225549589842558 -0.25100693106651306
-0.15428446233272552 -0.6562280654907227 -0.14825664460659027
-0.07950107753276825 -0.6393508315086365 0.19188284873962402
-0.21282389760017395 0.00039377715438604355 -0.156415194272995
-0.4299522042274475 -0.09795354306697845 -0.3654424548149109
0.43930384516716003 0.30703118443489075 -0.40265971422195435
-0.5743102431297302 0.0022235040087252855 0.029510149732232094
0.30865609645843506 0.38856470584869385 0.33827078342437744
0.13941121101379395 -0.6197627186775208 -0.10999840497970581
-0.19474634528160095 -0.38552355766296387 -0.056800637394189835
-0.44665560126304626 0.39789754152297974 -0.186323881149292
0.21819628775119781 0.33615759015083313 -0.40399372577667236
-0.43869641423225403 0.09720811247825623 0.26984643936157227
0.4662156403064728 0.39665064215660095 -0.22601181268692017
0.5593374371528625 0.005897536873817444 -0.3735381066799164
-0.5494757294654846 0.08580867946147919 0.2231145054101944
0.2720186710357666 0.4539441764354706 0.42791658639907837
0.25270432233810425 0.33309537172317505 0.4600013196468353
-0.35161229968070984 0.018923986703157425 -0.4013627767562866
0.3449536859989166 0.0022102929651737213 -0.033615127205848694
0.048757582902908325 -0.6162410974502563 0.24905584752559662
-0.22596126794815063 -0.3658654987812042 -0.12723354995250702
0.5693709254264832 0.006847243756055832 -0.07206251472234726
-0.5683954358100891 0.29234638810157776 0.33066272735595703
0.12098378688097 -0.6223370432853699 0.16069389879703522
0.18056362867355347 0.3977419435977936 -0.17240272462368011
0.09237384051084518 0.1080300360918045 0.34056204557418823
-0.14323049783706665 -0.6588910222053528 0.08879632502794266
0.029628382995724678 0.33816954493522644 0.39487218856811523
-0.4747158885002136 0.05603952705860138 -0.40304598212242126
0.4263949692249298 -0.000237402506172657 0.031881339848041534
0.31009379029273987 0.0005136094987392426 0.0684712752699852
0.016669433563947678 0.05966455861926079 0.3908957540988922
-0.3551100790500641 0.0022014458663761616 -0.04698622599244118
-0.15925225615501404 0.3995596170425415 -0.16117152571678162
0.07425107061862946 -0.19203954935073853 -0.3757660388946533
0.3600150942802429 -0.5692605972290039 0.10207733511924744
-0.5798700451850891 0.3000231385231018 0.08285785466432571
0.35530799627304077 0.0008488802704960108 0.13768313825130463
-0.10784799605607986 -0.6103805303573608 -0.22782689332962036
0.09911127388477325 -0.017618758603930473 0.31544941663742065
-0.5624736547470093 0.21416394412517548 0.3348577916622162
-0.3464813828468323 0.358751505613327 -0.4023122489452362
-0.4006882905960083 0.3996850848197937 0.21761980652809143
-0.15860839188098907 -0.6504105925559998 -0.10174151510000229
0.321102112531662 0.001267436076886952 -0.07716456800699234
0.16452330350875854 -0.379917174577713 -0.3556373715400696
-0.23454275727272034 -0.01133953221142292 -0.02258516103029251
-0.36699607968330383 -0.039493296295404434 0.03011547401547432
0.14771538972854614 -0.45042428374290466 -0.31787270307540894
-0.17349722981452942 0.008736172690987587 0.3327544629573822
-0.3728509843349457 -0.03691485524177551 0.20615993440151215
-0.5807917714118958 0.03937909007072449 -0.312361478805542
0.2831951081752777 0.4217572510242462 0.44916579127311707
0.38306924700737 -0.5072365403175354 -0.1004897877573967
0.02941034734249115 -0.620866060256958 -0.08678615838289261
-0.20840808749198914 0.20486286282539368 -0.4016055762767792
-0.045145343989133835 -0.0016505420207977295 0.11702834069728851
-0.041683003306388855 -0.6191505193710327 0.05624958127737045
0.3561508059501648 -0.5132318139076233 -0.16642840206623077
0.37897366285324097 -0.4015665352344513 -0.12028704583644867
0.5770594477653503 0.3288043737411499 0.04874757304787636
-0.25814297795295715 0.2539292871952057 -0.4009396731853485
-0.3811321556568146 -0.036207325756549835 -0.3925408720970154
-0.07766903191804886 0.0015920130535960197 0.02241254411637783
0.3273182213306427 -0.6237267851829529 -0.08523160219192505
0.13311651349067688 0.28889602422714233 0.45847082138061523
0.5801702737808228 0.07765533030033112 -0.23886287212371826
0.43859392404556274 -0.0008385935798287392 0.21651525795459747
0.006251279730349779 -0.6209281086921692 -0.15934595465660095
-0.38523194193840027 -0.07081549614667892 0.2862064242362976
0.16817370057106018 -0.022352270781993866 0.463758647441864
-0.22636517882347107 -0.11673753708600998 -0.12975408136844635
0.25979939103126526 -0.13919676840305328 -0.3336978554725647
0.33624768257141113 0.1181599423289299 0.341733455657959
-0.5121635794639587 0.11234038323163986 0.13251382112503052
0.025554267689585686 -0.004602748900651932 -0.35473012924194336
0.29087260365486145 2.1692365407943726e-05 0.2135947346687317
-0.2690771818161011 0.3921962380409241 -0.17730256915092468
-0.5757182240486145 0.0070708259008824825 0.02402685210108757
0.4245751202106476 -0.11593442410230637 -0.13595004379749298
-0.3452117443084717 0.3958823084831238 -0.38878199458122253
0.33006930351257324 -0.21837477385997772 -0.286782830953598
-0.4236106872558594 0.09494620561599731 -0.399492472410202
-0.17824232578277588 0.39759641885757446 0.1723986119031906
0.5122440457344055 0.39443090558052063 0.12584777176380157
0.5783438682556152 0.29083579778671265 0.0518307127058506
-0.04222875460982323 0.1105174720287323 0.3439660966396332
-0.12360688298940659 -0.3615538477897644 -0.2876094877719879
0.2822137475013733 -0.6182630062103271 -0.08065106719732285
0.378019243478775 -0.45254743099212646 -0.12151920795440674
-0.07392390817403793 0.15067370235919952 0.3819129168987274
0.28226882219314575 0.3085886836051941 0.34264835715293884
0.20943108201026917 1.808302477002144e-05 0.14229696989059448
0.2525011897087097 -0.00346317607909441 0.2887948453426361
0.5692002773284912 0.3801686763763428 0.12454108893871307
-0.34067502617836 0.0003865694161504507 0.005165036767721176
0.2740662693977356 0.0009982436895370483 0.14316654205322266
0.010802455246448517 0.40031829476356506 -0.1272103637456894
0.09937603026628494 -0.0005791678559035063 -0.008803484961390495
-0.4159933626651764 0.395844966173172 -0.21562428772449493
0.12483914196491241 0.0002008434385061264 -0.22770540416240692
-0.3328121602535248 0.3950154781341553 -0.18788009881973267
-0.580149233341217 0.012819688767194748 -0.0025962963700294495
0.14331631362438202 -0.6218565106391907 -0.2389478236436844
0.08646196871995926 0.3994062840938568 -0.14033600687980652
-0.2652300298213959 0.1547193080186844 0.3422873020172119
0.03429692983627319 0.18406802415847778 0.45293039083480835
-0.38994550704956055 0.39772215485572815 0.26865166425704956
-0.1329353004693985 0.0063238986767828465 0.3268699645996094
-0.24600712954998016 0.0005572624504566193 0.18616363406181335
-0.009325570426881313 -0.3851648271083832 -0.3195868730545044
-0.20157162845134735 0.0012776628136634827 0.2488342523574829
-0.49987876415252686 0.3532545566558838 -0.1273527592420578
-0.5304178595542908 -0.09112829715013504 0.26550760865211487
-0.05722649767994881 0.001734178513288498 0.3091854453086853
0.4656738340854645 -0.000977856107056141 0.2088884711265564
0.19786936044692993 -0.5785015821456909 -0.3007088601589203
0.31718581914901733 0.24912451207637787 0.3412342369556427
0.2634114921092987 0.19695578515529633 0.3397885262966156
0.1908758580684662 0.39827337861061096 -0.22605887055397034
0.5732690095901489 0.2818264067173004 -0.3916224241256714
0.3663162589073181 -0.17549140751361847 -0.24646933376789093
-0.4039727449417114 0.399527907371521 -0.23630721867084503
-0.08799242973327637 0.3989243507385254 -0.016084900125861168
-0.4315623641014099 0.08788303285837173 0.07080256193876266
-0.5829979777336121 0.015157930552959442 0.2861938178539276
-0.18481604754924774 -0.6454309225082397 0.0031610331498086452
0.44348615407943726 0.12444634735584259 -0.4047005772590637
-0.42344915866851807 0.38564416766166687 0.030014626681804657
0.21238720417022705 0.08115547895431519 0.3403421938419342
0.5217952132225037 0.3942051827907562 -0.06804301589727402
-0.09737244993448257 0.39770960807800293 0.03961096331477165
-0.36004891991615295 0.39936691522598267 -0.3654986619949341
0.378092885017395 -0.37230852246284485 0.14901570975780487
-0.5191275477409363 0.39569249749183655 0.3135652542114258
0.015435359440743923 -0.5273283123970032 -0.3044816255569458
-0.5815642476081848 0.2251681536436081 0.01590234413743019
-0.5823643803596497 0.21123358607292175 -0.06951762735843658
-0.10675787925720215 -0.6189786195755005 0.039696428924798965
0.5342128276824951 0.0257028266787529 -0.4022453725337982
-0.16400276124477386 -0.3878910541534424 -0.16969868540763855
-0.1543276011943817 -0.6491280794143677 0.061517998576164246
0.36377301812171936 -0.4487861096858978 -0.1462268978357315
-0.29946213960647583 0.39449697732925415 0.3179411292076111
-0.5192352533340454 0.0008965376764535904 -0.23221546411514282
0.3919033408164978 0.3989231288433075 0.030420975759625435
-0.020973434671759605 0.10164176672697067 -0.4041304886341095
-0.5785316824913025 0.011721688322722912 -0.3889479339122772
-0.2302725911140442 0.13925883173942566 -0.403043270111084
-0.23971401154994965 -0.25466179847717285 -0.0779283344745636
0.302380234003067 0.001881300937384367 -0.3209545910358429
0.19295020401477814 0.03727984428405762 -0.40192562341690063
0.5366012454032898 0.0021742722019553185 0.08677484840154648
0.24277816712856293 0.3902474045753479 0.3435535430908203
0.12588532269001007 -0.05545412376523018 0.3149791359901428
0.03474099189043045 -0.0030784327536821365 0.29971688985824585
-0.1245160773396492 -0.0035206908360123634 0.22384005784988403
0.008566931821405888 0.0019891979172825813 -0.11106275022029877
-0.0021829549223184586 0.3985369801521301 0.034592077136039734
0.442481130361557 0.3978715240955353 -0.06041613966226578
-0.48116010427474976 0.38276004791259766 0.334175705909729
0.18363836407661438 0.39622509479522705 0.09757602214813232
0.08230895549058914 -0.617319643497467 0.16351649165153503
0.5774645209312439 0.39137783646583557 0.026285408064723015
0.3983493447303772 0.3995102345943451 -0.10413084179162979
-0.36141324043273926 0.39593419432640076 0.09949862957000732
-0.5737929940223694 0.35897406935691833 0.06119529902935028
0.44863593578338623 -0.3623882532119751 -0.0240068007260561
-0.29330185055732727 0.24867242574691772 -0.4036986827850342
0.3228633403778076 -0.0026599110569804907 0.23135480284690857
0.3136313855648041 -0.045830026268959045 0.22949741780757904
0.10523346066474915 -0.0008624797919765115 0.12771715223789215
0.5767043828964233 0.28969767689704895 0.1097496822476387
-0.5416980981826782 -0.07639099657535553 0.3144818842411041
0.002357839373871684 -0.621172308921814 -0.09207718819379807
-0.10538279265165329 0.3843100965023041 0.33479225635528564
-0.42220258712768555 0.14427734911441803 0.3389205038547516
0.25722795724868774 0.39560869336128235 0.2099485546350479
-0.442470520734787 0.3610302209854126 0.33903294801712036
0.27859950065612793 0.13375017046928406 0.34091177582740784
-0.15716542303562164 -0.37515369057655334 -0.24832312762737274
-0.09294664859771729 -0.6206687092781067 -0.0028588720597326756
0.0930304229259491 -4.163617268204689e-05 -0.26281479001045227
-0.5289030075073242 0.37702473998069763 0.336317241191864
-0.575318455696106 0.046344637870788574 0.2113867700099945
0.5770735144615173 0.36366215348243713 0.22884033620357513
-0.2858343720436096 0.0011605620384216309 0.03387226164340973
-0.5834854245185852 0.18356657028198242 0.2764793634414673
-0.06999747455120087 -0.0010917633771896362 0.11417641490697861
-0.389058917760849 -0.07127989828586578 -0.14250056445598602
-0.1305115669965744 -0.013511406257748604 0.22817307710647583
0.156245619058609 -0.0011853259056806564 -0.07929578423500061
-0.20069704949855804 0.29216524958610535 0.34193578362464905
-0.4846896827220917 -0.0009651407599449158 0.04817349463701248
0.28439605236053467 0.3955952227115631 0.05254267156124115
0.36205804347991943 -0.3872084319591522 -0.17574608325958252
0.2100209891796112 0.39968109130859375 -0.1816028505563736
-0.34424030780792236 0.0648973286151886 -0.3995479643344879
-0.5834038853645325 0.26431897282600403 -0.11343163996934891
0.5376771688461304 0.37580206990242004 -0.40050870180130005
0.19381575286388397 -0.4503157436847687 0.2435588836669922
-0.37010321021080017 -0.007504066452383995 0.2007237672805786
0.31564977765083313 0.2307433933019638 0.44518792629241943
-0.5805485844612122 0.3300095498561859 -0.13986459374427795
-0.05910667032003403 -0.3590083420276642 0.2726374864578247
0.11832598596811295 -0.6260740756988525 -0.2677955627441406
0.31441861391067505 0.2907414138317108 -0.4013492166996002
-0.18735440075397491 -0.20411349833011627 -0.20906516909599304
-0.08579965680837631 0.07779604941606522 -0.3997792601585388
0.3577752709388733 0.3990980088710785 -0.1561739146709442
0.17123331129550934 0.3944946527481079 0.4537075161933899
-0.23848438262939453 -0.06831039488315582 -0.050196632742881775
-0.4159304201602936 0.4077540636062622 -0.16229777038097382
0.2774922251701355 -0.08167768269777298 0.4277801215648651
0.3474598526954651 -0.36008861660957336 -0.2628926634788513
-0.5657157897949219 -0.04904922842979431 0.27831628918647766
-0.27961796522140503 0.12949593365192413 0.3429102301597595
0.2635871171951294 -0.0018217475153505802 -0.30862197279930115
0.13684000074863434 -0.5402541756629944 0.25647592544555664
-0.10284695774316788 0.00023386254906654358 0.154714897274971
0.13674281537532806 -0.0010670162737369537 0.06458957493305206
-0.019678089767694473 -0.0661722719669342 -0.3487145006656647
-0.4699161946773529 -0.0008330158889293671 -0.14272694289684296
0.4272722005844116 -0.07552670687437057 0.0817764475941658
-0.22321176528930664 -0.14327304065227509 -0.15168815851211548
-0.37581247091293335 0.3994918763637543 -0.3304837942123413
-0.0317947156727314 -0.651639461517334 -0.248637855052948
-0.04932670667767525 -0.4867083430290222 -0.2762761414051056
-0.41872161626815796 -0.006647258065640926 0.3379341959953308
0.3688080906867981 0.0005984650924801826 0.09887533634901047
-0.013277141377329826 -0.6250171661376953 -0.175121009349823
0.21814259886741638 -0.6222168803215027 -0.18868310749530792
0.20741842687129974 0.31111133098602295 0.33864375948905945
0.20125526189804077 0.40078896284103394 -0.1094045639038086
0.10458812862634659 -0.6502630114555359 -0.3002930283546448
0.27312713861465454 -0.4599936902523041 0.20534344017505646
-0.3705170452594757 0.3978264331817627 -0.2515485882759094
-0.000315889366902411 -0.6243458986282349 -0.02646033652126789
0.3340607285499573 0.2258908450603485 0.4098764657974243
-0.5836209654808044 0.1404445916414261 -0.06448614597320557
-0.24844437837600708 0.2859441339969635 -0.4010030925273895
-0.5817888379096985 0.3170227110385895 -0.12364369630813599
0.5064560770988464 0.39464128017425537 0.09439610689878464
0.47789445519447327 0.07595980167388916 -0.40352800488471985
-0.4730381369590759 0.13269205391407013 0.33981114625930786
-0.5061955451965332 -0.035605788230895996 0.3549257516860962
-0.23838549852371216 -0.12535345554351807 -0.04018324613571167
0.3298290967941284 0.308310329914093 -0.40429505705833435
-0.041828226298093796 -0.07290969789028168 0.2832348048686981
-0.34205445647239685 0.3986212909221649 -0.1351136863231659
-0.5654134154319763 0.37347400188446045 -0.1753823459148407
-0.5704675912857056 0.005097038112580776 -0.13488756120204926
-0.5760281085968018 0.017423585057258606 0.3263132870197296
-0.05833270028233528 -0.34251850843429565 -0.33457621932029724
0.017984773963689804 -0.621532678604126 -0.1309196949005127
0.11912607401609421 0.324930340051651 0.459722638130188
0.16581623256206512 0.4620600938796997 0.41906172037124634
0.12947465479373932 -0.6199437975883484 0.08633310347795486
-0.2414770871400833 -0.16913944482803345 -0.0053183045238256454
-0.5773601531982422 0.023501981049776077 0.11215177923440933
-0.23587270081043243 -0.019657183438539505 0.03681419417262077
0.013615860603749752 -0.43069759011268616 0.24270260334014893
0.2664920687675476 0.001726454822346568 -0.34768497943878174
-0.35354167222976685 -0.004084990359842777 0.020651210099458694
-0.3837595582008362 0.07257311046123505 -0.12756800651550293
0.19943787157535553 -0.30546408891677856 0.29894840717315674
0.051470983773469925 -0.08166126161813736 0.4347403645515442
-0.18996861577033997 0.3933994770050049 -0.3906838297843933
0.41992080211639404 0.0025807926431298256 -0.33762091398239136
0.1452912837266922 -0.6199352145195007 -0.2078423947095871
-0.3625466823577881 0.03590963035821915 0.340002179145813
-0.36028042435646057 0.007619401905685663 -0.3823162913322449
-0.11787751317024231 -0.00032784976065158844 0.12156911194324493
-0.4127904772758484 0.41123858094215393 -0.15242332220077515
-0.2732371985912323 0.384668231010437 0.3360271155834198
0.3873906433582306 -0.5382721424102783 -0.0738782212138176
-0.13627517223358154 0.04466129094362259 0.340360552072525
-0.1826932281255722 0.31098052859306335 -0.4007546305656433
-0.11144731938838959 -0.35909950733184814 -0.3007856607437134
0.1509062945842743 -0.4062609374523163 -0.31340712308883667
0.027870772406458855 -0.1938791275024414 -0.36530396342277527
-0.47976964712142944 0.3065825402736664 0.33980146050453186
0.31853318214416504 0.38375499844551086 0.3441930413246155
-0.3180195093154907 0.39898839592933655 -0.33467167615890503
0.24927370250225067 0.3149343430995941 0.3419373333454132
-0.10419433563947678 -0.37614014744758606 -0.29171639680862427
-0.44531914591789246 0.3513956665992737 0.34068581461906433
-0.39491933584213257 0.38642364740371704 -0.19615432620048523
-0.5731620192527771 0.3684106767177582 -0.3564787805080414
-0.513630747795105 -0.1036466509103775 -0.0809292122721672
0.40483585000038147 0.3972773253917694 -0.30011847615242004
0.36107107996940613 -0.38645094633102417 0.09083152562379837
-0.4895137548446655 0.03804400563240051 0.3432854413986206
0.22212520241737366 -0.3673350512981415 0.2852606177330017
-0.1325099915266037 -0.5402593612670898 0.14365245401859283
-0.14683370292186737 0.39557284116744995 0.2093711644411087
-0.549972414970398 0.3295716941356659 -0.39809444546699524
-0.18707974255084991 0.0011370377615094185 -0.1944408416748047
0.22659967839717865 0.3860154151916504 -0.39502084255218506
0.16545993089675903 0.04954204335808754 0.34022146463394165
0.10220766812562943 0.4526568055152893 0.4206559956073761
0.550788938999176 0.3940448760986328 0.04247036948800087
-0.07242026180028915 0.39682698249816895 0.2242133617401123
0.3761293888092041 0.0001237040851265192 -0.04973302036523819
0.37951672077178955 0.39104095101356506 0.30232876539230347
0.08308547735214233 -0.13852180540561676 -0.3712872266769409
-0.03223119676113129 -0.20999935269355774 0.28666239976882935
-0.4749686121940613 0.0006063031032681465 -0.35974448919296265
0.09574136137962341 0.30514001846313477 0.4626094102859497
0.12855516374111176 8.178688585758209e-05 0.17295540869235992
0.2859623432159424 -0.6228553652763367 -0.1855219453573227
-0.3844027519226074 0.06763127446174622 -0.313821017742157
-0.04777887836098671 0.35799112915992737 -0.40130969882011414
-0.3980495035648346 0.39993804693222046 0.058874934911727905
0.2933703064918518 -0.5272045731544495 0.18556416034698486
-0.5293649435043335 0.0837639570236206 -0.09085322916507721
0.29196783900260925 -0.6281034350395203 -0.18722033500671387
-0.13862334191799164 -0.5428062081336975 -0.19383813440799713
0.16472363471984863 -0.1114000603556633 0.3082452416419983
-0.5764254331588745 0.0955217182636261 -0.06816784292459488
0.11657160520553589 0.4487196207046509 0.3558425009250641
0.08727860450744629 0.4215601086616516 0.4392393231391907
0.07628562301397324 -0.6422562003135681 0.24850115180015564
-0.10892055183649063 -0.6535148620605469 0.13396985828876495
-0.5450716614723206 0.16141840815544128 -0.40013256669044495
0.37751850485801697 -0.46690288186073303 0.05509989336133003
-0.57551509141922 0.2599450647830963 -0.26984694600105286
0.19504977762699127 -0.6238205432891846 0.08165933936834335
0.34592416882514954 -0.11480750143527985 0.21759046614170074
0.4428269565105438 -0.0014149954076856375 0.1586337685585022
-0.5748594403266907 0.08922214806079865 -0.11957407742738724
0.010174303315579891 -0.010149764828383923 0.3027445077896118
0.577540397644043 0.1480104625225067 -0.2320665419101715
0.022082680836319923 -0.021534733474254608 0.38605937361717224
0.44728410243988037 -0.36349979043006897 -0.012456875294446945
0.5724858045578003 0.3784419894218445 -0.25144967436790466
-0.12064293026924133 0.00011532753705978394 -0.27595239877700806
0.38513877987861633 -0.04139525443315506 -0.21953867375850677
-0.5020104050636292 0.10096266865730286 -0.03551659733057022
0.014646356925368309 -0.6231875419616699 -0.23772032558918
0.34558790922164917 -0.4545745849609375 -0.17669643461704254
0.20141801238059998 -0.6208986043930054 -0.1614334136247635
0.06374623626470566 -0.0011209973599761724 0.12822216749191284
0.14332184195518494 -0.6461703777313232 0.2444954812526703
-0.05007285252213478 -0.6280796527862549 0.1615925431251526
0.31587672233581543 -0.6336509585380554 -0.14390957355499268
0.24576035141944885 -0.5459688305854797 -0.2740311920642853
-0.18257763981819153 -0.004259562119841576 -0.016335614025592804
-0.5395578742027283 -0.07671364396810532 0.3162670433521271
-0.5770188570022583 0.035964757204055786 -0.24598006904125214
0.3441239893436432 0.00031879590824246407 0.18492600321769714
-0.2417612224817276 -0.356719046831131 -0.05700112134218216
0.33538585901260376 -0.5895092487335205 0.14096352458000183
-0.5507518649101257 0.3946879506111145 -0.2993925213813782
0.3175826668739319 -0.04145308583974838 -0.29382655024528503
0.12771964073181152 -0.6186955571174622 0.11481728404760361
0.26697248220443726 -0.1418030709028244 -0.33150845766067505
-0.15066532790660858 0.23680242896080017 -0.4031314253807068
0.4258424937725067 0.00360979326069355 -0.30706915259361267
-0.14375442266464233 0.3946170210838318 0.2353098839521408
0.17374743521213531 -0.6196652054786682 0.15953058004379272
-0.5818889141082764 0.2685439884662628 0.022472918033599854
-0.46296414732933044 0.09894677251577377 -0.0500219501554966
-0.03208925947546959 9.410856728209183e-05 -0.26694291830062866
-0.06196453422307968 -0.6227990388870239 -0.05222684144973755
0.5748798847198486 0.03137814253568649 0.2640015184879303
-0.2589300572872162 0.3999098837375641 0.025899352505803108
-0.569024384021759 0.07419764250516891 -0.3979068696498871
-0.3944174647331238 -0.07688909024000168 0.2331443727016449
-0.3708385229110718 0.046241968870162964 0.17384834587574005
-0.06933774054050446 0.39897191524505615 0.08342722803354263
-0.026027804240584373 0.39819714426994324 -0.2673259377479553
-0.4220649302005768 0.3619585633277893 0.3394078016281128
0.22210656106472015 -0.5543362498283386 -0.29130488634109497
-0.5112848281860352 -0.1039336621761322 -0.08710823953151703
0.16106338798999786 -1.2075062841176987e-05 0.11219614744186401
-0.5460665225982666 0.3189901113510132 0.338077187538147
0.2191706895828247 0.45962947607040405 0.4011918306350708
-0.32971587777137756 0.3160855174064636 -0.40304139256477356
-0.576217770576477 0.01599184237420559 -0.011983437463641167
-0.41996410489082336 0.3972512185573578 -0.22985538840293884
0.3284296989440918 -0.0048570106737315655 0.36821019649505615
0.3447733223438263 -0.6211771965026855 0.09904976934194565
0.5754706263542175 0.2384064495563507 -0.12434147298336029
0.21002550423145294 0.40069371461868286 -0.017434759065508842
0.37846839427948 -0.642435610294342 -0.06713630259037018
0.03920246288180351 0.3878151774406433 0.37414422631263733
0.33093419671058655 0.1453506201505661 0.41634246706962585
-0.13208113610744476 -0.189213365316391 0.22357146441936493
0.22327932715415955 -0.004321433138102293 0.31713196635246277
0.5657227039337158 0.39339733123779297 -0.02707730233669281
0.10974931716918945 0.0021660607308149338 -0.34275421500205994
0.4415099620819092 -0.3515832722187042 -0.02900591492652893
0.04486502334475517 0.39013803005218506 0.36579248309135437
-0.3529583811759949 0.0038366802036762238 -0.14221638441085815
-0.2248903512954712 -0.08287795633077621 0.08569066971540451
-0.5686465501785278 0.0013644809368997812 0.09978378564119339
-0.24811449646949768 0.009829769842326641 -0.39804863929748535
-0.512502133846283 0.10599514096975327 -0.3371441662311554
-0.31746813654899597 0.0005151978693902493 -0.2992164194583893
0.1501501351594925 0.3977425694465637 -0.1861756294965744
0.019994262605905533 0.40011870861053467 -0.1302141547203064
0.22219105064868927 -0.6201721429824829 -0.04463007673621178
-0.11856663972139359 -0.10466497391462326 -0.2962490916252136
-0.403622031211853 0.001976262778043747 0.02454940788447857
-0.5777480006217957 0.031640395522117615 0.14245295524597168
0.06090886518359184 -0.6199089884757996 0.04216747358441353
0.5758172869682312 0.3615568280220032 -0.1361016035079956
0.3927978277206421 0.2864978611469269 -0.40294599533081055
0.27065590023994446 -0.0004992224276065826 -0.3029727339744568
0.20564714074134827 0.39590752124786377 0.06149547919631004
-0.45776140689849854 0.19551602005958557 0.33929288387298584
-0.4530370533466339 0.4002550542354584 0.04947492107748985
0.4041638970375061 -0.3814484477043152 0.045048393309116364
-0.42253050208091736 -0.003282487392425537 0.3015155494213104
0.08333075791597366 -0.6206926703453064 -0.06776788830757141
0.18789763748645782 0.23250530660152435 0.46363282203674316
-0.08259431272745132 -0.0012831352651119232 0.2582438886165619
0.22767840325832367 0.39176881313323975 -0.3917211890220642
0.31218624114990234 -0.3192923665046692 -0.30050128698349
0.40374189615249634 0.045507609844207764 -0.4036481976509094
-0.3855823278427124 0.0631333738565445 -0.2312576174736023
-0.1308898776769638 -0.0026964209973812103 -0.2708370089530945
-0.36577484011650085 -0.028612807393074036 0.011722813360393047
-0.4688248634338379 0.3986233174800873 -0.22874608635902405
-0.5780200362205505 0.015029454603791237 -0.1013576090335846
0.028222693130373955 -0.059907667338848114 0.430469810962677
0.3692395091056824 -0.4499589204788208 0.08190509676933289
0.39580169320106506 0.09224989265203476 0.34083837270736694
-0.402286559343338 -0.08640753477811813 0.3086231052875519
0.17031869292259216 -0.6091272830963135 -0.30866730213165283
-0.5504323840141296 -0.07784917950630188 -0.27933016419410706
0.2311280518770218 0.0006651720032095909 0.0815889909863472
0.41442909836769104 0.3973497748374939 -0.0671650618314743
0.20285403728485107 -0.6222851276397705 -0.2295297235250473
-0.3891608417034149 -0.07097549736499786 -0.08179035037755966
0.11845114827156067 0.3977072834968567 0.1679416298866272
0.1518324315547943 -0.6181365251541138 0.18276749551296234
0.1078762337565422 -0.0011216681450605392 0.030358798801898956
-0.19500033557415009 0.21302850544452667 -0.4016726016998291
0.19880440831184387 -0.621382474899292 -0.14362265169620514
0.2014027088880539 0.06328625231981277 0.3390786647796631
-0.3614833354949951 0.028677647933363914 0.14391867816448212
0.06146005541086197 -0.1938338726758957 -0.37271082401275635
0.17366765439510345 -0.620255708694458 0.1834411472082138
0.4232152998447418 -0.2344338297843933 0.10240538418292999
0.14549000561237335 -0.0012132832780480385 0.15680426359176636
-0.5554063320159912 0.09773427248001099 -0.2004382461309433
0.44020384550094604 -0.24375420808792114 0.029670244082808495
0.4245680272579193 -0.3648287355899811 -0.15211112797260284
0.14358296990394592 0.3086403012275696 0.46227243542671204
0.0519985556602478 -0.1096363514661789 -0.3694257438182831
0.14979390799999237 -0.6202179789543152 -0.14387661218643188
-0.31728124618530273 0.3964868187904358 -0.243960440158844
0.34589746594429016 -0.6499695777893066 0.08690374344587326
0.5788509249687195 0.2816048562526703 -0.3583128750324249
0.24280782043933868 0.396443635225296 -0.0025805854238569736
-0.03560257703065872 0.13977693021297455 0.34656694531440735
-0.3584807217121124 0.0007359613664448261 0.10882443189620972
-0.14942775666713715 -0.38609233498573303 -0.18853019177913666
-0.024907564744353294 0.0014978675171732903 -0.27219659090042114
0.16668444871902466 0.36865243315696716 0.4587859809398651
0.5679258704185486 0.3891085088253021 0.21958214044570923
0.004987259861081839 -0.43194887042045593 -0.3031417727470398
-0.21400336921215057 -0.00020490249153226614 -0.2815394103527069
-0.5497176647186279 0.0006995243020355701 0.13806316256523132
0.5751708149909973 0.2573917806148529 -0.38131746649742126
-0.20919549465179443 -0.08682255446910858 -0.17303353548049927
0.401492178440094 -0.37001097202301025 0.11857016384601593
-0.09060981124639511 0.0006171879358589649 -0.0833943784236908
-0.27043384313583374 -0.0013458579778671265 0.11383563280105591
-0.42962023615837097 -0.09961193054914474 0.0416385792195797
-0.31348270177841187 0.40217000246047974 -0.089396633207798
0.15567584335803986 -0.0006732060573995113 0.23029153048992157
0.2841002941131592 0.08516749739646912 0.3411651849746704
-0.535946786403656 0.08928392082452774 0.19723184406757355
0.44420620799064636 -0.012064537964761257 0.0017468346050009131
-0.36084210872650146 0.002560216933488846 0.07165421545505524
-0.36471128463745117 0.005300234071910381 -0.09386202692985535
-0.5299339890480042 0.39251628518104553 0.0866464227437973
0.5432730913162231 0.3992196023464203 -0.07259459793567657
0.03912240266799927 -0.0010207807645201683 0.32108521461486816
-0.5822089910507202 0.25739696621894836 -0.12339349091053009
0.32370060682296753 -0.5698252320289612 0.15698643028736115
0.2645415663719177 -0.6220284104347229 -0.11324549466371536
0.11287527531385422 -0.06362541764974594 0.313455730676651
0.4276558458805084 -0.31862473487854004 -0.14052535593509674
-0.13988029956817627 0.0008208625949919224 0.03371017798781395
0.2756355404853821 0.0019711991772055626 -0.21288537979125977
0.0033730529248714447 -0.00021522212773561478 0.13101373612880707
-0.41601115465164185 0.3813040852546692 -0.4022788107395172
-0.36498457193374634 -0.006464471109211445 -0.10684779286384583
0.3312205970287323 -0.6245063543319702 -0.05627155676484108
0.5616229772567749 0.39009833335876465 0.08860211819410324
0.33277490735054016 0.0018175337463617325 -0.34430834650993347
-0.22379924356937408 0.3981475830078125 -0.3724636137485504
0.113944411277771 -0.0014113811776041985 -0.02367786504328251
-0.583669900894165 0.18336033821105957 0.0010110833682119846
-0.4976329505443573 0.3997623920440674 -0.2357158064842224
-0.2927706837654114 0.3986499607563019 0.2959212064743042
-0.23194187879562378 -0.2752265930175781 0.030883345752954483
-0.2113410383462906 -0.004214173182845116 -0.1305507868528366
0.577816367149353 0.24152103066444397 -0.1325455754995346
0.32301878929138184 0.001359541667625308 -0.11677861958742142
0.40075814723968506 -0.3255212903022766 0.13867022097110748
0.5778684020042419 0.30573686957359314 0.1616385579109192
0.3676609396934509 -0.17102453112602234 -0.24888017773628235
0.326576828956604 0.0013294154778122902 0.04548123851418495
0.2521807849407196 -0.037826623767614365 -0.34113791584968567
0.575678825378418 0.32327747344970703 0.15241079032421112
-0.2406875193119049 -0.04102115333080292 -0.01332440972328186
0.5502225160598755 0.0032219775021076202 -0.30080458521842957
-0.18380433320999146 -0.39839646220207214 0.04369592294096947
-0.24917900562286377 0.3989967703819275 -0.26016077399253845
-0.020685657858848572 0.39882007241249084 -0.2944033145904541
0.4430806338787079 -0.3157253563404083 0.0033978354185819626
0.5207270979881287 0.3614217936992645 0.33977437019348145
