-0.5477717518806458 -0.06804641336202621 0.32003968954086304
-0.5046543478965759 0.09203512966632843 -0.3035735785961151
0.1171683594584465 -0.6254293918609619 -0.20954962074756622
-0.18698106706142426 -0.5079028010368347 -0.0017526759766042233
-0.07119128853082657 -0.4789901077747345 0.20287799835205078
-0.383307546377182 -0.001831150148063898 -0.39992988109588623
-0.15676873922348022 0.4032815396785736 0.05716581270098686
-0.5174504518508911 0.09758497774600983 -0.10795312374830246
-0.41081926226615906 -0.07407178729772568 0.34108132123947144
-0.4782120883464813 -0.1103057861328125 -0.24319493770599365
-0.5039153099060059 0.12121781706809998 -0.04339610040187836
-0.4384044408798218 -0.10321415960788727 -0.07642882317304611
-0.40856313705444336 0.0027425240259617567 0.16202759742736816
-0.10113444924354553 0.0014102626591920853 -0.10120575875043869
0.22553187608718872 0.0001687586773186922 -0.1667715311050415
0.5644189715385437 0.39325371384620667 0.1565820872783661
-0.3513786196708679 0.41631877422332764 -0.09807233512401581
0.11856250464916229 0.39640170335769653 -0.3557679355144501
0.3452344238758087 -0.6346530318260193 -0.07126443088054657
0.25101134181022644 -0.6238113045692444 0.049585774540901184
-0.12776781618595123 0.3975040912628174 -0.3105696439743042
0.16804639995098114 0.0004144089762121439 -0.07569435983896255
-0.04140932112932205 -0.0002683950588107109 -0.05847270041704178
0.4417923092842102 0.3985658586025238 -0.07385352998971939
0.07839088886976242 0.16253042221069336 0.3471377193927765
0.032911695539951324 -0.011999182403087616 0.4678848087787628
-0.004421263933181763 -0.6263521313667297 -0.23240339756011963
0.01199521217495203 0.39997610449790955 -0.17312628030776978
0.5736106038093567 0.3505737781524658 0.2747627794742584
0.08202037215232849 -0.0007092580199241638 -0.22743186354637146
-0.5575690269470215 0.06410793215036392 -0.19917942583560944
0.3352048397064209 -0.6346169114112854 0.023543432354927063
-0.47444766759872437 0.40081292390823364 0.10675077885389328
0.31613650918006897 -0.08765102177858353 0.2456793487071991
-0.5741065144538879 0.256437748670578 0.19427108764648438
-0.5266242027282715 0.2633344829082489 0.34537795186042786
0.392853707075119 -0.6042954325675964 -0.051606666296720505
0.1478085070848465 0.0003184243105351925 -0.14046292006969452
-0.3523421585559845 0.0005962464492768049 -0.29392826557159424
0.015887517482042313 -0.6252685785293579 0.18221308290958405
-0.4696694612503052 -0.11383045464754105 -0.3554610311985016
0.32688742876052856 0.40094059705734253 -0.06853705644607544
-0.542614221572876 0.004454762674868107 -0.02491113543510437
0.08756756782531738 0.13533084094524384 -0.4002198278903961
0.5789880156517029 0.17145226895809174 -0.32683494687080383
0.00038908072747290134 -0.23713962733745575 -0.35281020402908325
0.5757598876953125 0.07591873407363892 -0.37186548113822937
0.37907204031944275 0.4020097255706787 0.044304009526968
-0.4205033779144287 0.29671257734298706 -0.40096020698547363
0.4810815751552582 0.3996414840221405 0.042225196957588196
0.1688809096813202 -0.3880562484264374 -0.3183947205543518
-0.3784012794494629 0.36097821593284607 0.025599855929613113
0.24227145314216614 0.24546702206134796 0.34374815225601196
0.3209746778011322 -0.5736889243125916 0.1612766534090042
0.5721511840820312 0.008430859073996544 0.2742708623409271
0.390544593334198 0.001299816183745861 -0.15546880662441254
0.19529728591442108 0.0014506990555673838 0.23445315659046173
-0.0075308880768716335 -0.00031246733851730824 -0.06090659275650978
0.3465195894241333 -0.4720785319805145 -0.1823108196258545
0.20540396869182587 -0.0010921871289610863 -0.11750797927379608
0.23486532270908356 0.0004664110019803047 -0.27204737067222595
0.3302786350250244 0.3322698771953583 0.3804229199886322
-0.5601196885108948 0.38941991329193115 0.22962574660778046
0.35223817825317383 0.0009289681911468506 0.1887912154197693
0.36332011222839355 -0.1798444539308548 -0.2539798617362976
-0.3733741343021393 -0.04824145883321762 -0.05020739510655403
0.13557852804660797 -0.08137093484401703 0.37678489089012146
-0.16599923372268677 -0.43005242943763733 0.08855250477790833
0.42384451627731323 -0.37605664134025574 -0.033569417893886566
0.05953790619969368 0.40079671144485474 -0.17072269320487976
-0.06384910643100739 0.1420130878686905 -0.40182363986968994
-0.44534218311309814 0.04928318038582802 -0.4027692377567291
-0.2235015332698822 -0.21741269528865814 -0.1309271603822708
-0.3306437134742737 0.4020708203315735 0.30942651629447937
-0.57652348279953 0.293533593416214 0.3344501554965973
-0.2811835706233978 0.0014229798689484596 -0.04307861998677254
0.09233603626489639 0.4008646011352539 -0.01902150921523571
-0.5816272497177124 0.057162169367074966 0.2661930024623871
0.578580915927887 0.18412481248378754 -0.11826477199792862
-0.2350914180278778 -0.365995317697525 -0.03495519608259201
-0.3615950047969818 -0.03872416540980339 -0.21819815039634705
0.07704087346792221 -0.6255040168762207 -0.12988120317459106
-0.029361356049776077 -0.4984651207923889 -0.2850496172904968
0.01965498924255371 -0.3736225962638855 -0.3515121340751648
-0.3684653043746948 -0.055945783853530884 -0.03527975454926491
-0.3700288236141205 0.005035114474594593 0.042507920414209366
-0.5430029034614563 0.39118489623069763 -0.1507672369480133
0.13170206546783447 -0.17277219891548157 -0.37458398938179016
0.2453652173280716 -0.0011185910552740097 0.27813783288002014
-0.37775495648384094 0.38775238394737244 0.03578540310263634
-0.5862615704536438 0.2690790295600891 0.19206228852272034
-0.04500060901045799 0.3945262134075165 0.3395237326622009
-0.042943306267261505 0.4024811387062073 0.29239845275878906
0.2549556493759155 0.39981576800346375 -0.010061400942504406
-0.09707001596689224 -0.5331222414970398 0.18061254918575287
-0.47128549218177795 0.3987486660480499 -0.17083698511123657
0.416273295879364 -0.34544411301612854 0.11188652366399765
0.4145817160606384 -0.0026833880692720413 -0.22837907075881958
-0.09138122946023941 -0.13478605449199677 0.25803571939468384
0.577090322971344 0.12282311171293259 0.327533483505249
0.2518504858016968 -0.561805009841919 -0.27927500009536743
-0.056866083294153214 0.4026257395744324 0.11008564382791519
-0.17562757432460785 -0.5825381278991699 0.03647235408425331
0.5802175402641296 0.3876503109931946 0.21090832352638245
-0.5652465224266052 0.3794662058353424 0.02185092493891716
-0.10595722496509552 0.39775416254997253 -0.29578283429145813
-0.3981894552707672 -0.08669107407331467 -0.2691127359867096
0.17154377698898315 0.0021196920424699783 -0.15826179087162018
0.49341991543769836 0.03702060133218765 0.3479134738445282
-0.4984155297279358 0.099898561835289 -0.06373400241136551
0.10353422909975052 0.45800647139549255 0.4473544657230377
-0.09573137015104294 -0.0007584020495414734 -0.17076869308948517
0.25602638721466064 -0.654863178730011 0.20429456233978271
-0.005566910840570927 -0.1287611424922943 0.30278921127319336
-0.5767854452133179 0.007894286885857582 -0.22020763158798218
-0.19110852479934692 -0.3814834952354431 0.11206072568893433
-0.04819328710436821 -0.21815909445285797 -0.32967671751976013
-0.5412847995758057 0.07373293489217758 -0.07967723160982132
-0.3145616948604584 0.052620675414800644 -0.3983473777770996
0.5748065114021301 0.2539960443973541 0.07719834893941879
0.23676519095897675 -0.12695780396461487 0.2913430631160736
0.1760084182024002 -0.39074814319610596 0.2639838457107544
-0.14001818001270294 0.39938268065452576 -0.14122101664543152
-0.5507809519767761 -0.07229757308959961 0.2717924416065216
0.17205004394054413 -0.37766894698143005 -0.33399683237075806
-0.46792906522750854 0.4080456495285034 -0.07676774263381958
0.3252745270729065 0.389587938785553 -0.3948122560977936
0.30773475766181946 0.22801996767520905 0.45863497257232666
-0.22927169501781464 -0.001965835690498352 0.05739230662584305
0.10543100535869598 0.0016532056033611298 -0.24142563343048096
0.10461505502462387 0.4029756188392639 0.2385406494140625
-0.3656097650527954 -0.02307799831032753 -0.1848621666431427
0.31447964906692505 0.2077735960483551 0.44993317127227783
-0.0020125373266637325 -0.5753681063652039 0.24092702567577362
-0.3693647086620331 -0.033507928252220154 -0.2413812130689621
-0.03129958733916283 0.2231910526752472 -0.4019903838634491
-0.47705894708633423 -0.10754041373729706 -0.19684909284114838
-0.01346777006983757 -0.025557301938533783 0.29735442996025085
0.5753822326660156 0.39478158950805664 0.12242814898490906
-0.23861807584762573 -0.33471328020095825 -0.01938195712864399
0.30897995829582214 0.30927765369415283 -0.4000787138938904
0.14869239926338196 0.0011298349127173424 -0.01697792112827301
-0.07523131370544434 -0.4413943290710449 -0.25719091296195984
0.16367267072200775 -0.00015518860891461372 -0.23459714651107788
0.5609672665596008 0.13130150735378265 -0.39640310406684875
-0.28720802068710327 0.11598150432109833 0.3466626703739166
-0.40988263487815857 0.3118925094604492 -0.4020855724811554
0.0264346431940794 0.2763892710208893 -0.39927348494529724
0.24601903557777405 0.0014945666771382093 0.09881167858839035
-0.542053759098053 0.0024922830052673817 -0.20810045301914215
0.5798904299736023 0.10760583728551865 0.2831524908542633
0.11531683057546616 -0.3951161801815033 -0.3209693431854248
-0.08878961950540543 0.00152543094009161 -0.03221423923969269
-0.1678500473499298 -0.6402767300605774 -0.11804614961147308
0.03029625304043293 0.4023340344429016 0.17494088411331177
0.03020717203617096 0.15965132415294647 0.45209839940071106
0.47256261110305786 -0.0014020325616002083 0.10218562185764313
-0.48148369789123535 0.4022882282733917 0.23127731680870056
0.31447747349739075 -0.0021860692650079727 -0.36520451307296753
0.5493680834770203 0.0047864713706076145 0.2426471710205078
-0.03168643265962601 -0.30025938153266907 -0.3481683135032654
0.19741448760032654 0.4008491337299347 -0.31156066060066223
0.507274866104126 0.0010210778564214706 0.0072832307778298855
-0.07087257504463196 -0.03476540744304657 -0.3274930715560913
0.38787558674812317 -0.38944104313850403 -0.07473505288362503
0.16315093636512756 0.4756768047809601 0.4109809696674347
-0.57586270570755 0.07257148623466492 0.015496528707444668
0.17701022326946259 0.00028153788298368454 -0.2935149073600769
0.08371631801128387 -0.6235520839691162 -0.0855034738779068
0.22801315784454346 0.0016359628643840551 0.28509292006492615
-0.4641669988632202 0.005056772381067276 0.23185065388679504
0.07558387517929077 0.12513592839241028 0.34547942876815796
0.5314974784851074 0.00254953745752573 -0.24793501198291779
-0.21183964610099792 -0.15470536053180695 0.10191913694143295
-0.576789140701294 0.009209593757987022 -0.36961719393730164
-0.07752437889575958 0.3929096758365631 0.33594292402267456
0.24696700274944305 0.4681307077407837 0.4490426182746887
-0.57962566614151 0.009592178277671337 0.01858317293226719
0.45450326800346375 0.17058046162128448 0.3471135199069977
0.050849467515945435 0.399819016456604 0.07086007297039032
-0.019295072183012962 -0.6265532374382019 -0.02877594158053398
0.4938342571258545 0.21570155024528503 0.3468640446662903
0.570699155330658 0.29172682762145996 0.3356311321258545
0.17067578434944153 0.4028095304965973 0.1947144716978073
-0.11152790486812592 -0.0006856713443994522 -0.028592197224497795
-0.3398091495037079 0.4019976556301117 0.3305146098136902
-0.0032191728241741657 0.016340048983693123 0.34357044100761414
0.5527772307395935 0.0028123357333242893 -0.12797866761684418
0.21188542246818542 0.47543856501579285 0.37879934906959534
-0.5625638365745544 0.18060636520385742 0.34006285667419434
-0.38791316747665405 0.09131588041782379 -0.3974718749523163
-0.5854777693748474 0.19312690198421478 -0.002304346766322851
0.4311647117137909 0.27389809489250183 -0.4019676148891449
-0.5774083733558655 0.030961697921156883 -0.35653603076934814
0.13870936632156372 -0.43350932002067566 0.2643655836582184
-0.11164049059152603 -0.003100283443927765 -0.29643896222114563
0.026032257825136185 0.06614448130130768 0.45863401889801025
-0.3802742063999176 0.05214545130729675 -0.1430683583021164
0.15132232010364532 -0.6238312721252441 -0.09804004430770874
0.13438045978546143 -0.6257588863372803 -0.2545459270477295
0.5723150372505188 0.3749125897884369 0.10053398460149765
0.1779329478740692 -0.6266580820083618 0.07552077621221542
-0.5687731504440308 0.09884835034608841 -0.3946099877357483
-0.38214096426963806 -0.06255122274160385 0.03209283575415611
-0.5790977478027344 0.31734955310821533 -0.25994741916656494
-0.28358694911003113 0.2836851477622986 -0.3995335102081299
-0.37086355686187744 0.41359999775886536 -0.03644033521413803
-0.4208829402923584 0.3735385239124298 -0.3991765081882477
0.017223795875906944 -0.6089863181114197 -0.30433782935142517
0.3138920068740845 -0.08423737436532974 0.43825554847717285
0.1007978767156601 0.4109656810760498 0.45819714665412903
0.07553372532129288 0.057352904230356216 0.4623071551322937
0.17080776393413544 0.40061965584754944 0.05998286232352257
0.3229210376739502 0.3970496952533722 -0.248329758644104
0.32577526569366455 0.07677574455738068 0.3522302806377411
0.5616445541381836 0.3024645149707794 -0.3951212167739868
0.33000418543815613 -0.6375564336776733 0.1537456065416336
-0.014383631758391857 0.2741517424583435 -0.3995872735977173
0.05944842845201492 -0.6262943148612976 -0.04288220405578613
-0.01984652690589428 0.39877742528915405 -0.20810237526893616
0.3153654634952545 -0.07162173092365265 0.39708536863327026
0.3204697072505951 -0.16741561889648438 0.2420157492160797
-0.08326415717601776 -0.37741684913635254 0.22924967110157013
0.334094375371933 0.1925017088651657 0.3859110474586487
-0.240049347281456 -0.33793097734451294 -0.04702962189912796
-0.47235241532325745 0.0926811620593071 0.3447929620742798
0.05749848484992981 -0.622012734413147 -0.23438632488250732
0.34150275588035583 0.4040985107421875 0.16804997622966766
0.23952260613441467 0.2438785433769226 0.3458074629306793
0.029711782932281494 0.30882808566093445 -0.40189608931541443
-0.17481958866119385 -0.5234082937240601 0.05198046937584877
-0.01655375398695469 0.39789706468582153 -0.3419540226459503
0.30132386088371277 0.36096805334091187 0.34561052918434143
0.2862706184387207 -0.25610509514808655 -0.31807440519332886
0.5788127779960632 0.3013977110385895 0.09307996928691864
0.42259031534194946 -0.25304290652275085 0.10916154831647873
-0.5000708103179932 0.02763683721423149 -0.4003334641456604
-0.4257725775241852 0.0031293402425944805 -0.3076678514480591
-0.14379072189331055 -0.444776326417923 -0.17070086300373077
-0.582980751991272 0.21669402718544006 0.2803947329521179
0.25078025460243225 0.4038349390029907 0.35906529426574707
-0.048666223883628845 0.0037188446149230003 0.12920436263084412
-0.579021692276001 0.031362783163785934 0.02466956153512001
0.10253485292196274 -0.4422796964645386 -0.31957006454467773
-0.5055254697799683 0.3792383372783661 -0.03355395048856735
0.21002097427845 -0.0007123928517103195 -0.05893262103199959
-0.4497535824775696 0.3071046471595764 -0.40041878819465637
-0.1073349341750145 -0.4555874168872833 -0.23631229996681213
0.3311642110347748 -0.3579809367656708 0.22636476159095764
-0.5801195502281189 0.2159469723701477 -0.2836022973060608
-0.09612584114074707 0.34362202882766724 0.34624752402305603
0.1950058490037918 -0.2996927499771118 -0.35861364006996155
0.11282476037740707 0.053055670112371445 -0.4012984335422516
0.033825721591711044 -0.457615464925766 -0.31053128838539124
-0.1878482699394226 -0.42336615920066833 -0.035379476845264435
0.38670751452445984 0.3981887996196747 0.30913710594177246
0.37621939182281494 -0.4920833110809326 -0.1265130490064621
0.34945347905158997 0.39995256066322327 -0.17604553699493408
-0.30181512236595154 -0.0009354711510241032 -0.02322118729352951
0.2478594034910202 0.20753219723701477 0.4685904383659363
0.43038251996040344 -0.37739989161491394 -0.07950477302074432
0.08505050837993622 -0.036910269409418106 -0.3732072412967682
-0.5524510741233826 0.28419962525367737 -0.40114766359329224
0.1023213341832161 0.0020620254799723625 -0.04400257766246796
0.03370252624154091 -0.041635628789663315 -0.3680560290813446
0.22858580946922302 -0.08196129649877548 0.42055773735046387
-0.05947719141840935 -0.3624504804611206 -0.3274129033088684
-0.580437958240509 0.013969291001558304 -0.37290382385253906
0.3008975088596344 -0.06439424306154251 0.25800782442092896
-0.36133453249931335 0.3885413408279419 -0.39485979080200195
0.3015919029712677 -0.16576603055000305 -0.31433531641960144
0.31607332825660706 -0.521730363368988 -0.2233259379863739
-0.549589216709137 0.39158666133880615 0.2603011727333069
0.000349086825735867 0.4022076725959778 -0.07277203351259232
0.22587625682353973 0.0011411727173253894 -0.14022554457187653
-0.4081660807132721 0.0034591052681207657 -0.10217058658599854
-0.3563603460788727 0.010799477808177471 0.33831706643104553
0.12742255628108978 -0.6259042024612427 -0.046361006796360016
-0.06196891888976097 -0.0015035737305879593 -0.2521839439868927
0.06957244873046875 -0.36704781651496887 -0.36716869473457336
-0.44794657826423645 0.11172407120466232 0.25500795245170593
0.026669921353459358 0.24671021103858948 0.43780389428138733
-0.5791085958480835 0.022738082334399223 0.2186754047870636
0.09498011320829391 -0.626669704914093 -0.010670130141079426
-0.45926520228385925 0.39440450072288513 -0.16346240043640137
-0.07463617622852325 0.001155316480435431 -0.06470046937465668
0.355556845664978 0.0018150064861401916 0.055403273552656174
0.39588111639022827 0.39648866653442383 -0.305254191160202
-0.049256280064582825 -0.48054802417755127 -0.27684956789016724
0.46495530009269714 -0.0005177818238735199 0.005209269002079964
0.5689941644668579 0.38779687881469727 0.20705054700374603
0.08453182876110077 0.1953776776790619 -0.4007306396961212
0.1336561143398285 0.38998112082481384 0.4483914375305176
-0.5501651763916016 -0.07501404732465744 0.08267651498317719
-0.22656553983688354 -0.37158671021461487 0.06125127524137497
0.5832316279411316 0.3576517701148987 -0.1611957550048828
-0.5673036575317383 0.371137410402298 -0.25310003757476807
-0.2991824448108673 0.0017570080235600471 0.18246564269065857
0.5742881298065186 0.3115238547325134 -0.09224012494087219
0.07109655439853668 -0.3658681809902191 -0.36890968680381775
-0.42484113574028015 0.4017874002456665 0.19063080847263336
0.34929341077804565 0.3995627164840698 -0.07822104543447495
-0.5800773501396179 0.2852449119091034 -0.3317357003688812
-0.5759377479553223 0.05090754106640816 0.10154517740011215
-0.430952250957489 0.09397975355386734 -0.0800742655992508
0.19306282699108124 0.3477540612220764 -0.40033355355262756
0.5775323510169983 0.30338573455810547 0.3167741596698761
-0.15596550703048706 0.010943234898149967 -0.3949824571609497
-0.5781203508377075 0.008314140141010284 0.3384740948677063
-0.4884098768234253 0.10722601413726807 -0.33383914828300476
0.16235573589801788 -0.2959687411785126 -0.3662591874599457
0.17503847181797028 0.0014329832047224045 0.2165355682373047
0.069359689950943 -0.44374406337738037 0.2654902935028076
-0.15542452037334442 -0.01327788271009922 0.20120234787464142
-0.11882416903972626 -0.6511646509170532 0.12259870022535324
-0.16248364746570587 -0.5914113521575928 0.08556246757507324
0.11198275536298752 -0.0006216717883944511 0.1484994888305664
0.19797064363956451 -0.6531281471252441 0.2088271975517273
0.5745846629142761 0.18660445511341095 -0.12801894545555115
0.2499634325504303 -0.3848634660243988 -0.27388760447502136
0.14643101394176483 -0.21078316867351532 0.3143370449542999
-0.3670368492603302 -0.0012464034371078014 -0.1256881207227707
-0.3677745759487152 -0.025605889037251472 -0.0939757227897644
-0.2734944224357605 0.36899447441101074 -0.06576541066169739
-0.4947431683540344 -0.053814809769392014 -0.4030733108520508
0.5654910206794739 0.012906117364764214 -0.3814377784729004
0.28820687532424927 0.07986017316579819 -0.39985811710357666
-0.2358100563287735 -0.19276964664459229 -0.009015336632728577
-0.31766143441200256 0.016063163056969643 -0.39961326122283936
0.28641068935394287 0.3957819640636444 0.3473954200744629
0.05024152994155884 0.40373262763023376 0.36630016565322876
0.35148894786834717 0.2314242720603943 -0.4001506567001343
0.28416088223457336 0.0012196674942970276 -0.2548300623893738
0.2846885919570923 0.019847851246595383 0.3405308127403259
0.5758904814720154 0.27139031887054443 -0.06970170140266418
0.25559476017951965 0.3995046317577362 -0.007150434888899326
0.5748542547225952 0.1912182867527008 -0.3158920109272003
0.39495402574539185 0.0020031221210956573 -0.06797457486391068
-0.12924407422542572 0.3999877870082855 0.3312007486820221
0.3011465072631836 -0.513137936592102 -0.23637154698371887
-0.22832204401493073 0.00036476762033998966 -0.15662828087806702
-0.26236629486083984 0.008121468126773834 -0.3866427540779114
0.1359681785106659 0.0024397443048655987 -0.3822570741176605
-0.2158995121717453 -0.36329445242881775 -0.15035909414291382
-0.059445492923259735 -0.4698543846607208 -0.2758603096008301
0.18597471714019775 0.0009113659616559744 0.19088612496852875
-0.15255381166934967 -0.0005284389480948448 -0.22685711085796356
0.10129065811634064 -0.6321351528167725 0.26071569323539734
-0.03927361220121384 0.3140867352485657 -0.40289419889450073
-0.5719519853591919 0.06800207495689392 0.24233168363571167
-0.5411422252655029 0.38998547196388245 -0.15118244290351868
0.02375568076968193 -0.0022698589600622654 0.32085469365119934
-0.22998102009296417 -0.32372093200683594 -0.09555379301309586
0.31845349073410034 0.04977850988507271 0.3983667194843292
-0.36050888895988464 0.3962692618370056 -0.35121238231658936
0.22244895994663239 -0.6273331642150879 0.07560280710458755
0.32487326860427856 0.0478699617087841 0.46295514702796936
-0.13716337084770203 0.01971345581114292 -0.39944159984588623
0.17190490663051605 -0.027562903240323067 -0.3668138384819031
0.36995115876197815 0.0011871550232172012 -0.21217280626296997
-0.5030955076217651 0.10910511016845703 0.24589520692825317
0.17458035051822662 -0.0004573557525873184 -0.22319218516349792
0.16778604686260223 -0.628851056098938 -0.30564117431640625
-0.29403457045555115 0.00023665931075811386 0.1372138112783432
0.02475724183022976 -0.6274887323379517 -0.012519065290689468
-0.4158031940460205 0.10061468183994293 -0.12486764043569565
0.4356836974620819 0.4016228914260864 0.2089294195175171
0.13633431494235992 0.1595005989074707 -0.39983999729156494
0.4460468292236328 -0.1884661465883255 -0.040924228727817535
-0.3176998794078827 0.053371962159872055 -0.3995981514453888
-0.4682581424713135 0.4086340069770813 -0.038329411298036575
-0.13927561044692993 -0.4763508141040802 -0.1755673587322235
0.051248569041490555 0.39686375856399536 -0.3793330490589142
0.3171989619731903 0.3887569308280945 0.4557989835739136
0.4936281144618988 0.39906033873558044 -0.253618985414505
0.4232889413833618 0.4006980061531067 -0.14243184030056
-0.5756741762161255 -0.01973537728190422 0.2090269923210144
0.12159017473459244 -0.3732619285583496 0.3072815239429474
-0.08333106338977814 0.40129876136779785 0.24569690227508545
0.1440170705318451 0.36518192291259766 0.4686625599861145
0.48094040155410767 0.401633083820343 -0.13180136680603027
-0.5807899832725525 0.28679752349853516 0.047124724835157394
-0.2818002998828888 0.3749058246612549 -0.02342778816819191
-0.5698885917663574 0.2748202085494995 -0.384760320186615
0.23439408838748932 0.0007721185684204102 -0.042689837515354156
-0.16957785189151764 -0.6571140289306641 0.018908321857452393
-0.05045077204704285 0.4030349552631378 0.2616559565067291
-0.1830815225839615 0.2522679567337036 0.3487306237220764
-0.5755662322044373 0.005318752024322748 0.018764127045869827
-0.09989603608846664 -0.6270869374275208 -0.06200717017054558
0.04680651053786278 -0.522245466709137 0.2592793107032776
0.3947187066078186 0.012190275825560093 0.33846545219421387
-0.12194538861513138 -0.6297369599342346 -0.018030133098363876
0.004087853245437145 0.4024296700954437 0.10395259410142899
-0.4567871391773224 -0.10172149538993835 -0.3912445306777954
-0.13408149778842926 -0.15737944841384888 0.22208552062511444
0.3823604881763458 -0.6484591364860535 -0.044193826615810394
-0.49564865231513977 0.12065054476261139 -0.053050193935632706
-0.341808021068573 0.4022739827632904 0.2924209535121918
-0.38334980607032776 -0.05919785797595978 -0.11338062584400177
0.11237065494060516 -0.29888826608657837 0.3157287836074829
-0.1847844421863556 -0.4673044979572296 -0.05143137648701668
0.02777763642370701 -0.002293911064043641 0.320764422416687
0.33810827136039734 0.06328506022691727 0.34448814392089844
0.5769593119621277 0.041096027940511703 -0.012326106429100037
0.3813822567462921 0.00549699692055583 0.32221415638923645
-0.28088462352752686 0.3036639988422394 0.3471522033214569
-0.22699794173240662 0.010961705818772316 0.340745747089386
-0.2634775936603546 0.0010982630774378777 -0.2260291874408722
0.42196109890937805 0.20606333017349243 -0.40170907974243164
0.19707855582237244 0.00031341612339019775 0.09683399647474289
-0.2062525898218155 -0.2662001848220825 0.11876648664474487
0.16649463772773743 -0.116690993309021 -0.3647047281265259
-0.49741148948669434 -0.09698486328125 0.33775314688682556
0.12722253799438477 -0.10099685192108154 0.3162193298339844
-0.4207744598388672 -0.08905033767223358 -0.18907277286052704
-0.5698758363723755 0.36834391951560974 -0.05653045326471329
-0.5482545495033264 -0.07571358978748322 0.17986781895160675
0.48660042881965637 0.11415842175483704 -0.39924106001853943
-0.16242492198944092 -0.5280210375785828 0.08723192662000656
0.20881114900112152 0.2533009350299835 0.3450377285480499
-0.007723599672317505 -0.10746017843484879 -0.35313865542411804
-0.48633694648742676 -0.11065072566270828 -0.01579924486577511
0.3498522937297821 -0.4578494131565094 0.12323712557554245
0.2214701771736145 -0.000682193785905838 -0.10090935975313187
-0.009238708764314651 0.39762797951698303 -0.28803709149360657
-0.23743757605552673 -0.13028109073638916 -0.03159260377287865
-0.037012193351984024 0.0983925461769104 0.346421480178833
0.38416510820388794 -0.41116002202033997 -0.11819551885128021
0.3301556706428528 -0.45052382349967957 -0.1959173083305359
-0.14659616351127625 -0.33775052428245544 0.20951803028583527
-0.38475343585014343 0.3674181401729584 -0.20314346253871918
-0.3706708550453186 -0.00602568918839097 -0.39393383264541626
-0.5809519290924072 0.15448029339313507 -0.15486572682857513
-0.23891083896160126 -0.19708207249641418 -0.026138532906770706
0.12394736707210541 0.2572513222694397 -0.4008661210536957
-0.0953611508011818 -0.41468584537506104 -0.24358998239040375
-0.0632651224732399 -0.021778779104351997 -0.3337361812591553
-0.5198107361793518 0.09605445712804794 -0.23342691361904144
-0.1857907623052597 0.21362341940402985 -0.4022448658943176
-0.11129191517829895 -0.4494059085845947 0.16816926002502441
-0.21384713053703308 -0.29269635677337646 -0.16716071963310242
-0.2097279578447342 -0.08326800912618637 0.11678575724363327
0.15985460579395294 0.15586785972118378 0.34496936202049255
0.4772231876850128 0.007937278598546982 0.3380674719810486
0.10757575184106827 0.35704293847084045 -0.40045344829559326
0.43597906827926636 -0.024939047172665596 -0.1344788670539856
-0.5806686878204346 0.2410326600074768 -0.2544170320034027
-0.3585665225982666 0.16022317111492157 -0.40180137753486633
-0.34619927406311035 0.4103897213935852 -0.06967663019895554
-0.1468699425458908 -0.663419246673584 -0.11094383150339127
0.380546510219574 0.1703396737575531 0.3472415804862976
0.3175675868988037 0.39983195066452026 -0.02547142468392849
0.07057097554206848 -0.6424009203910828 0.22225791215896606
-0.5346902012825012 0.3979470431804657 0.13771027326583862
0.44396188855171204 0.0017471825703978539 -0.2132776826620102
0.3528670072555542 0.3982822000980377 0.2568293809890747
-0.5194829106330872 0.260379821062088 0.34717684984207153
0.2738269865512848 -0.18114495277404785 0.27430260181427
-0.20194903016090393 -0.11476964503526688 -0.18565259873867035
-0.01718766987323761 -0.023070603609085083 0.2904120683670044
-0.531823992729187 0.23534177243709564 0.34339985251426697
-0.36629825830459595 0.006555736064910889 0.14245207607746124
-0.2245383858680725 -0.3788622319698334 -0.08484748005867004
-0.02879367396235466 -0.6225336790084839 0.0005180968437343836
0.03514140471816063 -6.605405360460281e-05 -0.0909528136253357
0.3122239410877228 -0.0004094848409295082 -0.288298100233078
0.0048839314840734005 0.4007323682308197 -0.3370985686779022
0.5778787136077881 0.10391029715538025 0.05630762502551079
-0.49240681529045105 0.002276637591421604 0.2752012014389038
-0.14342069625854492 -8.406303822994232e-05 -0.13427647948265076
0.3874661922454834 0.07461284846067429 0.3479721248149872
-0.4134503901004791 0.003258226439356804 -0.19025935232639313
-0.188369020819664 0.0012251930311322212 -0.15095676481723785
-0.3279140293598175 0.39525407552719116 -0.1629602611064911
0.024661021307110786 0.00022171204909682274 0.08326713740825653
0.3528256118297577 -0.6396389007568359 0.10861232131719589
-0.23999902606010437 0.11846651136875153 -0.4005366563796997
0.44982168078422546 0.2251409888267517 -0.4006327986717224
0.5751585364341736 0.025647468864917755 -0.38609427213668823
0.23143945634365082 -0.3770163655281067 0.2858923375606537
0.5804834961891174 0.12324683368206024 0.271947979927063
-0.16125142574310303 0.0014508423628285527 0.3106166422367096
-0.4517190754413605 -0.002262652851641178 -0.3945187032222748
-0.232469379901886 -0.2455528974533081 0.03521297499537468
-0.021936245262622833 0.39986342191696167 -0.24076442420482635
-0.10380810499191284 -0.528648853302002 -0.22913332283496857
-0.5108283758163452 -0.07363861054182053 0.34529274702072144
0.5774658918380737 0.23074589669704437 -0.022984756156802177
0.18353843688964844 -0.08261319994926453 0.4101162254810333
-0.23151129484176636 0.0013020681217312813 0.18653208017349243
-0.10536561906337738 -0.6233136653900146 -0.02226349711418152
0.4442760944366455 -0.24459214508533478 -0.060383427888154984
0.5298427939414978 0.12690936028957367 -0.39910537004470825
-0.383425235748291 0.053775932639837265 -0.07261253148317337
-0.41858527064323425 0.10424015671014786 0.029402200132608414
0.05300397053360939 0.2746645212173462 -0.39857763051986694
-0.07201060652732849 -0.6279487609863281 -0.04588794335722923
0.45337116718292236 0.401113361120224 0.153792142868042
-0.36281660199165344 0.4025791585445404 -0.1655009239912033
0.25566917657852173 -0.4400142729282379 0.22068916261196136
0.13794560730457306 0.2702544033527374 0.47043508291244507
-0.25379425287246704 0.0019515918102115393 -0.35536718368530273
0.3222229778766632 0.08102892339229584 0.40405917167663574
-0.5672696828842163 0.3638654947280884 0.3347024917602539
-0.42120227217674255 0.3583885431289673 0.05023325979709625
-0.17568376660346985 -0.12906450033187866 0.17027682065963745
0.5782040357589722 0.2477739006280899 0.07892593741416931
-0.4187504053115845 0.2033492773771286 -0.4036899209022522
-0.5859256982803345 0.15093904733657837 -0.0688575804233551
-0.27346596121788025 0.3973381519317627 0.31514135003089905
-0.5811179876327515 0.2666447162628174 0.03510792925953865
-0.11577129364013672 -0.25909388065338135 0.2387721985578537
0.39511966705322266 0.3989599347114563 0.016500018537044525
-0.24099576473236084 -0.1409398764371872 0.009014052338898182
-0.010444281622767448 -0.2649393677711487 0.2991762161254883
-0.5322849154472351 -0.08913422375917435 0.11740902066230774
-0.1418692171573639 0.0010407301597297192 0.06210288405418396
0.31022918224334717 -0.3077658712863922 0.24849647283554077
-0.5324774980545044 0.0037129390984773636 -0.200948104262352
0.06410779058933258 -0.4076792299747467 -0.31466442346572876
0.20646549761295319 -0.6252502202987671 0.03539302572607994
0.3946382701396942 -0.32658782601356506 -0.2077609896659851
0.03372308611869812 0.37089332938194275 0.46227943897247314
0.20143786072731018 0.40153056383132935 0.13277840614318848
-0.32893744111061096 0.4062166213989258 -0.0538451261818409
0.006922097876667976 -0.09582553058862686 0.3072313964366913
-0.5745978951454163 0.07006842643022537 0.20255601406097412
-0.11558663100004196 0.20024101436138153 0.34888386726379395
-0.19105592370033264 0.03671516105532646 0.3424775004386902
-0.5100833177566528 -0.10377687960863113 -0.057531408965587616
-0.00887838564813137 0.3967984616756439 -0.37317898869514465
-0.2726368308067322 0.40219932794570923 0.22593162953853607
-0.09256313741207123 -0.4413965046405792 0.1883876621723175
0.30812010169029236 -0.06623928248882294 0.42590102553367615
0.1590328961610794 -0.6256954669952393 0.019175224006175995
0.3848927915096283 -0.31316617131233215 0.17497488856315613
-0.03937467560172081 -0.5782844424247742 -0.2774186134338379
0.5684642791748047 0.38850584626197815 -0.11804954707622528
0.2173660844564438 0.0014395210891962051 0.19373559951782227
0.32418739795684814 0.15284869074821472 -0.4010039269924164
-0.19536204636096954 -0.12566088140010834 -0.20106519758701324
0.4137241542339325 -0.15696360170841217 -0.17307476699352264
-0.05140556022524834 0.4028039872646332 0.060053639113903046
0.19617293775081635 0.3094145655632019 0.345023512840271
0.051965802907943726 0.24201637506484985 -0.40033528208732605
-0.2229597270488739 0.40196678042411804 0.137867271900177
-0.5118181705474854 0.0026991423219442368 0.09510523080825806
0.5773076415061951 0.048145655542612076 0.16394725441932678
0.21951377391815186 -0.6331957578659058 0.23205605149269104
0.5783211588859558 0.3174539804458618 0.150712788105011
0.2559051215648651 0.3993507921695709 -0.15485267341136932
-0.500500500202179 0.40217575430870056 -0.2742570638656616
-0.38445454835891724 0.08135147392749786 -0.11568250507116318
-0.5851716995239258 0.18959882855415344 -0.040826983749866486
0.25571537017822266 -0.5328698754310608 0.21718281507492065
-0.48012056946754456 -0.002346768043935299 -0.38016650080680847
0.576615571975708 0.24730747938156128 0.21042759716510773
0.09297244250774384 -0.6243537664413452 0.04187149554491043
-0.28056782484054565 -3.541726619005203e-05 0.05145624652504921
0.4007050395011902 0.4012843072414398 0.12162337452173233
0.43994611501693726 -0.20472297072410583 0.048158109188079834
-0.08274475485086441 0.0011301836930215359 0.19057351350784302
-0.13155195116996765 0.2673637866973877 -0.40176138281822205
-0.4475105106830597 0.109916090965271 -0.13106420636177063
0.24127504229545593 0.3993885815143585 -0.02665596641600132
0.5466501712799072 0.0007832329720258713 -0.1758660525083542
0.280129075050354 -0.3781960904598236 -0.2895406484603882
-0.13401725888252258 -0.29894474148750305 0.22373995184898376
-0.23326905071735382 -0.15375784039497375 -0.11244794726371765
0.5357460379600525 0.0027354988269507885 -0.26100507378578186
-0.052820224314928055 0.2644834518432617 -0.40017208456993103
0.22097647190093994 0.3959173858165741 -0.35512465238571167
0.038733258843421936 -0.6560323238372803 -0.2973318099975586
-0.41695886850357056 0.09103322774171829 0.24164538085460663
0.5721735954284668 0.36652785539627075 -0.32789188623428345
0.46108102798461914 0.3362481892108917 0.3423979580402374
-0.24312777817249298 -0.01618891768157482 -0.09240436553955078
0.06846416741609573 -0.6292397379875183 0.20438577234745026
0.3984376788139343 0.397970974445343 0.010136798955500126
0.21849900484085083 -0.5452155470848083 -0.2939489483833313
-0.18595099449157715 0.1399397999048233 -0.40107262134552
-0.1836506724357605 -0.5624673366546631 -0.059322290122509
0.41736099123954773 0.39676061272621155 -0.3641868233680725
0.18029917776584625 -0.301044225692749 -0.3619789183139801
0.57681804895401 0.10218721628189087 -0.20620550215244293
-0.5758785009384155 0.052840571850538254 -0.16970880329608917
-0.10757188498973846 0.001392468810081482 0.03455015644431114
0.1766083836555481 -0.6222341656684875 -0.11451981961727142
0.3807830214500427 0.14667896926403046 -0.4013445973396301
0.5653512477874756 0.04754919558763504 0.34578439593315125
0.10924225300550461 0.2723826467990875 0.4673815071582794
0.25405213236808777 0.0832395926117897 0.465975821018219
0.12889555096626282 -0.6423894762992859 0.21371836960315704
-0.0455440878868103 -0.6477730870246887 0.21058304607868195
0.13452956080436707 0.4614146649837494 0.44351083040237427
-0.1535816490650177 0.07200172543525696 0.3447258472442627
0.0045616780407726765 -0.39097630977630615 -0.3063516616821289
-0.21866244077682495 -0.07957977801561356 0.08781217783689499
0.3824694752693176 -0.3881216049194336 -0.11498066037893295
0.0790611207485199 -0.43636417388916016 -0.3165004253387451
-0.2482280433177948 0.3997000455856323 -0.09716249257326126
0.06834740936756134 -0.00016691302880644798 0.048685066401958466
0.15585792064666748 0.0020865825936198235 -0.18172581493854523
-0.5784338116645813 0.07217909395694733 0.26176369190216064
-0.1765255182981491 -0.542982280254364 0.04502240568399429
-0.40662088990211487 0.4018952548503876 0.30365219712257385
-0.1453445851802826 0.37416329979896545 -0.39585933089256287
-0.05905653536319733 -0.626773476600647 0.043690670281648636
-0.46645885705947876 0.11299125105142593 0.2638925611972809
-0.18882916867733002 -0.00026447931304574013 0.018336165696382523
-0.16060176491737366 -1.3364944607019424e-05 0.013545429334044456
-0.044741444289684296 0.40116003155708313 0.037785377353429794
0.2552404999732971 -0.3940175175666809 0.21673670411109924
-0.2321208417415619 0.40091684460639954 -0.15016977488994598
0.27346116304397583 0.19175459444522858 0.34734275937080383
0.3141210377216339 0.0033025695011019707 0.06765048205852509
-0.4063284993171692 0.1390208750963211 0.3440973162651062
0.3162119686603546 0.18256592750549316 0.40797892212867737
-0.030746979638934135 0.39631903171539307 -0.3286603093147278
0.23023566603660583 0.0014801030047237873 0.15922437608242035
-0.018733639270067215 0.08082304894924164 -0.40132057666778564
-0.36276209354400635 -0.0064145405776798725 -0.10857553780078888
-0.5456355810165405 -0.07615497708320618 0.292232871055603
-0.580469012260437 0.016408400610089302 0.28742489218711853
-0.33540424704551697 0.002086895750835538 -0.17648060619831085
0.40212300419807434 0.2827678918838501 0.34695079922676086
-0.5834189653396606 0.2362387627363205 -0.19740091264247894
0.026823045685887337 0.17011572420597076 0.4384605586528778
-0.4004863202571869 0.395446240901947 -0.22454111278057098
-0.32042965292930603 0.40052834153175354 0.017375092953443527
-0.03690524399280548 -0.15025286376476288 -0.3423122465610504
0.5598353147506714 0.3940681517124176 -0.2680775225162506
0.3898203372955322 0.001406615599989891 -0.07057131826877594
-0.35739460587501526 0.001272251596674323 -0.3918927311897278
-0.4531415104866028 0.15041601657867432 -0.3995346128940582
0.2761150896549225 0.4011382460594177 0.10129623115062714
0.12656386196613312 0.332518070936203 -0.39893895387649536
-0.4159241318702698 0.2604033350944519 -0.4014381766319275
-0.5506442785263062 0.002953533548861742 0.1335168480873108
-0.5615842938423157 0.1166822761297226 0.3422929048538208
-0.008213641121983528 0.3991202414035797 0.3231411278247833
-0.46385541558265686 0.11446963250637054 -0.35714688897132874
0.5125831365585327 0.3982248604297638 0.33125072717666626
-0.04633719474077225 0.0041071753948926926 0.32968202233314514
0.453637957572937 0.39824607968330383 -0.2074095457792282
-0.18916703760623932 -0.574783980846405 -0.015344765037298203
-0.09796317666769028 0.40064480900764465 0.3091389834880829
-0.4594118297100067 0.3558636009693146 0.017545118927955627
-0.35855764150619507 0.37828296422958374 0.018901752308011055
0.4141291677951813 -0.17013512551784515 0.12605147063732147
-0.4094060957431793 -0.09006265550851822 -0.21288791298866272
0.4436541497707367 -0.3271544277667999 -0.024466369301080704
-0.5223302245140076 -0.09761609882116318 0.09791894257068634
-0.5521389842033386 -0.07108021527528763 -0.031959936022758484
-0.1268237680196762 -0.6522727608680725 0.08150715380907059
0.16490879654884338 -0.25600385665893555 -0.3663005232810974
-0.2343687266111374 0.006284747738391161 0.3355613350868225
0.3190264105796814 0.37017515301704407 0.34666311740875244
0.2878389060497284 -0.5675827264785767 0.19153834879398346
-0.5767069458961487 -0.00019043870270252228 0.14647521078586578
-0.16147221624851227 -0.5028519630432129 0.09349355846643448
0.3531857430934906 0.39805150032043457 -0.20011329650878906
0.03608398884534836 -0.3793696463108063 0.29684045910835266
-0.36420127749443054 0.007187312003225088 -0.07968658208847046
0.40347984433174133 0.0006746798753738403 0.07420666515827179
0.1075713261961937 -0.6267473697662354 0.019430004060268402
-0.09731315821409225 -0.41204506158828735 0.18677149713039398
0.2937956750392914 0.0006694504991173744 -0.11768219619989395
0.3292042315006256 0.2946506440639496 0.34744784235954285
0.41854265332221985 -0.3467354476451874 0.11163751035928726
0.5785682201385498 0.09794900566339493 0.28953489661216736
0.13322071731090546 0.47111964225769043 0.37617477774620056
-0.3818349838256836 0.00418563699349761 0.10534434765577316
0.3505401313304901 0.40205520391464233 0.2614636719226837
0.3465845286846161 0.0070915501564741135 -0.38526907563209534
0.18463684618473053 0.00015908293426036835 -0.3341619372367859
-0.05809157341718674 -0.1429569572210312 0.27953293919563293
-0.4595963656902313 -0.10961994528770447 0.11051718145608902
0.009114092215895653 -0.6225769519805908 -0.1612149477005005
0.11802835762500763 0.1287018209695816 0.46979573369026184
-0.14487114548683167 -0.33311644196510315 0.21228304505348206
0.219049870967865 -0.18842919170856476 -0.35087645053863525
-0.43929529190063477 0.2258240133523941 0.33893024921417236
-0.10120446979999542 0.010218463838100433 -0.39460089802742004
0.07177537679672241 -0.6248213648796082 0.13839556276798248
-0.3815906047821045 -0.06898156553506851 0.006518732290714979
0.022759949788451195 -0.210115447640419 -0.3607925474643707
0.035120513290166855 0.4023935794830322 -0.13171745836734772
0.031045973300933838 -0.6260973811149597 -0.24083328247070312
-0.32570335268974304 -0.00017823977395892143 -0.3059024214744568
-0.014122053980827332 0.17211638391017914 0.41402697563171387
0.08405179530382156 -0.5639938116073608 -0.32191064953804016
0.5244550704956055 0.0016496498137712479 0.27188971638679504
0.34334850311279297 0.37552735209465027 -0.3988601565361023
-0.022647032514214516 -0.6265572905540466 0.005982948932796717
0.5458856225013733 0.3986521363258362 0.10035169124603271
-0.45672035217285156 9.576976299285889e-05 0.05528416857123375
-0.1847602128982544 -0.40738779306411743 -0.09383637458086014
0.06476463377475739 -0.25181829929351807 -0.3700062930583954
0.12338952720165253 0.0007059164345264435 -0.12874968349933624
0.15909413993358612 0.05055036395788193 0.4626372456550598
-0.30505600571632385 0.3972395658493042 -0.04601180553436279
-0.062109485268592834 -0.47243401408195496 0.21063393354415894
0.38812220096588135 0.0006202841177582741 0.09150011837482452
0.08596145361661911 0.40338602662086487 0.17840643227100372
-0.3760933578014374 0.0003841817378997803 -0.24055789411067963
0.45606905221939087 0.3967486619949341 -0.3508429527282715
-0.5819631814956665 0.3219161629676819 -0.11489461362361908
-0.001361437956802547 -0.1145753487944603 0.30493253469467163
0.33385053277015686 0.030584903433918953 0.3669370412826538
0.03271254152059555 0.2976210415363312 0.46648186445236206
0.5651207566261292 0.37306809425354004 -0.3834969103336334
0.0031649984885007143 0.051120415329933167 -0.39865413308143616
0.12613792717456818 0.001956186257302761 -0.09439633786678314
-0.4714382588863373 -0.11252093315124512 0.091944620013237
-0.4821677803993225 0.10284069925546646 -0.4020423889160156
0.10844369977712631 -0.6266915798187256 0.10703141987323761
0.022648701444268227 -0.6267692446708679 -0.02151598408818245
-0.23304085433483124 -0.2722698450088501 -0.0810520276427269
-0.5238032937049866 -0.0993558019399643 0.1673383116722107
0.4180351495742798 -0.0011614044196903706 -0.2077604979276657
-0.058581314980983734 0.4005528390407562 0.17727313935756683
0.44476744532585144 -0.3068419098854065 0.022143853828310966
0.2911592721939087 -0.6244204640388489 0.051757145673036575
-0.56329345703125 -0.06663846969604492 -0.2982228696346283
-0.043965037912130356 0.39884570240974426 -0.25022462010383606
-0.5813655853271484 0.1299273520708084 0.22648848593235016
-0.1553722321987152 0.3975558280944824 -0.3117835819721222
-0.34801703691482544 0.24865871667861938 -0.4013819396495819
0.15708383917808533 0.34451964497566223 0.4653039574623108
0.14152692258358002 0.10800712555646896 0.3448884189128876
-0.476213276386261 -0.11066170036792755 0.13678032159805298
-0.06328917294740677 -0.6232960224151611 -0.025290662422776222
-0.576241672039032 0.35760951042175293 0.2838122248649597
0.21254417300224304 -0.6244809031486511 0.059006452560424805
-0.2658129930496216 0.39668869972229004 -0.20526434481143951
0.0467635840177536 9.325984865427017e-05 0.3025107979774475
0.3880719244480133 -0.00042610056698322296 0.2064109444618225
-0.5155162215232849 0.02828305959701538 0.3442469835281372
0.34834372997283936 -0.6176594495773315 0.10929583013057709
0.44117796421051025 -0.3586118221282959 -0.000759788672439754
-0.15913647413253784 -0.43065106868743896 -0.14752720296382904
0.14558610320091248 0.000696057453751564 -0.22393840551376343
0.5740189552307129 0.21632064878940582 -0.28680282831192017
0.2639124393463135 -0.1994064450263977 -0.33153703808784485
0.10619445145130157 0.002199922688305378 -0.3055254817008972
-0.5786178112030029 0.020863818004727364 -0.22831200063228607
-0.5287097096443176 0.20746320486068726 -0.39686113595962524
-0.5210210084915161 -0.09674573689699173 0.19784681499004364
0.07797835022211075 0.40176475048065186 0.015249496325850487
0.4867279529571533 0.378599613904953 0.3457350730895996
0.2626127600669861 0.001523369923233986 0.07076061517000198
-0.25953495502471924 0.3035009801387787 -0.4011043906211853
0.07798689603805542 -0.2071114182472229 0.3177157938480377
-0.5742706656455994 0.1285226196050644 0.21810372173786163
-0.2862130105495453 0.0011448052246123552 0.2970840334892273
0.2680019438266754 -0.6235139966011047 -0.12536880373954773
-0.3950097858905792 0.39829859137535095 0.1299166977405548
-0.2364792823791504 0.23369674384593964 -0.3993125259876251
0.0929260402917862 -0.6254755854606628 -0.2014620155096054
-0.5825391411781311 0.14219915866851807 -0.10281430184841156
0.37313684821128845 0.00040897540748119354 0.13318853080272675
-0.05374927446246147 0.0007973187603056431 0.15660636126995087
-0.1260344535112381 -0.645176351070404 0.07252690196037292
0.003959268797188997 -0.0008625022601336241 -0.11914929002523422
0.22235769033432007 0.2639293074607849 -0.40187081694602966
-0.42106837034225464 0.08726190775632858 -0.17691701650619507
-0.1337873935699463 -0.40990474820137024 0.14125092327594757
0.5787240862846375 0.1517745554447174 0.2973047196865082
0.26350387930870056 0.002182088093832135 0.1791638880968094
-0.533379852771759 0.3982768952846527 0.2549905776977539
-0.034468431025743484 -0.6283174753189087 -0.19551125168800354
-0.4415603578090668 0.19700516760349274 0.34480586647987366
0.30349281430244446 0.21657057106494904 0.3462134599685669
-0.5458492636680603 0.041802555322647095 0.3465440273284912
-0.12484538555145264 -0.6507614850997925 0.09359680861234665
-0.5829116702079773 0.16340838372707367 -0.08231256902217865
-0.3302787244319916 0.0051373387686908245 -0.39165884256362915
0.3025723397731781 -0.6521555781364441 0.15571407973766327
0.2894083857536316 -0.5143871903419495 0.19339820742607117
0.2701909840106964 0.40048086643218994 0.3176210820674896
0.27556806802749634 -0.05922548100352287 0.2737869918346405
0.1958172619342804 -0.6295271515846252 0.012214388698339462
0.3268384635448456 0.002525762654840946 -0.0796159952878952
-0.4300948977470398 0.0035866964608430862 -0.03550362214446068
-0.36947718262672424 0.3327157199382782 0.34929484128952026
0.03087146021425724 0.09405971318483353 -0.4011634588241577
0.32306939363479614 0.2953214943408966 0.45736441016197205
0.06755939871072769 -0.4031318128108978 0.2572070360183716
-0.06544153392314911 -0.2475736290216446 0.2776399254798889
