-0.20641213655471802 0.39797767996788025 0.09139413386583328
-0.3240036368370056 0.4006541669368744 -0.3683561384677887
0.37326183915138245 -0.4234403669834137 0.07743629813194275
-0.23086242377758026 -0.3108581304550171 -0.1029227077960968
0.007184907793998718 -0.619514524936676 0.14054164290428162
-0.2377682328224182 0.3071018159389496 -0.40123450756073
0.04594382643699646 0.250353068113327 0.4637458324432373
0.3208620548248291 -0.6452825665473938 0.15636667609214783
-0.22174310684204102 0.40474796295166016 0.0340086929500103
-0.23773875832557678 0.3926445543766022 -0.06385183334350586
0.5824581384658813 0.15408305823802948 0.050046153366565704
-0.5814635157585144 0.17827938497066498 -0.2278979867696762
-0.5042350888252258 -0.10314588993787766 -0.24655386805534363
0.5393317937850952 0.4040801525115967 -0.2963241636753082
-0.1463697850704193 0.12819832563400269 -0.40391841530799866
0.06322310864925385 0.16284096240997314 0.3450164794921875
0.22721318900585175 0.40368354320526123 -0.3039615750312805
-0.570103108882904 0.136671245098114 0.3420235812664032
0.2240564227104187 0.3995739817619324 -0.3788240849971771
0.5588323473930359 0.00736584048718214 -0.2055913656949997
0.09485603123903275 -0.6219077706336975 -0.1529005765914917
0.19807720184326172 -0.5209449529647827 0.24120460450649261
0.049729473888874054 0.0037945443764328957 0.2650831937789917
-0.32455217838287354 0.4006897807121277 -0.13345296680927277
0.43198850750923157 -0.001891470281407237 -0.012880995869636536
0.5444527864456177 0.00739382766187191 -0.3084894120693207
0.22868992388248444 -0.6201971769332886 -0.18117326498031616
-0.1459210366010666 -0.0037740087136626244 -0.14751654863357544
-0.35717910528182983 0.004439292009919882 -0.0656547024846077
-0.5206329226493835 0.05152970924973488 0.33985939621925354
-0.21533046662807465 0.0009175613522529602 0.008493027649819851
-0.0954691544175148 0.0016250323969870806 -0.24317358434200287
0.3276958167552948 0.003703146707266569 0.1388501524925232
-0.32021233439445496 0.0014345061499625444 -0.25893497467041016
0.15252840518951416 -0.6187275648117065 0.01932629756629467
-0.35120829939842224 0.41131460666656494 -0.02616390585899353
-0.3108501136302948 0.3481016159057617 0.3437250852584839
-0.3618645668029785 0.0004795208224095404 0.1809035688638687
0.1859378218650818 -0.6255294680595398 -0.2521466314792633
0.3138195872306824 0.003673065919429064 -0.04097403585910797
-0.1577306091785431 0.4037502706050873 0.31794002652168274
-0.54437255859375 0.2483757734298706 0.3384501039981842
-0.4098355174064636 0.0033092545345425606 0.12510275840759277
0.45203840732574463 0.4051435887813568 0.1606939733028412
-0.0051597291603684425 -0.0019532721489667892 -0.2785075902938843
-0.4656830430030823 0.3866814374923706 -0.17353150248527527
0.3951297998428345 -0.4901026487350464 0.010272114537656307
0.001031182473525405 0.40244603157043457 0.32865437865257263
-0.17428268492221832 -0.386086106300354 -0.15986545383930206
0.007129448466002941 -0.6248219013214111 -0.1648981273174286
-0.12766261398792267 -0.5320786237716675 0.14599715173244476
0.5795165300369263 0.1157999187707901 0.28988176584243774
-0.3909439742565155 -0.06574542075395584 -0.23173648118972778
0.3693309426307678 -0.6510612964630127 -0.08830013126134872
0.42433494329452515 0.003227764740586281 -0.0003178330953232944
-0.5742555260658264 0.30450761318206787 -0.3328166902065277
-0.5021630525588989 -0.10031108558177948 0.2622523605823517
-0.5640222430229187 0.082532599568367 -0.1542716771364212
-0.17756953835487366 -0.39814096689224243 -0.11050612479448318
0.06365072727203369 -0.5719237923622131 0.25447186827659607
0.23446495831012726 0.0038884980604052544 -0.24315306544303894
0.45939722657203674 0.40144798159599304 -0.3863782286643982
0.3263939619064331 -0.21361802518367767 0.23078112304210663
-0.1824815273284912 -0.18733632564544678 0.168988898396492
0.06251943111419678 0.0021449734922498465 0.14855889976024628
-0.572961151599884 0.03960929811000824 -0.3015998899936676
-0.23921442031860352 -0.10551517456769943 0.017560483887791634
0.06356189399957657 0.4047910273075104 0.1674278974533081
-0.5764729380607605 0.10504286736249924 -0.0973874181509018
-0.3806309103965759 -0.05326537415385246 -0.21030184626579285
0.417577862739563 -0.3792247176170349 -0.06271792203187943
-0.15899798274040222 0.0013549993745982647 -0.1891452521085739
0.20107431709766388 0.0027066513430327177 -0.017694830894470215
-0.3294980525970459 0.40012839436531067 -0.37336018681526184
-0.21697886288166046 -0.3775728642940521 0.0164539385586977
-0.3477100133895874 0.016026226803660393 -0.39743921160697937
0.2305978685617447 0.0022375164553523064 0.18252526223659515
0.5889818072319031 0.14062193036079407 -0.33423709869384766
0.3460131883621216 -0.12243491411209106 -0.2820053696632385
-0.09527043998241425 0.17617405951023102 0.34608015418052673
-0.031779609620571136 -0.3669273853302002 -0.33928316831588745
-0.35041898488998413 0.11128406971693039 -0.3986979126930237
0.581798791885376 0.1507818102836609 -0.24779678881168365
0.09761485457420349 -0.6214675307273865 0.01891987770795822
0.2479369044303894 0.3047148287296295 -0.40246862173080444
0.29079872369766235 -0.6186774969100952 0.0967104434967041
0.28813958168029785 -0.18467839062213898 0.26453888416290283
-0.04081007093191147 -0.46859052777290344 0.21990583837032318
-0.2861443758010864 0.002271486446261406 0.09665767103433609
0.2963530719280243 -0.6335866451263428 -0.2359408736228943
0.3625410497188568 0.0029999567195773125 -0.37187862396240234
0.33975476026535034 0.08199701458215714 -0.4023292362689972
0.17124533653259277 0.2651643753051758 0.3449949622154236
0.583275556564331 0.3535907566547394 -0.16476069390773773
0.43425261974334717 -0.11748912930488586 -0.12157202512025833
0.030357467010617256 -0.3123176693916321 -0.36476370692253113
0.3468592166900635 -0.6377698183059692 -0.010376879945397377
0.17726004123687744 0.3830195665359497 0.460471510887146
-0.4480521082878113 0.37048906087875366 0.00890824943780899
-0.4281183183193207 -0.0847780853509903 -0.03058886155486107
-0.3499908149242401 0.0009243059903383255 0.18066804111003876
0.2969081997871399 -0.6488264203071594 0.15186408162117004
0.02388675883412361 -0.6213123202323914 -0.03284307196736336
-0.4182198941707611 0.05649309977889061 0.3435205817222595
-0.014923401176929474 0.4035055339336395 -0.11459964513778687
0.16390767693519592 0.40525510907173157 0.22347392141819
-0.4759652316570282 0.3974020779132843 -0.17692764103412628
-0.36505553126335144 0.40566486120224 0.11893539130687714
-0.01748899556696415 0.39892324805259705 -0.27175775170326233
0.5817040205001831 0.21263563632965088 0.23570361733436584
0.5070316195487976 0.004762846976518631 0.056835927069187164
0.04297327250242233 -0.6173179149627686 0.1497693508863449
-0.5294638872146606 0.31406521797180176 -0.4005458950996399
0.2652089595794678 0.0035135746002197266 -0.06963026523590088
0.18706980347633362 0.39372965693473816 0.4628370702266693
0.5778872966766357 0.3418334424495697 0.32539281249046326
-0.5025707483291626 -0.10406780987977982 -0.3517730236053467
0.3710795044898987 -0.06833846122026443 -0.25293636322021484
-0.2104070484638214 -0.18209534883499146 0.11061199009418488
0.19555819034576416 -0.6212257742881775 -0.0503605455160141
0.1063469871878624 -0.020300423726439476 -0.3760508596897125
-0.5191969871520996 0.11410551518201828 0.07492250949144363
0.2991761565208435 -0.0007246788591146469 -0.00706475181505084
0.016739435493946075 0.4044424593448639 -0.13161827623844147
0.5837532877922058 0.183559387922287 -0.25348424911499023
0.10602216422557831 0.11473555117845535 0.4675222933292389
-0.23778511583805084 -0.16711293160915375 -0.0018988372758030891
0.03506353870034218 0.40394192934036255 -0.08785813301801682
-0.5757703185081482 0.06472887098789215 -0.30887529253959656
-0.14312976598739624 -0.649226725101471 0.09015647321939468
-0.5808284878730774 0.25128990411758423 0.034439876675605774
0.055922675877809525 0.2861570715904236 0.3474704325199127
-0.5773330330848694 0.30705320835113525 0.04562300443649292
0.014468834735453129 0.40402865409851074 -0.014650998637080193
0.5834136009216309 0.32197561860084534 -0.05420904979109764
-0.21310199797153473 -0.13748885691165924 -0.17868848145008087
0.39735114574432373 -0.36325639486312866 0.1542493999004364
-0.2046690583229065 0.40076887607574463 0.010576622560620308
-0.33753785490989685 0.13966669142246246 -0.4003046452999115
-0.5708354115486145 0.08801980316638947 0.3296798765659332
-0.48383522033691406 0.004124910570681095 0.1494782567024231
-0.5774860978126526 0.15093792974948883 -0.05702195689082146
-0.31951701641082764 0.002701430581510067 -0.28025680780410767
0.5487135648727417 0.40134140849113464 0.2176360934972763
-0.1301092505455017 -0.632219672203064 0.0497744157910347
0.5359312891960144 0.40372079610824585 0.16017845273017883
-0.38048917055130005 0.10607122629880905 -0.39731067419052124
0.1507142037153244 -0.3116014897823334 0.31114980578422546
0.25892725586891174 0.25972744822502136 0.34483230113983154
-0.22035251557826996 0.002718898933380842 -0.09406938403844833
-0.2167387753725052 0.4013649821281433 0.16004860401153564
0.41090720891952515 -0.12478644400835037 -0.18744775652885437
-0.30651530623435974 0.1840684860944748 -0.4026400148868561
0.28464651107788086 -0.3665046989917755 -0.3198440372943878
-0.2989702522754669 0.002424336038529873 0.2085411101579666
0.44268351793289185 0.31052854657173157 0.34667083621025085
0.5810645818710327 0.08250661939382553 0.12587571144104004
0.36289182305336 0.4029047191143036 0.04826665297150612
-0.1488846093416214 -0.640023946762085 0.004643096122890711
0.23479990661144257 -0.4809049963951111 -0.2883449196815491
0.1096014603972435 0.40467652678489685 0.13644780218601227
0.2825804054737091 0.40080633759498596 0.09253893792629242
-0.18649809062480927 0.23696835339069366 0.3457014858722687
0.19691671431064606 -0.6191071271896362 0.06055454909801483
-0.12742748856544495 0.004340074025094509 0.32715630531311035
0.4708516001701355 0.002947538159787655 0.199289932847023
0.5374555587768555 0.31742215156555176 -0.39816930890083313
0.06786144524812698 0.0015125507488846779 -0.1652524322271347
-0.4893645644187927 0.0068200575187802315 0.24454140663146973
-0.42680567502975464 0.0048487382009625435 -0.3658541738986969
-0.15239787101745605 -0.590882420539856 -0.1741013079881668
0.25806596875190735 -0.49545085430145264 0.21721602976322174
-0.3974035382270813 0.0944061353802681 -0.015383932739496231
0.41474607586860657 -0.37984609603881836 -0.019657203927636147
-0.49954119324684143 -0.0860421285033226 0.33889275789260864
-0.4036315977573395 0.09423483908176422 -0.13423724472522736
-0.5707820653915405 0.0069844406098127365 -0.2778666913509369
-0.5464151501655579 0.103327177464962 0.14551295340061188
0.2471761852502823 -0.6428937911987305 -0.2790627181529999
-0.3782173991203308 0.39126044511795044 -0.19693820178508759
-0.5778451561927795 0.007778896018862724 -0.024188291281461716
0.185790553689003 0.2871089577674866 0.4640887677669525
0.3281821012496948 0.30434659123420715 0.37757807970046997
-0.148532897233963 0.0018572686240077019 0.29737067222595215
0.3451940715312958 -0.6437163352966309 -0.16028255224227905
0.4139642119407654 -0.009319912642240524 0.11942819505929947
-0.5786429047584534 0.25009894371032715 -0.20194610953330994
-0.16368763148784637 0.1131371483206749 -0.40146714448928833
0.3889680802822113 -0.5284416079521179 -0.062102388590574265
-0.379124253988266 -0.05448964983224869 0.1844642609357834
-0.023841138929128647 0.001273574074730277 -0.20568159222602844
0.011910528875887394 0.0019115088507533073 0.08165854215621948
-0.09657479077577591 -0.3897287845611572 0.1862436681985855
0.02761208824813366 -0.1848084181547165 -0.36052370071411133
0.24911201000213623 -0.620154857635498 -0.15961098670959473
-0.034083347767591476 0.0016602291725575924 -0.265067994594574
0.13796673715114594 0.3997342884540558 -0.34026962518692017
0.2535717785358429 0.09027566015720367 -0.3998168110847473
-0.016536464914679527 0.0031222086399793625 0.010377900674939156
0.43672457337379456 -0.37236306071281433 -0.021054621785879135
-0.2830507457256317 0.4022349417209625 -0.3600848317146301
0.10892343521118164 0.39551132917404175 0.45528140664100647
-0.5791417360305786 0.18931712210178375 0.062227167189121246
-0.16552016139030457 -0.0014231177046895027 0.08591792732477188
0.37992653250694275 -0.4211778938770294 -0.11072010546922684
0.571063756942749 0.3440813422203064 -0.4029064178466797
-0.5690311789512634 -0.018380234017968178 0.3324790596961975
-0.45067450404167175 0.05692862346768379 -0.39678487181663513
-0.47227054834365845 -0.11020053923130035 -0.20225350558757782
0.29140961170196533 0.05847247689962387 0.4634416103363037
0.4065290093421936 -0.22786161303520203 0.13805310428142548
-0.049790095537900925 0.31046244502067566 0.34769508242607117
0.38694944977760315 -0.4716026782989502 -0.103876031935215
0.3379426598548889 0.009424637071788311 0.3366461396217346
-0.48243948817253113 0.4102238416671753 -0.11635719984769821
-0.4116131067276001 0.40456491708755493 0.24685636162757874
0.3200044333934784 -0.31105148792266846 -0.3017389178276062
-0.06599225103855133 0.05101621150970459 -0.40081164240837097
-0.015926968306303024 0.0034928591921925545 0.0018632184946909547
-0.11358018964529037 -0.06075950339436531 -0.3003220856189728
-0.23857523500919342 -0.15305936336517334 -0.06839168816804886
0.29283228516578674 0.07440195232629776 0.34465453028678894
-0.16707657277584076 0.003219708800315857 -0.24418126046657562
-0.5076461434364319 0.0034708045423030853 -0.028129328042268753
0.21998612582683563 -0.6178265810012817 -0.11692860722541809
-0.13041992485523224 -0.04912962391972542 -0.27923381328582764
0.046935584396123886 -0.00016866065561771393 0.1117144227027893
-0.0463721789419651 -0.6195034980773926 -0.186137393116951
-0.5728458166122437 0.34400132298469543 0.2988836169242859
-0.5640870928764343 0.3647724986076355 0.33484140038490295
-0.3897245228290558 -0.07194389402866364 0.0960470661520958
-0.37410762906074524 0.03222576901316643 -0.38194331526756287
-0.47119295597076416 0.3953666388988495 -0.24144867062568665
0.1452760249376297 0.003072855994105339 0.06281375139951706
-0.15483100712299347 0.25633299350738525 0.3459341824054718
0.08091311156749725 0.0033632880076766014 0.21164622902870178
0.06777045130729675 0.403275728225708 0.3221679925918579
0.5804262757301331 0.22696219384670258 -0.12174271047115326
0.18586809933185577 -0.6488692760467529 -0.2781441807746887
-0.15138396620750427 -0.48126259446144104 -0.15895506739616394
-0.11782950162887573 -0.6300147175788879 -0.14320234954357147
0.42103660106658936 -0.33148759603500366 -0.16866537928581238
0.32734447717666626 -0.6228306889533997 0.05084656924009323
0.3786819577217102 -0.12391050904989243 -0.24139703810214996
-0.5710747241973877 0.04359666630625725 0.11351823061704636
0.3976955711841583 0.40477126836776733 0.035346776247024536
0.21551866829395294 -0.618306577205658 -0.22203509509563446
0.06824266165494919 0.0016274824738502502 -0.10010617226362228
-0.5697458982467651 0.005329090636223555 0.34468063712120056
-0.3679368197917938 -0.03447866067290306 0.0403217189013958
0.15437383949756622 0.14838337898254395 0.3403097093105316
0.579610288143158 0.14638736844062805 0.05647667497396469
-0.14244578778743744 0.0018215887248516083 0.15804345905780792
0.058015476912260056 0.004286515526473522 0.33090367913246155
-0.573658287525177 0.3578093349933624 -0.15591305494308472
0.10440002381801605 -0.6251457333564758 -0.2034275084733963
0.17777037620544434 -0.49375802278518677 0.2515380084514618
0.11733613908290863 -0.6198167204856873 0.16008007526397705
0.286847859621048 0.18551255762577057 0.46613579988479614
0.08967605233192444 0.4003971219062805 0.31927505135536194
0.5751484632492065 0.39632952213287354 0.09868306666612625
0.5628349781036377 0.40404197573661804 0.29047340154647827
-0.30975639820098877 0.0038256971165537834 -0.3065823018550873
-0.27102547883987427 0.0017905589193105698 -0.24660338461399078
-0.5793547034263611 0.13840441405773163 -0.13355907797813416
0.2850910425186157 0.40494608879089355 -0.06507030874490738
-0.4981747567653656 -0.10563170164823532 -0.31486350297927856
0.37366533279418945 0.39463895559310913 0.3298977315425873
0.2816625237464905 -0.0040100510232150555 0.2618374228477478
-0.30392882227897644 0.3518252372741699 -0.1582939773797989
-0.4205961525440216 -0.08138036727905273 0.20357809960842133
0.2924945056438446 -0.3462594151496887 0.2638140320777893
0.5798174142837524 0.22861409187316895 -0.21007424592971802
-0.18188156187534332 -0.3831913471221924 0.10450751334428787
0.3230540454387665 -0.254242479801178 -0.2898043394088745
-0.10892510414123535 0.40366342663764954 -0.14331798255443573
-0.48581793904304504 0.3184630870819092 0.34313055872917175
0.580996572971344 0.35271772742271423 -0.3740409016609192
0.5783822536468506 0.14776216447353363 -0.18085888028144836
-0.5808406472206116 0.23442845046520233 -0.36738356947898865
0.3270578682422638 0.07018333673477173 0.3453744649887085
-0.5482528805732727 -0.06981595605611801 0.33513081073760986
-0.5440784096717834 -0.07730000466108322 0.09943465888500214
0.1876312643289566 -0.26135772466659546 0.3046233057975769
-0.4623383581638336 0.003304316196590662 0.07451708614826202
0.3796556890010834 0.4060775935649872 0.16588306427001953
-0.3752429187297821 0.05396606773138046 -0.02717195637524128
0.16894572973251343 -0.3686583638191223 -0.3599779009819031
-0.40465816855430603 0.07094943523406982 -0.196655735373497
0.5779145956039429 0.2772972881793976 -0.10656135529279709
0.3983648121356964 -0.4694613814353943 -0.036291711032390594
-0.5739323496818542 0.23578308522701263 -0.32262641191482544
0.580950140953064 0.13368047773838043 0.21717216074466705
0.5620529651641846 0.008985092863440514 -0.18841734528541565
0.21991725265979767 0.47860613465309143 0.39205047488212585
-0.04692153260111809 0.2798764109611511 0.349870502948761
-0.5772498846054077 0.08282659202814102 0.337312787771225
-0.41620388627052307 0.09457474201917648 0.18113860487937927
0.022055238485336304 -0.6219484806060791 -0.24633121490478516
-0.17528969049453735 0.4008815288543701 -0.36818763613700867
-0.18384906649589539 -0.49013349413871765 0.024034276604652405
-0.14481303095817566 -0.643395721912384 -0.09294840693473816
0.05209370329976082 0.1184050440788269 0.3471533954143524
0.4427955150604248 -0.13357940316200256 0.04685765877366066
-0.24981079995632172 0.22345200181007385 0.34185636043548584
0.2994994521141052 -0.004062647931277752 -0.31979280710220337
-0.08860893547534943 -0.5625959634780884 -0.24935339391231537
0.15194794535636902 -0.6334105134010315 -0.3160736858844757
-0.17770318686962128 0.4041751027107239 0.1437552571296692
-0.5705580115318298 0.09579945355653763 0.012403419241309166
-0.11344002932310104 0.16640472412109375 0.3456156253814697
-0.5464422702789307 -0.08411061763763428 -0.24280601739883423
-0.08989822119474411 -0.6183426380157471 -0.045218512415885925
-0.03388681635260582 0.002868814393877983 0.2279169112443924
0.23486369848251343 0.4031907021999359 -0.025129448622465134
0.15470543503761292 0.0033369315788149834 0.1495518833398819
0.3382413685321808 0.41026344895362854 0.421104371547699
-0.13834193348884583 0.4039965271949768 0.024155233055353165
0.0581727996468544 -0.617770254611969 0.05103028193116188
-0.5795949101448059 0.259121298789978 -0.1848555952310562
0.03696439787745476 -0.618001401424408 -0.19622863829135895
0.14289730787277222 -0.6306344866752625 0.20834599435329437
0.3293107748031616 -0.42253729701042175 0.1499406397342682
0.35761934518814087 0.0038407554384320974 -0.10391325503587723
0.3046892285346985 0.4127243161201477 0.3568270802497864
-0.5371094346046448 0.08375661075115204 -0.3976356089115143
-0.2867848873138428 0.08922549337148666 -0.402709424495697
0.03268402814865112 0.21590779721736908 0.3923410177230835
-0.1345674842596054 0.11159901320934296 -0.4024299085140228
-0.501769483089447 0.30231472849845886 -0.40254881978034973
0.3993038237094879 -0.33228060603141785 0.15115348994731903
-0.5746610760688782 0.28479230403900146 -0.22612828016281128
-0.16771173477172852 -0.6352419853210449 -0.12618590891361237
0.19106270372867584 0.002555008977651596 0.25163254141807556
-0.3192666172981262 0.12135756015777588 0.3422169089317322
-0.5284943580627441 -0.09144387394189835 -0.1286938190460205
-0.195414736866951 0.40287503600120544 -0.29577651619911194
0.2926204800605774 0.0030831103213131428 0.13966557383537292
0.5826204419136047 0.20475177466869354 0.07413085550069809
0.16881446540355682 0.0022499668411910534 0.04103494808077812
-0.2632651925086975 0.004636801313608885 0.32890063524246216
-0.571141242980957 0.015627440065145493 0.33468887209892273
-0.46892932057380676 -0.1140446588397026 -0.22008012235164642
0.32544177770614624 -0.18747912347316742 0.23645813763141632
0.09143073111772537 0.0032269316725432873 0.33492130041122437
0.16380947828292847 -0.6230373978614807 0.18017201125621796
-0.03705636411905289 0.2663869559764862 0.4075241684913635
0.5717682242393494 0.010465630330145359 0.24006326496601105
-0.15286387503147125 -0.35543861985206604 0.1879686564207077
-0.5728151202201843 0.004596245940774679 -0.27672436833381653
-0.12876085937023163 0.0048064920119941235 -0.37538230419158936
-0.4372600018978119 -0.11017905175685883 -0.11616174131631851
-0.5713582038879395 0.013025524094700813 0.09399503469467163
0.39772599935531616 0.3221190571784973 -0.40058577060699463
-0.1299820989370346 -0.004063654225319624 0.22135865688323975
-0.39591023325920105 0.0012768055312335491 0.2239983081817627
0.529715895652771 0.0058889565989375114 -0.08237439393997192
0.07409215718507767 0.4035792648792267 -0.1906566619873047
-0.10713673382997513 -0.37986302375793457 0.21652008593082428
0.013630532659590244 -0.15535734593868256 -0.3620912432670593
-0.5711289048194885 0.14913655817508698 0.208136647939682
-0.12727220356464386 0.0031987736001610756 0.12654811143875122
0.17928780615329742 0.0034508854150772095 -0.31075307726860046
0.4595992863178253 0.002955327508971095 0.22614695131778717
0.5437400341033936 0.40532031655311584 -0.2699218690395355
-0.18812622129917145 -0.37576690316200256 -0.19246138632297516
-0.16837644577026367 0.40093907713890076 0.0024182952474802732
-0.05783550441265106 -0.31132978200912476 0.27637967467308044
0.5839644074440002 0.1756763607263565 -0.15043339133262634
0.02267916314303875 -0.001925991615280509 0.30767005681991577
-0.18158230185508728 0.23405931890010834 -0.40246185660362244
0.07127054035663605 0.0022256006486713886 -0.21641698479652405
-0.1366143375635147 0.3297080397605896 0.34427568316459656
0.0974552184343338 -0.6189590096473694 0.006868998520076275
-0.428520143032074 -0.09427570551633835 -0.054404862225055695
-0.32791149616241455 0.40968257188796997 -0.05536850914359093
-0.5778535604476929 0.12677372992038727 -0.2910701036453247
0.11601846665143967 0.41426777839660645 0.457600474357605
0.5809270143508911 0.3739475905895233 -0.050219837576150894
-0.5281780362129211 -0.09052400290966034 -0.08530763536691666
-0.3578498959541321 0.0020412816666066647 0.036477427929639816
0.5291882753372192 0.4052942097187042 0.03242456540465355
0.3941633105278015 -0.06268540769815445 -0.19671045243740082
-0.09796129167079926 -0.6196883916854858 -0.145187109708786
-0.5044728517532349 -0.07403334975242615 -0.39710986614227295
0.56889408826828 0.3974345326423645 0.2130344808101654
0.1028604730963707 -0.6214712262153625 -0.18626710772514343
0.008389526978135109 -0.3950107991695404 0.2435702383518219
0.265150249004364 0.21148909628391266 -0.40368154644966125
-0.22472506761550903 -0.37712112069129944 -0.05661912262439728
-0.18560390174388885 0.4038413166999817 -0.04391670599579811
0.3214375078678131 0.0004066098481416702 -0.3017118275165558
0.04291262477636337 0.3907467722892761 0.42458006739616394
0.03424018248915672 0.0039095208048820496 0.140506312251091
-0.5036739706993103 0.36111748218536377 -0.13805437088012695
0.16953825950622559 0.4745217561721802 0.4354362189769745
-0.20452500879764557 0.4047711193561554 0.12451460212469101
-0.5497561097145081 0.3488428592681885 0.34115704894065857
-0.17000509798526764 -0.6349089741706848 0.06172914430499077
-0.5749295949935913 0.19914188981056213 -0.23294101655483246
-0.42709195613861084 0.08911395817995071 0.28319746255874634
-0.48008275032043457 0.01967597007751465 -0.39981919527053833
0.22381830215454102 -0.621091902256012 -0.07915342599153519
0.11385326087474823 0.40943825244903564 0.45795226097106934
0.5816746354103088 0.12763656675815582 0.12570109963417053
0.14990711212158203 -0.4828861653804779 0.25625598430633545
0.0379500538110733 -0.3257605731487274 -0.36574435234069824
-0.4239964485168457 0.30987703800201416 -0.4032090902328491
0.4981641471385956 0.004116778261959553 0.2127254158258438
-0.5660358667373657 0.04077295586466789 0.07749151438474655
0.3346051573753357 -0.38871172070503235 0.15304718911647797
0.4326053857803345 -0.026254825294017792 -0.1048116385936737
-0.09596433490514755 -0.4329323470592499 0.17363451421260834
-0.042913954704999924 -0.56630539894104 0.21931909024715424
-0.0033457321114838123 -0.6175184845924377 -0.20797863602638245
-0.15504035353660583 0.32254648208618164 0.3467373847961426
0.17487356066703796 0.0024508661590516567 0.09297706931829453
0.4494982659816742 -0.001836638431996107 -0.11021719127893448
-0.3408634066581726 0.0028868084773421288 0.20418761670589447
0.12168466299772263 0.0037434985861182213 0.1398346722126007
-0.392884224653244 0.4138140082359314 -0.0056198579259216785
-0.5701096057891846 0.005547599401324987 0.1690717488527298
0.16441980004310608 -0.6216551065444946 -0.2434309422969818
-0.566137433052063 -0.008442869409918785 0.3256969153881073
-0.3404955565929413 0.03977515920996666 -0.39682409167289734
-0.15500715374946594 -0.5073532462120056 0.09964611381292343
0.5816695690155029 0.3802008628845215 -0.22815722227096558
-0.34358733892440796 0.00406358577311039 0.08224670588970184
-0.4506113827228546 0.11154208332300186 -0.1130632758140564
-0.13015267252922058 0.001335381530225277 -0.18288999795913696
-0.5637496113777161 0.008046410046517849 -0.2439524084329605
-0.5702202916145325 0.23735471069812775 0.18117858469486237
-0.559307336807251 -0.05307306721806526 0.13723623752593994
0.11076801270246506 0.33044740557670593 0.4619549810886383
0.1208573579788208 0.4039364755153656 -0.10392309725284576
-0.06553967297077179 0.40253305435180664 -0.23998109996318817
-0.1804509460926056 -0.5910101532936096 -0.10478008538484573
-0.5795156359672546 0.29631128907203674 -0.3842609226703644
0.5501944422721863 0.0073006050661206245 -0.1452493667602539
0.17229105532169342 0.4038638472557068 -0.05133431777358055
-0.4181196689605713 0.0005473820492625237 0.2756376266479492
0.42028626799583435 0.021292060613632202 0.3462996482849121
0.33276721835136414 -0.05915877968072891 0.43442249298095703
0.27857476472854614 -0.1927717626094818 -0.32694920897483826
0.36776554584503174 -0.6526860594749451 0.0403582863509655
-0.579850971698761 0.14633266627788544 0.18626663088798523
-0.0034104501828551292 -0.6202756762504578 -0.08332755416631699
-0.4693433940410614 0.1122046634554863 0.34091922640800476
0.033480554819107056 0.3032155930995941 0.34752264618873596
-0.297277569770813 0.3575303256511688 -0.15060412883758545
-0.5397498607635498 0.3890554904937744 -0.04000658914446831
0.13033820688724518 -0.016064193099737167 0.3218732476234436
0.5847962498664856 0.31894418597221375 -0.3554131090641022
0.07234463840723038 0.255434513092041 0.4596124589443207
-0.23557886481285095 -0.23068320751190186 -0.08476490527391434
0.159331277012825 0.00230976939201355 0.192909374833107
0.3799923062324524 -0.0016281334683299065 0.0777159258723259
0.30039143562316895 0.07187788188457489 0.3432914614677429
0.5599936246871948 0.0081461351364851 -0.09974588453769684
0.029612746089696884 0.09367309510707855 0.3453964293003082
-0.572850227355957 0.019413374364376068 0.21658354997634888
0.3912888169288635 -0.6294378638267517 -0.028830118477344513
-0.5321347713470459 -0.08969289809465408 -0.24419419467449188
0.3952195346355438 -0.0025310846976935863 -0.13878314197063446
-0.24100463092327118 -0.12963591516017914 -0.06605106592178345
0.38652241230010986 -0.46529531478881836 0.04100172221660614
-0.029375841841101646 0.0024048900231719017 0.15480968356132507
-0.18043136596679688 0.3976033329963684 -0.33212459087371826
-0.1647968292236328 -0.014180116355419159 0.1709183007478714
0.4240031838417053 -0.11424127966165543 0.09637375921010971
0.21247297525405884 0.47558286786079407 0.39175111055374146
0.4113258719444275 -0.3711280822753906 0.12063471972942352
-0.24001748859882355 -0.2309138923883438 -0.06991083174943924
0.5784317255020142 0.09841800481081009 -0.14851509034633636
0.5741199851036072 0.013516062870621681 -0.03702180087566376
0.3914320170879364 0.08054191619157791 0.34538277983665466
0.22032944858074188 0.40438199043273926 -0.2846425473690033
-0.43312782049179077 0.40701839327812195 -0.007966126315295696
-0.3891952931880951 -0.058695513755083084 0.12984785437583923
0.0891801044344902 0.40359020233154297 -0.14728690683841705
-0.5523287653923035 0.007913054898381233 -0.3460286855697632
-0.4860329031944275 0.40501028299331665 0.10845618695020676
0.45043042302131653 -0.1993958055973053 -0.010225314646959305
0.15840837359428406 0.001120169647037983 -0.03384720906615257
0.5764721035957336 0.18907612562179565 0.24334853887557983
-0.18432138860225677 -0.5172021389007568 -0.026903687044978142
-0.5715268850326538 0.34763023257255554 -0.08729513734579086
0.12825646996498108 0.08894137293100357 0.34274768829345703
0.4393683969974518 0.4026555120944977 -0.22226372361183167
-0.36863458156585693 0.40449708700180054 -0.17456410825252533
-0.11975155025720596 0.39940646290779114 -0.03440827503800392
-0.5775917768478394 0.17684097588062286 -0.20717108249664307
0.3453351855278015 -0.6317397356033325 -0.08080673217773438
0.19707044959068298 -0.5343139171600342 0.24089297652244568
0.36793676018714905 -0.4135025143623352 -0.15916620194911957
0.2822541296482086 -0.2812316417694092 -0.33066800236701965
0.3761892020702362 0.4010221064090729 0.12676909565925598
-0.464316189289093 -0.11307857930660248 0.07942923158407211
0.17281639575958252 -0.394954651594162 -0.31136250495910645
0.30561238527297974 -0.2832774221897125 -0.3104097843170166
-0.21740871667861938 -0.12700703740119934 -0.16517888009548187
0.284660667181015 0.40373551845550537 -0.046722862869501114
0.027660205960273743 0.0014627071795985103 0.03803326562047005
0.05424587428569794 -0.6172754168510437 -0.1857670545578003
-0.4044424295425415 0.0869968980550766 0.061662591993808746
0.21041588485240936 0.0035029249265789986 0.023091837763786316
0.1624748408794403 -0.04017628729343414 -0.37261122465133667
-0.1329575628042221 -0.5352782011032104 -0.2035316526889801
0.10645075887441635 0.4036950469017029 -0.204132542014122
-0.36485517024993896 0.06170982867479324 0.3386610150337219
0.19898229837417603 0.3236922323703766 -0.4053994119167328
0.1522713005542755 0.2583784759044647 -0.4015866816043854
0.38970986008644104 0.3976868987083435 0.3104362189769745
0.20770812034606934 0.460412859916687 0.4379570484161377
0.5535972118377686 0.060897938907146454 0.34078556299209595
-0.3813125491142273 -0.06556805968284607 0.26705697178840637
0.15490680932998657 -0.22277550399303436 0.31082943081855774
-0.5227460861206055 0.07504595816135406 -0.40101826190948486
-0.10916605591773987 0.3997023105621338 -0.14669057726860046
-0.36881834268569946 0.0004677464603446424 0.09348252415657043
0.14074160158634186 -0.623082160949707 -0.014729338698089123
-0.36588186025619507 0.21063770353794098 -0.399824321269989
0.5762531161308289 0.020641734823584557 0.20008216798305511
-0.07717446982860565 -0.34971287846565247 -0.3230087161064148
0.06425179541110992 0.11151163280010223 0.34416326880455017
0.2292015552520752 -0.6191178560256958 0.09204079210758209
0.11889497935771942 -0.0716753676533699 0.43570902943611145
0.32280638813972473 0.004147188272327185 0.13407796621322632
0.10983598977327347 0.01869034953415394 -0.4029400944709778
0.08866124600172043 -0.09686030447483063 0.31450754404067993
-0.34494274854660034 0.4109918177127838 -0.11324558407068253
0.39490604400634766 0.404092401266098 -0.18157805502414703
0.3808882236480713 0.4038166403770447 -0.21574614942073822
0.22559252381324768 0.22096173465251923 -0.40356624126434326
0.5810956954956055 0.1118096336722374 0.2273465245962143
-0.16438175737857819 0.0015030247159302235 -0.13184180855751038
0.5647348165512085 0.019043423235416412 0.3309435248374939
0.18289481103420258 0.11324121803045273 0.3414153754711151
0.19743260741233826 0.0011355886235833168 0.09576424956321716
-0.01378167886286974 0.14991848170757294 0.38581985235214233
0.23777148127555847 -0.13101422786712646 -0.34787750244140625
0.02096986584365368 0.40420418977737427 -0.13972313702106476
-0.24088025093078613 0.0029188748449087143 0.3058267831802368
0.2488572895526886 -0.6230025291442871 0.034237783402204514
0.09561631828546524 -0.6197887063026428 -0.09461282193660736
-0.02752823755145073 0.0019298465922474861 0.12467049062252045
-0.08181553333997726 -0.6323007345199585 -0.21020516753196716
-0.13600122928619385 0.0017253749538213015 -0.06014266237616539
0.2768349051475525 -0.6174002289772034 -0.04143165051937103
0.10624735057353973 -0.09777466207742691 -0.3739176392555237
0.5811296105384827 0.21058721840381622 0.05258876457810402
-0.0029589275363832712 0.40378138422966003 0.12920540571212769
-0.1759495735168457 -0.5079028010368347 0.04561776667833328
-0.16745488345623016 -0.13619866967201233 -0.25347810983657837
-0.14852342009544373 0.0009094956330955029 -0.29154834151268005
-0.22285892069339752 -0.31905654072761536 -0.13560423254966736
0.137437641620636 0.0030271317809820175 -0.20442114770412445
0.4392111897468567 -0.07110852748155594 -0.1044817715883255
-0.0628606379032135 -0.4284290075302124 -0.2640472650527954
0.5142664909362793 0.3243864178657532 0.3425554633140564
-0.3247336447238922 0.1914665251970291 -0.40326812863349915
0.1624242216348648 -0.24763105809688568 0.3106212019920349
-0.5780299305915833 0.20612862706184387 -0.25838756561279297
0.2686983346939087 0.0036883754655718803 -0.08476593345403671
-0.2937857508659363 0.40493494272232056 -0.05899888649582863
-0.5044929385185242 -0.10028637200593948 -0.10877452790737152
0.38308098912239075 -0.529383659362793 -0.10816789418458939
0.09610161185264587 0.0027951523661613464 0.22499196231365204
-0.22521068155765533 -0.004967228509485722 0.08036306500434875
-0.19742822647094727 -0.31691446900367737 0.14242303371429443
0.33147522807121277 -0.620883584022522 -0.07526151090860367
0.335254430770874 0.38894984126091003 0.4497613310813904
0.232166588306427 0.18221770226955414 0.46729153394699097
0.1454155296087265 0.4048633575439453 0.18440011143684387
-0.5733108520507812 0.01830848678946495 0.3268168568611145
-0.2611916661262512 0.3580567538738251 -0.4009513258934021
0.15775343775749207 -0.19418063759803772 0.30889737606048584
0.3157426118850708 0.3184548616409302 0.3918520510196686
0.2567465901374817 -0.6367425918579102 -0.21892419457435608
0.005158742889761925 -0.6642998456954956 0.22704190015792847
-0.12366890162229538 -0.6235708594322205 0.024357322603464127
-0.07037869840860367 -0.40308135747909546 -0.2751601040363312
0.35041025280952454 0.004628542810678482 0.12786845862865448
0.12009821087121964 -0.6199870705604553 0.006214834284037352
-0.015598395839333534 0.0033605191856622696 0.16101165115833282
0.22348831593990326 -0.06299298256635666 -0.34241983294487
0.447689950466156 -0.14576929807662964 -0.020151188597083092
0.223447784781456 0.10089495033025742 -0.39924362301826477
0.2652181386947632 0.002958363387733698 0.029004594311118126
0.5837070345878601 0.37399402260780334 0.2797771096229553
0.276437908411026 0.39163801074028015 0.3450718820095062
-0.01918553002178669 -0.5380746722221375 0.23321039974689484
0.3130152225494385 0.003290889784693718 -0.3447374105453491
-0.07682818174362183 -0.037524931132793427 0.2678447663784027
0.23585918545722961 0.03791005536913872 0.4646410048007965
-0.20976422727108002 0.0011252870317548513 0.020016660913825035
0.1301380693912506 0.13253524899482727 0.46806448698043823
0.06649701297283173 0.002994549460709095 -0.20714695751667023
0.5852136015892029 0.32735592126846313 -0.12511888146400452
-0.07591432332992554 0.3053152859210968 -0.4016355574131012
0.1715741604566574 0.3974248766899109 -0.3896586298942566
0.03018433228135109 0.3041346073150635 0.40049171447753906
0.09365112334489822 -0.33690202236175537 -0.37241408228874207
0.14105744659900665 0.04591286554932594 -0.4022885262966156
-0.36059799790382385 0.0003351159393787384 -0.3386271893978119
-0.36390870809555054 -0.0009780996479094028 -0.07270041108131409
-0.21079696714878082 -0.014273515902459621 -0.18767476081848145
0.33619576692581177 -0.09078241884708405 -0.2895565629005432
0.09408214688301086 0.003796182805672288 -0.3849680721759796
-0.5307382345199585 -0.09042699635028839 -0.14184625446796417
0.3319218158721924 0.03881606087088585 0.44853729009628296
0.1855296790599823 0.10143643617630005 -0.399617075920105
-0.1649707853794098 0.0015966114588081837 -0.19995780289173126
0.019103458151221275 -0.400128573179245 0.2439907193183899
-0.4562784731388092 0.005072055850178003 -0.28472375869750977
0.2890608012676239 -0.6304343342781067 0.13537897169589996
-0.2273799479007721 0.0025941915810108185 -0.2640984356403351
-0.2058064341545105 0.0019783242605626583 -0.1441163867712021
-0.459613174200058 0.005289792083203793 -0.20424270629882812
0.08279706537723541 -0.0025286078453063965 0.3109523057937622
0.0639149397611618 0.39168861508369446 0.45779016613960266
-0.5750585198402405 0.026323214173316956 0.21281878650188446
0.05806543305516243 -0.370848685503006 -0.35396140813827515
0.21208098530769348 -0.09309642016887665 0.39139530062675476
0.18504568934440613 0.179416686296463 0.34145575761795044
-0.3718666136264801 0.0021382528357207775 -0.15637750923633575
-0.17541708052158356 -0.5500854253768921 -0.12629133462905884
0.3280194401741028 0.002827194519340992 -0.3264095187187195
0.31249189376831055 -0.2649887502193451 -0.30822739005088806
0.0629834234714508 0.4035079777240753 0.06518060714006424
-0.5201460719108582 -0.09859024733304977 0.018306603655219078
-0.48228028416633606 0.10905548185110092 -0.20580922067165375
0.21816179156303406 -0.42985600233078003 0.23666387796401978
0.2750251591205597 -0.2892040014266968 -0.33490365743637085
0.23609507083892822 -0.6171579957008362 0.1096460223197937
0.4486173987388611 -0.31191954016685486 -0.0681522861123085
-0.3788338303565979 0.061169154942035675 -0.3390392065048218
0.3199571371078491 -0.06986679881811142 0.23595066368579865
0.5829764604568481 0.2251872569322586 -0.34402960538864136
-0.02588183805346489 -0.1309109330177307 0.2921451926231384
-0.01232170406728983 0.3359718918800354 -0.4013373851776123
0.4121231436729431 -0.25141850113868713 0.12968063354492188
-0.5771578550338745 0.1495656669139862 -0.3093266189098358
0.530185878276825 0.20652595162391663 0.3413548767566681
-0.05516195297241211 0.18928012251853943 0.4069974422454834
0.36596357822418213 -0.0021786445286124945 -0.23400644958019257
-0.1669311225414276 -0.48453783988952637 0.07836751639842987
-0.027480604127049446 0.4008848965167999 0.3230353891849518
0.5827630162239075 0.03763418272137642 0.22559978067874908
-0.09679823368787766 -0.48417994379997253 0.18200647830963135
-0.5045324563980103 0.39138731360435486 -0.07160640507936478
0.06799755245447159 -0.05186738073825836 0.3250844180583954
0.4775240123271942 0.405020147562027 -0.19945962727069855
-0.4859768748283386 -0.021684555336833 0.3584499955177307
-0.21053765714168549 -0.0004490390419960022 0.0023589746560901403
-0.21700069308280945 -0.17793111503124237 0.0951562449336052
0.2582859694957733 0.21379536390304565 0.3443377912044525
-0.5671945214271545 0.16826820373535156 -0.39526793360710144
0.005553272552788258 -0.01906927302479744 -0.3616870641708374
0.24829620122909546 -0.07992732524871826 -0.3461596369743347
-0.37776902318000793 -0.0033026901073753834 0.3390743136405945
-0.2689426839351654 0.0040280018001794815 0.32408687472343445
0.056296903640031815 -0.42577940225601196 -0.3147696852684021
0.4419260621070862 -0.2756498456001282 -0.13422460854053497
0.10303701460361481 -0.6182060241699219 0.1289161890745163
0.29864922165870667 0.2484617978334427 0.46446242928504944
-0.2493174821138382 0.2706247866153717 0.34497976303100586
-0.44879281520843506 0.39687660336494446 0.20161975920200348
-0.40115270018577576 -0.0744798481464386 -0.15196362137794495
0.33515092730522156 -0.6229062080383301 0.005429197568446398
-0.5220415592193604 0.10656476765871048 -0.28950032591819763
-0.07592278718948364 -0.626177966594696 -0.21042291820049286
-0.5165444016456604 0.03330088034272194 -0.39776837825775146
-0.245110884308815 0.4012128412723541 -0.08263129740953445
0.5822424292564392 0.24203823506832123 0.3180704414844513
0.11423545330762863 0.4023009240627289 0.06635773926973343
-0.3780943751335144 0.07419516146183014 0.017339259386062622
0.4142272472381592 0.001458768267184496 0.2471075803041458
0.43249353766441345 -0.1758817583322525 0.07746217399835587
0.27585166692733765 -0.6202284693717957 -0.05588660389184952
0.5293500423431396 0.4046650528907776 0.0522196963429451
0.018702540546655655 -0.2821711301803589 0.30349934101104736
-0.11110476404428482 0.4026063084602356 -0.08686771243810654
-0.2404676079750061 -0.06891438364982605 0.009175242856144905
-0.3678828477859497 -0.015927158296108246 -0.1491883546113968
-0.06763515621423721 0.05919130519032478 0.3435196578502655
0.3440510630607605 -0.36763086915016174 -0.2752310633659363
-0.42418697476387024 0.21101656556129456 0.34356024861335754
0.3290764391422272 0.24169622361660004 0.34621724486351013
-0.34981220960617065 0.38576632738113403 0.028598282486200333
0.026818351820111275 0.3456127345561981 0.45763590931892395
-0.06857745349407196 -0.6216285228729248 0.08296871185302734
-0.3513182997703552 0.019085219129920006 -0.39835992455482483
-0.5816503167152405 0.03528258949518204 0.30109119415283203
-0.491463840007782 0.014012076891958714 -0.39729756116867065
0.31379085779190063 0.3226499557495117 0.34553125500679016
0.18235290050506592 -0.5283811688423157 -0.3109385371208191
0.37688395380973816 -0.6396849155426025 0.0007883651414886117
-0.3309427499771118 0.3762288987636566 -0.4003942310810089
-0.3821977972984314 -0.05201096832752228 0.2003958374261856
0.04408273100852966 -0.3017997443675995 0.31319528818130493
-0.33177614212036133 0.19983530044555664 -0.40035006403923035
0.22269587218761444 0.026677662506699562 -0.3997807204723358
0.5782192349433899 0.05228458344936371 0.08680327981710434
-0.4850456416606903 0.005379748530685902 -0.33481621742248535
0.3648833632469177 -0.11394614726305008 -0.2603437602519989
-0.23886989057064056 -0.0833730548620224 -0.10597042739391327
0.03694838285446167 0.24646694958209991 0.3595423996448517
-0.019594063982367516 -0.6217366456985474 -0.09569591283798218
-0.0916733369231224 0.26779285073280334 0.39798200130462646
-0.5721146464347839 0.07392726838588715 0.1513826549053192
0.18295691907405853 -0.2094416320323944 -0.3599579930305481
-0.002733922330662608 -0.3998143672943115 0.23610526323318481
0.261112242937088 0.0006978046149015427 0.11104247719049454
0.08080706745386124 -0.4244791269302368 -0.31973764300346375
0.4265638589859009 0.00354281859472394 -0.25269341468811035
0.1777709722518921 0.20183111727237701 0.4684951603412628
-0.13934697210788727 0.033310797065496445 0.33910006284713745
0.032000117003917694 0.003044006647542119 0.4508216679096222
-0.40756136178970337 0.4187111258506775 -0.08728330582380295
-0.5105699896812439 0.3819228708744049 -0.15536141395568848
-0.07468249648809433 0.2024531364440918 -0.4026448428630829
-0.23946943879127502 -0.1791367381811142 -0.02758931927382946
0.11407674103975296 0.003229726105928421 0.049828313291072845
0.10493171960115433 -0.06081927567720413 0.32207363843917847
-0.4085884690284729 -0.08544422686100006 -0.07388204336166382
0.5132337808609009 0.005008096806704998 0.28493982553482056
-0.0914013609290123 0.002040592720732093 -0.13549667596817017
-0.4077894985675812 0.0019894945435225964 0.21044151484966278
0.029451020061969757 -0.6453747749328613 0.2061661332845688
0.1539994478225708 -0.45559683442115784 0.2551051676273346
0.5804264545440674 0.13731250166893005 -0.16125287115573883
-0.2176935076713562 0.4054874777793884 0.20869144797325134
0.23156552016735077 0.21888762712478638 0.3445933759212494
0.047737494111061096 0.2600192129611969 0.4644150137901306
0.5803794264793396 0.21500271558761597 -0.09315110743045807
0.10291264206171036 -0.6201563477516174 -0.03143956884741783
0.4298771619796753 -0.3304586708545685 -0.15043294429779053
0.07659036666154861 0.4033735692501068 0.11987344175577164
0.1971190720796585 0.39053621888160706 0.4665150046348572
0.44512391090393066 0.4029041826725006 -0.12399008125066757
0.1953299194574356 -0.6222479939460754 0.023554634302854538
-0.11680387705564499 -0.03347025811672211 0.23792274296283722
-0.12181144207715988 -0.0007050829008221626 0.0839291363954544
-0.5732847452163696 0.09332075715065002 -0.04705670848488808
-0.244264155626297 0.402067631483078 -0.3477172553539276
0.1193670779466629 -0.6199962496757507 -0.22578926384449005
-0.19164103269577026 0.004704211838543415 0.24196693301200867
0.32092559337615967 -0.06870797276496887 0.4278658926486969
-0.22789627313613892 -0.37050020694732666 -0.030248694121837616
-0.23995065689086914 0.3975540101528168 0.32806703448295593
0.015736471861600876 -0.6220908761024475 -0.1667875498533249
0.3544577360153198 -0.5716687440872192 -0.17567096650600433
0.5764421224594116 0.08507094532251358 -0.3724192976951599
0.03128521889448166 -0.02445645071566105 0.4548752009868622
0.5624069571495056 0.009509939700365067 -0.018757160753011703
-0.13877126574516296 0.3446812927722931 -0.40252023935317993
0.12674401700496674 0.00279790535569191 -0.2524888515472412
-0.042750801891088486 0.4040631055831909 -0.11303280293941498
-0.5498565435409546 0.12562760710716248 -0.395537793636322
-0.5723869800567627 0.03674957901239395 -0.15515364706516266
0.5821133852005005 0.2841179668903351 -0.05653713643550873
-0.5760685801506042 0.35757943987846375 0.09315717220306396
0.13031212985515594 0.2517934739589691 0.34229832887649536
0.5789085626602173 0.21976631879806519 0.06730974465608597
0.4386237859725952 -0.29576605558395386 0.05576587840914726
0.19714143872261047 -0.6211432218551636 0.13487377762794495
0.20551075041294098 0.3230970501899719 0.3433149755001068
0.17195747792720795 0.4047424793243408 -0.14437873661518097
-0.5768312811851501 0.1944725066423416 0.24956628680229187
-0.1687343865633011 -0.003501485800370574 0.18471792340278625
-0.45239368081092834 0.1150323748588562 0.2985602021217346
0.13233138620853424 0.40530461072921753 0.17471572756767273
0.3026180863380432 0.41386792063713074 0.45370468497276306
-0.00555893499404192 0.40501275658607483 0.26600372791290283
0.13140344619750977 -0.02667231857776642 -0.3720571994781494
0.309048056602478 0.4055689573287964 -0.3488491475582123
-0.10760137438774109 -0.6232487559318542 -0.04068714380264282
0.0187706109136343 -0.620267927646637 -0.16732685267925262
-0.05857053026556969 6.88871368765831e-05 0.14595434069633484
-0.04391465708613396 0.00021717511117458344 0.16929298639297485
-0.36124706268310547 0.39662790298461914 0.09915249794721603
-0.37464115023612976 0.0037501314654946327 0.20306630432605743
0.2887760400772095 0.19420479238033295 0.46292489767074585
-0.5519774556159973 0.007157231215387583 -0.18972286581993103
-0.026838522404432297 0.16039977967739105 0.40917372703552246
0.11709768325090408 0.22430673241615295 0.3438611924648285
0.36499932408332825 -0.6410401463508606 -0.15726839005947113
0.11718282848596573 0.40273547172546387 0.06798560172319412
0.14509381353855133 0.40387389063835144 -0.07832159847021103
0.10158415883779526 -0.2759799063205719 -0.3733246326446533
0.3341549336910248 -0.6422166228294373 0.14187796413898468
0.3201688826084137 -0.6232327222824097 0.0675741657614708
