-0.5735345482826233 0.17905080318450928 -0.20051135122776031
0.21336621046066284 -0.6236341595649719 0.13738617300987244
0.25361520051956177 0.37192797660827637 0.3447640836238861
0.21632033586502075 0.3998875319957733 -0.22881726920604706
-0.06698480248451233 0.40021812915802 -0.0036927650216966867
0.31698623299598694 0.40240278840065 0.23338578641414642
0.3066120445728302 -0.6245154142379761 0.0645461156964302
0.08819077163934708 0.4614896774291992 0.43615272641181946
-0.10757148265838623 0.00031591951847076416 -0.3033021092414856
-0.29152026772499084 0.38910889625549316 0.339044988155365
-0.5213704109191895 -0.0915408656001091 0.02725107967853546
0.5821936726570129 0.3457197844982147 -0.21409334242343903
-0.18683983385562897 -0.3856852650642395 0.059282101690769196
-0.5818762183189392 0.00719292089343071 0.009960200637578964
-0.581710696220398 0.2913524806499481 -0.2475031316280365
-0.0636579692363739 -0.6448781490325928 -0.21678049862384796
-0.33865514397621155 0.1279856115579605 0.3422712981700897
-0.38730767369270325 -0.06467792391777039 0.31546005606651306
0.21807512640953064 -0.4922705292701721 -0.2980256974697113
-0.1249774768948555 -0.07859127968549728 -0.2936895489692688
0.17526300251483917 0.2891336977481842 0.4655381441116333
0.5705971121788025 0.16226355731487274 0.32465100288391113
-0.013562788255512714 -0.057475004345178604 -0.3579035699367523
-0.08094089478254318 0.20193473994731903 -0.4057002067565918
-0.2899709641933441 0.35178864002227783 -0.09542260318994522
-0.5685387253761292 -0.0477822944521904 -0.27321916818618774
0.3098410964012146 -0.07091356813907623 0.3280802369117737
0.11375022679567337 0.46761366724967957 0.4320106506347656
0.07114819437265396 -0.6222597360610962 -0.0765090212225914
0.16897891461849213 -0.09312790632247925 0.38475537300109863
0.04528471454977989 -0.380498468875885 -0.32093989849090576
0.09655223041772842 0.3035074472427368 0.46535375714302063
0.1414554864168167 -0.17399291694164276 -0.3690577745437622
0.10332480818033218 0.0009660404175519943 0.1519196778535843
0.0336788073182106 -0.35934409499168396 0.3080439865589142
0.36850613355636597 0.1420479118824005 -0.4034223258495331
-0.09550489485263824 -0.6166869401931763 -0.23309548199176788
0.30298036336898804 -0.07960773259401321 0.342284232378006
0.5817641615867615 0.1428496092557907 -0.2243737280368805
-0.10548490285873413 0.28296229243278503 0.3473810851573944
-0.0778784453868866 -0.622881293296814 0.027428705245256424
-0.3178534209728241 0.40260761976242065 -0.021894097328186035
0.3905206620693207 0.39974066615104675 0.15418124198913574
-0.14694379270076752 -0.5551517009735107 -0.1807316690683365
-0.3288819193840027 0.004460408352315426 0.23456008732318878
0.016901716589927673 0.17533789575099945 0.3495742082595825
0.46096792817115784 0.0009566005319356918 0.19728708267211914
-0.19564242660999298 -0.25951024889945984 0.1364102065563202
-0.0897129625082016 -0.08310088515281677 0.25505903363227844
0.32444894313812256 0.062222689390182495 -0.40232229232788086
0.0917603000998497 0.0011119148693978786 0.23177394270896912
0.5677264928817749 0.3995773494243622 -0.11802700906991959
0.34266525506973267 0.015779569745063782 -0.4019795060157776
0.43568891286849976 -0.28562232851982117 0.05757978558540344
0.15106745064258575 -0.13213549554347992 0.3128874897956848
0.3857671916484833 -0.6044514775276184 -0.09769312292337418
-0.3633730113506317 0.01953190751373768 -0.15087251365184784
-0.21619369089603424 0.17087429761886597 -0.4045887887477875
-0.5745457410812378 0.0021383685525506735 0.302471399307251
0.5786720514297485 0.263929158449173 0.0824180617928505
0.1586540937423706 -0.5635992884635925 0.2504623532295227
0.5797670483589172 0.1937921792268753 0.25372204184532166
0.06863030046224594 -0.622198760509491 -0.029330067336559296
0.041983187198638916 0.0016910610720515251 -0.187991201877594
-0.22192105650901794 -0.3785737454891205 -0.015271305106580257
0.4359395205974579 -0.11229447275400162 -0.10072241723537445
0.34932205080986023 -0.6364802718162537 0.10955401510000229
-0.5212851166725159 0.3599366843700409 -0.12910161912441254
0.5789301991462708 0.2989993095397949 0.19128739833831787
-0.0281979963183403 -0.6313790082931519 -0.24034404754638672
-0.5804495811462402 0.13441477715969086 0.09168313443660736
0.5603536367416382 0.14125308394432068 0.33785533905029297
-0.48707473278045654 0.3479675352573395 -0.15569835901260376
-0.4822064936161041 -0.07556625455617905 0.34335166215896606
0.025114867836236954 -0.6195799112319946 -0.149367094039917
0.2109745740890503 -0.08846770226955414 0.36503180861473083
0.14670945703983307 0.4687578082084656 0.4291798174381256
0.5768289566040039 0.36889153718948364 -0.33972030878067017
0.390868216753006 -0.49227792024612427 -0.0038552621845155954
0.03784618526697159 0.38065147399902344 0.44342702627182007
-0.12404169887304306 -0.6258969902992249 0.035689759999513626
-0.28896331787109375 0.3999476730823517 -0.20987622439861298
0.38684338331222534 -0.38875895738601685 0.06325659900903702
0.2474304586648941 -0.2434953898191452 0.28037166595458984
0.14405088126659393 -0.08171321451663971 0.3999936282634735
0.27615290880203247 -0.15634144842624664 0.26836442947387695
0.3244754374027252 0.0019969725981354713 -0.011660587973892689
0.24017570912837982 0.39957842230796814 -0.003749844152480364
0.21301043033599854 0.11083709448575974 0.3435954749584198
0.5449427366256714 0.39893820881843567 0.22301168739795685
0.3922925591468811 0.0006964225322008133 0.03331940993666649
0.5084892511367798 0.40139761567115784 -0.12805284559726715
0.43361857533454895 -0.25504541397094727 -0.10789231956005096
-0.4228752851486206 -0.037730682641267776 0.3475099503993988
-0.0556592121720314 0.0022333143278956413 -0.04096461832523346
0.5796970129013062 0.054999615997076035 0.11212275922298431
0.35664695501327515 0.19459007680416107 -0.4043636620044708
-0.15029765665531158 -0.4783078730106354 -0.17843542993068695
-0.1939261257648468 -0.26864948868751526 0.13486282527446747
0.4162825345993042 7.616495713591576e-05 0.03748326376080513
-0.365421861410141 -0.04342840984463692 -0.26105546951293945
0.06122656539082527 0.0014338558539748192 0.2251824140548706
0.3658011257648468 -0.5917844772338867 0.08194282650947571
0.10882331430912018 0.0028986195102334023 -0.2501371204853058
-0.5830390453338623 0.2794082760810852 -0.10702582448720932
-0.5785399079322815 0.30923590064048767 0.2587262988090515
0.10529555380344391 -0.03532109782099724 0.3214859962463379
0.30147111415863037 0.003027787432074547 -0.18459638953208923
0.21493539214134216 -0.6194832921028137 -0.038803376257419586
-0.058119989931583405 -0.4326958954334259 -0.27153393626213074
-0.46206945180892944 0.012755212374031544 -0.39859649538993835
-0.09361759573221207 -0.5615694522857666 -0.2406259924173355
-0.526968240737915 0.11426251381635666 -0.4007071554660797
-0.02697930298745632 -0.619461715221405 0.05462589114904404
-0.49179455637931824 0.031038127839565277 -0.3988431692123413
0.3935663104057312 0.39300039410591125 -0.39736777544021606
0.021289929747581482 -0.051054660230875015 0.4238480031490326
-0.06478260457515717 0.15182693302631378 0.40258148312568665
-0.1909807026386261 0.3594633638858795 0.3424864709377289
0.23138536512851715 -0.6307680010795593 0.16354098916053772
0.11864183843135834 0.2704212963581085 -0.4027595818042755
-0.018237484619021416 -0.483559787273407 0.23586483299732208
0.19422417879104614 0.0019179184455424547 -0.048236217349767685
0.32278722524642944 -0.0013902531936764717 0.1953420490026474
0.027344264090061188 -0.381451278924942 0.2868886888027191
0.5799054503440857 0.3782183825969696 -0.14688079059123993
-0.14816051721572876 0.36203882098197937 0.3434765338897705
-0.36480212211608887 0.17345412075519562 0.34291350841522217
0.3229595124721527 -0.5979016423225403 -0.21336430311203003
-0.5532858371734619 -0.07208581268787384 -0.08004824072122574
0.5788936614990234 0.09008847922086716 -0.13945160806179047
-0.04507293924689293 -0.4737153947353363 -0.27371054887771606
-0.1800946295261383 0.3972477614879608 0.1129240095615387
0.2729795575141907 -0.5352474451065063 0.20123924314975739
0.21957361698150635 0.01788969896733761 0.33992400765419006
0.08316441625356674 0.0017900476232171059 -0.1274792104959488
0.07646264880895615 -0.6254328489303589 -0.18705247342586517
-0.13037747144699097 -0.15484759211540222 0.22280336916446686
-0.15226976573467255 -0.0028056330047547817 0.1987219750881195
0.5812983512878418 0.35894283652305603 -0.02718762494623661
-0.5800442695617676 0.3489018678665161 -0.14429152011871338
-0.2299472689628601 -0.3087703287601471 -0.11735699325799942
0.39036113023757935 -0.002283540554344654 0.15069863200187683
0.388807088136673 -0.428659051656723 -0.09874311089515686
0.09056875854730606 0.36398258805274963 0.3368746042251587
0.1270487904548645 -0.37154898047447205 -0.3602093458175659
0.5635108351707458 0.4003632962703705 -0.05248973146080971
0.14578913152217865 0.0012534067500382662 0.05272896587848663
0.5746324062347412 0.3746326267719269 -0.3479347825050354
0.5774753093719482 0.011813955381512642 -0.23557598888874054
-0.34655600786209106 0.2824459969997406 0.34375903010368347
0.5108279585838318 0.0006807301542721689 0.05953230336308479
-0.12167301028966904 -0.3771635890007019 -0.26107391715049744
-0.4286573529243469 0.07638805359601974 -0.3988150358200073
0.35034939646720886 0.0029515158385038376 -0.29677748680114746
0.37439265847206116 0.0025276532396674156 -0.17706821858882904
-0.5764331817626953 0.3525997996330261 0.039407432079315186
0.3450222313404083 0.0015591660048812628 0.07688587158918381
0.3677181899547577 -0.5780927538871765 0.0819687470793724
0.584033191204071 0.28721609711647034 -0.1420750617980957
-0.10791117697954178 0.0018046395853161812 -0.1909632384777069
0.5651042461395264 0.0050152624025940895 0.1813412457704544
0.17496877908706665 0.0013601162936538458 -0.004369508009403944
-0.1818365454673767 -0.46429747343063354 -0.09490690380334854
-0.15730784833431244 -0.03692004829645157 -0.255980908870697
0.20175988972187042 -0.6178472638130188 -0.204106867313385
0.17689639329910278 0.0015482222661376 -0.3475550711154938
0.25662103295326233 0.4704820513725281 0.3824255168437958
0.569325864315033 0.010579237714409828 0.11657655239105225
-0.10347414761781693 0.4009896218776703 0.0931764468550682
0.23997612297534943 0.001417058054357767 0.2226117104291916
0.07055474072694778 0.400821328163147 0.22339804470539093
-0.4018441140651703 0.35281193256378174 0.3438001871109009
-0.5598821640014648 0.14633193612098694 -0.39569562673568726
-0.5789055824279785 0.048097193241119385 -0.21347016096115112
0.1291295439004898 0.32747793197631836 0.4615192115306854
0.15733186900615692 0.077274851500988 0.34352296590805054
0.5056757926940918 0.40009692311286926 0.16758115589618683
-0.3508622646331787 0.0030513405799865723 0.3137179911136627
-0.3992994725704193 -0.01338162086904049 -0.3958215117454529
-0.027538146823644638 -0.6364954710006714 -0.22727669775485992
0.0245328638702631 -0.620276927947998 -0.05585446208715439
-0.05130814388394356 0.0017732391133904457 -0.048878349363803864
0.5815079212188721 0.3187246322631836 0.14944800734519958
-0.5823811292648315 0.3185114562511444 -0.02032868191599846
0.153126522898674 -0.2567574679851532 -0.37096354365348816
0.06678295880556107 0.0025367550551891327 -0.17733925580978394
0.13738958537578583 -0.6218820214271545 0.16373848915100098
0.5769016742706299 0.2248075008392334 -0.39340272545814514
-0.2859014868736267 0.4030151069164276 0.2244262546300888
-0.24338118731975555 -0.02117094025015831 0.006391207687556744
0.40829092264175415 -0.29965001344680786 0.12372823804616928
-0.3853689134120941 0.07398150861263275 -0.16611970961093903
0.32507818937301636 -0.015788650140166283 0.38852888345718384
-0.4321031868457794 -0.09661314636468887 -0.3794548511505127
0.08779217302799225 -0.6257429718971252 0.20440128445625305
0.39340266585350037 -0.4479629397392273 -0.04913751035928726
-0.16781587898731232 -0.014810999855399132 0.16394932568073273
-0.4407567083835602 0.4010753929615021 0.21756398677825928
0.583859384059906 0.22842258214950562 -0.18155653774738312
-0.018350902944803238 -0.3124285638332367 -0.3557228147983551
0.3056822419166565 0.43534907698631287 0.4484686553478241
-0.5206062197685242 0.1475527286529541 -0.4004932940006256
-0.3234001398086548 0.11632519215345383 -0.4026036858558655
-0.04489811137318611 0.0010970013681799173 -0.28824716806411743
-0.37832531332969666 0.02977202832698822 -0.30317509174346924
-0.2512708008289337 0.4015621244907379 -0.3595254123210907
-0.5516825914382935 0.33443450927734375 -0.3979809284210205
-0.06136978790163994 0.18923352658748627 -0.4050733745098114
0.07572106271982193 0.4095868468284607 0.44270995259284973
-0.38686105608940125 0.0572127066552639 0.33917203545570374
0.1305852234363556 -0.6234440803527832 -0.01146240346133709
-0.4146328866481781 -0.09100912511348724 0.07147247344255447
0.17502470314502716 0.4680296778678894 0.42579203844070435
0.2888288199901581 -0.04441824555397034 -0.3217092454433441
-0.36954283714294434 0.007827128283679485 0.3185572028160095
-0.40762463212013245 0.23214569687843323 -0.4044288992881775
0.5751957297325134 0.012454936280846596 -0.18327634036540985
0.10115807503461838 0.1400507390499115 -0.40235140919685364
0.35554584860801697 -0.6479794383049011 -0.07156465202569962
0.5732123851776123 0.38945549726486206 -0.3053695857524872
0.25826629996299744 -0.2226967066526413 -0.3381466865539551
0.3704889416694641 0.4004082977771759 -0.08603627234697342
-0.10489453375339508 0.19644592702388763 0.39087560772895813
-0.34796932339668274 0.09825753420591354 -0.4015578329563141
-0.0536692813038826 -1.0151416063308716e-07 0.2500511109828949
0.18696807324886322 -0.42861443758010864 -0.30776485800743103
0.3086833655834198 0.054674189537763596 0.4553374946117401
-0.31586307287216187 0.12487688660621643 0.3426674008369446
-0.5275033116340637 0.07336235791444778 0.27992141246795654
0.012783394195139408 0.0022476930171251297 -0.08954496681690216
0.31248441338539124 0.14192825555801392 0.426083505153656
0.03062748908996582 0.09270565211772919 -0.40343087911605835
0.3164388835430145 0.11770214885473251 0.4045048654079437
0.0786825641989708 0.0026521654799580574 -0.19014635682106018
0.2371070384979248 -0.6192535161972046 0.03561350703239441
0.5818575620651245 0.10450447350740433 0.023012006655335426
-0.3971419632434845 0.4014664888381958 -0.35763615369796753
0.13671697676181793 -0.06431267410516739 0.3211739957332611
0.3948635756969452 -0.15307360887527466 0.1459575891494751
0.38420432806015015 -0.21121510863304138 0.16078835725784302
-0.4918960630893707 0.3975224494934082 -0.159805029630661
-0.44241297245025635 0.00091561209410429 0.03296035900712013
-0.10584920644760132 0.21194788813591003 0.3969351053237915
0.21283726394176483 -0.6174010634422302 0.09669212996959686
0.40440934896469116 -0.23142965137958527 0.13496045768260956
-0.42385998368263245 0.14719201624393463 0.341463178396225
0.4396063983440399 -0.2650562822818756 0.020437676459550858
-0.5578112006187439 -0.067644402384758 -0.1507904827594757
-0.3768831789493561 0.04817473143339157 0.273616224527359
-0.12584684789180756 0.0026050740852952003 -0.06362152844667435
0.043488673865795135 0.31687361001968384 0.34506288170814514
-0.5707699656486511 0.2357759326696396 0.3353496789932251
0.20286257565021515 0.2576185166835785 0.34478408098220825
0.3212752342224121 0.0010008187964558601 0.21354389190673828
-0.1952660083770752 -0.0016561252996325493 -0.11905162036418915
0.5798606276512146 0.08612187206745148 0.15637294948101044
-0.18398146331310272 -0.5487650632858276 -0.019775664433836937
0.3191092312335968 -0.08530580997467041 0.3677237927913666
-0.3621819019317627 -0.006206289399415255 0.02342461608350277
0.33652761578559875 -0.620852530002594 -0.040352679789066315
-0.3728519082069397 0.047473929822444916 -0.013265326619148254
0.054195303469896317 0.0003487695939838886 0.08945219218730927
-0.04270803928375244 0.27114585041999817 0.3995189964771271
-0.1373668760061264 0.0022072920110076666 -0.050711456686258316
0.1786063015460968 0.0032253507524728775 -0.3008497953414917
-0.07406379282474518 0.0020866524428129196 -0.1286153793334961
-0.48660388588905334 0.3891856074333191 0.33703872561454773
0.28623515367507935 0.35494935512542725 -0.4065607488155365
0.16387981176376343 -0.4954093396663666 -0.3151339888572693
0.5639609098434448 0.18926243484020233 -0.40087947249412537
-0.07646994292736053 0.012101157568395138 -0.3940340578556061
0.23105962574481964 0.39892080426216125 0.043013039976358414
0.19006802141666412 -0.3493803143501282 -0.3617338240146637
-0.05449152737855911 -0.33272379636764526 -0.33526042103767395
0.3745552599430084 -0.44368767738342285 0.06775058060884476
-0.02459060214459896 -0.620551347732544 0.08586689084768295
0.16877104341983795 0.0010636672377586365 0.2879185676574707
0.2531617283821106 0.0011052647605538368 0.2603873610496521
-0.5261510014533997 -0.023534640669822693 0.34269779920578003
0.18756043910980225 -0.621599018573761 0.11989075690507889
0.01463574729859829 0.19414788484573364 -0.4030854105949402
-0.06782010942697525 -0.6335774064064026 -0.252010703086853
-0.18100322782993317 -0.20581255853176117 -0.22446231544017792
0.18220701813697815 0.001993493176996708 -0.04003302380442619
-0.5607929825782776 -0.05482691526412964 -0.3957754373550415
0.27050358057022095 -0.37449586391448975 -0.31304582953453064
-0.08928686380386353 0.0029547857120633125 -0.11405783891677856
-0.10239820927381516 -0.639899730682373 -0.18420149385929108
-0.4907671809196472 0.011578395962715149 0.3541065454483032
0.5668340921401978 0.008632661774754524 -0.0012385935988277197
0.2432212084531784 0.3999074101448059 0.24436789751052856
0.18936969339847565 0.4657916724681854 0.42313235998153687
0.06811805069446564 0.40080222487449646 -0.19957281649112701
0.5817056894302368 0.31343406438827515 -0.3094850778579712
-0.0667574480175972 -0.13193275034427643 -0.3268703520298004
0.5813053250312805 0.19405332207679749 0.0033354093320667744
0.47041380405426025 0.0017548429314047098 -0.24136273562908173
0.03787950426340103 0.4000769555568695 0.12772876024246216
-0.4918400049209595 0.0019402429461479187 0.24338066577911377
-0.24832604825496674 0.25472673773765564 0.34443119168281555
-0.4391833245754242 -0.08640339225530624 -0.3978888690471649
0.1961851418018341 0.10593964159488678 0.46588653326034546
0.12975655496120453 0.4700376093387604 0.3863105773925781
-0.17689114809036255 0.3949773907661438 -0.38865843415260315
0.3909289836883545 0.3928989768028259 0.3407238721847534
0.1193520650267601 -0.2980535924434662 -0.3746950030326843
-0.4899671673774719 0.13262292742729187 0.3444683849811554
0.16360870003700256 -0.08352608233690262 0.43704503774642944
-0.422708660364151 0.34755033254623413 -0.19525085389614105
0.0055060116574168205 0.01136050559580326 -0.3874844014644623
-0.5439050197601318 -0.004826433956623077 -0.020527372136712074
0.5790673494338989 0.18508389592170715 0.17762407660484314
0.42477938532829285 0.39995163679122925 -0.26285520195961
-0.48842883110046387 -0.10767769813537598 0.05809854343533516
-0.5470662117004395 0.3016897141933441 0.3401542007923126
0.17502304911613464 0.39757800102233887 0.1951371729373932
0.4587520956993103 0.34955069422721863 0.34208551049232483
-0.11376937478780746 0.009582632221281528 -0.3873416483402252
0.2476196587085724 0.00216851569712162 0.07959216833114624
0.007781408727169037 0.15678757429122925 0.38993164896965027
0.1999690681695938 -0.620042085647583 -0.20611654222011566
0.4727335572242737 0.4000222086906433 0.0475534051656723
0.2445397675037384 -0.3816108703613281 0.2351521998643875
0.05541912466287613 0.06966119259595871 0.46400582790374756
0.1413331925868988 0.023575134575366974 0.46667277812957764
0.30406296253204346 -0.4830743372440338 0.17921657860279083
0.31481197476387024 -0.06468887627124786 0.43316155672073364
-0.18607157468795776 0.12099860608577728 -0.40168651938438416
-0.35223203897476196 0.00019201263785362244 -0.3732214570045471
0.2949473559856415 -0.6412604451179504 0.11711297929286957
0.12462833523750305 0.0026810485869646072 -0.06662514060735703
-0.17698611319065094 0.0020231781527400017 -0.21900314092636108
-0.4147723615169525 0.09468027204275131 0.18074190616607666
0.22865664958953857 -0.6183727383613586 -0.13412897288799286
-0.18246731162071228 -0.3752482831478119 0.1376044750213623
-0.023185981437563896 0.39922940731048584 0.3139890730381012
0.08262797445058823 0.4162066578865051 0.3810081481933594
0.5838449001312256 0.303059846162796 0.23186568915843964
-0.33580151200294495 0.0021118512377142906 -0.1613987237215042
0.5521608591079712 0.4002729058265686 -0.35845863819122314
0.22503404319286346 -0.1008375883102417 -0.3525339663028717
0.36192044615745544 -0.35182029008865356 0.1956585794687271
0.08891050517559052 0.0031250612810254097 -0.31964218616485596
0.02002844586968422 0.001230183057487011 -0.20084594190120697
0.38211050629615784 -0.4422040283679962 0.03374456614255905
-0.3378695249557495 0.14830443263053894 0.34287789463996887
-0.49317294359207153 -0.1040739044547081 -0.21916671097278595
0.21844680607318878 -0.6192318797111511 -0.18394626677036285
-0.24348501861095428 -0.23645354807376862 -0.05045203119516373
-0.1759701818227768 -0.6420804262161255 0.02064363658428192
0.034695759415626526 -0.6139696836471558 0.2486530840396881
-0.2347603291273117 -0.2910420000553131 -0.050032731145620346
-0.37875497341156006 -0.05671735480427742 0.06998056918382645
0.24055151641368866 0.29809948801994324 -0.40376999974250793
0.19185824692249298 0.3988247215747833 0.12891948223114014
-0.28943735361099243 0.4054734706878662 0.1689753234386444
0.36975839734077454 -0.1572946012020111 0.18734465539455414
0.051888275891542435 0.14100094139575958 0.4617782235145569
0.27098262310028076 -0.6206101775169373 0.20395441353321075
0.3215596079826355 -0.07055014371871948 0.2331281304359436
-0.009283644147217274 -0.6234925389289856 0.0874619111418724
-0.5736005902290344 0.016946306452155113 0.06695593148469925
0.4507110118865967 0.22036227583885193 0.34434133768081665
-0.003076781053096056 -0.6244441866874695 0.19559045135974884
-0.10832488536834717 0.0008552279323339462 -0.3300507366657257
0.033583953976631165 0.0006320257089100778 0.16141965985298157
0.5065986514091492 0.4004580080509186 -0.28450608253479004
-0.1985742151737213 0.40106114745140076 -0.228975310921669
0.022198906168341637 -0.38683411478996277 0.2613809406757355
-0.24131344258785248 -0.04169650375843048 -0.07555963099002838
0.12343452870845795 -0.3924388587474823 0.2689964175224304
0.3257785439491272 0.40302422642707825 -0.15053710341453552
0.09355136007070541 0.4005257189273834 0.24861443042755127
0.5787182450294495 0.3315013647079468 -0.29321950674057007
0.35311904549598694 -0.1805371195077896 0.2045847773551941
0.20815880596637726 -0.5842708349227905 0.2379773110151291
0.585437536239624 0.27892500162124634 -0.13428287208080292
0.38361480832099915 -0.4465402066707611 0.03633895143866539
-0.1355821043252945 -0.35918766260147095 -0.2857263684272766
-0.22423610091209412 -0.19108809530735016 -0.11670998483896255
-0.05154857039451599 -0.5054553151130676 0.21584996581077576
0.3091769814491272 0.40181541442871094 -0.1588139832019806
-0.4304944574832916 0.0008136695250868797 0.05992971733212471
-0.5754988789558411 0.0566062405705452 -0.1351912021636963
-0.3648652732372284 -0.0186876580119133 0.05495961755514145
0.3876951336860657 -0.04140830785036087 0.15647558867931366
-0.028257982805371284 -0.3177340030670166 0.28893351554870605
-0.2365102618932724 -0.0488038994371891 -0.12479501962661743
-0.4695492684841156 0.00121967401355505 0.16241183876991272
0.133633092045784 -0.5658657550811768 -0.31991201639175415
0.22494229674339294 0.187406986951828 0.4664931297302246
0.5238096714019775 0.40089595317840576 0.1356188803911209
0.23638597130775452 -0.6082318425178528 -0.29013630747795105
-0.03376508876681328 0.0009637204930186272 0.28783363103866577
0.544981062412262 0.4006332755088806 0.04479777440428734
0.41994932293891907 -0.17372454702854156 -0.15824051201343536
-0.27048832178115845 0.07366597652435303 -0.40139248967170715
-0.16350874304771423 0.1850181370973587 -0.40322449803352356
0.427860289812088 0.00044215936213731766 0.03331991285085678
-0.2864695191383362 0.07865781337022781 0.3427273631095886
0.12711945176124573 0.40138518810272217 -0.2176244854927063
-0.5804428458213806 0.11143039166927338 -0.26390454173088074
0.5106669664382935 0.0018474375829100609 0.3059905171394348
0.3891710042953491 -0.3586992621421814 0.15769818425178528
0.4101560413837433 -0.3495838940143585 0.12104427069425583
-0.38364747166633606 0.005552469752728939 0.337476521730423
-0.23664827644824982 -0.04247809946537018 -0.10164670646190643
-0.03727860376238823 -0.03141658753156662 0.28334683179855347
0.3869103193283081 -0.42083999514579773 -0.09544307738542557
0.038941849023103714 -0.5431193113327026 -0.3107176125049591
-0.26583218574523926 0.3818001449108124 -0.08001793175935745
-0.5319132208824158 -0.08831000328063965 0.05574678257107735
-0.12336277961730957 -0.6023841500282288 -0.1980198621749878
0.12251800298690796 -0.6343510150909424 -0.2860479950904846
-0.5465039014816284 0.3943684995174408 -0.1383858621120453
0.14100633561611176 -0.0234749186784029 0.4676688313484192
-0.5845736861228943 0.2736241817474365 -0.1699783354997635
0.2768923044204712 0.4027596414089203 -0.24841876327991486
-0.26786884665489197 0.0017788037657737732 -0.17999331653118134
0.26458540558815 -0.619238555431366 -0.14063656330108643
0.2019123136997223 -0.20063629746437073 -0.3618195950984955
-0.40656885504722595 0.139329731464386 0.34274619817733765
-0.29685652256011963 0.40307146310806274 0.2528332471847534
0.0383712500333786 0.267935574054718 0.3486615717411041
-0.3837713301181793 -0.03075755015015602 -0.39514288306236267
-0.15943537652492523 -0.36748412251472473 0.18881724774837494
0.3871450424194336 -0.6037667989730835 -0.006567360367625952
-0.30696913599967957 0.0010710868518799543 -0.2910929322242737
0.269045352935791 -0.48390617966651917 0.20688720047473907
-0.4225570559501648 -0.09174448996782303 -0.031871501356363297
0.5053083896636963 0.007557331118732691 -0.3955667018890381
-0.23562142252922058 0.3972553610801697 -0.3891262114048004
-0.5278124809265137 0.40114837884902954 -0.07476996630430222
0.3664405941963196 -0.0008157844422385097 0.2704538404941559
-0.1840822845697403 0.3823956251144409 0.34329813718795776
0.5127045512199402 0.032246507704257965 -0.40254661440849304
0.5815172791481018 0.24542751908302307 0.029552217572927475
0.0029751742258667946 -0.48701608180999756 -0.30046898126602173
-0.5736086368560791 0.1338919699192047 -0.385402649641037
-0.5698269009590149 0.08149018883705139 0.120681032538414
-0.5840416550636292 0.34494033455848694 0.1971839964389801
0.208737313747406 0.0026254719123244286 -0.3666895925998688
0.2548998296260834 0.0017881951062008739 -0.10809436440467834
-0.18611329793930054 -0.48957282304763794 -0.06658231467008591
-0.15097005665302277 0.0027220705524086952 -0.01972806639969349
-0.15782709419727325 0.0014346642419695854 0.07197943329811096
0.2782108187675476 0.4496958553791046 0.4367668926715851
0.5750429630279541 0.3736591637134552 -0.39263632893562317
-0.19823361933231354 -0.1199493333697319 -0.20170792937278748
-0.08183074742555618 -0.3739453852176666 -0.29893922805786133
0.5802253484725952 0.11052914708852768 -0.023479821160435677
0.20906688272953033 -0.10336668789386749 -0.35684674978256226
-0.264339417219162 0.26364943385124207 0.34374961256980896
-0.07432565838098526 0.0017963899299502373 -0.12404815107584
0.06310926377773285 0.3268732726573944 -0.400674432516098
-0.3631035089492798 0.3856253921985626 0.018413716927170753
0.5297688245773315 0.40260329842567444 -0.21609553694725037
-0.10876080393791199 -0.00028495583683252335 0.22392483055591583
-0.387443870306015 -0.07104416191577911 0.11227690428495407
0.1652899533510208 0.0026007387787103653 -0.3247150778770447
0.22984465956687927 0.002193617168813944 -0.1470765322446823
-0.42294517159461975 0.006255798041820526 -0.16621561348438263
-0.2544496953487396 0.39779043197631836 -0.39224356412887573
-0.34113699197769165 0.2052389681339264 -0.40428879857063293
-0.5166071057319641 0.11172690242528915 0.19250598549842834
0.034314945340156555 0.40221676230430603 0.07160878926515579
0.13135294616222382 -0.001291826250962913 0.46667683124542236
-0.39276838302612305 0.3108420670032501 -0.4028017520904541
-0.2508048415184021 0.12955288589000702 0.3428589403629303
-0.10950180888175964 0.12267367541790009 0.34229984879493713
-0.3171669542789459 0.33591821789741516 -0.169024258852005
-0.2622387707233429 0.0017472230829298496 -0.17021752893924713
0.5797818303108215 0.3680925965309143 -0.009682037867605686
-0.4377760589122772 -0.0017507364973425865 0.04833217337727547
-0.4996866285800934 -0.10663046687841415 0.024520669132471085
-0.054156675934791565 0.0007294246461242437 0.15187968313694
0.03089199773967266 -0.6239937543869019 0.18446038663387299
-0.0392443910241127 -0.04760419577360153 -0.34818851947784424
0.29984402656555176 0.002650029491633177 -0.12139560282230377
0.06531056761741638 0.0074085877276957035 0.33748456835746765
0.3447730541229248 -0.5208283066749573 0.1306091696023941
0.2892906069755554 -0.6394644379615784 0.18470722436904907
-0.4481016993522644 0.33073702454566956 0.3447437286376953
-0.016964199021458626 0.08665524423122406 0.3448311984539032
-0.3233950138092041 0.002095232717692852 -0.03937605023384094
0.3007532060146332 0.0018403474241495132 -0.24086394906044006
-0.5189982652664185 0.40022775530815125 -0.254893034696579
0.3422009348869324 0.1969069242477417 -0.40189608931541443
-0.4961611330509186 0.04356794431805611 0.3425309360027313
-0.18020522594451904 -0.50983726978302 0.010838748887181282
-0.5555336475372314 0.07811570167541504 -0.3868337571620941
-0.2295931726694107 -0.18207111954689026 -0.12156545370817184
-0.1706201583147049 -0.035222653299570084 -0.24151986837387085
0.49377432465553284 0.4005511403083801 0.27827757596969604
0.022974548861384392 0.0012113098055124283 0.03569823503494263
-0.4104606509208679 0.09777425974607468 -0.3981475234031677
0.09535549581050873 -0.08210229128599167 0.41601020097732544
0.28616535663604736 0.40061143040657043 -0.0449981726706028
-0.07885643094778061 0.2470523864030838 0.40054672956466675
0.5750789642333984 0.3835151493549347 0.27386513352394104
-0.3685424029827118 -0.0127063924446702 0.25125250220298767
-0.17791947722434998 0.40136951208114624 -0.08596724271774292
0.002944605192169547 -0.6431904435157776 -0.27021175622940063
0.4266451597213745 -0.3250845670700073 0.0792326033115387
0.2933824360370636 0.0024199283216148615 -0.3460414409637451
-0.46579280495643616 -0.11175339668989182 0.06520000845193863
0.39435669779777527 -0.22616569697856903 0.14266739785671234
-0.3575901985168457 -0.0032382714562118053 -0.013784784823656082
-0.3584219515323639 0.32164090871810913 0.3442912995815277
-0.08457446843385696 -0.41025620698928833 0.193788081407547
0.25908756256103516 0.4001810848712921 -0.30434468388557434
-0.20723851025104523 -0.1138683557510376 -0.1823556274175644
0.30794212222099304 0.19069087505340576 0.44654136896133423
0.5810703635215759 0.33599215745925903 0.09134379029273987
0.18190018832683563 -0.6210867166519165 -0.0445011742413044
0.5390359163284302 0.3987779915332794 0.3122539222240448
0.47906428575515747 0.002443908713757992 0.32277143001556396
-0.45190271735191345 0.4110701382160187 -0.0730973556637764
-0.13291457295417786 -0.3139406442642212 0.22338749468326569
0.5809374451637268 0.05884576216340065 -0.010977025143802166
-0.5470502376556396 -0.07404615730047226 0.29217150807380676
0.5145754218101501 0.0003312299959361553 -0.3002946376800537
-0.37725669145584106 0.06944277882575989 0.12438998371362686
-0.575124979019165 -0.023694831877946854 0.2788923978805542
0.017938779667019844 -0.37840592861175537 -0.3312304615974426
0.5812732577323914 0.13373064994812012 -0.06231486052274704
0.27202922105789185 -0.02788420394062996 0.4612559676170349
0.4555201530456543 0.23125045001506805 0.3439410626888275
-0.4759640693664551 -0.001894468441605568 -0.35629335045814514
0.056871507316827774 -0.623264491558075 -0.14431439340114594
0.3713078796863556 0.40090814232826233 -0.09514570236206055
0.505355954170227 0.4003241956233978 0.09826363623142242
-0.49539658427238464 0.004025722853839397 -0.17924915254116058
0.21924011409282684 0.0011948465835303068 0.24890176951885223
-0.5825880765914917 0.18587073683738708 -0.013441700488328934
0.57378089427948 0.12399502843618393 0.31999796628952026
0.22212785482406616 -0.12700633704662323 0.29074040055274963
0.0030127600766718388 -0.43681782484054565 -0.3082048296928406
-0.45739343762397766 0.11410431563854218 -0.33391863107681274
-0.04399780556559563 -0.35298871994018555 0.2828636169433594
-0.12120507657527924 0.4002549648284912 -0.3637647330760956
-0.12995858490467072 0.27803707122802734 0.3471084535121918
0.04040056839585304 0.057901497930288315 0.34644612669944763
-0.38687020540237427 0.1634388566017151 -0.4023590683937073
-0.4816935062408447 0.2686440646648407 -0.4019150137901306
-0.17372992634773254 -0.6362966299057007 -0.08521327376365662
-0.3435268700122833 0.0030023264698684216 0.14003194868564606
0.08155421912670135 -0.2843121290206909 0.31227320432662964
-0.42293599247932434 -0.004171208944171667 0.2991483509540558
-0.05378485098481178 -0.6132469773292542 0.21518905460834503
0.00441454304382205 0.0014129398623481393 -0.08395571261644363
-0.5442659258842468 0.10375207662582397 0.14590446650981903
-0.07589861005544662 0.39903998374938965 0.22694967687129974
0.35052290558815 -0.14279203116893768 -0.2721964418888092
0.5752381682395935 0.3858657777309418 0.2819857895374298
-0.04897849261760712 0.0009634358575567603 0.207826629281044
-0.022914139553904533 -0.0039358073845505714 0.28250589966773987
0.051446374505758286 0.17598217725753784 0.46142321825027466
-0.5658974051475525 0.06737929582595825 0.1292688548564911
0.17534370720386505 -0.5619814991950989 0.2519988417625427
-0.5782009363174438 0.10435701161623001 0.2278299331665039
0.557956337928772 0.00895412266254425 -0.19794823229312897
0.5753985047340393 0.34663125872612 0.3384239077568054
0.12705527245998383 -0.11711858212947845 0.31878015398979187
-0.536221444606781 0.09131790697574615 -0.3755336403846741
0.08162783831357956 0.16946785151958466 0.4656437039375305
0.43339473009109497 0.40011143684387207 -0.29210928082466125
-0.2939285933971405 0.4017462730407715 -0.36135047674179077
-0.28276538848876953 0.39813634753227234 -0.03164488077163696
0.37047481536865234 -0.09030155837535858 0.18413713574409485
0.10846639424562454 -0.24613314867019653 -0.3740704357624054
-0.125969797372818 -0.4392539858818054 0.1505288928747177
-0.5455194711685181 -0.0005489909090101719 0.0983320027589798
-0.22388069331645966 -0.2664541006088257 -0.12971888482570648
0.2654774785041809 0.18026846647262573 -0.4034883677959442
0.004104096908122301 0.3602305054664612 0.34347084164619446
-0.562396764755249 0.3791266679763794 0.14314064383506775
-0.17379476130008698 -0.45573511719703674 0.06634265184402466
0.5678924322128296 0.3517168164253235 0.3396699130535126
-0.031119247898459435 0.0010273726657032967 0.07254322618246078
-0.14860635995864868 -0.6208205223083496 -0.16861356794834137
0.3122859001159668 0.0021680081263184547 0.042180780321359634
0.5492842793464661 0.004051467403769493 -0.01833498664200306
-0.36062249541282654 0.009801698848605156 -0.04406781867146492
-0.08647415041923523 0.2688976228237152 0.36548811197280884
0.3683408796787262 -0.38029980659484863 -0.17639607191085815
0.4398063123226166 -0.24340234696865082 0.020397577434778214
-0.5564818382263184 -2.651987597346306e-05 0.21394070982933044
-0.12323552370071411 0.40023893117904663 0.024439601227641106
0.4804791808128357 0.40062767267227173 0.0549626499414444
0.30309727787971497 -0.5181644558906555 0.17704875767230988
0.569120466709137 0.3928091526031494 -0.39504849910736084
-0.34681788086891174 0.3680354058742523 -0.1724599301815033
-0.21501392126083374 -0.06481539458036423 -0.1665041148662567
-0.3084215819835663 0.4027853012084961 0.286660373210907
0.3385957181453705 0.40066972374916077 -0.08260061591863632
-0.43687012791633606 0.09759068489074707 -0.03081982210278511
-0.12169292569160461 -0.6411615610122681 -0.1447802037000656
0.20634563267230988 0.0009752316400408745 -0.05939362570643425
0.09511115401983261 0.15852300822734833 0.3440626263618469
0.25787681341171265 -0.6379401087760925 0.21028432250022888
0.32381540536880493 0.25552693009376526 0.4172794222831726
-0.10260914266109467 0.00010831793770194054 0.12725602090358734
-0.5764591693878174 0.11326604336500168 0.07595664262771606
0.34993645548820496 -0.10734415799379349 0.20678770542144775
0.08488290756940842 0.1970842182636261 -0.40264928340911865
-0.2331026941537857 0.18923963606357574 0.34247857332229614
-0.14005711674690247 0.0019816032145172358 -0.14635194838047028
-0.403320848941803 0.16406896710395813 0.34286776185035706
0.3245026469230652 0.40109819173812866 0.08887454122304916
-0.12388841062784195 0.05950981378555298 -0.4018687903881073
0.5798607468605042 0.2776879072189331 -0.2614457607269287
0.027053702622652054 0.021773945540189743 0.38800209760665894
0.573447048664093 0.05561519414186478 -0.39208996295928955
-0.23075349628925323 -0.15308380126953125 -0.11129490286111832
0.09660583734512329 -0.02569212019443512 -0.37587499618530273
0.38348427414894104 0.08588138967752457 -0.40297403931617737
-0.12624751031398773 -0.38023656606674194 0.16172558069229126
-0.34300142526626587 0.3658367097377777 -0.39850831031799316
-0.4746416509151459 0.0004184367135167122 0.025763073936104774
-0.4962652027606964 0.3975647985935211 0.009146113879978657
0.19847248494625092 0.018664143979549408 -0.3962399959564209
0.21738211810588837 -0.0915866494178772 0.3970003128051758
-0.48966842889785767 0.11714643239974976 -0.3487960398197174
-0.07739017903804779 -0.0972367450594902 0.2622854709625244
-0.3587859272956848 0.08681558817625046 -0.3996961712837219
0.056984830647706985 0.40073060989379883 -0.19130714237689972
-0.0580408088862896 -0.6239496469497681 0.16303806006908417
-0.39736464619636536 0.09121619910001755 0.07376337796449661
-0.05073970556259155 -0.6240624785423279 0.11002673208713531
-0.3650616705417633 0.3297176957130432 -0.40289872884750366
0.27194905281066895 -0.6446007490158081 -0.24003306031227112
-0.5802880525588989 0.07751967757940292 0.30795276165008545
0.22502869367599487 -0.22138267755508423 0.28571411967277527
0.24863673746585846 -0.40294530987739563 0.2263483703136444
0.5606981515884399 0.4020363688468933 0.02587888203561306
-0.030755918473005295 0.4002416133880615 -0.3551759123802185
0.3264184594154358 0.1711527407169342 0.34342896938323975
0.3099357485771179 0.0037788478657603264 -0.1933397501707077
0.5605958700180054 0.39546525478363037 -0.0656103566288948
0.30631229281425476 0.1371796429157257 0.46274900436401367
0.4663582444190979 0.4014204740524292 -0.09969767183065414
-0.1500205099582672 0.0020272526890039444 0.03509087860584259
0.4512459635734558 0.4003852605819702 0.1054236888885498
-0.1514713615179062 -0.029164288192987442 -0.26657742261886597
0.10743727535009384 0.001715702936053276 0.06864992529153824
0.44006022810935974 -0.17656688392162323 -0.09060575813055038
0.15849609673023224 -0.0220947302877903 0.46872639656066895
0.568996250629425 0.3900066018104553 -0.3794357180595398
0.34353411197662354 0.0007458608597517014 -0.23770110309123993
-0.08299244940280914 0.1515837013721466 0.39311012625694275
-0.05990546941757202 0.39802348613739014 -0.22217415273189545
0.28215211629867554 -0.5241165161132812 0.19578449428081512
0.24479740858078003 -0.4929084777832031 0.22123607993125916
-0.1939627230167389 -0.3919329345226288 -0.06861338019371033
0.3840961158275604 -0.38783419132232666 -0.11222129315137863
0.10581239312887192 -0.39210954308509827 0.2712790369987488
0.18276451528072357 0.40156829357147217 -0.13964883983135223
0.049165476113557816 0.38696417212486267 -0.40107133984565735
0.2883054316043854 -0.6235926151275635 0.04708151891827583
0.3493051826953888 -0.1867796629667282 0.20646262168884277
0.13311585783958435 0.40177664160728455 -0.25257113575935364
-0.5662533640861511 0.37795478105545044 0.177490696310997
0.2124699503183365 0.05818207561969757 0.3442162275314331
-0.11989889293909073 0.0065120188519358635 0.32646042108535767
-0.42178910970687866 0.10152388364076614 0.08783271908760071
0.10813936591148376 -0.4833439886569977 0.2609110474586487
-0.02097592130303383 -0.11617179214954376 0.29065415263175964
0.21077895164489746 -0.6047695875167847 -0.29636090993881226
0.060155533254146576 0.001963334623724222 -0.16675691306591034
-0.5193629860877991 0.0923725888133049 0.18760980665683746
-0.13753676414489746 -0.541383683681488 0.1220628097653389
-0.45483559370040894 0.21926195919513702 0.3425787389278412
-0.35842281579971313 0.4029332101345062 -0.3560972511768341
-0.4893876016139984 0.400024950504303 0.25473180413246155
-0.05723663046956062 0.40110525488853455 -0.012505553662776947
-0.04933321848511696 -0.6240069270133972 -0.01960011012852192
0.18986892700195312 0.3998120427131653 -0.36890146136283875
0.2842116355895996 -0.25304871797561646 -0.32504844665527344
0.32008257508277893 0.271196573972702 0.40814152359962463
0.5788717865943909 0.2126305252313614 0.27952706813812256
0.17287325859069824 0.39974746108055115 -0.05110779032111168
-0.18907634913921356 0.001912166248075664 -0.2268199920654297
0.0035551046021282673 0.0006320774555206299 0.054808881133794785
0.5825529098510742 0.1999840885400772 0.05789608508348465
0.2541934549808502 0.17679303884506226 0.4664005637168884
-0.47625601291656494 0.408625990152359 -0.07985372096300125
-0.3132636249065399 0.10870825499296188 0.34277886152267456
0.2643220126628876 0.0022230958566069603 -0.32051947712898254
-0.04764782264828682 -0.3699452579021454 0.2727985084056854
-0.47715818881988525 0.07074721902608871 -0.4019937515258789
-0.013340605422854424 0.15043999254703522 0.3658047914505005
-0.15361136198043823 -0.6546765565872192 0.0475606769323349
0.046391502022743225 0.10600155591964722 -0.4042111933231354
-0.5803427696228027 0.11724651604890823 0.3236995339393616
0.2122718095779419 0.0013650641776621342 0.09359508752822876
0.5794914960861206 0.018633410334587097 -0.16638900339603424
0.1722218096256256 0.4028502404689789 -0.12884648144245148
0.38815900683403015 0.00023866258561611176 -0.09481695294380188
-0.3163954019546509 0.000708424486219883 0.05444024130702019
-0.19027990102767944 0.11188376694917679 0.3420292139053345
-0.019221430644392967 -0.6204212307929993 0.12798574566841125
0.5329948663711548 0.008329450152814388 -0.39313119649887085
0.16383661329746246 -0.6232582926750183 -0.03186935931444168
-0.38668110966682434 0.3523569405078888 0.3400203585624695
-0.35686326026916504 0.006889164913445711 -0.24194051325321198
0.2626287043094635 -0.6169216632843018 -0.06460069119930267
0.3088207542896271 -0.01937868818640709 0.4396921992301941
0.4452281594276428 -0.08234215527772903 -0.020700104534626007
0.3369569182395935 -0.5961461663246155 0.14020445942878723
0.2671011984348297 0.30782443284988403 0.3431619107723236
-0.32502031326293945 0.3952079713344574 -0.11246068775653839
0.014228010550141335 -0.6218320727348328 -0.027011092752218246
0.17350299656391144 -0.6171829700469971 0.07289981096982956
-0.5723122358322144 0.00304974103346467 -0.2520284652709961
-0.5714023113250732 0.061941809952259064 0.09104334563016891
-0.28865858912467957 0.3145274221897125 0.3434489667415619
0.3046364188194275 0.4007651209831238 -0.06192481145262718
0.42383888363838196 -0.0024099741131067276 -0.14907269179821014
0.05707331374287605 -0.039176344871520996 0.4662279486656189
-0.5174677968025208 0.4010803997516632 -0.02291463129222393
-0.12284161150455475 -0.5940144658088684 0.1566317230463028
-0.08035832643508911 0.2491876780986786 -0.40319404006004333
-0.5772531032562256 0.29578614234924316 0.014794159680604935
0.02277550660073757 0.27675455808639526 0.3415818214416504
0.3024653196334839 -0.46333247423171997 0.18485546112060547
0.005206399597227573 0.00154829490929842 -0.07559560239315033
-0.575630784034729 0.3402101695537567 0.2459598183631897
-0.10506141185760498 -0.1634943187236786 -0.31088781356811523
0.20845799148082733 0.4018527567386627 0.35600364208221436
-0.5221219658851624 0.34603071212768555 -0.12132304161787033
-0.04167315363883972 -0.4406283497810364 -0.280558705329895
0.25518274307250977 0.4017413258552551 -0.2337377667427063
-0.4734034836292267 0.00025565153919160366 -0.018734760582447052
-0.5322497487068176 0.397386372089386 -0.013751883991062641
0.2040347158908844 0.002218162640929222 -0.15959805250167847
-0.27453237771987915 0.09635921567678452 -0.40124279260635376
0.11314878612756729 0.4007098376750946 0.20772817730903625
-0.0366656593978405 0.2533968389034271 0.40105098485946655
-0.40091273188591003 0.05650624632835388 -0.3998035192489624
0.06463859230279922 0.08433782309293747 -0.40318042039871216
-0.09487660229206085 -0.6424689292907715 -0.20981931686401367
0.3458400368690491 -0.22492298483848572 -0.2723601758480072
0.031253255903720856 -0.6258589029312134 0.19518063962459564
-0.020154612138867378 0.40042057633399963 -0.015287073329091072
-0.17536042630672455 -0.6391549706459045 -0.027948325499892235
0.12403145432472229 -0.3858436644077301 0.28416386246681213
-0.12494107335805893 0.0003316504880785942 -0.3297879993915558
0.19917331635951996 0.001877583097666502 -0.23761655390262604
-0.501843273639679 0.4024932086467743 0.12246617674827576
0.10981044173240662 0.003298555500805378 -0.17305120825767517
-0.15857398509979248 -0.063867948949337 0.192479208111763
-0.24271495640277863 0.4003320634365082 0.3268794119358063
0.32540303468704224 0.0026034098118543625 -0.2012786865234375
-0.580105721950531 0.01546091865748167 -0.2903105616569519
-0.5809735655784607 0.04075014218688011 0.31070128083229065
0.4438377320766449 -0.31171751022338867 -0.004691225476562977
-0.586490273475647 0.021073106676340103 0.3039831221103668
0.3518797755241394 -0.0024737296625971794 0.1873779147863388
0.21291272342205048 0.40080705285072327 -0.2301378846168518
-0.4607023596763611 0.40173420310020447 0.28967559337615967
0.37003982067108154 -0.17656609416007996 -0.2456338256597519
0.5829030275344849 0.32242441177368164 0.15536284446716309
-0.06762843579053879 -0.3039497435092926 -0.3293245732784271
0.571029007434845 0.3913920819759369 -0.03690430149435997
-0.496700257062912 0.3879554271697998 -0.00730142230167985
0.29042547941207886 -0.6474123001098633 -0.2093256115913391
-0.5758143663406372 0.36029016971588135 0.026350030675530434
0.2524566352367401 -0.3026975691318512 0.27981051802635193
-0.5047243237495422 0.13711871206760406 -0.39970865845680237
0.30155009031295776 0.10293048620223999 -0.40289002656936646
-0.11586894094944 -0.304871529340744 -0.2989867925643921
-0.031170658767223358 0.24587568640708923 0.40213343501091003
-0.40104520320892334 -0.009114531800150871 -0.39333146810531616
0.581468939781189 0.07844771444797516 -0.3710738718509674
-0.10753830522298813 -0.6492182016372681 0.14484645426273346
0.00015938538126647472 0.0014194194227457047 -0.29552775621414185
0.07840866595506668 0.0016130469739437103 -0.009726348333060741
0.38977953791618347 -0.2212015986442566 0.15543079376220703
-0.3512748181819916 0.0021794848144054413 0.2535354495048523
-0.558399498462677 0.0008419796358793974 0.055396292358636856
-0.06283926963806152 0.0014942456036806107 -0.06701673567295074
0.2846154272556305 -0.6177796721458435 -0.11833187192678452
0.5795238018035889 0.017351849004626274 0.08696756511926651
-0.20596899092197418 0.4018186032772064 0.12413033097982407
0.018198959529399872 0.22750259935855865 0.3977319002151489
0.36939311027526855 0.40128087997436523 0.07034104317426682
0.43318337202072144 -0.2446313053369522 -0.12641334533691406
0.5525811314582825 0.0038792481645941734 -0.03638020530343056
-0.37584277987480164 0.005186551250517368 -0.025952687487006187
0.24306140840053558 -0.5109464526176453 -0.2861807644367218
0.03865388035774231 0.40151822566986084 -0.25791701674461365
