-0.06014500558376312 -0.6178144812583923 -0.08061863481998444
-0.06771043688058853 0.3966326117515564 0.17034608125686646
0.41808021068573 -0.002469075145199895 0.2142261266708374
0.14575840532779694 -0.6355196833610535 -0.24507102370262146
0.2385120391845703 0.006138146854937077 -0.024651993066072464
0.08458735048770905 -0.2231428176164627 -0.3654254078865051
-0.024999162182211876 0.41303762793540955 8.057826198637486e-05
0.5867629647254944 0.025867406278848648 -0.2501644492149353
0.5434048175811768 0.011964085511863232 0.24386906623840332
0.2876099944114685 -0.6570227146148682 0.1573195457458496
0.3852618634700775 -0.2685858905315399 -0.21383340656757355
0.13782037794589996 -0.6306694746017456 0.16956090927124023
-0.004488906357437372 0.09269465506076813 0.3474782109260559
0.2358700931072235 -0.010380693711340427 0.16821350157260895
0.006470606196671724 -0.0006808637990616262 0.08886593580245972
-0.13161705434322357 -0.044660765677690506 -0.292306125164032
0.45711883902549744 -0.32262906432151794 -0.016125917434692383
0.39198777079582214 -0.38344523310661316 -0.09214826673269272
-0.07185553759336472 -0.6211408972740173 0.13031131029129028
-0.1820993721485138 0.011258227750658989 0.10838279873132706
0.17055344581604004 0.40632832050323486 0.20506449043750763
0.23676417768001556 0.011053564958274364 -0.19708988070487976
-0.1489984691143036 0.3978842496871948 0.19758380949497223
-0.43120938539505005 0.4079228341579437 -0.048482220619916916
-0.040950048714876175 -0.010356653481721878 0.008415009826421738
-0.030048025771975517 0.006527871359139681 0.3002895712852478
0.29186028242111206 -0.00781470537185669 -0.3845123052597046
0.32820579409599304 -0.43198612332344055 -0.2213357388973236
0.5157491564750671 0.005983312148600817 -0.23733393847942352
-0.5729421973228455 0.10697899013757706 0.03764652460813522
-0.31675320863723755 0.39831045269966125 0.3252716064453125
0.5396429896354675 0.38372159004211426 0.21051253378391266
-0.5622269511222839 0.050711508840322495 -0.14015252888202667
-0.50830078125 0.331044465303421 0.33116769790649414
-0.016417555510997772 0.3959595263004303 -0.11308938264846802
0.001676464919000864 0.008168436586856842 -0.09373625367879868
-0.47994768619537354 -0.02643485926091671 0.35188689827919006
0.22949695587158203 0.2457306981086731 0.47139230370521545
0.04972563683986664 -0.6029952168464661 0.24011196196079254
0.5923084020614624 0.3607604503631592 0.20562058687210083
0.3706304430961609 -0.028927385807037354 0.19895750284194946
-0.20630188286304474 -0.25227266550064087 0.13228851556777954
-0.5482518672943115 0.0555926077067852 -0.2634504437446594
-0.059124283492565155 0.287990540266037 -0.39758676290512085
0.26409849524497986 0.004388857167214155 0.03128502517938614
0.36716845631599426 0.39036130905151367 -0.07275019586086273
-0.05171613767743111 -0.009642387740314007 -0.1559523195028305
-0.37304162979125977 0.08449120819568634 0.34519124031066895
-0.05622440204024315 -0.6545161604881287 0.15275518596172333
-0.27494698762893677 0.004849224351346493 -0.1172909066081047
-0.01897355727851391 0.013915573246777058 0.2501210570335388
0.44906559586524963 -0.19040954113006592 0.05458812415599823
0.39054253697395325 0.3850288689136505 -0.07539195567369461
-0.3172062337398529 -0.0010191617766395211 -0.02441125176846981
-0.4087611138820648 -0.0752573236823082 -0.010829315520823002
-0.577914297580719 0.27738067507743835 0.06975115090608597
0.259949654340744 -0.00409060250967741 0.005943688564002514
0.1228986531496048 -0.39293816685676575 0.2736906409263611
0.05201780050992966 0.41084709763526917 0.27598321437835693
0.40543073415756226 -0.011006370186805725 0.24612875282764435
0.07761471718549728 0.014138968661427498 0.17803974449634552
-0.10412444174289703 0.40044957399368286 0.07598147541284561
0.4055742025375366 -0.3123352527618408 0.12965890765190125
0.2465408444404602 -0.6353268027305603 0.1673533320426941
-0.24070578813552856 -0.0836649015545845 0.06763296574354172
0.1665317416191101 0.2698805332183838 0.3458007574081421
0.363014817237854 0.0054445634596049786 0.006566724274307489
-0.24573618173599243 0.4022807478904724 0.21695002913475037
0.26140230894088745 0.3741697371006012 0.3555769920349121
-0.17692384123802185 -0.5773990154266357 -0.13153663277626038
0.5721616148948669 0.2158302217721939 0.015357183292508125
-0.28642135858535767 0.006595741491764784 -0.11903179436922073
-0.5347462892532349 -0.07479521632194519 -0.3932551145553589
-0.3830711543560028 0.41134265065193176 0.21982282400131226
0.03375290706753731 -0.6151763796806335 0.10675457119941711
-0.21228249371051788 -0.14125779271125793 -0.17034602165222168
0.5857864022254944 0.12461721152067184 -0.19726407527923584
-0.19983014464378357 0.18356871604919434 -0.40407490730285645
0.09244390577077866 0.016268325969576836 0.17944461107254028
-0.5199057459831238 0.3525156080722809 -0.11672058701515198
-0.21298322081565857 -0.10290485620498657 0.0812801793217659
0.2307029813528061 -0.5100032091140747 0.23195047676563263
0.5625053644180298 0.2573123276233673 -0.3870641589164734
0.06703680008649826 -0.004264559131115675 0.2720147371292114
-0.42961233854293823 0.40865397453308105 -0.13864564895629883
0.25588342547416687 0.3373401463031769 0.45042887330055237
0.0011456669308245182 -0.6224521994590759 -0.16158242523670197
0.12353958189487457 -0.09269485622644424 0.3363277018070221
0.16589787602424622 0.41033145785331726 0.09975846856832504
-0.3765254318714142 -0.030303485691547394 0.005931664723902941
0.49017098546028137 0.17511437833309174 0.3562670052051544
-0.5029040575027466 0.3403300642967224 -0.1464814692735672
0.2694615423679352 -0.6093272566795349 0.034203022718429565
-0.08212969452142715 -0.009917049668729305 0.13564451038837433
0.14795711636543274 0.006771730724722147 0.03403804451227188
0.05978492274880409 -0.4913906157016754 0.24940524995326996
0.055814653635025024 -0.3585715591907501 0.3078506290912628
-0.5629971623420715 0.0875551700592041 0.049108944833278656
-0.07533422857522964 -0.36649295687675476 0.20087367296218872
-0.37405338883399963 0.3605528771877289 -0.3958348035812378
-0.0019214317435398698 -0.3809795081615448 0.2845953702926636
0.18538019061088562 0.21808913350105286 0.46905818581581116
-0.5496571063995361 0.00818305928260088 -0.1336989849805832
-0.12350644171237946 0.005320659838616848 -0.2572396695613861
0.18238681554794312 0.3874105215072632 0.3430366814136505
0.007089704740792513 -0.6107894778251648 -0.23167015612125397
0.25788983702659607 0.012374483980238438 -0.33782997727394104
-0.19406872987747192 0.4126014709472656 0.04814443737268448
-0.42295223474502563 -0.08849838376045227 -0.27068933844566345
0.1626177281141281 -0.6345447897911072 -0.06757594645023346
-0.3001314401626587 -0.0045280493795871735 0.11411412060260773
-0.4307994842529297 -0.10507160425186157 0.058339331299066544
0.07323607057332993 -0.03135702386498451 0.32340309023857117
0.40257400274276733 -0.01148462574928999 -0.19922037422657013
-0.4696747362613678 -0.09926347434520721 -0.13990548253059387
-0.21582916378974915 -0.10613764077425003 0.10319257527589798
0.31264951825141907 0.46161383390426636 0.42399120330810547
-0.5568139553070068 0.38197529315948486 0.016638854518532753
0.1596015989780426 0.1746724545955658 0.3350539803504944
-0.40510401129722595 0.40138325095176697 0.04525182023644447
0.5797285437583923 0.3871500492095947 0.14639201760292053
-0.5651950836181641 0.062208957970142365 -0.06277761608362198
0.14303499460220337 -0.016628162935376167 0.3168012201786041
-0.5022336840629578 0.03469699248671532 0.36322808265686035
-0.16942165791988373 0.000783749739639461 0.10369258373975754
-0.49925845861434937 0.38198322057724 -0.13768097758293152
-0.12245754152536392 0.009845114313066006 -0.015179537236690521
0.33045369386672974 0.012013227678835392 0.04781756550073624
0.030247094109654427 0.3778305649757385 -0.40818262100219727
0.1926705539226532 0.312186598777771 -0.4040895700454712
-0.48079773783683777 -0.09644652158021927 -0.37592795491218567
-0.5311872363090515 0.09277422726154327 -0.3667404055595398
-0.39514753222465515 0.0924152061343193 0.34286996722221375
0.29294678568840027 0.4090360999107361 0.14859358966350555
0.13105016946792603 -0.6273652911186218 -0.21369843184947968
-0.20134510099887848 0.2979348301887512 -0.3900960683822632
-0.12604758143424988 0.005924560129642487 -0.33461782336235046
-0.2556097209453583 0.003542087972164154 -0.35972365736961365
0.21335671842098236 0.0075340294279158115 0.14457474648952484
0.19442293047904968 0.3272307813167572 -0.4002300202846527
0.5926048755645752 0.1334591954946518 -0.21510612964630127
-0.07197478413581848 -0.0056394655257463455 0.3408403992652893
-0.5604373812675476 0.3623027801513672 0.025113878771662712
0.26756611466407776 -0.0022078987676650286 -0.04940936341881752
-0.5638990998268127 0.2546815872192383 -0.31642305850982666
-0.16533786058425903 -0.007424815557897091 -0.07201529294252396
0.10905618965625763 -0.6320676207542419 0.02118832617998123
0.22880567610263824 0.11472809314727783 0.3384474217891693
0.019185945391654968 0.3901730179786682 -0.16697977483272552
-0.40791091322898865 0.3646682798862457 -0.21180041134357452
-0.3854887783527374 0.0867433026432991 -0.3159986138343811
0.19687995314598083 0.0020324946381151676 -0.12467262148857117
0.3780113756656647 0.0013238710816949606 -0.3744334578514099
0.23836489021778107 0.005862727761268616 0.301139235496521
0.194830521941185 -0.05814693868160248 0.33291977643966675
-0.5134547352790833 0.39025041460990906 0.23283512890338898
-0.2283264547586441 -0.21823543310165405 0.08414877951145172
0.030653318390250206 0.18628361821174622 0.4076278507709503
0.3088400661945343 -0.03796539083123207 0.4440957009792328
-0.4505813419818878 0.3615073561668396 0.034422941505908966
-0.1599607616662979 -0.3875274658203125 -0.13674509525299072
-0.29630357027053833 0.3629700541496277 -0.048413749784231186
0.1332373470067978 0.38612067699432373 -0.32419490814208984
0.23802965879440308 -0.07943741232156754 -0.34650737047195435
-0.2606090009212494 0.3852126896381378 0.055757660418748856
-0.3542868494987488 0.01815139316022396 -0.2024683803319931
0.123088039457798 0.016385039314627647 0.1933407187461853
-0.4660823941230774 0.013802403584122658 -0.17958791553974152
-0.44340237975120544 0.06168627738952637 0.3416275978088379
-0.5389744639396667 -0.07201613485813141 -0.25152215361595154
0.3195265233516693 0.32600918412208557 0.34279659390449524
0.051589783281087875 0.3977883458137512 -0.3621169924736023
0.12063922733068466 0.0030320934019982815 -0.31086766719818115
-0.4401325583457947 0.12178381532430649 0.34624388813972473
-0.5376743674278259 -0.06841789931058884 -0.29567086696624756
-0.577065646648407 0.1584746241569519 0.33282777667045593
-0.39077258110046387 0.4285823702812195 -0.11835024505853653
-0.18564806878566742 -0.4209478497505188 -0.0729951485991478
-0.07865345478057861 0.006329319439828396 -0.016552161425352097
0.17557257413864136 0.4717291295528412 0.44898930191993713
-0.5522422790527344 0.07162627577781677 -0.020041419193148613
-0.43093279004096985 0.378036230802536 0.03670887276530266
0.5825334787368774 0.1730862408876419 -0.29296478629112244
0.5425782799720764 0.40930548310279846 -0.3534650504589081
-0.1459798514842987 -0.4519278407096863 -0.17910252511501312
-0.07021106779575348 -0.6093056797981262 0.0968007743358612
0.587334156036377 0.010638948529958725 0.2132495492696762
-0.5799053311347961 0.1470632404088974 0.33882978558540344
0.18124188482761383 -0.6100682020187378 0.23194968700408936
0.11406148225069046 0.11314760893583298 0.4543198347091675
-0.3477177023887634 0.40153324604034424 -0.15029749274253845
-0.23138806223869324 -0.046230047941207886 -0.0319119431078434
0.3265296220779419 0.19442063570022583 0.4160608947277069
0.5693230628967285 0.15267761051654816 -0.01858004555106163
-0.47561177611351013 0.4038523733615875 0.046695176512002945
0.12190252542495728 0.004197779577225447 0.10746024549007416
-0.5725957155227661 0.07966498285531998 0.3252391517162323
0.3506344258785248 0.05680403858423233 0.35491737723350525
-0.36925631761550903 -0.0017243818147107959 -0.2474638670682907
0.09568024426698685 0.3969934582710266 0.11102980375289917
-0.2115236222743988 0.2980824410915375 0.34751129150390625
-0.44029363989830017 -0.11480563133955002 -0.3346708416938782
-0.14529231190681458 0.007135788910090923 0.14936760067939758
0.22708643972873688 -0.6128805875778198 -0.026618273928761482
-0.36132267117500305 0.3620419502258301 0.044970300048589706
-0.06368200480937958 -0.4392886757850647 0.20663857460021973
-0.011786164715886116 0.014770956709980965 -0.26851481199264526
-0.44549208879470825 0.38533326983451843 0.33128100633621216
0.09392614662647247 0.4140755534172058 -0.23084570467472076
-0.5686421394348145 0.14804449677467346 -0.08701319247484207
-0.5721445679664612 0.015967952087521553 -0.25033169984817505
0.27968570590019226 -0.6261866092681885 -0.09635517746210098
0.3116655647754669 0.23892532289028168 0.35725289583206177
-0.41247811913490295 -0.009655481204390526 0.21878887712955475
-0.25242334604263306 -0.024631734937429428 -0.05241977423429489
-0.5457679033279419 0.006859634071588516 0.24227605760097504
0.12763263285160065 0.39598149061203003 -0.24255484342575073
-0.1690414547920227 -0.010274025611579418 -0.2299872636795044
0.39024150371551514 -0.10737784951925278 0.17797274887561798
-0.5515861511230469 0.06408616155385971 0.19490981101989746
-0.4290318191051483 -0.10360058397054672 0.1350424438714981
-0.3732488751411438 0.010560805909335613 -0.2806479036808014
-0.4147200584411621 0.09675561636686325 -0.39584407210350037
0.531896710395813 0.4074513912200928 0.1179494857788086
0.2034817337989807 -0.6250250339508057 0.07243321090936661
0.28057825565338135 -0.2660220265388489 0.25183939933776855
0.27416399121284485 -0.011178318411111832 0.2804162800312042
0.4281232953071594 -0.17923833429813385 -0.1446446031332016
-0.38442185521125793 0.0015756575157865882 0.012325188145041466
0.20528815686702728 0.00039393521728925407 -0.3104546070098877
0.3238360583782196 0.0051938993856310844 -0.066636823117733
0.2614644765853882 0.3997704088687897 0.3006919026374817
0.46463078260421753 0.3965226113796234 0.0911504477262497
-0.34465062618255615 0.382993221282959 -0.13808751106262207
-0.37198612093925476 -0.015085802413523197 0.12617987394332886
0.17965362966060638 0.009873401373624802 -0.027850966900587082
0.36818739771842957 -0.15062719583511353 0.21498847007751465
-0.2443654090166092 -0.00011391277075745165 0.20043668150901794
-0.4481992721557617 0.015671076253056526 0.2343299388885498
-0.05237581580877304 -0.28619229793548584 0.29135119915008545
0.5792255997657776 0.2969629168510437 -0.2648833394050598
0.3776145577430725 -0.1329399198293686 0.17659462988376617
-0.5416404604911804 -0.07636044174432755 -0.10298363864421844
0.23704150319099426 -0.37291958928108215 0.23472343385219574
0.10351299494504929 -0.6365001797676086 -0.2709837555885315
0.39659252762794495 -0.37721845507621765 0.06674319505691528
0.19737079739570618 0.03266680985689163 -0.4130045473575592
0.13327674567699432 -0.4576374292373657 -0.3266713619232178
0.23726516962051392 0.2634107768535614 0.47045502066612244
0.5500832796096802 -0.004874757491052151 0.2209106981754303
0.15066954493522644 0.11302604526281357 0.4514912962913513
0.2598980963230133 0.42148157954216003 0.4386932849884033
0.4287849962711334 0.3885175585746765 0.21687856316566467
0.15047654509544373 -0.5708120465278625 0.2399298995733261
-0.24516750872135162 -0.007965621538460255 -0.2700638175010681
0.30371180176734924 -0.006720768287777901 0.2213536947965622
-0.35858452320098877 -0.03134630620479584 0.3504103422164917
0.3138912618160248 -0.3964743912220001 0.15947303175926208
0.45747190713882446 0.4122883081436157 -0.08167990297079086
0.3515952527523041 -0.4858212471008301 0.1225372776389122
-0.5708856582641602 0.12850363552570343 -0.26082107424736023
0.5889585614204407 0.3879026770591736 -0.13649040460586548
0.3027137219905853 0.01273269485682249 0.17239408195018768
0.5777987837791443 0.3072686791419983 0.0857403427362442
-0.3798469603061676 0.4007485806941986 -0.1883298009634018
0.10190645605325699 -0.6278893351554871 -0.0017693800618872046
-0.06931457668542862 -0.41688859462738037 -0.2565992474555969
0.5348197221755981 -0.0026076033245772123 -0.2372722029685974
-0.06397488713264465 0.4014414846897125 -0.37728723883628845
0.5641575455665588 0.3928222358226776 0.33864161372184753
0.36046355962753296 -0.6499510407447815 -0.10612527281045914
-0.26485973596572876 0.3914220631122589 -0.08077450841665268
0.36422908306121826 -0.003811463713645935 0.039374999701976776
-0.31425240635871887 0.38421276211738586 0.30444207787513733
0.2842904329299927 0.02828286774456501 0.3320505917072296
-0.18232432007789612 -0.010625297203660011 -0.13075073063373566
-0.17380067706108093 -0.39514389634132385 -0.04405792057514191
-0.5526529550552368 0.01238822378218174 -0.0521727092564106
-0.5099790692329407 0.11114464700222015 0.01669425517320633
-0.18721789121627808 -0.20302553474903107 0.14148195087909698
0.2930111587047577 -0.07387848198413849 -0.3172990083694458
0.059081800282001495 0.17976714670658112 0.45397108793258667
-0.15640486776828766 -0.31143918633461 0.1880078911781311
0.2829877436161041 -0.07752963900566101 0.2792261838912964
-0.23252014815807343 0.2054402381181717 0.3535795509815216
0.018070369958877563 -0.010488158091902733 -0.181468665599823
-0.16048792004585266 0.004489639773964882 -0.2440580129623413
-0.24579666554927826 0.004029346629977226 -0.10984664410352707
0.48482823371887207 0.4129966199398041 -0.10234206169843674
0.3034617304801941 -0.3607479929924011 -0.31526532769203186
0.10569968074560165 0.38819634914398193 0.27197402715682983
-0.08513596653938293 -0.6304259300231934 -0.10499009490013123
-0.1023741215467453 -0.5043833255767822 -0.22372807562351227
-0.10045745968818665 0.39868244528770447 -0.38591042160987854
-0.11332926899194717 0.39884045720100403 -0.19863635301589966
0.5931522250175476 0.3025742471218109 -0.3127501308917999
-0.20257411897182465 -0.03173559159040451 -0.1720721572637558
-0.23636303842067719 0.21490837633609772 -0.4146616756916046
-0.16351644694805145 -0.18414849042892456 -0.2236795276403427
0.25241097807884216 -0.5047155022621155 0.21713951230049133
-0.36923015117645264 -0.062325846403837204 0.018866047263145447
0.46963247656822205 0.10709621757268906 0.3362641930580139
-0.13215216994285583 -0.38905808329582214 -0.2717719078063965
0.016874955967068672 0.2927599251270294 0.3931402266025543
0.3534626364707947 -0.6554437875747681 -0.1616600602865219
0.44467464089393616 -0.025753330439329147 -0.12462181597948074
-0.01708369515836239 0.303976446390152 0.33472365140914917
0.3121136724948883 0.4765942096710205 0.4290425479412079
0.13142991065979004 -0.6244653463363647 0.18591856956481934
0.09323091804981232 0.4129635989665985 0.2021247297525406
0.20799915492534637 -0.6186788082122803 -0.09764289110898972
-0.043539173901081085 -0.2479528933763504 -0.33441323041915894
0.39789706468582153 -0.010423331521451473 -0.19456355273723602
0.4396226704120636 0.3967263400554657 0.17986845970153809
0.21320821344852448 0.0037058175075799227 -0.28853872418403625
-0.09064146131277084 -0.4782710373401642 -0.2326248735189438
0.09519743919372559 0.1538124531507492 -0.3863394558429718
0.36350327730178833 -0.14473222196102142 0.19151809811592102
-0.3722253143787384 0.09994400292634964 0.3529411256313324
0.2154347449541092 0.443904310464859 0.34953781962394714
0.0431138351559639 0.060002345591783524 0.33852946758270264
-0.3782055079936981 0.04708275571465492 0.11333059519529343
0.5890220403671265 0.21317477524280548 0.2391906976699829
-0.0518060065805912 -0.3202719986438751 0.28319117426872253
-0.3478243350982666 -0.0017117643728852272 -0.2674647569656372
-0.5669845342636108 0.17497248947620392 0.012995932251214981
-0.5726754665374756 0.08535375446081161 0.24885456264019012
-0.48473235964775085 0.008604967966675758 -0.19586075842380524
-0.39978310465812683 0.07828101515769958 0.1491592526435852
0.317331999540329 0.08604558557271957 0.4117088317871094
-0.3760772943496704 0.008136407472193241 -0.33348169922828674
0.2702379822731018 -0.41276219487190247 -0.2673935294151306
-0.058096349239349365 0.0029758629389107227 0.16325892508029938
-0.5843284726142883 0.2426237165927887 -0.2648448348045349
0.23478315770626068 -0.04763317480683327 0.29001855850219727
-0.18347050249576569 -0.5344486236572266 -0.049739159643650055
-0.5438457131385803 0.21690864861011505 0.33360734581947327
0.12103734165430069 0.3475673198699951 -0.40671542286872864
0.3309716284275055 0.4073535203933716 0.02856115810573101
-0.5743606090545654 0.16562439501285553 -0.3256843686103821
0.015067190863192081 -0.23371092975139618 0.2960202991962433
-0.18304020166397095 0.20693343877792358 0.35671544075012207
0.3425022065639496 0.25963765382766724 0.33764970302581787
0.09868556261062622 0.3255736529827118 0.3415411710739136
0.27253904938697815 -0.6254492402076721 -0.08999138325452805
0.22872012853622437 0.38881710171699524 0.36335399746894836
0.3642036020755768 -0.23940281569957733 0.18660913407802582
0.06915198266506195 0.4060880243778229 0.24215830862522125
-0.4636460244655609 0.3966212570667267 0.23474803566932678
0.38196107745170593 -0.3348187208175659 -0.21482452750205994
0.3861503005027771 0.007504235487431288 -0.2784436345100403
0.5827001929283142 0.3291214108467102 0.2640194296836853
0.04219985753297806 0.3999405801296234 0.24383550882339478
-0.1296621412038803 0.3908710777759552 0.03790486603975296
0.05257666856050491 0.3672736585140228 0.4470250904560089
0.21682216227054596 -0.2869794964790344 -0.3387867212295532
0.5558074116706848 0.23000052571296692 -0.40439996123313904
-0.5202887654304504 0.020154457539319992 -0.3960238993167877
-0.09564261138439178 0.41413062810897827 0.1584347039461136
-0.5094271302223206 0.0308749508112669 0.35337403416633606
0.24486671388149261 -0.6501724123954773 0.1937226802110672
0.1365194022655487 -0.6084365248680115 -0.16945472359657288
0.5782521367073059 0.3351629972457886 -0.05860342085361481
-0.12158968299627304 0.019197797402739525 0.33038410544395447
0.4237462878227234 -0.12743249535560608 -0.19015565514564514
0.14480078220367432 -0.4921061396598816 0.24461768567562103
0.1150890439748764 -0.4692799746990204 0.2625213861465454
0.154557004570961 -0.23114894330501556 -0.3610648512840271
-0.5689631104469299 0.3882870078086853 -0.2849690616130829
-0.5826403498649597 0.10319267213344574 -0.30643683671951294
0.2100343555212021 -0.1546049863100052 0.29283422231674194
0.11853817105293274 0.0007791607640683651 -0.2864024341106415
0.29849109053611755 -0.6118409633636475 0.08241686224937439
0.5910915732383728 0.045193932950496674 0.22636102139949799
0.566703200340271 0.14649222791194916 0.16366566717624664
-0.029625650495290756 0.3894449472427368 -0.2846716344356537
0.28831931948661804 0.028160667046904564 0.4726387560367584
-0.5641478896141052 0.3694709241390228 -0.1309870183467865
-0.24247658252716064 0.0005063162534497678 0.08894751220941544
0.5632879137992859 0.35543519258499146 -0.4066389799118042
0.022140953689813614 -0.013499574735760689 0.36778461933135986
0.054675474762916565 0.39635124802589417 -0.18393899500370026
-0.42150986194610596 -0.09876137226819992 0.33957400918006897
0.30662477016448975 0.008777866140007973 -0.0010737886186689138
-0.5330024361610413 -0.09960705041885376 0.04728773981332779
-0.4607105851173401 0.09231485426425934 -0.3889903128147125
-0.15522287786006927 0.19404228031635284 0.3392704725265503
-0.26515400409698486 0.35570377111434937 -0.4123825430870056
0.21137051284313202 -0.3817988932132721 0.26988136768341064
0.34950730204582214 -0.1811453402042389 -0.29051509499549866
0.304267019033432 0.38914555311203003 -0.13526292145252228
0.4071539044380188 -0.12473373115062714 0.10622023791074753
-0.07955434918403625 0.011647205799818039 0.013898780569434166
-0.215744286775589 -0.11782991886138916 0.07589627802371979
0.3406839966773987 -0.004068989306688309 -0.1929870992898941
-0.5671448111534119 0.36640653014183044 -0.10695723444223404
0.4425985813140869 -0.33960604667663574 -0.04259008541703224
-0.048433657735586166 -0.619864821434021 0.207177996635437
-0.47321268916130066 0.12464955449104309 0.06425932049751282
-0.17302843928337097 -0.34548771381378174 0.16463561356067657
-0.018304623663425446 0.0124820526689291 -0.13633574545383453
-0.5127482414245605 0.35393327474594116 -0.10647674649953842
-0.5830919146537781 0.20282888412475586 0.07277738302946091
-0.15742889046669006 -0.5069904327392578 -0.15324260294437408
-0.21029160916805267 0.0038474092725664377 -0.04996559023857117
-0.45106133818626404 -0.09931335598230362 0.312099814414978
-0.008895901963114738 -0.3651418387889862 0.29122209548950195
-0.5505219101905823 0.17102977633476257 -0.384517639875412
0.5689132809638977 0.34212544560432434 -0.12791751325130463
0.09425070881843567 0.40709349513053894 0.34263768792152405
-0.03331786394119263 -0.3966701924800873 -0.2722187638282776
-0.19884715974330902 -0.0025061690248548985 -0.15606041252613068
-0.5634083151817322 0.18838006258010864 -0.35565847158432007
0.18009141087532043 0.39051729440689087 0.27001863718032837
-0.5712214112281799 0.08070068061351776 -0.22706156969070435
0.17914049327373505 0.408023864030838 0.04264536872506142
0.16176985204219818 0.015203578397631645 0.07203131914138794
0.38218235969543457 -0.004302538000047207 0.005407525692135096
-0.3503151834011078 0.30457234382629395 0.3334449231624603
0.1368027925491333 -0.6423717141151428 -0.31177863478660583
0.2699267566204071 0.23310042917728424 0.45285144448280334
0.15528970956802368 -0.6498439311981201 -0.2824569642543793
0.5107897520065308 0.05479090288281441 0.3432721495628357
-0.2376718372106552 -0.22392790019512177 0.03428628295660019
0.0634637102484703 -0.12499913573265076 -0.3655570447444916
-0.4643740952014923 0.40287384390830994 -0.41115787625312805
0.2694108486175537 -0.11699608713388443 0.26626062393188477
0.29056212306022644 -0.5565172433853149 0.1829184740781784
0.3014987111091614 0.386951744556427 -0.2826191782951355
-0.5632979869842529 0.371783971786499 0.2215171754360199
-0.3159213960170746 0.003200923092663288 -0.16918568313121796
-0.5866296291351318 0.31547537446022034 0.12399545311927795
0.06555800139904022 0.015268033370375633 0.27156493067741394
0.5726334452629089 0.0002221453469246626 -0.1350312978029251
0.3929630219936371 -0.2271789163351059 0.18283899128437042
0.25892260670661926 0.014256695285439491 0.22657126188278198
-0.572959303855896 -0.005493208300322294 -0.3590647578239441
-0.4736594259738922 -0.09571497142314911 0.10046923160552979
-0.5663055181503296 0.020174363628029823 0.1102517694234848
-0.5182410478591919 -0.09769125282764435 -0.1894039511680603
-0.5297021865844727 -0.09553075581789017 -0.09666981548070908
0.3370872437953949 0.016379140317440033 0.35119864344596863
-0.43096354603767395 0.4050273895263672 -0.38815486431121826
-0.18752087652683258 0.011149118654429913 -0.0858926922082901
0.17248903214931488 -0.46608322858810425 -0.3047863245010376
-0.442335307598114 0.12041013687849045 0.1392497569322586
0.22305883467197418 -8.069768227869645e-05 -0.16503997147083282
0.5806617140769958 0.21570667624473572 -0.32275334000587463
0.08962314575910568 -0.0071986098773777485 0.08025364577770233
-0.22153514623641968 -0.1330980360507965 -0.16738484799861908
0.5630387663841248 0.015895329415798187 0.12896521389484406
0.27526921033859253 -0.07065685838460922 0.448912650346756
-0.38336822390556335 -0.08672481030225754 0.2803635597229004
0.2251233160495758 -0.6214460730552673 0.1770903617143631
0.3547523319721222 -0.1045808345079422 -0.27121996879577637
0.5821804404258728 0.33227628469467163 0.2040984183549881
-0.2080954611301422 0.00938541628420353 0.3238101601600647
0.1133701279759407 -0.22083400189876556 0.30272188782691956
-0.15467911958694458 -0.3375977873802185 -0.27062273025512695
0.200301393866539 0.35575905442237854 -0.41076719760894775
0.30517905950546265 -0.0003488179645501077 -0.30549317598342896
0.57831209897995 0.1581389307975769 -0.3386356234550476
0.36645814776420593 -0.2457636147737503 -0.25636354088783264
-0.5649703741073608 0.15874126553535461 0.00581324752420187
-0.20112770795822144 -0.007873281836509705 -0.054619286209344864
-0.5635364055633545 0.04550966992974281 -0.25594788789749146
0.46508145332336426 0.00903045479208231 -0.38775670528411865
0.3339507579803467 0.22406823933124542 0.42510905861854553
-0.435810923576355 0.08781813085079193 -0.24922595918178558
-0.24398577213287354 -0.11761640012264252 -0.11009731143712997
0.49092888832092285 -0.0002468143356963992 0.2561876177787781
-0.4355595111846924 0.3959367573261261 0.15219458937644958
0.2660054564476013 0.401030033826828 0.442804217338562
-0.13709834218025208 -0.004206244368106127 -0.10140332579612732
-0.16280660033226013 -0.38874319195747375 0.0922161266207695
0.5810198783874512 0.38045942783355713 -0.3751469552516937
0.20422688126564026 -0.38042503595352173 0.2982919216156006
0.030590422451496124 0.07384033501148224 0.36713898181915283
0.28578051924705505 -0.637722373008728 0.01322212815284729
-0.13593770563602448 -0.6534136533737183 0.13763520121574402
-0.39019161462783813 0.05414855480194092 0.18517425656318665
0.5446776747703552 0.39747536182403564 -0.38231492042541504
0.3786529004573822 -0.011350308544933796 0.06103537976741791
0.1658201962709427 -0.6202808022499084 0.003447331488132477
-0.2041316032409668 0.010064356029033661 -0.19032402336597443
-0.12292300164699554 -0.3029824197292328 -0.2994016706943512
0.2318851500749588 -0.00026231331867165864 -0.33402538299560547
0.23642829060554504 -0.5959081649780273 -0.28633221983909607
0.10476391017436981 0.003746600355952978 0.4488343596458435
0.03990042582154274 -0.6189066767692566 -0.20503494143486023
0.3623090088367462 -0.06793482601642609 0.20590555667877197
0.4534458518028259 -0.0885811448097229 -0.027444077655673027
-0.13226985931396484 -0.3188595473766327 0.2240162491798401
0.3586103916168213 -0.19607944786548615 0.22006216645240784
-0.4009699523448944 0.07722936570644379 -0.26084262132644653
0.4189913868904114 -0.264633446931839 -0.1581701785326004
0.22553735971450806 0.1887282133102417 0.47441384196281433
0.1452990621328354 -0.01919238269329071 0.4507799446582794
0.42898640036582947 0.0767817497253418 -0.38832879066467285
0.4528881907463074 0.3904205560684204 -0.3483036458492279
0.1380094736814499 0.3383761942386627 0.45907703042030334
0.16042937338352203 -0.0032574492506682873 -0.2847851514816284
0.03317800164222717 0.16809560358524323 0.43750205636024475
0.27291613817214966 -0.21899493038654327 0.2842896580696106
-0.5218589901924133 0.30100831389427185 0.34934577345848083
0.037543825805187225 0.40117552876472473 -0.38770154118537903
0.17049559950828552 -0.6282560229301453 -0.252000629901886
-0.23666700720787048 -0.3644815981388092 -0.10204876959323883
-0.43001535534858704 -0.007764254231005907 -0.16412214934825897
-0.3528595566749573 -0.024178503081202507 0.23085331916809082
-0.021558647975325584 0.010035778395831585 0.14256565272808075
0.24382071197032928 0.18257175385951996 0.44961827993392944
-0.5126423239707947 0.3888474702835083 -0.37809979915618896
0.23785139620304108 -0.3684813678264618 0.285308837890625
0.3324911892414093 0.3962225914001465 0.41484642028808594
0.22469818592071533 0.009305907413363457 0.34789326786994934
-0.3843899965286255 0.07460957020521164 -0.1488012820482254
0.13442742824554443 -0.644680917263031 0.22744262218475342
-0.37281250953674316 -0.057633448392152786 -0.3469059467315674
0.2624194025993347 -0.27657344937324524 0.2858695983886719
0.24025042355060577 0.08319404721260071 0.33690178394317627
0.061855483800172806 -0.6227185130119324 -0.13482579588890076
0.05762893706560135 0.053787652403116226 -0.4064823091030121
-0.046046219766139984 -0.5076109170913696 -0.2874518036842346
0.04417150467634201 -0.13547760248184204 0.29970186948776245
0.32976996898651123 -0.6173562407493591 0.07463082671165466
-0.21982330083847046 -0.23220661282539368 0.07862407714128494
-0.34996646642684937 0.2947503924369812 0.3361065685749054
0.14792513847351074 -0.6247313022613525 0.05375470221042633
0.03526540845632553 0.39598217606544495 -0.2585079073905945
-0.5344473719596863 0.06812050938606262 0.325470894575119
0.5646372437477112 0.08532381802797318 -0.13725923001766205
0.315342515707016 -0.006734454073011875 -0.34796932339668274
-0.5860608220100403 0.35694974660873413 -0.10619409382343292
-0.5705127716064453 0.21270346641540527 -0.0871901586651802
0.12566207349300385 -0.1135508343577385 0.3076472282409668
-0.0295292679220438 0.28293609619140625 0.34606432914733887
-0.07646570354700089 -0.4605872631072998 0.20267564058303833
-0.3208546042442322 -0.0049737924709916115 0.029148191213607788
0.2837676405906677 0.013120384886860847 0.034688014537096024
-0.07037252932786942 -0.011717830784618855 -0.22987598180770874
-0.1964932084083557 -0.37735822796821594 -0.16764642298221588
0.5680351257324219 0.06970472633838654 0.009866918437182903
0.24152331054210663 -0.059840429574251175 0.33555957674980164
-0.18096524477005005 -0.07043612003326416 -0.24393649399280548
0.2688332498073578 -0.4476085901260376 0.22154481709003448
-0.15531566739082336 -0.37417417764663696 0.10334736108779907
0.5684206485748291 0.09487283229827881 -0.36099109053611755
-0.4039030373096466 -0.06465218216180801 0.10407671332359314
0.08759219199419022 0.391061395406723 0.08005142956972122
-0.3641051948070526 0.04299091175198555 0.10706022381782532
-0.5598011612892151 -0.02159840613603592 0.21296611428260803
-0.5225284695625305 0.014167745597660542 -0.04698668047785759
0.5877068042755127 0.2016538828611374 -0.3543163239955902
0.2959880232810974 -0.3952559232711792 -0.23873990774154663
-0.578941822052002 0.366130530834198 0.12501658499240875
-0.11621347069740295 -0.6267918348312378 0.07583079487085342
0.21905851364135742 -0.5853351354598999 0.218421071767807
0.3458525538444519 -0.5620874762535095 -0.20323890447616577
0.3008429706096649 -0.24263373017311096 0.255553275346756
-0.08403594046831131 -0.6351442933082581 0.1883048564195633
-0.18153013288974762 0.16342003643512726 0.35163816809654236
0.5682091116905212 0.3642345368862152 -0.11594793945550919
0.4173206388950348 0.41139864921569824 -0.35249000787734985
0.4286852777004242 -0.273358017206192 -0.09373912960290909
-0.5255439281463623 -0.0903630182147026 -0.06262154877185822
-0.524189293384552 0.3861600458621979 0.18089668452739716
0.09644732624292374 0.4048604965209961 -0.3258587121963501
0.568605363368988 0.3522200584411621 -0.36987391114234924
0.34857305884361267 -0.6328248977661133 0.1384146511554718
-0.4358963072299957 0.3909192979335785 0.0630883201956749
0.17374172806739807 -0.6318702101707458 -0.20511773228645325
0.23396098613739014 0.2973552942276001 0.34096959233283997
0.2644740343093872 -0.012511693872511387 0.270187646150589
0.4376736879348755 0.4061305522918701 -0.20388193428516388
0.09655982255935669 0.0020111266057938337 -0.2556869089603424
0.11779370158910751 0.3888682723045349 0.1043386310338974
0.13842104375362396 0.4146425724029541 0.008732780814170837
0.5614602565765381 0.04237307235598564 -0.4078748822212219
-0.3158717751502991 0.3930776119232178 -0.030852217227220535
-0.13149788975715637 -0.6125159859657288 -0.06558432430028915
0.19582131505012512 -0.0694788470864296 -0.3418491780757904
-0.32718324661254883 0.3892342746257782 -0.3859748840332031
0.4150666892528534 -0.12001164257526398 -0.19441375136375427
-0.23488262295722961 -0.3603237271308899 0.04021213576197624
-0.17011038959026337 0.015920309349894524 -0.3037443161010742
0.2508767545223236 -0.33273279666900635 0.28758859634399414
-0.35904887318611145 0.11463922262191772 -0.4118446111679077
0.4973972737789154 0.4017220139503479 -0.0646701529622078
0.23664894700050354 -0.006691635120660067 0.1944763958454132
0.11370856314897537 -0.6272381544113159 -0.32298827171325684
0.20458903908729553 -0.007450760807842016 -0.27095890045166016
-0.19552752375602722 -0.0023964710999280214 -0.009887047111988068
0.5752395987510681 0.3738669753074646 -0.0811891183257103
-0.22971436381340027 -0.24343931674957275 -0.13215556740760803
0.3163178265094757 0.006066605448722839 0.13271737098693848
-0.5489510893821716 0.3833664059638977 -0.15719278156757355
-0.37752848863601685 0.08918426930904388 0.003390858881175518
-0.5675302743911743 -0.0108890226110816 -0.012732219882309437
0.5865456461906433 0.2966662347316742 -0.3334449827671051
-0.3748050928115845 -0.02191670797765255 0.3365976810455322
0.3689640462398529 0.2920224964618683 0.3431791663169861
0.4778507649898529 -0.0017146895406767726 -0.09971769899129868
0.2014671117067337 -0.010698255151510239 -0.3481226861476898
-0.24408523738384247 -0.2755274772644043 -0.10334305465221405
-0.5676460862159729 0.015087141655385494 -0.3376655876636505
0.23087260127067566 -0.6231294870376587 -0.23020274937152863
0.011017952114343643 -0.6161900162696838 0.09502652287483215
-0.10705115646123886 0.0015783803537487984 -0.3002573847770691
0.5854904651641846 0.015310369431972504 -0.2638627290725708
-0.002089622663334012 -0.3677167296409607 0.2919698655605316
0.4842927157878876 0.13813869655132294 -0.3842352032661438
-0.5202641487121582 0.009937981143593788 -0.07485263049602509
-0.23359502851963043 0.06816843897104263 0.33812499046325684
0.4322890639305115 -0.10351429134607315 -0.05523458868265152
-0.0627419650554657 0.13257883489131927 -0.39930886030197144
0.01695277728140354 0.1340329647064209 -0.40704500675201416
-0.38139232993125916 0.03711515665054321 0.32965415716171265
-0.49207374453544617 0.32884007692337036 -0.39728492498397827
0.28940191864967346 0.4651668071746826 0.41367092728614807
-0.49331673979759216 0.41286513209342957 0.029973618686199188
0.1637277901172638 -0.6388453245162964 -0.2740025520324707
0.03792690113186836 0.0047541093081235886 0.32077381014823914
0.30907875299453735 -0.648829460144043 -0.17982684075832367
0.4642461836338043 -0.003195597091689706 -0.028594300150871277
0.41239258646965027 -0.15016593039035797 0.10154363512992859
-0.45901548862457275 -0.10140573978424072 0.028257889673113823
-0.36670395731925964 0.38515615463256836 -0.21826191246509552
0.2236747443675995 0.034168995916843414 -0.39614707231521606
-0.2567611336708069 0.3865889608860016 -0.03075386956334114
0.41660913825035095 0.05403199419379234 -0.3869439363479614
0.006418150383979082 -0.6291875839233398 -0.04036392644047737
-0.23471030592918396 -0.2870393395423889 0.08723927289247513
0.07950503379106522 0.000893142307177186 -0.3640501797199249
0.06769464910030365 -0.004415517207235098 -0.3577132225036621
-0.3570568561553955 0.007687585428357124 0.08464192599058151
0.30483654141426086 -0.1309075504541397 0.2706802189350128
0.4008835554122925 -0.36177346110343933 0.14564070105552673
-0.45562994480133057 0.08358678966760635 0.332309752702713
-0.14506396651268005 -0.43191203474998474 -0.15796804428100586
0.3197203278541565 0.4134766459465027 0.2404007762670517
0.026374785229563713 0.414663165807724 -0.36981454491615295
0.48236173391342163 0.20323708653450012 0.34881335496902466
-0.3700862526893616 0.05154792219400406 -0.34010815620422363
0.22125913202762604 0.012516741640865803 0.15231144428253174
-0.2359030544757843 -0.00557124987244606 -0.31432846188545227
-0.18566417694091797 0.005755492951720953 -0.4059929847717285
0.17602571845054626 -0.6237757205963135 0.09110987186431885
-0.10364167392253876 -0.4181712567806244 -0.211395725607872
-0.21755704283714294 0.0019016675651073456 -0.03442269191145897
-0.11557263135910034 0.012239987961947918 -0.18718701601028442
-0.4820309579372406 0.11746977269649506 0.34889155626296997
0.009851113893091679 -0.5204147696495056 0.24747636914253235
-0.009861713275313377 0.39328062534332275 -0.29492637515068054
0.20435410737991333 0.015911906957626343 0.22305449843406677
-0.1487242728471756 -0.6303585171699524 -0.03688739985227585
0.004059981554746628 0.16474997997283936 0.3913002908229828
-0.4239019751548767 0.35022297501564026 0.050956252962350845
-0.21532031893730164 0.40255266427993774 0.05958542972803116
0.09759696573019028 -0.004795377608388662 -0.03485040366649628
0.38057810068130493 -0.4913600981235504 0.05847126618027687
-0.07916934788227081 -0.007365573663264513 -0.0922207459807396
-0.37529805302619934 -0.010912032797932625 -0.03762684017419815
-0.4521799087524414 0.36739322543144226 -0.0020603681914508343
0.20761515200138092 -0.6191815733909607 0.0015904575120657682
-0.5280126333236694 0.4092247784137726 0.10006008297204971
-0.5202023386955261 0.3889998197555542 -0.11473242938518524
-0.22910207509994507 0.09474711865186691 -0.4099394381046295
0.37225937843322754 0.40549933910369873 -0.1036592572927475
-0.5122972130775452 0.40100350975990295 -0.21126487851142883
0.29666009545326233 0.3960919976234436 -0.004808169323951006
-0.15054623782634735 -0.6563510894775391 -0.11842361837625504
0.07107769697904587 -0.381918728351593 -0.3746843934059143
-0.13850581645965576 -0.380484402179718 0.20376567542552948
0.27428138256073 0.4033065140247345 0.15283136069774628
0.07245825976133347 -0.6231546401977539 0.04720913618803024
0.5527032613754272 0.23660224676132202 0.34519001841545105
-0.3742811977863312 0.06568106263875961 0.19659624993801117
0.08625523746013641 -0.6313936710357666 -0.08425873517990112
-0.581204354763031 0.1333041787147522 -0.14936639368534088
0.5171172618865967 0.12994474172592163 0.3509163558483124
0.13052572309970856 0.3150123953819275 -0.38575810194015503
-0.41783565282821655 -0.07906653732061386 -0.24195490777492523
0.43198755383491516 -0.1974111646413803 -0.09141864627599716
-0.3516339361667633 -0.009007141925394535 -0.013724042102694511
0.30651673674583435 0.4056510329246521 -0.15405216813087463
-0.5553250908851624 -0.0689183920621872 -0.25694772601127625
0.17159342765808105 -0.6308799386024475 -0.03788435086607933
0.4307621121406555 0.27426499128341675 -0.4133562743663788
0.06526075303554535 0.2232934534549713 -0.38712194561958313
0.2388852834701538 -0.04851872846484184 0.46228650212287903
-0.47543108463287354 -0.09405339509248734 -0.10745471715927124
-0.04732457920908928 -0.4005967378616333 0.21757635474205017
0.16737717390060425 -0.22580969333648682 -0.3814046382904053
-0.18935200572013855 -0.14312349259853363 0.1268894523382187
0.5190074443817139 0.40184450149536133 0.08418306708335876
-0.5709270238876343 0.22584645450115204 -0.04933258518576622
-0.038838088512420654 -0.13549669086933136 -0.35641419887542725
0.2053968608379364 -0.09403432905673981 0.38020020723342896
0.05157087370753288 0.2685675024986267 -0.41100457310676575
0.5809154510498047 0.07443183660507202 -0.369270384311676
-0.32381221652030945 0.3397592306137085 0.01737416721880436
0.07268410176038742 0.016573896631598473 0.06470279395580292
-0.026903733611106873 0.008109076879918575 -0.3808869421482086
0.16208410263061523 0.464253693819046 0.36138245463371277
-0.20501206815242767 -0.009447512216866016 0.19577254354953766
0.4237441420555115 -0.3185158967971802 -0.16702862083911896
0.41632840037345886 0.4115390181541443 -0.1601317822933197
0.015993496403098106 0.1799333095550537 0.42373520135879517
0.28948453068733215 -0.45140382647514343 0.17955254018306732
0.26344525814056396 0.10436921566724777 -0.391428679227829
-0.5628530383110046 0.0002507807221263647 -0.40611574053764343
0.4971376657485962 0.20782731473445892 -0.3901466131210327
-0.4056110084056854 -0.011204691603779793 0.0004267563344910741
0.2810060381889343 0.3876589238643646 -0.0021675825119018555
0.3752325475215912 -0.3278883099555969 -0.2504737675189972
-0.23418642580509186 0.2732638120651245 -0.38828274607658386
-0.4614645540714264 -0.10742335766553879 -0.2925180196762085
-0.42960482835769653 0.03650478273630142 0.3468664884567261
-0.3451871871948242 0.003610975341871381 0.06508602946996689
0.28921666741371155 -0.04654278606176376 0.3385161757469177
-0.03049270436167717 -0.6304699778556824 -0.14293701946735382
0.021401645615696907 0.2342027872800827 0.3540719151496887
-0.40036872029304504 -0.07777418196201324 0.03287816047668457
-0.08543042838573456 -0.6112820506095886 -0.018971025943756104
-0.14141036570072174 0.014504114165902138 -0.33326035737991333
-0.41543102264404297 0.013738545589148998 -0.22562439739704132
0.5765716433525085 0.2733345925807953 0.09515546262264252
0.09020990133285522 -0.048904865980148315 0.32780763506889343
0.1403685063123703 0.15068164467811584 -0.39874088764190674
-0.23481714725494385 -0.006642332300543785 -0.2580595314502716
-0.03246498852968216 0.0012538388837128878 -0.3573012948036194
0.30791136622428894 0.01135302148759365 0.28779110312461853
0.15710820257663727 -0.6302703022956848 0.013849407434463501
-0.3312539756298065 -0.009599660523235798 0.1998557448387146
-0.35943299531936646 0.2198188155889511 -0.3885478377342224
-0.06543059647083282 -0.632588267326355 0.006291976198554039
0.43888595700263977 0.040349096059799194 0.34772446751594543
0.1521899402141571 0.03830987960100174 0.44800540804862976
0.2038642317056656 -0.012098409235477448 -0.14422179758548737
-0.24228541553020477 0.0040684971027076244 -0.09498010575771332
-0.4252632260322571 0.13603784143924713 -0.3951914310455322
-0.035286832600831985 -0.0028491104021668434 0.022421518340706825
0.17048519849777222 -0.6332140564918518 -0.1422421634197235
0.19829316437244415 0.0004146651190239936 -0.03872421383857727
-0.1869880110025406 -0.6320010423660278 -0.04229383543133736
-0.03922668844461441 -0.6188570261001587 -0.27536100149154663
0.5537012815475464 0.38092637062072754 0.34505847096443176
-0.12299775332212448 0.19861692190170288 0.35638120770454407
0.5796695947647095 0.029280193150043488 -0.2806767225265503
-0.10541971772909164 -0.6266483664512634 -0.08961896598339081
-0.3306615352630615 0.11401718854904175 -0.38723933696746826
-0.5433216094970703 0.08771791309118271 0.3439296782016754
-0.19914448261260986 -0.3631221055984497 0.0651426687836647
-0.5576426386833191 0.39047059416770935 -0.3354302644729614
-0.4646018147468567 0.07134655863046646 -0.4110146760940552
0.1381532996892929 -0.09648454189300537 0.39834412932395935
-0.4211159944534302 0.0032791385892778635 0.003977588377892971
-0.27326929569244385 0.01054717693477869 -0.15498024225234985
0.2870805859565735 -0.2998075485229492 -0.303669273853302
0.1327947974205017 0.01546834222972393 0.20224717259407043
-0.5019663572311401 -0.10523945093154907 0.2830176055431366
-0.15847831964492798 0.3872312307357788 -0.009595760144293308
-0.28581148386001587 0.3029859960079193 0.3462483286857605
-0.07497932016849518 -0.004741775803267956 -0.06653384119272232
-0.18367552757263184 -0.5717230439186096 0.0018099548760801554
-0.5494034886360168 -0.04363878071308136 -0.12885597348213196
-0.18799783289432526 -0.06781668961048126 0.14197593927383423
-0.11826431006193161 -0.34726426005363464 -0.27430757880210876
0.12015392631292343 0.25981834530830383 0.4511485695838928
0.4355820119380951 0.004690076224505901 -0.10394664108753204
-0.4583791494369507 0.32797208428382874 -0.17656585574150085
-0.3742154538631439 -0.0423227921128273 0.257560133934021
0.0877288207411766 0.35173413157463074 -0.38797318935394287
0.039897289127111435 0.23699358105659485 0.3881298005580902
-0.47660383582115173 0.40809881687164307 0.10794410109519958
0.008567605167627335 -0.6500407457351685 -0.2671971619129181
-0.15855015814304352 0.0028937787283211946 0.201565220952034
0.176942840218544 0.4712711572647095 0.4285498559474945
-0.018553176894783974 -0.001334848813712597 0.03935356065630913
0.17995554208755493 0.4100106656551361 -0.13952746987342834
-0.3917151689529419 0.3928481936454773 0.15707269310951233
0.17539075016975403 -0.6175493001937866 0.21796612441539764
-0.17415136098861694 0.40749210119247437 -0.02030954323709011
-0.5159972906112671 0.0908285453915596 -0.1735575795173645
-0.17903678119182587 -0.3786312937736511 0.02126024104654789
-0.3290382921695709 0.01859317533671856 -0.39635419845581055
0.10486726462841034 0.001836561830714345 0.3188517391681671
-0.2026677131652832 -0.07987548410892487 -0.19382819533348083
-0.44031643867492676 0.09250498563051224 -0.027873650193214417
-0.44850578904151917 0.11382488906383514 0.33795440196990967
0.17519648373126984 -0.009885270148515701 -0.011317379772663116
