0.40169501304626465 -0.38950127363204956 -0.09792596846818924
-0.5782386660575867 0.1370863914489746 0.17576512694358826
-0.12402668595314026 -0.08267495781183243 0.23323436081409454
0.5847722291946411 0.32281485199928284 0.2026720643043518
-0.14532622694969177 -0.0011173523962497711 -0.17417557537555695
0.36983340978622437 -0.506729245185852 -0.15409690141677856
0.5817806124687195 0.13944123685359955 -0.24332629144191742
0.31096792221069336 0.16821549832820892 -0.40151169896125793
0.18996617197990417 -0.004483732394874096 0.3149309456348419
0.09966431558132172 -0.645114541053772 0.2540813684463501
0.33874109387397766 -0.4886849522590637 -0.2045404314994812
0.10252910852432251 -0.593422532081604 0.2618336081504822
0.4463232457637787 0.004328501410782337 -0.260997474193573
-0.0915837213397026 0.0002747488906607032 0.25868093967437744
-0.395443856716156 -0.08059543371200562 -0.15139859914779663
-0.1037951186299324 0.23242969810962677 0.39756613969802856
0.295882910490036 -0.6394558548927307 0.1319308876991272
-0.4491775929927826 0.36695215106010437 -0.3995647430419922
0.5519302487373352 0.1177421435713768 0.340493381023407
-0.32175034284591675 0.3499389588832855 -0.15502682328224182
-0.18538086116313934 0.39800071716308594 -0.16069017350673676
0.06378231942653656 0.37359580397605896 -0.4029522240161896
-0.40579867362976074 0.025033337995409966 0.3489062786102295
0.1552177220582962 0.29957810044288635 0.3421245217323303
0.17580823600292206 -0.6463082432746887 0.21211326122283936
0.16971999406814575 -0.2097596377134323 -0.37017929553985596
-0.20698082447052002 -0.37527579069137573 -0.1325649917125702
-0.3391568958759308 -0.0010314087849110365 -0.3105120360851288
-0.18221476674079895 0.00026509445160627365 -0.24539032578468323
0.43089818954467773 -0.04584311693906784 -0.14175967872142792
-0.40009546279907227 0.3781905472278595 0.04926673695445061
0.06712988764047623 -0.622405469417572 0.08185763657093048
0.2692626118659973 -0.44980931282043457 0.2081669420003891
0.11310773342847824 -0.6217312812805176 0.16353288292884827
-0.011485151015222073 0.0036344872787594795 0.10982579737901688
0.34812474250793457 0.29698508977890015 0.34198707342147827
-0.5235143303871155 -0.0908062607049942 -0.1912706345319748
-0.07703607529401779 -0.0032784058712422848 -0.31377488374710083
-0.2604063153266907 -0.00035207346081733704 -0.05704808235168457
0.3762904405593872 -0.6602613925933838 -0.0004650953342206776
0.5853233337402344 0.05945790186524391 -0.26639118790626526
0.2352788895368576 0.3983706831932068 -0.37820354104042053
-0.003785965731367469 0.0013381419703364372 0.19194404780864716
-0.19492150843143463 -0.1841004639863968 0.14112073183059692
0.34820738434791565 -0.6370934844017029 -0.09398249536752701
0.16711680591106415 0.40128377079963684 -0.03272459656000137
0.5002399682998657 0.36278337240219116 0.34722399711608887
0.08217319846153259 0.0039909761399030685 0.1984233260154724
0.2638961672782898 0.07848592847585678 0.3430873155593872
-0.40709388256073 -0.0896603912115097 -0.20505696535110474
-0.4648173153400421 0.003474598750472069 0.2882615327835083
-0.08061563968658447 0.0009615616872906685 -0.058970801532268524
0.12222122400999069 0.4020869731903076 -0.20626385509967804
-0.5398970246315002 0.08553680032491684 -0.1867653727531433
-0.18828032910823822 -0.408751517534256 -0.01486895140260458
0.4860308766365051 0.07587257027626038 -0.40191924571990967
-0.11961187422275543 0.0008162558078765869 0.08494487404823303
-0.12707218527793884 0.2589361071586609 0.3451143205165863
-0.06080150231719017 -0.4793590009212494 0.21244056522846222
-0.577907383441925 0.019529711455106735 0.22252854704856873
0.012683942914009094 0.20678763091564178 0.3665247857570648
0.4485546350479126 0.002289804629981518 0.3139685094356537
-0.40110576152801514 0.3275131583213806 0.34340041875839233
0.4378780722618103 -0.34843870997428894 -0.12552779912948608
-0.5769264698028564 0.05333787947893143 0.20241115987300873
0.3710170090198517 0.4020807445049286 -0.15850608050823212
0.3629388213157654 0.0056803300976753235 -0.3891812860965729
-0.5817164182662964 0.28003165125846863 -0.13383854925632477
0.12021957337856293 -0.27773797512054443 0.31689727306365967
-0.22427228093147278 -0.18527312576770782 -0.14188577234745026
-0.05755563825368881 0.0029853368178009987 -0.20124422013759613
-0.5275188684463501 0.39132997393608093 -0.3772200047969818
0.30520403385162354 0.0050806766375899315 -0.11596433073282242
-0.032557468861341476 -0.6224108338356018 -0.19784554839134216
-0.41209515929222107 0.09389004856348038 -0.027909426018595695
0.5785088539123535 0.11122862994670868 -0.27357199788093567
-0.0429111123085022 0.0017895298078656197 -0.27170032262802124
0.340821236371994 -0.504740297794342 0.14253440499305725
0.08372330665588379 -0.37958139181137085 0.2973300814628601
0.18457436561584473 0.1419205665588379 -0.40009406208992004
0.013284102082252502 0.002112666144967079 -0.23923644423484802
-0.19426852464675903 -0.16859039664268494 0.1482117772102356
0.2625606954097748 -0.29293209314346313 0.27851253747940063
-0.3093961477279663 0.40035825967788696 -0.3422739505767822
0.47839969396591187 0.3560796082019806 0.34705132246017456
0.3915780484676361 -0.2846841812133789 -0.22522595524787903
0.17303505539894104 0.24515476822853088 -0.40067335963249207
0.038611263036727905 0.0024388707242906094 -0.22604456543922424
-0.06098851561546326 -0.38062748312950134 -0.2897492051124573
0.29830899834632874 -0.08088452368974686 0.4396193325519562
-0.2409152090549469 0.25101208686828613 -0.40023213624954224
0.3871256411075592 0.22236791253089905 -0.4029299318790436
0.312526136636734 0.0028738845139741898 0.07592261582612991
-0.5810922384262085 0.2477814257144928 0.27182844281196594
0.0012495151022449136 0.0026038242504000664 0.13331101834774017
0.4457777142524719 -0.37962329387664795 -0.029259074479341507
0.45118293166160583 -0.2545686364173889 -0.009570573456585407
0.21656681597232819 0.00280019361525774 -0.3771963119506836
0.572747528553009 0.40069064497947693 -0.0914086326956749
0.36623629927635193 -0.10328267514705658 0.19763506948947906
-0.37122243642807007 0.07695619761943817 -0.3490552604198456
0.24696826934814453 0.3988747298717499 0.21597987413406372
0.22980789840221405 0.002444029785692692 0.16333869099617004
-0.5768139958381653 0.041270237416028976 0.2781220078468323
-0.5083543062210083 0.40314802527427673 -0.31334003806114197
0.44374898076057434 -0.016559427604079247 0.009195107966661453
-0.3694683313369751 0.053780168294906616 -0.39725592732429504
-0.580509603023529 0.1860942393541336 -0.20094256103038788
0.03758704662322998 -0.051641207188367844 0.4032442569732666
-0.09111566841602325 0.024782860651612282 0.33960917592048645
0.2811693251132965 0.27917730808258057 0.4624003767967224
0.15274104475975037 0.0032537998631596565 -0.03710269182920456
-0.5666601657867432 -0.0352829247713089 0.011213482357561588
-0.18185214698314667 0.3989136815071106 -0.0040042949840426445
0.48353812098503113 0.3912505507469177 0.3367742896080017
-0.28058767318725586 0.38196706771850586 -0.08356146514415741
0.2700274586677551 0.2584800124168396 0.4621920585632324
-0.1919679343700409 0.39941030740737915 -0.030832000076770782
0.37609776854515076 0.043776314705610275 0.3451894521713257
0.29012542963027954 0.2925751805305481 -0.40516024827957153
-0.33677318692207336 0.08204400539398193 0.34013354778289795
-0.49183598160743713 0.3995620310306549 0.16316179931163788
-0.1362392157316208 0.002253454178571701 -0.17303994297981262
-0.3246920108795166 0.3071405589580536 -0.4025299847126007
-0.10710635781288147 0.0018933210521936417 -0.00858345814049244
0.21212224662303925 0.23016366362571716 0.4635296165943146
0.5329636931419373 0.0031780218705534935 0.2080574780702591
0.30686697363853455 -0.08898243308067322 0.3408384919166565
0.06043965741991997 -0.6226381063461304 0.09645813703536987
0.23673328757286072 0.0034245718270540237 0.1923087239265442
-0.36558520793914795 -0.0017819367349147797 0.054455116391181946
-0.4314172863960266 0.10770546644926071 -0.06394807994365692
-0.18581213057041168 -0.3310566246509552 -0.20884022116661072
-0.18179918825626373 0.0005838829092681408 0.07807424664497375
-0.49688106775283813 0.4019220471382141 -0.3123907446861267
-0.18564380705356598 0.0004704922903329134 0.062241021543741226
0.2366137057542801 -0.6210711002349854 0.1106857880949974
0.03665171191096306 -0.37677040696144104 -0.34835103154182434
0.5745108127593994 0.008741812780499458 -0.3566271662712097
0.5330883860588074 0.40271538496017456 -0.14012522995471954
0.04111680015921593 0.0035003232769668102 -0.3288019597530365
0.5405673384666443 0.10032372921705246 -0.40377718210220337
0.5849296450614929 0.06595417857170105 -0.1989658772945404
-0.1702047437429428 -0.6530458331108093 -0.003720722859725356
-0.41985777020454407 0.07148339599370956 0.3421548008918762
0.1409430205821991 -0.004820041358470917 0.3228682279586792
0.31893467903137207 0.21964307129383087 0.39649298787117004
0.5841624140739441 0.24145139753818512 -0.35374557971954346
-0.10228210687637329 -0.604552149772644 0.1802704632282257
0.3683421313762665 0.1961766481399536 0.34225353598594666
0.010335885919630527 -0.6239962577819824 -0.00011410959996283054
-0.009789460338652134 0.40141528844833374 0.1709475964307785
0.4723498821258545 4.8871152102947235e-06 0.10453661531209946
0.30508649349212646 -0.12321005016565323 0.24730008840560913
-0.1518285721540451 0.4004354476928711 -0.23116494715213776
0.34666937589645386 0.004102547653019428 -0.0677369236946106
-0.3149992525577545 0.07746334373950958 -0.4005240499973297
-0.4057031273841858 0.09327741712331772 -0.24605876207351685
0.23987190425395966 -0.21448884904384613 -0.3438405394554138
-0.010329175740480423 0.40061700344085693 0.2585611939430237
0.3003528118133545 -0.08525537699460983 0.378585547208786
0.2793671786785126 -0.6247634291648865 -0.034069620072841644
0.15714751183986664 0.2910737991333008 -0.4019397795200348
-0.5797436237335205 0.2944573760032654 -0.08961017429828644
0.587959885597229 0.3372347950935364 -0.18289460241794586
0.19162173569202423 -0.08781646192073822 0.35385680198669434
-0.2759588658809662 0.4014722406864166 -0.32222720980644226
0.212253138422966 -0.49794909358024597 -0.3007877469062805
-0.4726502001285553 0.2920534908771515 0.3455932140350342
-0.5488086938858032 -0.07505500316619873 -0.12405625730752945
0.12646383047103882 0.3330667316913605 -0.40274688601493835
-0.3002561926841736 0.36083540320396423 -0.1587320864200592
0.1666865348815918 -0.19805224239826202 0.309437096118927
-0.12950827181339264 -0.37862658500671387 0.21550598740577698
0.5891771912574768 0.24953241646289825 0.283978670835495
-0.5789098143577576 0.15409061312675476 0.09850574284791946
0.2678057849407196 -0.004824040923267603 0.4618303179740906
0.3337983191013336 0.28284600377082825 -0.40446147322654724
0.1205611452460289 0.4007515013217926 0.2633841633796692
0.4292432367801666 0.2760837972164154 -0.4051213264465332
-0.18162962794303894 0.002798890694975853 -0.18663065135478973
0.05116225779056549 0.0005325572565197945 0.285645991563797
-0.5457004308700562 0.3890060484409332 0.26304399967193604
-0.40765777230262756 0.06858041137456894 -0.39933982491493225
-0.37338462471961975 0.058833952993154526 0.10374878346920013
0.3172285258769989 -0.005705105606466532 0.2352285385131836
0.12491977214813232 -0.16423380374908447 -0.3742993474006653
0.34844261407852173 0.31219282746315 0.344434529542923
-0.570979654788971 0.05876259133219719 0.07318712025880814
0.02371392212808132 0.25024059414863586 0.3534572124481201
0.16226062178611755 0.23701465129852295 -0.4019363224506378
0.06962663680315018 0.0016446340596303344 0.08615338057279587
-0.11495161056518555 0.2233107089996338 0.34162551164627075
-0.5808678865432739 0.2158586084842682 0.16030016541481018
-0.17674170434474945 -0.6407657265663147 -0.01759190298616886
-0.5644003748893738 -0.05114729329943657 -0.0875818058848381
0.24617141485214233 0.003139043692499399 0.04159659519791603
0.07390051335096359 0.40307727456092834 -0.04341394826769829
0.2839623689651489 -0.5387542843818665 -0.2576868534088135
-0.4532983601093292 0.0016582394018769264 -0.3047618269920349
0.10968727618455887 0.46812525391578674 0.3959846794605255
-0.41801178455352783 -0.09170853346586227 -0.2653849720954895
0.3288283348083496 -0.1472209095954895 0.2323540896177292
-0.12834298610687256 0.037900276482105255 -0.39738667011260986
-0.4421132504940033 0.4050584137439728 0.004266197327524424
0.24461370706558228 0.465950608253479 0.3955216407775879
-0.2738203704357147 0.385111004114151 -0.04020184651017189
-0.523293673992157 0.0510474257171154 0.3448725938796997
-0.4527440667152405 -0.0016227932646870613 0.30462560057640076
0.5850121378898621 0.2058103084564209 0.15273599326610565
0.24015069007873535 -0.6226445436477661 0.006625544745475054
-0.5032289028167725 -0.055735327303409576 0.351053923368454
0.36936482787132263 -0.6546626091003418 -0.12872086465358734
-0.03708045929670334 0.002221657894551754 -0.2626362144947052
-0.43328866362571716 0.0031203972175717354 -0.17036019265651703
0.5828176736831665 0.3073471486568451 -0.045454349368810654
0.3209749460220337 0.0033063367009162903 -0.07803189009428024
0.2817598283290863 -0.22395603358745575 0.26699498295783997
-0.1624879390001297 0.180589497089386 0.3420172333717346
-0.30996766686439514 0.003530310234054923 0.05660386383533478
-0.48969295620918274 0.001436893129721284 -0.20806528627872467
-0.03203446418046951 -0.6476571559906006 -0.27558350563049316
0.38819506764411926 -0.04344475641846657 -0.22010394930839539
-0.22334612905979156 0.002803092822432518 0.3207552433013916
0.26134970784187317 0.40207332372665405 0.2889210879802704
-0.10158068686723709 0.40059328079223633 -0.3173895478248596
-0.04342244192957878 -0.6214825510978699 -0.019774168729782104
0.14198395609855652 -0.16489653289318085 0.31342071294784546
-0.3830633759498596 0.40789276361465454 -0.14203743636608124
0.5384586453437805 0.005391147918999195 -0.2797693610191345
0.0712628960609436 -0.4348440170288086 -0.3183909058570862
-0.4466465413570404 0.10941623151302338 0.2562929391860962
0.22337161004543304 -0.6234095096588135 -0.12763787806034088
-0.49100589752197266 -0.10396133363246918 -0.328188419342041
0.3529650568962097 -0.49404656887054443 0.12041385471820831
0.08383211493492126 -0.3869185447692871 0.28768521547317505
-0.1122509241104126 -0.6272204518318176 -0.04981973394751549
-0.34818291664123535 0.40292784571647644 -0.07773610204458237
0.24141602218151093 -0.43023747205734253 -0.28628531098365784
0.44743043184280396 -0.09095460176467896 0.005288161337375641
-0.37258848547935486 -0.04976481571793556 -0.16139455139636993
0.003949324134737253 0.27082136273384094 -0.40125173330307007
0.2746226489543915 -0.5086373090744019 -0.26450037956237793
-0.5672528743743896 0.0749102532863617 0.0180959515273571
0.008239932358264923 0.0025715669617056847 -0.19009919464588165
0.32140764594078064 -0.6260040998458862 -0.054484449326992035
0.03674038127064705 0.3655458390712738 0.4491006135940552
-0.023849476128816605 -0.6550320982933044 0.2150319367647171
0.5891958475112915 0.3297812044620514 0.18092872202396393
-0.48465871810913086 -0.017303163185715675 -0.3969575762748718
0.0500761941075325 0.40119922161102295 0.1664765477180481
-0.22392988204956055 0.40083712339401245 0.040451984852552414
-0.5238983035087585 -0.09080633521080017 0.04725673422217369
-0.1490504890680313 -0.6276541352272034 -0.03731442987918854
0.5840389728546143 0.26099011301994324 0.33301717042922974
0.4026636481285095 -0.27705374360084534 -0.20444701611995697
0.440496563911438 0.19992078840732574 -0.4040893018245697
-0.06811919808387756 -0.3768399953842163 -0.31391340494155884
-0.2730239927768707 0.3757680058479309 -0.09439530223608017
-0.5245042443275452 -0.08226530253887177 0.33157363533973694
0.052389975637197495 0.002273758640512824 0.021029315888881683
-0.49176716804504395 0.32622233033180237 0.3462356925010681
-0.044214293360710144 -0.27909407019615173 -0.34109407663345337
0.2071450799703598 0.0014304481446743011 -0.214857280254364
0.09321876615285873 -0.21078160405158997 0.31704840064048767
-0.38676267862319946 0.003836008021607995 -0.2510882019996643
0.05984515696763992 -0.03125017136335373 0.31725943088531494
-0.42842260003089905 0.40061718225479126 -0.329098641872406
-0.2334931641817093 -0.26540103554725647 0.045799240469932556
-0.2633395791053772 0.3984324336051941 -0.016731442883610725
0.4580073356628418 0.18332308530807495 0.3448433578014374
0.39070406556129456 -0.5550083518028259 -0.04030022770166397
-0.563445508480072 0.004840540699660778 -0.3993751108646393
-0.005054353736341 0.39845752716064453 0.31905800104141235
0.11163169890642166 -0.6229091882705688 -0.0649743303656578
0.1274319440126419 0.0037036817520856857 -0.2783035635948181
-0.5759173035621643 0.35126832127571106 0.2990235686302185
-0.5759680271148682 0.04718255624175072 0.16109728813171387
0.14514604210853577 0.003243334125727415 -0.09084921330213547
0.3186158239841461 0.003864976577460766 0.13731104135513306
-0.11042556166648865 -0.6594699621200562 -0.19580602645874023
0.40836670994758606 -0.3889633119106293 -0.04591318592429161
-0.4578969478607178 0.39987075328826904 -0.23532390594482422
-0.3773418962955475 0.40024667978286743 0.21334010362625122
-0.04633600264787674 0.002439601346850395 0.2172745317220688
-0.5799385905265808 0.2673322856426239 -0.0535375252366066
0.061611056327819824 0.0019470000406727195 0.15031272172927856
-0.15898999571800232 -0.6488008499145508 0.0636352077126503
0.39290428161621094 -0.5961176156997681 -0.033054620027542114
0.002794114639982581 0.0012804260477423668 0.10074962675571442
-0.07267385721206665 0.00106810312718153 0.264689564704895
0.3227386176586151 0.0041895294561982155 -0.06820403039455414
0.3332885503768921 -0.119744211435318 -0.29035699367523193
-0.15141169726848602 -0.6456961035728455 0.07861509919166565
0.4593558609485626 0.4022200107574463 0.06986088305711746
0.14035721123218536 -0.38099756836891174 0.29158324003219604
0.20187903940677643 -0.01992093026638031 0.3243720531463623
0.5857925415039062 0.31427082419395447 0.26865601539611816
-0.14686253666877747 -0.37521228194236755 -0.23886552453041077
-0.55378258228302 0.3802777826786041 0.07849334925413132
0.16971930861473083 0.4015386700630188 0.05254906415939331
-0.5808504223823547 0.13674665987491608 -0.24886222183704376
-0.40436089038848877 0.0020678886212408543 -0.34098511934280396
0.3431108593940735 0.22613508999347687 -0.4007636308670044
0.033257536590099335 0.24036556482315063 0.4085041582584381
0.5319380164146423 0.1959395408630371 -0.40061259269714355
-0.49354231357574463 -0.09683746844530106 -0.39635413885116577
-0.579910159111023 0.2320515513420105 -0.23107236623764038
0.32493266463279724 0.1996404379606247 0.3427944481372833
0.06116018816828728 -0.6220443844795227 0.0428655706346035
-0.22907410562038422 -0.220510795712471 -0.11804965883493423
0.22290022671222687 0.4008055031299591 -0.24688073992729187
-0.012349329888820648 -0.6217650175094604 0.13693279027938843
-0.08702542632818222 0.002144201658666134 -0.031660087406635284
0.20004399120807648 0.39988335967063904 0.342772513628006
-0.48535531759262085 0.0015075057744979858 -0.006571595557034016
0.32018494606018066 -0.5012320280075073 0.16450347006320953
0.27015891671180725 0.11179184168577194 -0.4017115533351898
0.18686743080615997 -0.09210551530122757 0.30819129943847656
-0.37739965319633484 -0.05958646535873413 0.11471536755561829
-0.15112268924713135 -0.4937106668949127 -0.17827963829040527
0.002642478561028838 -0.6242398619651794 0.012032195925712585
-0.15522301197052002 -0.13058213889598846 -0.2574183940887451
-0.471233993768692 -0.09392531961202621 -0.3997626006603241
0.3198432922363281 0.25861674547195435 0.34270310401916504
0.38181787729263306 -0.5643474459648132 -0.11552969366312027
-0.562954306602478 0.0588836632668972 -0.3426431715488434
0.10706494003534317 0.160308375954628 0.4630067050457001
-0.524660050868988 -0.08788974583148956 0.10015646368265152
-0.11176315695047379 0.21885548532009125 -0.4042203724384308
0.5817728042602539 0.3630448281764984 0.11273108422756195
0.0325801782310009 0.0014127532485872507 -0.07843270152807236
0.11747471243143082 0.28735554218292236 -0.4025537073612213
-0.510958194732666 0.0007877890020608902 -0.029340479522943497
0.09080827236175537 0.001530088484287262 -0.06352567672729492
-0.2996266782283783 0.1103295236825943 0.3429179787635803
-0.24564577639102936 0.39546293020248413 -0.38642722368240356
0.47397303581237793 0.002897157333791256 -0.20131933689117432
0.15443304181098938 0.40167686343193054 -0.11706399917602539
0.05418675020337105 -0.552463173866272 0.2573886811733246
-0.5779457092285156 0.15109047293663025 0.2844068706035614
0.034734390676021576 0.3599559962749481 0.41365957260131836
-0.11740892380475998 -0.012577193789184093 0.24373707175254822
0.10486997663974762 -0.6237816214561462 -0.09923718869686127
0.28245681524276733 -0.6254765391349792 -0.13446363806724548
0.01788376457989216 -0.636763334274292 0.20877140760421753
0.41178712248802185 -0.11757083237171173 -0.18201033771038055
-0.1206887811422348 0.001692689722403884 -0.17931319773197174
-0.5525066256523132 -0.06972519308328629 -0.09205292165279388
0.048940930515527725 0.16561220586299896 0.4627642333507538
0.5861478447914124 0.31663236021995544 -0.12518014013767242
0.1632571816444397 -0.6236017346382141 -0.13274960219860077
-0.5023787021636963 0.3726946711540222 -0.06086476892232895
0.3285452425479889 -0.5487465858459473 0.14358797669410706
0.14588391780853271 -0.6277275681495667 -0.26986581087112427
0.3982327878475189 0.04836447164416313 0.3444209396839142
0.38289061188697815 -0.5913728475570679 0.04594682902097702
0.027693763375282288 -0.186123788356781 0.3062659502029419
0.09785062074661255 0.0017860056832432747 0.1460217833518982
-0.13083268702030182 -0.6327141523361206 -0.05421508848667145
0.5019097924232483 0.35511815547943115 0.3395548164844513
-0.0696849375963211 -0.3153780698776245 0.272582083940506
0.3914729654788971 0.39980897307395935 0.15407800674438477
0.29256242513656616 -0.23321422934532166 -0.31677865982055664
0.30486738681793213 -0.011737930588424206 0.3214687407016754
0.5867629051208496 0.04898649454116821 0.13464409112930298
0.5862538814544678 0.3450150787830353 -0.09433585405349731
-0.027935251593589783 0.399270623922348 -0.3778209388256073
0.12118975818157196 0.12023118138313293 0.46433785557746887
-0.5732867121696472 0.0023170127533376217 0.24229921400547028
0.0786411464214325 0.002993469126522541 -0.33807581663131714
0.43040022253990173 -0.1683388501405716 0.08633983880281448
0.08772889524698257 0.39948299527168274 -0.35093653202056885
-0.12848608195781708 0.3992214500904083 0.0027064087335020304
-0.26050224900245667 0.03347277641296387 -0.39850956201553345
-0.08299098908901215 0.0001378040760755539 -0.21288727223873138
-0.37319710850715637 -0.05369165167212486 0.3350566327571869
-0.5714623332023621 0.0141040850430727 0.08873214572668076
0.04031771048903465 -0.6233217120170593 0.012765285558998585
-0.21614804863929749 -0.23667900264263153 -0.15504802763462067
-0.16077379882335663 -0.34882980585098267 -0.24637626111507416
0.02474256604909897 0.088167205452919 0.4254562556743622
0.19788166880607605 -0.6236987709999084 -0.1266719251871109
-0.3795665204524994 0.03840439394116402 -0.26445457339286804
0.2657238841056824 0.40186092257499695 0.11184865981340408
0.5855799913406372 0.20921450853347778 -0.02369047701358795
-0.4015503227710724 0.005038195289671421 0.09452276676893234
-0.5645716190338135 -0.04902777820825577 0.2115224450826645
0.1616503894329071 -0.628393828868866 0.2057635486125946
0.3272330164909363 0.06430499255657196 0.3445172905921936
0.2477232962846756 0.04216524213552475 0.46054401993751526
-0.15048642456531525 0.3993661403656006 0.013801232911646366
-0.21495072543621063 -0.038488008081912994 -0.15450318157672882
-0.18396221101284027 0.0024876920506358147 -0.07452677190303802
0.20631442964076996 0.002854064106941223 -0.3486820161342621
-0.2933496832847595 0.0025274669751524925 -0.14446410536766052
-0.15877828001976013 0.39940857887268066 -0.02809268981218338
-0.14516158401966095 0.2652592658996582 -0.40140166878700256
-0.0990477055311203 0.40188515186309814 -0.2062130868434906
0.23694410920143127 0.392198771238327 -0.3979094624519348
-0.009433534927666187 -0.6248393654823303 -0.17476525902748108
-0.2404639720916748 -0.3301129937171936 -0.055590949952602386
-0.4850847125053406 0.0012191266287118196 -0.08324190974235535
-0.2327493280172348 -0.3157927095890045 0.0483027845621109
0.09540538489818573 0.0014211246743798256 0.0446367971599102
0.44405531883239746 -0.3134928345680237 0.020220689475536346
0.20527714490890503 0.0026712706312537193 0.033704135566949844
-0.22986406087875366 0.010393621399998665 -0.3930034637451172
-0.22376862168312073 -0.1274143010377884 0.09935161471366882
-0.10617375373840332 -0.3767029345035553 -0.2799229621887207
0.07439553737640381 0.0015617250464856625 0.08559692651033401
-0.09886389970779419 0.4010276794433594 -0.0752672404050827
-0.18550199270248413 0.13971108198165894 -0.4009978473186493
0.04044301435351372 -0.00837520882487297 0.4551475942134857
0.14891162514686584 0.003093527629971504 0.2611631751060486
-0.1908920407295227 0.3126293122768402 0.3479847013950348
0.3221425712108612 -0.05202233046293259 -0.3035176694393158
0.581253170967102 0.12446985393762589 0.32793745398521423
0.05097015202045441 0.40300223231315613 0.19553610682487488
0.42958641052246094 -0.37692347168922424 -0.14121629297733307
-0.4842766523361206 0.0006970064714550972 -0.1964360624551773
0.41973552107810974 0.4023601710796356 -0.03549589216709137
-0.3973138928413391 -0.02485625073313713 0.34266000986099243
0.38895493745803833 -0.09683731198310852 0.16995228826999664
-0.12993009388446808 -0.08526186645030975 -0.2839544117450714
0.29507383704185486 -0.6229292750358582 -0.06945694983005524
-0.06407218426465988 -0.6474471092224121 -0.22451457381248474
0.009316641837358475 0.40176108479499817 0.03809502720832825
0.27924129366874695 -0.23107296228408813 -0.32788145542144775
0.028933946043252945 0.40099555253982544 -0.27567052841186523
-0.5480130314826965 0.13259194791316986 0.34512093663215637
0.3352630138397217 0.40241339802742004 -0.1848183274269104
-0.5239182114601135 0.0016368897631764412 -0.16255103051662445
0.5824543833732605 0.06997327506542206 -0.2215496003627777
0.10979549586772919 -0.5291616916656494 -0.3191578984260559
-0.22310718894004822 0.4002155661582947 -0.07149934768676758
0.2916625738143921 -0.6228457689285278 0.05116645246744156
-0.5787802338600159 0.1816251426935196 0.21503585577011108
0.18128934502601624 -0.005926134996116161 0.29261693358421326
-0.24707888066768646 0.12750665843486786 -0.40113478899002075
-0.5429625511169434 -0.08059104532003403 0.28297507762908936
-0.016423631459474564 0.15385480225086212 0.3490197956562042
0.023483606055378914 0.0006674584001302719 -0.19514073431491852
0.161838561296463 -0.6236424446105957 0.05201350525021553
-0.5450688004493713 0.0008075977675616741 -0.3216719329357147
0.08588459342718124 -0.05078388750553131 0.4615178406238556
-0.21274752914905548 0.16536006331443787 0.34459057450294495
0.20229969918727875 -0.41827574372291565 -0.30214211344718933
-0.48042070865631104 0.39703482389450073 -0.114042729139328
-0.3618459403514862 -0.0005134232342243195 0.17043808102607727
0.2066059112548828 0.07539036124944687 0.3416667580604553
-0.4840503931045532 0.005733974277973175 0.2692567706108093
-0.5774034857749939 0.3321561813354492 0.19309814274311066
-0.49379488825798035 0.38053494691848755 -0.037257373332977295
0.04924197122454643 -0.6237283945083618 -0.11162307858467102
0.3100322186946869 0.002286190167069435 0.20460058748722076
-0.2140512764453888 0.0017237411811947823 -0.30030474066734314
-0.27848491072654724 0.09933017194271088 0.3427671492099762
0.03874148055911064 -0.24053718149662018 0.3102530837059021
-0.0031871043611317873 -0.0011736233718693256 -0.3315141201019287
0.5853528380393982 0.35934630036354065 -0.06340673565864563
0.43720743060112 0.000350339338183403 -0.22291016578674316
0.45906588435173035 0.20480148494243622 -0.40418532490730286
0.3152931332588196 -0.010629658587276936 0.23891644179821014
0.1175156980752945 0.26065582036972046 0.4591922461986542
0.34091493487358093 0.01417161338031292 -0.3987819254398346
0.47674527764320374 0.14237140119075775 -0.4029286503791809
-0.12999895215034485 -0.473244309425354 -0.19634628295898438
-0.41599270701408386 0.004288537427783012 0.1928454041481018
-0.411705881357193 0.39282527565956116 -0.3960608243942261
-0.5816675424575806 0.026521872729063034 -0.04548739641904831
-0.08348678797483444 -0.006018656771630049 0.25688284635543823
0.4483756124973297 -0.14751631021499634 -0.011844726279377937
0.2883835434913635 0.4022323787212372 0.12725618481636047
-0.2713148593902588 0.0008263399358838797 -0.07926872372627258
-0.5658386945724487 0.37735456228256226 0.0749157965183258
-0.48312366008758545 0.23302826285362244 -0.40125781297683716
0.19580914080142975 0.1623654067516327 0.34081774950027466
-0.019122455269098282 0.0021548601798713207 -0.27203071117401123
-0.5005033016204834 0.11954500526189804 0.2293339967727661
0.19917191565036774 0.401372492313385 -0.008433731272816658
0.3893407881259918 -0.14111502468585968 -0.22543880343437195
0.5129731297492981 0.4016800820827484 0.11840414255857468
0.1695937216281891 0.27812832593917847 0.46264323592185974
-0.5385577082633972 -0.000277969054877758 -0.365626722574234
0.3277856111526489 0.1904384195804596 0.44963839650154114
0.0020459694787859917 0.19662226736545563 -0.4036569595336914
0.29029399156570435 -0.6233067512512207 -0.07418319582939148
0.5788521766662598 0.045383863151073456 -0.16216473281383514
0.2782486379146576 0.2594771981239319 0.46049901843070984
-0.23969107866287231 0.003714588936418295 0.23144684731960297
-0.13192859292030334 0.10544426739215851 -0.4004295766353607
0.35916629433631897 -0.6474101543426514 0.08676280081272125
-0.4208669364452362 0.0995558574795723 0.27126196026802063
0.11191650480031967 0.3577173352241516 0.3411223292350769
-0.4304177463054657 0.14854378998279572 0.3395870327949524
-0.5414503216743469 0.14567680656909943 0.34107980132102966
-0.39411696791648865 0.4084179401397705 -0.13016696274280548
-0.40435341000556946 0.06545784324407578 0.3393021523952484
-0.19502976536750793 0.21882998943328857 -0.40148401260375977
0.07665805518627167 -0.6235135793685913 -0.19619636237621307
-0.13416758179664612 0.39909547567367554 0.14955037832260132
0.21650438010692596 0.40093985199928284 0.20671311020851135
0.3511960804462433 0.2701334059238434 -0.4025923013687134
-0.30828577280044556 0.31338247656822205 0.3404504358768463
0.13559190928936005 -0.6235347390174866 -0.07019122689962387
0.06819592416286469 0.121062733232975 0.4611968994140625
0.284890353679657 -0.4587269723415375 -0.25666385889053345
-0.3927250802516937 0.4006796181201935 -0.2855778932571411
0.12119244784116745 0.001954298233613372 0.10590279847383499
-0.20990845561027527 -0.3786033093929291 0.04529055580496788
0.041487857699394226 0.3896343410015106 0.42560282349586487
0.5450099110603333 0.39035671949386597 0.33720144629478455
-0.4176677167415619 0.017226960510015488 0.35038653016090393
0.12063376605510712 0.0037625757977366447 -0.38665077090263367
0.1724812090396881 -0.112203449010849 -0.36448904871940613
-0.37613412737846375 0.04054715111851692 0.012177819386124611
-0.17064353823661804 0.023849565535783768 0.3405076265335083
0.08970218896865845 -0.6007375717163086 0.26143208146095276
0.35416173934936523 -0.2010149359703064 0.2071024477481842
0.012369068339467049 -0.6233411431312561 -0.23422884941101074
-0.48613694310188293 0.003057006746530533 0.08488965779542923
0.1872505396604538 0.47155842185020447 0.387706458568573
0.47980695962905884 0.15134598314762115 -0.4026981294155121
-0.08810821920633316 0.39975833892822266 0.16998787224292755
-0.18085910379886627 -0.4296792149543762 0.04554852843284607
-0.018985319882631302 -0.3702322840690613 0.2910121977329254
0.18597020208835602 -0.5613083839416504 0.24834439158439636
-0.3541100025177002 0.3526163697242737 0.03452319651842117
-0.47230827808380127 0.12517888844013214 -0.3984123170375824
-0.27567121386528015 0.4021260738372803 0.32269906997680664
0.05956357344985008 0.0019213499035686255 0.12254013866186142
-0.29716774821281433 0.3814559280872345 -0.07985784113407135
-0.23607085645198822 0.3863450884819031 0.33658474683761597
0.031896136701107025 0.342849463224411 0.39140909910202026
0.5828509330749512 0.2070215940475464 0.26151949167251587
-0.5758507251739502 0.037664320319890976 0.09643379598855972
-0.4922306537628174 0.003418504260480404 -0.16018854081630707
-0.11211800575256348 -0.27718859910964966 0.2439834028482437
0.3497854173183441 -0.6387156248092651 0.11090930551290512
-0.2755303382873535 -0.00019988231360912323 -0.2921926975250244
0.03504250943660736 -0.11833782494068146 -0.3665105104446411
0.3220456838607788 -0.6553455591201782 0.11804292351007462
-0.30800318717956543 0.1168990433216095 -0.40120163559913635
-0.5792183876037598 0.26540645956993103 -0.04552897810935974
0.2755853831768036 -0.5165537595748901 0.20327752828598022
0.0507650300860405 0.0019552884623408318 -0.20729279518127441
-0.4339868426322937 0.20277638733386993 0.34195926785469055
0.05721621215343475 -0.0033316337503492832 0.3198758661746979
0.04424354434013367 0.11050812900066376 0.46067318320274353
0.3285364806652069 -0.4154552221298218 -0.22281192243099213
0.24981525540351868 -0.6221238970756531 -0.04218265414237976
-0.4193515479564667 0.32187649607658386 0.3449822664260864
0.3806820809841156 0.002836633939296007 0.07875475287437439
-0.11676706373691559 -0.6413328051567078 0.13664931058883667
0.30928564071655273 0.3892270624637604 0.3555855453014374
-0.5453463196754456 -0.07555514574050903 0.034003809094429016
0.005251135677099228 -0.6458297967910767 -0.28247687220573425
0.5829785466194153 0.31241554021835327 -0.2965649664402008
0.17837436497211456 -0.07093892991542816 0.32969117164611816
0.1924351453781128 0.3066460192203522 0.4604102373123169
0.15037792921066284 -0.622645914554596 0.1811152696609497
0.09786445647478104 -0.6218283772468567 -0.16266097128391266
-0.3146715760231018 0.0019989078864455223 0.2025429606437683
0.007209939416497946 0.2514510750770569 -0.4009864926338196
0.03639158606529236 0.2053614854812622 0.4418449401855469
-0.09673173725605011 -0.6580585241317749 -0.22216616570949554
-0.29024428129196167 0.3483435809612274 -0.04041710123419762
0.34068480134010315 -0.6330485939979553 -0.10186759382486343
0.44619375467300415 0.027150090783834457 -0.40034493803977966
-0.5803899168968201 0.27023693919181824 0.2943263053894043
-0.36646631360054016 0.39804184436798096 -0.16199526190757751
0.21100151538848877 -0.0016140842344611883 0.2870374023914337
0.19087840616703033 0.4016909599304199 -0.09326615929603577
0.06792232394218445 0.0020741093903779984 -0.008232707157731056
-0.4467869997024536 0.004341548308730125 0.27522096037864685
-0.5045319199562073 0.10006740689277649 -0.2842079997062683
0.07394623756408691 -0.6246444582939148 -0.23760107159614563
-0.12153374403715134 -0.6443201303482056 -0.202436625957489
0.25105148553848267 0.2123146504163742 0.3398580849170685
0.5542265176773071 0.00568873668089509 0.20589205622673035
0.45040059089660645 -0.21182633936405182 -0.01452563051134348
-0.06169291213154793 0.0020934396889060736 0.1866031289100647
0.22685156762599945 -0.6392931342124939 0.1856079399585724
0.4761020541191101 0.008921889588236809 0.33761900663375854
0.321990042924881 0.0046839467249810696 -0.1490696519613266
-0.10584191977977753 0.4004465937614441 0.17486277222633362
0.5878442525863647 0.23387105762958527 0.11742915213108063
0.36577916145324707 -0.0003535337746143341 0.1773933321237564
-0.37465354800224304 0.04550550878047943 0.1424710601568222
0.467538982629776 -0.0007552588358521461 -0.10050251334905624
0.22654667496681213 -0.0929034948348999 0.30895155668258667
0.2707722783088684 0.3970150053501129 -0.38918861746788025
0.33176180720329285 0.39427652955055237 0.3322752118110657
-0.0013704681769013405 -0.01142898853868246 0.3049384653568268
0.36746808886528015 -0.5271482467651367 -0.14976702630519867
0.3146737813949585 0.43036773800849915 0.35907989740371704
-0.2810346782207489 0.2976367771625519 -0.4004140794277191
-0.03730654716491699 -0.004691264592111111 0.27740728855133057
-0.14303015172481537 -0.2819552421569824 -0.271060049533844
-0.5104310512542725 0.05124639347195625 0.34956878423690796
0.058517228811979294 -0.6240316033363342 -0.21284297108650208
-0.2986352741718292 0.00015556160360574722 -0.14954319596290588
0.3613494038581848 -0.026852915063500404 -0.2535719573497772
0.024675268679857254 -0.04686031490564346 0.35438603162765503
-0.11553911119699478 -0.4704943299293518 -0.21456563472747803
-0.5560455322265625 -0.06718363612890244 -0.16543897986412048
0.22805155813694 0.0036469493061304092 -0.10529332607984543
-0.37198686599731445 -0.0016911844722926617 0.2397284209728241
-0.45722490549087524 0.11094486713409424 0.1524491310119629
0.0701085701584816 0.28145426511764526 -0.4017961621284485
-0.49929988384246826 0.37040528655052185 0.0008514142828062177
-0.08403533697128296 -0.22115258872509003 0.262468159198761
0.24335168302059174 -0.5623745322227478 0.22338774800300598
-0.44329872727394104 0.00028151203878223896 0.3387755751609802
-0.16663958132266998 0.26579490303993225 -0.400826632976532
0.4096774458885193 -0.06351770460605621 0.13256055116653442
0.07772056758403778 0.2193542718887329 0.3417191505432129
-0.02689485251903534 -0.6270198822021484 0.17091219127178192
0.4809359908103943 0.40274322032928467 0.03109315037727356
0.37561720609664917 0.40319812297821045 -0.20557057857513428
-0.3873111307621002 0.07288596034049988 0.16566522419452667
-0.4899478554725647 -0.10113431513309479 -0.13573841750621796
0.5818793177604675 0.38456326723098755 -0.08716567605733871
0.22894686460494995 -0.622859001159668 0.07048442959785461
0.0037206350825726986 0.3321707844734192 0.34330621361732483
-0.14127755165100098 -0.3768816590309143 -0.25016388297080994
0.2042534500360489 -0.017612386494874954 -0.3510885536670685
0.5868089199066162 0.2393239289522171 -0.04924583435058594
-0.021211052313447 -0.6221879124641418 -0.0019750897772610188
0.032523591071367264 -0.41116437315940857 -0.31184151768684387
-0.5570968985557556 -0.06394565850496292 -0.08724822849035263
-0.2784775495529175 0.0017477301880717278 0.09189964085817337
0.13042674958705902 0.057525232434272766 0.46380916237831116
0.03361198306083679 0.02445293962955475 0.4600825607776642
-0.11382201313972473 0.39862364530563354 0.2383989542722702
-0.23206159472465515 -0.19758151471614838 -0.10453134030103683
-0.11476234346628189 -0.09411744773387909 0.23917712271213531
-0.0323633998632431 0.09994103014469147 -0.40328115224838257
-0.4982508718967438 -0.10031496733427048 -0.3847767412662506
-0.009339296258985996 0.40178394317626953 0.10397922247648239
-0.5758420825004578 0.13708989322185516 -0.0760984793305397
0.585793137550354 0.16242216527462006 0.021556701511144638
-0.07572948932647705 -0.0016994001343846321 -0.23131923377513885
0.028572367504239082 0.13455723226070404 -0.40274712443351746
0.12471789121627808 0.07088097184896469 -0.4014858901500702
0.5606163740158081 0.24528485536575317 0.3451620936393738
0.15914173424243927 -0.6240656971931458 0.07323693484067917
0.3699389696121216 -0.3743721544742584 -0.2403075248003006
0.5876185297966003 0.21586917340755463 0.18429498374462128
0.3620236814022064 -0.17949090898036957 -0.260332316160202
-0.050999853760004044 0.0013173287734389305 0.07701951265335083
-0.1807858794927597 -0.6347864866256714 -0.0697820708155632
0.5598019957542419 0.006435816176235676 -0.05930708721280098
0.007474017329514027 -0.3023809790611267 -0.3646412491798401
-0.5779501795768738 0.18128235638141632 0.1210048496723175
0.02646717242896557 0.001671304926276207 -0.19296714663505554
-0.2833784818649292 0.0024876301176846027 -0.286320298910141
0.18641741573810577 -0.12304346263408661 -0.3644568622112274
0.3884286880493164 0.012630632147192955 0.3404301106929779
0.5149874091148376 0.09397350996732712 -0.4023157060146332
0.5841113924980164 0.13786250352859497 0.2507842779159546
0.10918280482292175 0.0033456897363066673 0.23287008702754974
0.32805728912353516 -0.3951817452907562 -0.20341873168945312
0.32449254393577576 -0.020376209169626236 -0.29673251509666443
-0.3227289915084839 0.4095621109008789 -0.06699059158563614
0.058265965431928635 0.0015733684413135052 0.01208275742828846
-0.5782672166824341 0.2561478614807129 0.14953817427158356
-0.4049350321292877 0.39491868019104004 0.3287537395954132
0.30856335163116455 0.37053996324539185 0.45974189043045044
-0.38863033056259155 0.08035226166248322 -0.2997696101665497
-0.23610763251781464 0.3980505168437958 -0.09178636223077774
-0.5460222959518433 -0.06824824213981628 -0.3896677494049072
0.11071175336837769 -0.41902124881744385 0.2638585567474365
0.16969673335552216 0.011824680492281914 0.3358500897884369
0.25179368257522583 -0.6094491481781006 0.2191207855939865
-0.21746283769607544 0.4005594849586487 -0.11037369072437286
0.3067640960216522 -0.3797163665294647 0.20432694256305695
-0.5154821872711182 0.09103183448314667 0.23990660905838013
0.12375101447105408 -0.6464999914169312 -0.3007128834724426
0.4409036934375763 -0.001840377226471901 -0.005541306920349598
-0.020712638273835182 -0.06981216371059418 -0.3506706655025482
0.24058884382247925 -0.379072904586792 -0.3183366060256958
0.15935730934143066 0.2889324426651001 -0.40452712774276733
-0.16031397879123688 -0.4586852490901947 0.08982345461845398
0.036210209131240845 -0.6246379613876343 -0.005383056588470936
0.30231764912605286 0.003708403091877699 -0.054912690073251724
0.24035364389419556 0.400303453207016 -0.2769646942615509
0.2543007433414459 -0.43095308542251587 -0.28137755393981934
0.03308680281043053 0.2728370428085327 0.3487556576728821
0.4385516941547394 -0.30630457401275635 0.06675875186920166
-0.4397720694541931 0.04480617865920067 0.3463098406791687
0.5437973737716675 0.26996082067489624 -0.4038924276828766
0.12164607644081116 -0.6214169859886169 0.2617115378379822
0.03873882815241814 0.2922431528568268 0.44825127720832825
-0.4365580379962921 0.04676014930009842 -0.4031137526035309
-0.3099472224712372 0.28555774688720703 -0.3995789885520935
0.39010757207870483 0.4030057191848755 0.013806440867483616
0.03654969111084938 0.28326353430747986 0.4551420211791992
-0.06282010674476624 -0.23701360821723938 0.27652549743652344
0.5834589600563049 0.04072301462292671 0.04527360200881958
0.4126087725162506 -0.219266876578331 -0.1852400004863739
0.1264805644750595 0.4701986014842987 0.4073033630847931
0.0014714680146425962 -0.6228065490722656 0.16369327902793884
-0.08766015619039536 0.40203219652175903 0.21387264132499695
0.22228144109249115 0.2677299976348877 -0.4043787121772766
0.03899500146508217 0.10268534719944 0.4524380564689636
-0.34130391478538513 -4.715798422694206e-05 -0.060681018978357315
-0.43472054600715637 0.4020358920097351 0.15059104561805725
0.04403388127684593 -0.06514354795217514 0.3484220802783966
-0.2458590716123581 0.015567328780889511 0.34106433391571045
-0.17835909128189087 0.39914751052856445 -0.3656192123889923
0.1795404702425003 -0.5484246015548706 -0.31230294704437256
-0.4008585512638092 0.07523172348737717 0.19904057681560516
0.025226539000868797 0.01999036967754364 0.37086543440818787
0.10112539678812027 -0.6369348168373108 -0.2785131335258484
0.02882436290383339 -0.051857948303222656 0.3151952028274536
0.5837290287017822 0.2063223272562027 0.24958740174770355
-0.09630528092384338 -0.6524323225021362 -0.20483849942684174
-0.4577944874763489 0.09847617149353027 -0.11125649511814117
0.06458891183137894 0.17769581079483032 -0.40404993295669556
-0.18835720419883728 0.4030689597129822 0.2553611397743225
0.02739815227687359 -0.2719058692455292 0.30947422981262207
0.4952322542667389 0.4021652042865753 -0.09993252903223038
-0.13187089562416077 -0.33366987109184265 -0.2817082405090332
-0.34782883524894714 0.37983590364456177 -0.17435112595558167
0.22053951025009155 -0.5567002892494202 0.23450273275375366
-0.18830296397209167 0.4018719494342804 -0.09176936000585556
0.015624086372554302 0.003757813945412636 -0.25702351331710815
-0.17224718630313873 0.4004325270652771 -0.30460748076438904
0.0862387865781784 0.400618314743042 0.27990469336509705
0.2932910621166229 0.40849563479423523 0.35618990659713745
-0.2021755874156952 -0.38584116101264954 0.014486007392406464
-0.07598511129617691 0.0006584208458662033 -0.15014322102069855
0.32497724890708923 -0.4304724335670471 -0.22412832081317902
0.588239848613739 0.2660212516784668 0.19278980791568756
-0.2260371893644333 0.40074771642684937 -0.01349750068038702
-0.37534886598587036 0.40876686573028564 -0.00826201867312193
-0.4569122791290283 -0.1064242571592331 -0.24147149920463562
-0.3660082221031189 -0.000523448339663446 0.22462210059165955
0.0695423111319542 0.25550612807273865 0.4608139097690582
0.08573319017887115 0.45916324853897095 0.4328145384788513
0.15769925713539124 0.4019462466239929 -0.13932184875011444
0.4657258093357086 0.18459035456180573 -0.4031774699687958
0.4839304983615875 0.0036743017844855785 -0.15692102909088135
0.2086956948041916 -0.539578914642334 0.2391795516014099
0.1107202023267746 0.4009016752243042 0.08581726253032684
0.256647527217865 0.0034759086556732655 -0.13547757267951965
-0.09929371625185013 0.0042764730751514435 0.17092257738113403
0.02011861279606819 -0.2126646488904953 -0.36392971873283386
0.23076045513153076 0.4009515047073364 0.041607752442359924
0.014747390523552895 0.2339881956577301 -0.401672899723053
0.3196142911911011 -0.028269536793231964 0.32795968651771545
-0.2017873376607895 -0.3644987940788269 0.13295698165893555
-0.23699983954429626 -0.18599440157413483 -0.07393594831228256
-0.17672544717788696 -0.47031283378601074 0.04091000556945801
0.030229808762669563 0.24544261395931244 0.3604409992694855
0.5211265683174133 0.004335103556513786 0.03460722416639328
0.07203422486782074 -0.6595361828804016 0.23880383372306824
0.5304719805717468 0.018579907715320587 -0.39883896708488464
-0.4032531976699829 0.34510597586631775 0.34153369069099426
0.28685760498046875 -0.6514626741409302 0.15358540415763855
0.12951397895812988 -0.6234987378120422 0.01859947293996811
0.34228500723838806 0.0038625728338956833 0.10917375236749649
0.09490613639354706 -0.623058557510376 -0.15150310099124908
-0.5546176433563232 0.005388525314629078 0.12998923659324646
0.07439164072275162 -0.09530269354581833 0.31812572479248047
-0.0926327332854271 -0.394536554813385 0.18983200192451477
-0.08731184899806976 -0.4599209427833557 0.1903703659772873
0.34045347571372986 -0.013126310892403126 0.21890263259410858
0.3260951638221741 0.3965958058834076 0.33486711978912354
-0.4642510712146759 0.4002610445022583 0.05325835943222046
-0.009530704468488693 -0.6230331659317017 0.10847490280866623
0.37718117237091064 -0.07880652695894241 -0.23511576652526855
0.5201009511947632 0.40228673815727234 0.09385649114847183
0.11293096095323563 -0.35178038477897644 -0.37405040860176086
0.01255345530807972 -0.0004005483351647854 0.3290746808052063
-0.5782840251922607 0.20263098180294037 -0.19156645238399506
0.031406138092279434 0.37755393981933594 0.4414052367210388
-0.4521421790122986 0.05189657211303711 -0.4030630588531494
-0.11772608011960983 0.001843898557126522 -0.10847502946853638
0.2826322615146637 0.003613922744989395 0.041276395320892334
0.03181707486510277 -0.6224344968795776 -0.08709511160850525
0.39171263575553894 0.0034422841854393482 0.004866712726652622
0.16848884522914886 0.008752120658755302 -0.39596548676490784
-0.36963069438934326 -0.02195395529270172 -0.38543176651000977
0.09978718310594559 -0.6211820244789124 0.047840021550655365
0.16823050379753113 -0.6245507597923279 0.11669930070638657
-0.5300766229629517 0.0005551790818572044 -0.31463953852653503
-0.08825962245464325 -0.31881263852119446 0.2607927918434143
0.02953822910785675 -0.1287190467119217 0.3079623878002167
0.37884825468063354 -0.5514558553695679 0.06861677765846252
