-0.1325865089893341 -0.6374090909957886 -0.08245538920164108
0.4969325363636017 0.16121120750904083 -0.4066321849822998
-0.37960800528526306 0.08370953798294067 -0.40321773290634155
-0.4344317615032196 0.36938270926475525 0.03227416053414345
-0.10206224024295807 -0.12460847944021225 -0.3082812428474426
-0.03386453911662102 -0.47815805673599243 -0.27679792046546936
-0.11174944788217545 0.250057578086853 0.3729741871356964
-0.5762877464294434 0.2765246331691742 0.2609507739543915
0.17001254856586456 -0.3678085207939148 -0.36518043279647827
0.27398666739463806 0.40132173895835876 -0.022629525512456894
-0.006036384031176567 0.40020376443862915 0.07080141454935074
-0.37939444184303284 0.04551459848880768 0.1031850203871727
-0.10886187851428986 -0.0006440309807658195 0.0996508076786995
-0.3330038785934448 0.3954503536224365 -0.4004715383052826
-0.5784115195274353 -0.0006926040514372289 0.28029578924179077
-0.40639957785606384 0.08017004281282425 0.16655446588993073
0.062283698469400406 0.40243008732795715 0.2581864595413208
0.3224165141582489 -0.030659319832921028 0.397636353969574
0.11171125620603561 -0.1279485672712326 -0.3639817535877228
-0.016262900084257126 0.002252795733511448 0.2532803416252136
0.5860596299171448 0.2648206949234009 0.2759877145290375
-0.2285943478345871 0.3981362581253052 0.21513621509075165
-0.1652071475982666 -0.5846167206764221 0.06077316030859947
-0.5373367667198181 0.0013875951990485191 -0.3310183882713318
0.19766996800899506 -0.6409667134284973 0.23280714452266693
-0.1793135702610016 -0.615919828414917 0.008389084599912167
0.21101966500282288 -0.003626430407166481 -0.3427046835422516
-0.5173805356025696 0.3944660723209381 0.31044283509254456
-0.03976615518331528 0.39683014154434204 -0.06477382034063339
0.32806921005249023 0.19265632331371307 -0.4081299304962158
0.5795735716819763 0.34681472182273865 -0.21369561553001404
0.012617463245987892 0.3402264714241028 0.36177900433540344
-0.15942730009555817 -0.1805150806903839 0.19342845678329468
0.5877601504325867 0.034069743007421494 0.10288543999195099
-0.5837619304656982 0.0029642267618328333 0.10784211754798889
0.3520355224609375 -0.4193727672100067 -0.14635729789733887
-0.23304307460784912 -0.3068194091320038 0.0236075296998024
0.49855875968933105 0.36343914270401 0.348934531211853
-0.5170789957046509 0.10187049955129623 -0.1396576464176178
-0.5112471580505371 0.05200943350791931 0.3493070602416992
-0.11200257390737534 -0.46825167536735535 0.16148607432842255
0.2968972325325012 -0.6326234340667725 0.1936054825782776
-0.40994471311569214 0.3489096760749817 0.3410780131816864
-0.5718090534210205 0.0003330525360070169 -0.28117984533309937
0.44193020462989807 0.4020083546638489 -0.29173851013183594
0.15076544880867004 0.4106656014919281 0.35320422053337097
-0.1811317503452301 -0.42190584540367126 -0.02621084824204445
0.5749146342277527 0.3550530970096588 -0.3500865399837494
-0.43783628940582275 0.003967585042119026 0.15117734670639038
-0.18033713102340698 -0.5323765873908997 -0.02432352676987648
0.4552656412124634 0.40235286951065063 0.2259926199913025
-0.1478089690208435 0.18261860311031342 -0.40620720386505127
-0.5669946670532227 0.36973586678504944 -0.31838342547416687
0.5797234177589417 0.008281925693154335 -0.17788287997245789
-0.13648363947868347 -0.6157310605049133 -0.17944949865341187
0.13951349258422852 0.16394807398319244 0.46354928612709045
-0.1623660773038864 0.0013035284355282784 0.02172434702515602
-0.06645090878009796 0.4017012417316437 -0.15230892598628998
0.0329667292535305 0.0005990025820210576 0.271686315536499
0.5730077028274536 0.016189225018024445 0.06782924383878708
0.2599388659000397 0.0009043891914188862 0.23097816109657288
0.26619863510131836 0.14541681110858917 0.3455551266670227
0.3320833444595337 -0.06951429694890976 0.43059036135673523
-0.2643590569496155 0.18933357298374176 0.3400128483772278
0.4740833044052124 0.4049089848995209 -0.22141502797603607
-0.18746864795684814 0.3985785245895386 -0.3804846405982971
0.0907946452498436 -0.40110090374946594 0.26408201456069946
-0.37025290727615356 -0.042560502886772156 0.29875245690345764
0.21944962441921234 -0.4275144338607788 -0.29491323232650757
-0.5325881242752075 0.39235958456993103 0.13809014856815338
-0.45495113730430603 0.09547676891088486 -0.40737441182136536
0.27524232864379883 -0.6227434873580933 0.06748431921005249
-0.19560496509075165 -0.2571291923522949 -0.19354161620140076
0.5855130553245544 0.12777079641819 -0.16765931248664856
-0.5710750818252563 -0.031334634870290756 -0.354306697845459
0.4011783003807068 -0.3987862169742584 -0.032835703343153
0.10066607594490051 0.3996959924697876 0.33538249135017395
0.09279463440179825 0.3985562026500702 -0.12987734377384186
-0.20318816602230072 -0.3871125876903534 -0.07766153663396835
0.1491311490535736 -0.35209858417510986 0.30608034133911133
0.3931211531162262 -0.3049975633621216 -0.21023795008659363
0.18477967381477356 -0.09357567131519318 0.39858925342559814
-0.029570339247584343 0.03644363954663277 0.3474739193916321
0.13049595057964325 -0.23765182495117188 -0.3772486746311188
-0.3671042323112488 0.06257680058479309 0.34179434180259705
0.10234743356704712 -0.37344080209732056 -0.36260077357292175
-0.4883403778076172 -0.0038717607967555523 0.02753458544611931
-0.5555087327957153 -0.06755989044904709 0.05414286255836487
-0.16049066185951233 -0.36693376302719116 -0.24228061735630035
0.5155812501907349 0.40372252464294434 0.01552838645875454
-0.5691709518432617 -0.0353386327624321 0.3432955741882324
0.2286766618490219 -0.6227649450302124 -0.0269901305437088
0.26177558302879333 -0.6217365860939026 0.06832196563482285
0.24999678134918213 0.4039204716682434 -0.27510353922843933
-0.5368736386299133 0.08479661494493484 0.3387344777584076
0.5769181251525879 0.2857561409473419 -0.30809709429740906
-0.2123681753873825 0.3913434147834778 -0.3975391983985901
0.3624265491962433 0.006555830128490925 0.33802330493927
-0.093206487596035 -0.07742093503475189 0.2457672655582428
0.36368444561958313 0.0011617541313171387 -0.06004147604107857
0.41232356429100037 0.11481225490570068 -0.4068494439125061
-0.006006865296512842 -0.19039367139339447 -0.35394760966300964
-0.1813603937625885 -0.6419063210487366 -0.0214368999004364
-0.36935991048812866 -0.0022014291025698185 0.11554267257452011
0.4186429977416992 -0.3157707154750824 0.10779768228530884
0.2070799618959427 0.23500236868858337 0.34600141644477844
-0.30222952365875244 0.408510684967041 0.16632455587387085
0.5864793658256531 0.34013262391090393 -0.3858878016471863
-0.33252713084220886 0.40282142162323 0.2501218020915985
-0.368399977684021 0.0023043956607580185 0.12444720417261124
-0.1644861102104187 -0.38849112391471863 0.11983716487884521
0.36230579018592834 -0.002279660664498806 0.1398293673992157
0.32224154472351074 -0.15652203559875488 -0.29846781492233276
-0.21155352890491486 -0.0005436894716694951 0.19680209457874298
-0.5835721492767334 0.013652589172124863 0.31834274530410767
-0.18075314164161682 -0.26895928382873535 -0.20282793045043945
-0.5750204920768738 0.12130974978208542 0.11860163509845734
-0.0985812172293663 -0.6226598620414734 0.06012247875332832
0.5846080183982849 0.38366684317588806 -0.18208542466163635
-0.5793338418006897 0.1456417292356491 -0.08615154772996902
-0.5769882202148438 0.2966858446598053 -0.37106528878211975
-0.5120856165885925 -0.07579926401376724 -0.3931199014186859
-0.19837157428264618 0.0016666455194354057 0.15486150979995728
-0.12908944487571716 -0.42205747961997986 -0.18072402477264404
-0.4854874014854431 -0.11152492463588715 -0.13864359259605408
0.2893262207508087 0.40253132581710815 0.4481060206890106
0.05458581820130348 -0.6248700618743896 -0.06433998793363571
-0.4542936086654663 0.04033226892352104 0.3445773720741272
-0.16897636651992798 -0.3836703896522522 -0.19219788908958435
-0.025709420442581177 0.0008946144953370094 0.2740773856639862
0.30743730068206787 0.38915586471557617 0.3364303708076477
-0.28375351428985596 0.3568275272846222 -0.06608200073242188
0.5783171653747559 0.017941225320100784 0.26187342405319214
-0.3493555188179016 -0.00233385618776083 -0.024736588820815086
-0.4969695806503296 0.1063966304063797 0.009129897691309452
0.37859871983528137 -0.3969598412513733 -0.07596609741449356
-0.5149646401405334 0.3306921124458313 -0.40775707364082336
0.34445831179618835 -0.6456699371337891 -0.1631542444229126
-0.4129008650779724 0.03252072632312775 0.3447974920272827
0.4188884198665619 -0.3754316568374634 0.07423979043960571
-0.10951679944992065 -0.6224937438964844 -0.08743258565664291
0.30715054273605347 0.0035825660452246666 -0.1155703216791153
0.2389465570449829 0.0537802055478096 0.46217241883277893
0.32289308309555054 0.3961712121963501 0.1878436952829361
0.21301090717315674 0.0019608624279499054 -0.3747263550758362
0.032377321273088455 0.0005388163262978196 -0.05184825509786606
-0.41020166873931885 0.39782658219337463 0.3060376048088074
0.2913719713687897 -0.6227614283561707 -0.09228025376796722
0.5790084600448608 0.35694122314453125 -0.030341114848852158
-0.09776342660188675 -0.3971123993396759 0.1789429932832718
0.13918696343898773 0.0007758019492030144 0.11534970998764038
0.1846807897090912 0.3995131254196167 0.1939895749092102
-0.407120943069458 0.0029522953554987907 0.05375559255480766
-0.19384504854679108 -0.03210937976837158 0.1575201451778412
0.45223668217658997 -0.0010903272777795792 -0.3368473947048187
-0.5669146776199341 0.014812763780355453 -0.40292614698410034
-0.13987895846366882 -0.6488717198371887 -0.1707228124141693
0.3172297477722168 -0.6301838755607605 -0.17345520853996277
-0.42323803901672363 0.040621381253004074 -0.40629950165748596
-0.1321805864572525 -0.04927675053477287 0.22367846965789795
0.2821838855743408 0.2772214114665985 0.4573535919189453
0.07222604751586914 -0.03307540714740753 0.3307711184024811
0.13671915233135223 0.4045373797416687 0.15073226392269135
0.11188600957393646 0.0009454498067498207 0.1917259693145752
-0.4891859292984009 0.12026789784431458 -0.11656266450881958
-0.08745507150888443 -0.0901784896850586 0.2609672546386719
0.3839682936668396 -0.07123405486345291 0.1691274344921112
0.21327680349349976 -0.0010906066745519638 -0.33561035990715027
-0.3047513961791992 0.17364376783370972 0.3453194797039032
-0.4079682528972626 0.39593783020973206 0.08936428278684616
0.29603439569473267 0.0015635346062481403 0.14945872128009796
-0.3498242199420929 0.3047087490558624 -0.4081571698188782
0.32536569237709045 -0.4881512522697449 0.15741029381752014
-0.2058923989534378 -0.02056848257780075 -0.17623929679393768
-0.057458143681287766 0.40167856216430664 0.03783923760056496
0.002207767916843295 0.19852958619594574 0.3935646712779999
-0.5226841568946838 0.0017640665173530579 -0.26341715455055237
0.4181269407272339 -0.05871295928955078 -0.1647830605506897
-0.5015819072723389 -0.0023786635138094425 0.2581830322742462
-0.394522488117218 0.0959409773349762 -0.24978533387184143
0.35038360953330994 -0.38364940881729126 -0.19957269728183746
-0.22149115800857544 -0.053322967141866684 -0.12807931005954742
0.1548183113336563 -0.09605010598897934 0.3736118972301483
0.058625221252441406 -0.11087094992399216 -0.36245736479759216
-0.38836419582366943 -0.064067542552948 -0.3345757722854614
0.11586504429578781 -0.6399940252304077 0.21862326562404633
-0.06744756549596786 -0.543272852897644 0.1959804892539978
0.27720457315444946 -0.4320802092552185 -0.2387334108352661
0.3199191391468048 -0.6243137121200562 -0.11449824273586273
-0.36806195974349976 0.02387809008359909 -0.09359285235404968
-0.10669960826635361 0.22430965304374695 0.3597221076488495
-0.06415978074073792 0.1811695694923401 0.3950967788696289
-0.27566206455230713 0.4001847505569458 0.019523806869983673
-0.12792368233203888 -0.17374280095100403 -0.2952078878879547
-0.48701974749565125 0.34751787781715393 0.3446314334869385
0.5724245309829712 0.3119141459465027 0.2709548771381378
0.26783040165901184 -0.0289996936917305 0.3234981894493103
-0.3751101493835449 0.06329309940338135 -0.030900627374649048
0.25677600502967834 0.4031730890274048 -0.11651783436536789
-0.20494802296161652 0.0014369655400514603 -0.11481907963752747
0.5772511959075928 0.09705974906682968 0.33843058347702026
0.021837551146745682 0.3965860605239868 -0.2540454864501953
-0.554468035697937 0.07132528722286224 0.16465988755226135
0.1474541574716568 0.001243610866367817 0.1790623515844345
0.1863175630569458 0.16781848669052124 0.3442135453224182
0.28021612763404846 -0.0024756803177297115 0.24449609220027924
0.5802412033081055 0.21043533086776733 -0.05029774084687233
-0.5539402961730957 0.37887904047966003 0.30984818935394287
-0.3429585099220276 -0.00230394396930933 -0.28892621397972107
0.025732610374689102 -0.6393711566925049 -0.30090078711509705
-0.30335521697998047 0.39611318707466125 0.060033805668354034
0.4465005695819855 -0.12809449434280396 0.004806214943528175
-0.38348063826560974 0.39992037415504456 -0.3156142234802246
0.4155799448490143 -0.0008840472437441349 -0.12254537642002106
-0.5559223890304565 -0.06479956209659576 -0.12510021030902863
0.0972173735499382 -0.6236474514007568 0.09232643991708755
-0.2948980927467346 0.2995573878288269 0.3446732461452484
0.08621788769960403 0.0004086405970156193 -0.06548456847667694
0.43061915040016174 -0.19199419021606445 -0.1434844732284546
0.3061794936656952 -0.6368772983551025 -0.18480129539966583
-0.21888507902622223 0.11876441538333893 -0.4057561159133911
0.017243655398488045 -0.3722660541534424 0.292664498090744
-0.5410805344581604 0.08256715536117554 -0.2389226257801056
0.5722588300704956 0.38389742374420166 -0.3143532872200012
-0.28787803649902344 0.36472660303115845 -0.023928601294755936
0.30105552077293396 0.002377089112997055 -0.34543877840042114
0.5272523760795593 0.029164660722017288 0.3453945815563202
-0.36146822571754456 0.060015060007572174 0.3380662798881531
0.12131514400243759 0.4655230939388275 0.42128685116767883
0.1854577213525772 -0.18233023583889008 0.30521851778030396
0.5811272263526917 0.1550573855638504 0.13390393555164337
-0.16736388206481934 0.4034763276576996 0.2755855321884155
0.0780307948589325 -0.5856437087059021 0.260259211063385
-0.4690397381782532 -0.11565042287111282 -0.3555912673473358
0.05714340880513191 -0.16032324731349945 -0.36702394485473633
0.00886760838329792 2.0089675672352314e-05 -0.151228666305542
0.35037916898727417 -0.5699998140335083 -0.1777912974357605
0.2494061440229416 0.003058483824133873 0.3366211950778961
-0.14985093474388123 -0.5122135877609253 0.10477055609226227
0.5419184565544128 0.002882588654756546 0.19036979973316193
0.08403240889310837 0.002578122541308403 0.16483861207962036
0.3527300953865051 -0.6245188117027283 -0.013554824516177177
-0.03233560547232628 -0.5128738284111023 0.22984977066516876
-0.5387078523635864 -0.07193072885274887 -0.3990022838115692
-0.47063589096069336 -0.11268971860408783 -0.1552344113588333
0.3749743402004242 -0.347791463136673 0.1820880025625229
-0.463043749332428 -0.11559456586837769 -0.30736470222473145
0.09273625910282135 0.4360053539276123 0.4385072886943817
-0.5611177086830139 -0.06074967235326767 0.16166646778583527
-0.4321414828300476 0.1059478148818016 -0.4047517478466034
0.5827704071998596 0.11012287437915802 -0.026760494336485863
-0.27065619826316833 0.32669782638549805 -0.40600988268852234
-0.26444903016090393 0.2590090334415436 0.34659335017204285
0.5635652542114258 0.009297456592321396 0.0734901949763298
0.25049325823783875 0.27158012986183167 0.3453712463378906
-0.49682825803756714 0.007467226125299931 -0.4021843373775482
-0.45204755663871765 0.0009010154753923416 -0.13659144937992096
-0.5472486615180969 0.3895455300807953 -0.027166318148374557
0.27065205574035645 0.35019809007644653 0.4614521563053131
0.5800994038581848 0.015317423269152641 -0.02140750363469124
-0.3115903437137604 0.20569999516010284 -0.40791627764701843
0.11385820060968399 -0.5428746938705444 0.2601746916770935
-0.0028953873552381992 0.39636629819869995 -0.3912925124168396
0.21894977986812592 -0.00035601574927568436 0.10986489057540894
-0.2044825702905655 -0.37321776151657104 -0.12110476195812225
0.026382893323898315 -0.011226478032767773 0.29610440135002136
-0.17987369000911713 -0.5428088903427124 0.0010006895754486322
0.11911243200302124 0.21543343365192413 -0.39930227398872375
0.0629415512084961 0.31484827399253845 0.3414463400840759
0.4520215094089508 -0.0017292741686105728 -0.10146994143724442
-0.4924551844596863 -0.08806965500116348 0.3488670587539673
0.24645093083381653 0.2294771373271942 0.4587332010269165
-0.5808629989624023 0.1597113460302353 -0.32068803906440735
0.005276750773191452 0.0003182459622621536 -0.04273587465286255
-0.06731026619672775 0.3862641453742981 -0.39993831515312195
0.1108577772974968 -0.6461809873580933 -0.2990640699863434
-0.17683587968349457 -0.43804869055747986 -0.08872006833553314
0.46093475818634033 0.3619881570339203 0.3469994068145752
-0.5387819409370422 -0.0819254219532013 -0.30679821968078613
-0.2353900969028473 0.1322161853313446 0.34245824813842773
0.4749155342578888 0.002522188238799572 0.004517112858593464
-0.5496824383735657 0.0014025704003870487 -0.33835309743881226
0.04320605844259262 0.00010137725621461868 -0.09012069553136826
0.30719229578971863 0.0020507434383034706 0.11767321079969406
-0.5677488446235657 0.0008572074584662914 0.23930442333221436
-0.02569914609193802 -0.6260321736335754 0.1831211894750595
-0.3405950367450714 0.38993528485298157 0.3371089994907379
0.11702437698841095 0.366992324590683 -0.40728676319122314
-0.13780014216899872 -0.5100533366203308 -0.18567189574241638
0.0773988589644432 -0.002067571971565485 0.3181861639022827
-0.25862568616867065 0.39705660939216614 -0.36748361587524414
-0.15828682482242584 0.40194031596183777 0.10352832823991776
0.29847627878189087 -0.05925441533327103 -0.31123897433280945
0.07871103286743164 -8.649751543998718e-05 -0.19035489857196808
-0.22150854766368866 0.4003406763076782 0.1515808254480362
0.32984548807144165 0.11931376904249191 0.4111070930957794
-0.4410910904407501 0.11236297339200974 -0.29550638794898987
-0.04779036343097687 0.0006507430225610733 0.03209270164370537
-0.28031790256500244 0.32135072350502014 0.3464740812778473
-0.20885637402534485 -0.22832977771759033 0.12917795777320862
0.27191582322120667 -0.6268417239189148 -0.19842420518398285
0.07278045266866684 -0.6312775015830994 -0.27366891503334045
-0.07477894425392151 0.0010187034495174885 0.006591673009097576
0.3040783405303955 0.3575814962387085 -0.4036913514137268
0.23995238542556763 0.0018000723794102669 0.20114564895629883
0.18848533928394318 -0.35529154539108276 -0.3672246038913727
-0.5027046203613281 0.035338036715984344 0.3563882112503052
-0.1675666719675064 -0.10467512905597687 -0.2383342832326889
0.33547958731651306 0.08403891324996948 0.34389710426330566
0.2964518368244171 0.1382417231798172 0.4565194845199585
-0.1231040507555008 -0.6166957020759583 -0.19577430188655853
0.16196587681770325 0.40145790576934814 -0.2562257945537567
-0.376991331577301 -0.04727444797754288 -0.39254337549209595
0.5264750719070435 0.33099839091300964 0.34486284852027893
0.10219905525445938 -0.6223040819168091 -0.31725385785102844
0.1188822016119957 0.0004811403341591358 -0.21366405487060547
-0.5762224197387695 0.1481432467699051 0.3290309011936188
0.08958769589662552 0.0011633995454758406 0.16407693922519684
-0.39384356141090393 0.06509362161159515 -0.26479482650756836
-0.5092967748641968 0.4017147123813629 -0.3005216419696808
-0.19031836092472076 0.0006335973739624023 -0.03509847819805145
0.12652386724948883 0.4642215669155121 0.4341709315776825
-0.5482242107391357 0.37199902534484863 0.3388935923576355
0.4019993841648102 0.0005775149911642075 0.013541611842811108
-0.10774122178554535 -0.546637773513794 0.165069580078125
0.1986408829689026 0.0028294632211327553 -0.14627252519130707
0.25966838002204895 -0.6212132573127747 0.015825219452381134
0.29981496930122375 -0.5326683521270752 -0.24329055845737457
-0.15609507262706757 0.07196740806102753 0.34423157572746277
0.39135536551475525 -0.4313546419143677 -0.046984996646642685
0.38936296105384827 -0.5408603549003601 -0.019922979176044464
0.23815342783927917 0.40168899297714233 0.061371996998786926
-0.10175621509552002 -0.6248031854629517 -0.09000945091247559
0.300117552280426 0.08209031820297241 0.45744168758392334
-0.07851456105709076 0.15849971771240234 0.37692245841026306
-0.16352185606956482 7.821712642908096e-05 -0.2416112720966339
-0.46764427423477173 0.3873589336872101 -0.16164536774158478
-0.11833090335130692 -0.44014760851860046 -0.22037146985530853
0.2078569233417511 -0.4617525041103363 -0.2992604374885559
-0.354674756526947 0.3080320358276367 0.3458569347858429
0.15240536630153656 -0.6231611967086792 0.0182856023311615
-0.5665526390075684 0.3327406346797943 0.33917027711868286
0.31267601251602173 0.40123704075813293 -0.3172692060470581
0.34766820073127747 -0.44707897305488586 -0.17528963088989258
-0.5821191668510437 0.32987943291664124 0.12870463728904724
-0.5697497725486755 0.07232809066772461 0.09211153537034988
-0.12755337357521057 -0.4034093916416168 0.15094567835330963
0.1503293365240097 0.27823030948638916 0.4609541594982147
0.2904263734817505 0.001334155909717083 -0.09337365627288818
0.12448262423276901 0.3118319511413574 0.34763309359550476
-0.14926777780056 0.40065786242485046 -0.22065603733062744
-0.4251939058303833 0.00042124674655497074 -0.05136004462838173
-0.4218089282512665 0.09304828941822052 0.05400523543357849
-0.019933827221393585 0.39945656061172485 0.12500765919685364
-0.2166406512260437 -0.32191577553749084 0.10756054520606995
-0.03842110559344292 0.00019638286903500557 0.2560461461544037
0.3296448290348053 0.17462405562400818 0.4150475263595581
0.05362991243600845 -0.6558522582054138 -0.29483890533447266
0.19916562736034393 -0.002915129764005542 0.327204167842865
0.3366728723049164 0.39769574999809265 -0.2330695539712906
-0.08645927160978317 -0.44581732153892517 0.20127913355827332
0.38491901755332947 -0.40911808609962463 0.006711617112159729
-0.287738174200058 0.39973095059394836 -0.34607720375061035
0.42769721150398254 -0.11906472593545914 0.0814109742641449
-0.46432802081108093 -0.002328129019588232 -0.34286531805992126
-0.09108094125986099 0.19495563209056854 -0.40846988558769226
0.14489129185676575 -0.305826336145401 -0.37352368235588074
0.5752678513526917 0.38479816913604736 -0.08762753754854202
0.3350602686405182 -0.0035934061743319035 0.23116736114025116
-0.50356525182724 0.12020377069711685 0.22907887399196625
-0.47161275148391724 -0.0026104464195668697 -0.32286161184310913
0.3274496793746948 0.1896876096725464 0.4441335201263428
0.5803556442260742 0.34645041823387146 -0.08043171465396881
-0.03704078495502472 0.39922526478767395 -0.123958058655262
0.29239124059677124 -0.08790568262338638 0.25146597623825073
0.14842265844345093 0.1394536793231964 0.3407633602619171
0.25093114376068115 0.0009384178556501865 -0.07283064723014832
0.035316064953804016 -0.4945831596851349 -0.3018946647644043
-0.499991238117218 0.09582527726888657 0.29413121938705444
-0.12821969389915466 0.4041348993778229 -0.22079943120479584
-0.47183504700660706 0.12201407551765442 0.1643233299255371
0.5494883060455322 0.004889411386102438 0.2655895948410034
0.4133182764053345 -0.18457719683647156 -0.17230015993118286
-0.02577548660337925 -0.6249198913574219 0.1549176573753357
-0.5598719716072083 0.38425037264823914 -0.18541795015335083
-0.02180778607726097 0.0005104634910821915 0.28774788975715637
0.08367285132408142 2.3438100470229983e-05 -0.19376380741596222
0.22319284081459045 -0.02811882272362709 0.31015023589134216
0.38133078813552856 0.3553902804851532 0.34729424118995667
-0.009762163273990154 0.0007218262180685997 -0.06284701824188232
-0.043112196028232574 -0.035486336797475815 0.28632909059524536
0.580686628818512 0.15648789703845978 -0.2777472734451294
0.577420711517334 0.2128516435623169 -0.29931798577308655
0.044811736792325974 -0.08761288225650787 0.42539817094802856
0.11539538204669952 0.4015803039073944 0.017303304746747017
0.14562945067882538 0.00027845706790685654 -0.09673146158456802
-0.09315531700849533 0.001748756505548954 0.3060109317302704
0.28948724269866943 -0.6358381509780884 -0.20376911759376526
0.32360050082206726 -0.0019382592290639877 -0.28006693720817566
0.36815211176872253 -0.0017273440025746822 -0.1778811812400818
0.4316183924674988 -0.3341643810272217 0.058312274515628815
-0.3568173050880432 0.003093607723712921 -0.24306416511535645
0.1354748010635376 -0.625023365020752 -0.2681993246078491
0.23056474328041077 -0.512580931186676 0.22951161861419678
-0.05412336811423302 -0.24424540996551514 -0.33938369154930115
0.21813137829303741 -0.623302161693573 0.036817196756601334
0.39560753107070923 -0.00011085136793553829 -0.3407730758190155
0.5318329930305481 0.2873113453388214 0.3387153744697571
-0.2184869349002838 -0.27500608563423157 -0.14874231815338135
0.18375751376152039 0.12037310749292374 0.34025728702545166
0.02229115180671215 -0.3170941174030304 0.30366119742393494
-0.13816669583320618 0.0011152331717312336 0.004132178146392107
-0.1740826666355133 -0.3703279495239258 -0.21786540746688843
0.164816215634346 0.13164706528186798 0.4613964557647705
-0.38737520575523376 0.39794158935546875 0.2652863562107086
0.37110409140586853 -0.0003109186072833836 -0.16109754145145416
0.38894540071487427 -0.541352391242981 -0.07499366998672485
-0.13794484734535217 0.0008081602863967419 0.061076004058122635
-0.45950847864151 0.15171800553798676 -0.4058723449707031
0.389370858669281 0.0008617732673883438 0.029574139043688774
0.36315175890922546 -0.5176122784614563 -0.13562971353530884
-0.03599364310503006 -0.38237133622169495 0.2536982297897339
-0.14273130893707275 -0.6487472057342529 0.10621994733810425
-0.38654056191444397 -0.05430532246828079 -0.16860342025756836
0.3849465250968933 -0.28494393825531006 0.1636100858449936
-0.24545320868492126 -0.2085489183664322 0.010446660220623016
0.23713548481464386 0.4028680622577667 0.2267557680606842
0.2986116111278534 0.39800184965133667 -0.4006193280220032
0.11938221007585526 0.00022654933854937553 0.27049461007118225
-0.03903720900416374 -0.6191955208778381 0.08852406591176987
0.260586678981781 -0.6238158345222473 -0.17863306403160095
-0.10681505501270294 0.36547207832336426 -0.39567503333091736
-0.44109824299812317 -0.001037118025124073 -0.11463353037834167
0.3057783246040344 0.011821143329143524 0.340453565120697
-0.10922867059707642 -0.6342667937278748 -0.21247126162052155
-0.3806034326553345 0.00048653967678546906 -0.08470085263252258
-0.37502893805503845 0.41484835743904114 -0.04539885371923447
-0.17424088716506958 0.2591977119445801 0.34804457426071167
-0.0037312821950763464 -0.6375246047973633 -0.2598813474178314
-0.4178851246833801 0.4001660645008087 0.054000373929739
0.11707782000303268 -0.026607725769281387 -0.3761399984359741
0.19761495292186737 -0.5829545259475708 0.24565093219280243
0.3086017966270447 -0.42732611298561096 0.17106404900550842
-0.5717592239379883 0.17943890392780304 -0.11642451584339142
0.11682794243097305 -0.4730076193809509 -0.3180830776691437
-0.5787789821624756 0.04081007093191147 -0.33706602454185486
0.38671210408210754 -0.003012071829289198 -0.21480712294578552
0.040510393679142 0.2827070355415344 0.4542476236820221
-0.4040880501270294 -0.008117269724607468 -0.30314695835113525
-0.17836272716522217 -0.4733275771141052 0.030966227874159813
0.38724952936172485 0.4021797180175781 -0.3461030423641205
0.11411461234092712 0.0022442853078246117 0.14052647352218628
-0.4523596465587616 0.3785007894039154 -0.40573975443840027
-0.36194559931755066 0.0028502584900707006 -0.380768746137619
0.06648088246583939 0.0027283476665616035 -0.2767490744590759
0.41201862692832947 -0.37941455841064453 -0.12415249645709991
-0.333782821893692 0.3979872763156891 0.01564493030309677
-0.18956534564495087 0.0006375107914209366 -0.2152971774339676
0.5820213556289673 0.10807842761278152 0.2514205574989319
-0.5082940459251404 0.39537039399147034 0.31443461775779724
-0.18339937925338745 -0.5762265920639038 -0.047844428569078445
0.11357752978801727 0.0017818976193666458 0.11537878960371017
0.2704150080680847 -0.10202564299106598 -0.32618623971939087
0.4177221357822418 -0.02732964977622032 0.08264438062906265
-0.5787158012390137 0.35959941148757935 -0.2959234118461609
-0.4237823188304901 0.08897299319505692 -0.40506207942962646
-0.31179171800613403 0.01717003807425499 0.34612104296684265
-0.22593306005001068 0.18220162391662598 0.34655115008354187
0.27743667364120483 0.2293800711631775 0.3469487726688385
-0.5184301733970642 0.09143001586198807 -0.2791842818260193
-0.4129917025566101 0.10072841495275497 -0.36574292182922363
0.5056552290916443 0.2647723853588104 0.3374689221382141
0.3295315206050873 0.2841126322746277 -0.4081178605556488
0.2922588884830475 0.4033365845680237 -0.24031171202659607
0.4313000738620758 0.0012102872133255005 0.2510891556739807
0.33461880683898926 0.004328740295022726 0.3268430531024933
0.08656522631645203 0.07704244554042816 0.3462385833263397
0.0027409750036895275 0.11441276967525482 0.34730029106140137
0.3285931646823883 0.4014397859573364 -0.3394486904144287
0.3081895709037781 0.38890448212623596 0.37225088477134705
0.13967013359069824 0.24357196688652039 0.46260085701942444
0.1439981460571289 -0.6272175312042236 -0.1668432354927063
0.15996351838111877 -0.38383862376213074 0.28426557779312134
0.14996188879013062 -0.42822030186653137 0.2539513111114502
0.5461223125457764 0.4042346179485321 -0.36907291412353516
0.01792716421186924 -0.6206120848655701 -0.14006270468235016
0.4834478199481964 -0.002207399345934391 -0.029988661408424377
0.0952313020825386 0.0003113611601293087 -0.3621697425842285
0.583369791507721 0.12800458073616028 0.11031202226877213
-0.23565787076950073 -0.03975303843617439 -0.015235556289553642
-0.47738736867904663 0.40218931436538696 -0.2033872753381729
0.2747133672237396 -0.6211062669754028 -0.18274566531181335
0.25194039940834045 -0.07083111256361008 0.2781740725040436
0.5841735601425171 0.36478227376937866 -0.3357953429222107
0.3922728896141052 0.3962739109992981 -0.22190985083580017
0.49643751978874207 0.403483122587204 -0.34582605957984924
-0.3893164098262787 -0.07286688685417175 -0.13629752397537231
-0.5198260545730591 0.08081059902906418 0.10993541777133942
0.5344156622886658 0.40581896901130676 0.057695526629686356
-0.12991712987422943 0.3990444839000702 0.17607612907886505
-0.2757841944694519 0.07099220901727676 -0.3941360116004944
-0.4989207684993744 0.39767831563949585 0.11166507005691528
0.3450169861316681 -0.11700458824634552 -0.2818632125854492
-0.517957329750061 0.0878843441605568 0.014747142791748047
0.5878323316574097 0.3643069267272949 -0.1757592409849167
-0.5740004777908325 0.04363830015063286 -0.3636685609817505
0.33738580346107483 0.0017206594347953796 -0.14126698672771454
-0.06566912680864334 0.14657048881053925 -0.4075492024421692
0.23349691927433014 -0.6247177124023438 -0.10142785310745239
0.01645122841000557 -0.6207567453384399 0.04240656644105911
0.45297807455062866 -0.0009412202052772045 0.0911526009440422
0.40094828605651855 -0.21693995594978333 -0.20542432367801666
0.10430825501680374 -0.6249265670776367 0.10895828157663345
0.3210262954235077 0.35621604323387146 0.43883827328681946
0.21610671281814575 -0.344287633895874 -0.35735172033309937
0.10425150394439697 0.26496613025665283 -0.39831066131591797
0.1993933618068695 0.0008841119706630707 -0.1672573834657669
-0.4286581873893738 0.39846718311309814 0.17946326732635498
-0.4060174524784088 0.3986060321331024 0.04897194728255272
0.5274760723114014 0.3906838893890381 0.34242016077041626
0.26464375853538513 0.3712006211280823 -0.4061376452445984
0.17005513608455658 -0.5047374367713928 0.2532567083835602
0.2316180169582367 -0.2671327590942383 -0.3463830351829529
-0.4510003328323364 0.11339744180440903 0.34154677391052246
-0.09487944096326828 0.40195655822753906 -0.016178905963897705
-0.2371702790260315 -0.2035115510225296 -0.01439417153596878
-0.11541786044836044 -0.588420033454895 0.1507088989019394
0.3004039227962494 -0.002727198414504528 -0.26001107692718506
0.2619253695011139 -0.3563654124736786 0.2685101330280304
-0.45085608959198 0.12420906871557236 -0.40527868270874023
-0.43459948897361755 0.3981025815010071 0.30741623044013977
-0.28037339448928833 -0.00020206160843372345 -0.16967178881168365
-0.5122537016868591 -0.11454597860574722 0.14388619363307953
-0.5775642991065979 0.0972914770245552 -0.14263679087162018
0.03992890939116478 0.40224525332450867 -0.20545072853565216
-0.530523419380188 0.39182984828948975 -0.10816074162721634
-0.5753688216209412 0.2602382004261017 0.11165672540664673
0.16289116442203522 0.001635013148188591 0.21069231629371643
0.2224673628807068 -0.039378050714731216 0.3144323527812958
0.5719501376152039 0.008220827206969261 -0.09762120991945267
0.35871511697769165 -0.004140668548643589 -0.2565934658050537
0.05015137046575546 0.011788809671998024 -0.3977165222167969
-0.28170156478881836 0.0007528415881097317 -0.32743629813194275
0.38144898414611816 -0.0008801133371889591 0.13389474153518677
-0.15732237696647644 -0.1393188238143921 -0.24361394345760345
-0.5780684351921082 -0.024528561159968376 0.24804472923278809
0.2636263966560364 0.25736936926841736 -0.40071901679039
0.28790608048439026 -0.6451313495635986 -0.23971004784107208
0.18561674654483795 0.4027543365955353 -0.10391546785831451
0.33231961727142334 0.16863182187080383 0.3475651144981384
0.17350926995277405 -0.03331180661916733 0.46045002341270447
0.43408745527267456 0.18121683597564697 -0.40841495990753174
-0.4550023078918457 0.2328333556652069 -0.4084864556789398
0.256755530834198 -0.6159420609474182 0.12194637209177017
0.3029344379901886 0.4020731747150421 0.2349696308374405
0.10595405101776123 0.015098696574568748 -0.40670162439346313
0.38951224088668823 -0.00388842960819602 0.1742078959941864
-0.434905469417572 -0.08915197104215622 -0.18438708782196045
-0.24685750901699066 0.40293484926223755 -0.1867140233516693
-0.02498634345829487 -0.3728775978088379 0.2611093521118164
-0.0763104036450386 0.0015019821003079414 0.16177169978618622
0.5798952579498291 0.13150200247764587 -0.1256972849369049
-0.05039239302277565 0.1484140157699585 0.38551637530326843
0.2936357855796814 0.07840383797883987 -0.4044439494609833
0.3380282521247864 -0.6128214001655579 -0.1939462274312973
-0.3775988221168518 0.04002441465854645 0.0888914167881012
0.16079826653003693 -0.622200608253479 0.035598501563072205
0.3276994824409485 -0.37161916494369507 -0.26128968596458435
0.05240711197257042 -0.4249690771102905 0.2563585042953491
0.08703593909740448 0.4149620234966278 0.37923353910446167
0.1659887135028839 -0.627525269985199 0.02552340179681778
0.16990502178668976 0.4018148183822632 0.32340624928474426
0.055635515600442886 -0.23689207434654236 -0.37447112798690796
0.39427533745765686 -0.2737569212913513 -0.21579119563102722
-0.5135448575019836 0.09562700986862183 0.16901086270809174
-0.40153980255126953 0.07773608714342117 0.08707861602306366
-0.11535325646400452 -0.6313066482543945 -0.08249543607234955
-0.08229628205299377 0.39893582463264465 -0.29729631543159485
-0.33582785725593567 0.0019031320698559284 0.249148890376091
-0.11812493950128555 0.001219406258314848 -0.027426131069660187
0.4170728921890259 -0.2377854436635971 -0.15346641838550568
0.2862856686115265 -0.22993910312652588 -0.33027780055999756
0.144850954413414 -0.6265584230422974 -0.15152110159397125
-0.20640252530574799 -0.01799832470715046 0.092240110039711
-0.47193965315818787 -0.11145980656147003 -0.21701781451702118
0.37613868713378906 0.0008196075214073062 -0.09379591047763824
-0.06916677951812744 0.13695234060287476 -0.4075563848018646
0.0787278562784195 0.3981889486312866 0.32544824481010437
-0.16971568763256073 -0.0063726529479026794 0.17337369918823242
-0.34766194224357605 0.005188010632991791 -0.04409375041723251
-0.02309819869697094 -0.39476916193962097 -0.296963632106781
-0.4443770945072174 0.18203513324260712 0.34436360001564026
0.300356924533844 -0.6235601305961609 -0.10993476957082748
0.49017763137817383 0.4020744860172272 0.044047094881534576
0.13271988928318024 0.0022008917294442654 0.3331316113471985
0.10871905833482742 -0.5940644145011902 0.26301997900009155
0.3034968674182892 -0.0014597652480006218 -0.21607066690921783
0.014433510601520538 0.3992930054664612 0.21215468645095825
0.3345598876476288 -0.46896153688430786 0.14774076640605927
-0.1540990173816681 0.19885064661502838 -0.4067963659763336
0.33055442571640015 0.0010731960646808147 -0.20111960172653198
-0.5080429911613464 0.3736150860786438 -0.02488984540104866
0.5556412935256958 0.4056380093097687 -0.19494019448757172
-0.18748104572296143 0.3960244655609131 0.33178406953811646
0.24804461002349854 -0.5818692445755005 0.22979524731636047
-0.39487534761428833 -0.09726935625076294 -0.2152431160211563
0.40724197030067444 0.40207868814468384 -0.26102232933044434
-0.10452912002801895 -0.1565966159105301 0.24721257388591766
-0.5700488686561584 0.341346800327301 0.0960661843419075
0.25277823209762573 0.14657871425151825 0.33958303928375244
-0.04706916958093643 0.0006896685808897018 -0.11272506415843964
0.10722041130065918 0.0006262380629777908 0.0326235294342041
-0.5050839781761169 0.1034049466252327 0.2411932796239853
0.39871710538864136 0.2041669636964798 0.3464175760746002
0.5610823035240173 0.007624812424182892 0.23337054252624512
-0.28315070271492004 0.34834879636764526 -0.40449634194374084
0.34720179438591003 -0.20195141434669495 -0.27554965019226074
0.23442862927913666 -0.0067228213883936405 0.3049081265926361
-0.5808702111244202 0.34181860089302063 -0.19938939809799194
-0.1640651524066925 -0.6456419229507446 -0.11915414035320282
0.06891780346632004 0.04577361047267914 -0.4000018239021301
0.17169030010700226 0.1724340170621872 0.3472612798213959
-0.06373583525419235 -0.6449599266052246 -0.21625329554080963
-0.5743070840835571 -0.023451371118426323 -0.2551180124282837
0.5634441375732422 0.011400493793189526 0.21685239672660828
-0.09610041975975037 0.20296548306941986 -0.40837228298187256
-0.3384547531604767 0.3986486494541168 -0.3981384038925171
-0.36232224106788635 0.002610116731375456 -0.3095749318599701
-0.16056160628795624 -0.11797840893268585 -0.25218233466148376
0.13731105625629425 -0.5089908838272095 -0.31870830059051514
0.3568423092365265 -0.6357600688934326 -0.03836929053068161
0.0877661257982254 -0.6255616545677185 -0.18010397255420685
0.5788973569869995 0.01825811341404915 0.17400754988193512
0.11977200955152512 0.00036919768899679184 -0.29314592480659485
0.04378073289990425 -0.600746214389801 0.24763037264347076
0.4398271441459656 -0.001985452603548765 0.189690500497818
0.5044918060302734 0.2815477252006531 -0.4000968933105469
-0.0005682650953531265 -0.000767742283642292 0.005223196931183338
0.08781979233026505 0.3276890814304352 0.4595918357372284
-0.3679644465446472 0.1368585228919983 -0.3966338336467743
0.43568935990333557 -0.2504214346408844 -0.11323204636573792
-0.5721437335014343 0.08906713128089905 -0.008385171182453632
-0.1365397870540619 0.29011765122413635 -0.4017316699028015
0.16717296838760376 -0.032334063202142715 -0.36333438754081726
0.12210038304328918 0.0006203697994351387 0.011655312962830067
0.27728772163391113 -0.07009756565093994 0.4242432415485382
-0.5827025175094604 0.29724106192588806 -0.20300376415252686
0.4194222390651703 -0.37684354186058044 0.09552540630102158
0.1014421209692955 0.37037384510040283 -0.3978120982646942
-0.1062634289264679 0.40442654490470886 -0.2177630215883255
-0.5156952738761902 0.27798575162887573 -0.40867018699645996
-0.3550739586353302 -0.020392699167132378 -0.3665079176425934
-0.5226048231124878 0.10427844524383545 0.33799347281455994
0.27194851636886597 -0.04839105159044266 0.4567652940750122
-0.47962486743927 0.05479850247502327 0.3453187048435211
0.24586746096611023 -0.5922750234603882 0.22554083168506622
-0.5230903625488281 0.39675143361091614 0.3010545074939728
0.5627347826957703 0.1208265945315361 0.34005647897720337
0.18463942408561707 0.21233835816383362 0.4623255729675293
-0.3223091661930084 0.00030567822977900505 0.1365187168121338
0.439359188079834 -0.001374374725855887 0.030147047713398933
0.26385214924812317 0.0006545530632138252 -0.2581127882003784
-0.4859815239906311 0.4021415114402771 -0.0954665094614029
-0.47027552127838135 -0.11731228232383728 -0.16539828479290009
-0.0011379682691767812 0.0015832241624593735 0.26800933480262756
0.4022262990474701 -0.0005554622039198875 0.11209694296121597
-0.15841057896614075 0.40165749192237854 0.016669029369950294
-0.5765291452407837 0.16076844930648804 -0.13997024297714233
-0.03197827935218811 0.33136701583862305 -0.4051090478897095
-0.1826707273721695 0.0002950658090412617 0.24247345328330994
-0.08525510877370834 -0.3849194645881653 0.22333967685699463
-0.3565715253353119 0.0004798443987965584 -0.33038729429244995
-0.23674213886260986 -0.15277200937271118 -0.11743684113025665
0.05097927153110504 -0.24171407520771027 -0.36728376150131226
0.22563359141349792 4.707183688879013e-05 0.22827520966529846
-0.4146486520767212 0.0982700064778328 -0.3959102928638458
0.1321144700050354 -0.6380000114440918 0.2592921853065491
-0.18262973427772522 -0.1979794204235077 0.1637302190065384
-0.5084086060523987 0.1594822257757187 0.34438222646713257
0.3783540725708008 -0.4387054145336151 0.05640790984034538
0.14364708960056305 -0.3356821537017822 0.31226158142089844
0.20890425145626068 0.40035849809646606 -0.23557132482528687
0.1624407023191452 0.0011977870017290115 0.15328222513198853
0.4070838987827301 -0.06502184271812439 0.13299033045768738
0.32590124011039734 0.1157674714922905 0.42480024695396423
0.4389490485191345 -0.016276203095912933 -0.02638430893421173
-0.5111488699913025 0.15559449791908264 -0.3993661403656006
-0.24545465409755707 0.3963298499584198 0.05970361456274986
-0.01899358630180359 -0.3094079792499542 0.29199427366256714
-0.2088249921798706 0.39996010065078735 -0.2947774827480316
0.02325495146214962 -0.5344780087471008 -0.3045688271522522
0.5778098702430725 0.10685282945632935 0.22191207110881805
-0.3946899473667145 0.40294530987739563 -0.21662290394306183
-0.512554943561554 0.01479079108685255 0.3547617495059967
0.17046105861663818 0.0012204498052597046 0.12044409662485123
0.4993940591812134 0.2574274241924286 -0.39859554171562195
-0.2944679856300354 0.09563524276018143 -0.39409318566322327
-0.4320305287837982 -0.10864502936601639 0.2550064027309418
0.4411790668964386 -0.11669549345970154 0.005011050961911678
0.12027527391910553 -0.023276176303625107 0.4622463285923004
-0.4864354133605957 0.11634473502635956 0.27887019515037537
-0.2763182520866394 0.09792375564575195 0.34233933687210083
-0.4999151825904846 0.3728890120983124 -0.05247103050351143
-0.18563711643218994 -0.3992042541503906 -0.031574543565511703
-0.18672993779182434 -0.17551127076148987 0.1587010771036148
-0.5833089351654053 0.2183363288640976 -0.26242920756340027
-0.050244998186826706 0.0010123257525265217 0.045902907848358154
-0.5809081196784973 0.2582135796546936 -0.28955963253974915
0.2521844506263733 -0.6456146240234375 0.18574224412441254
0.20789730548858643 0.0020492328330874443 -0.05011444911360741
0.27383607625961304 -0.6204659342765808 -0.024676494300365448
-0.5109965801239014 -0.017628099769353867 0.35649028420448303
-0.04154278337955475 0.06734801083803177 -0.4041071832180023
-0.5723904967308044 0.34474340081214905 0.20787030458450317
0.3593223989009857 -0.4130052328109741 0.10065746307373047
0.33037957549095154 0.35734206438064575 0.45986106991767883
0.10944861173629761 -0.07525917887687683 -0.370947003364563
-0.5777313113212585 0.27741533517837524 0.29530826210975647
0.2835078537464142 -0.6476998329162598 0.14725205302238464
0.5824279189109802 0.09040968865156174 0.050164032727479935
0.1325671225786209 -0.6258096694946289 0.007523896172642708
0.3846133351325989 0.0006206249818205833 -0.03251131996512413
-0.5704904198646545 0.07416561990976334 -0.0360160730779171
0.06127028539776802 0.27616024017333984 -0.4068564474582672
-0.06050533801317215 -0.3857576847076416 0.22375118732452393
-0.13855525851249695 -0.12917055189609528 -0.2768452763557434
-0.2685997486114502 0.38424742221832275 -0.08490154892206192
0.062000297009944916 8.029397577047348e-06 -0.24317368865013123
0.027082309126853943 0.25178587436676025 0.3567454218864441
0.5825051665306091 0.27982279658317566 -0.11301585286855698
-0.35113999247550964 0.3102608323097229 -0.3950461745262146
-0.07068216055631638 -0.2526085674762726 0.26917916536331177
-0.5182197690010071 0.34395498037338257 -0.4015253484249115
0.33596453070640564 0.40430694818496704 0.10043530911207199
0.18292774260044098 -0.6414950489997864 -0.3022317886352539
-0.5443050861358643 0.0836901068687439 -0.1683681160211563
-0.05258284509181976 0.4018608033657074 0.18720929324626923
-0.09298952668905258 -0.48421230912208557 0.183435320854187
-0.03933613374829292 -0.2771870493888855 0.27613261342048645
-0.19015583395957947 0.39741483330726624 -0.39059144258499146
0.2533653974533081 0.3698972463607788 0.3491637408733368
0.5305388569831848 0.0019097579643130302 -0.2738114595413208
0.15937331318855286 0.0031078022439032793 0.33369478583335876
0.21081295609474182 -0.6254954934120178 -0.11136490851640701
0.3429104685783386 -1.841224730014801e-06 -0.18586324155330658
-0.2632049322128296 0.39811617136001587 -0.28861555457115173
0.2776748538017273 0.4022817313671112 0.06064341962337494
0.09791886061429977 0.07562991231679916 0.3463406562805176
0.06709993630647659 -0.2723595201969147 -0.3744765818119049
-0.5828016996383667 0.013789166696369648 0.05656280741095543
0.03548792377114296 -0.29774314165115356 -0.3647271990776062
0.0442739762365818 -0.14802175760269165 -0.36805835366249084
-0.03928980976343155 0.0007736440747976303 -0.0023114350624382496
0.11346886307001114 -0.2818840742111206 -0.3753488063812256
0.21689246594905853 0.39958664774894714 0.45733681321144104
0.13656026124954224 -0.6430866122245789 -0.3098388612270355
0.007639538962393999 0.0004211636260151863 -0.012165113352239132
0.3694588840007782 -0.6524978876113892 0.07534879446029663
-0.5702150464057922 0.03319761902093887 -0.25866371393203735
0.1003359705209732 0.46074092388153076 0.39618122577667236
0.261086642742157 -0.2772872745990753 0.27905353903770447
0.16118894517421722 0.181560680270195 0.3442107141017914
0.36615049839019775 -0.10217782855033875 -0.2417498677968979
-0.583686888217926 0.17737410962581635 -0.25838518142700195
0.09293106943368912 0.15705449879169464 0.34628766775131226
0.05839407816529274 0.39955005049705505 0.09790514409542084
0.09436678141355515 -0.06345310062170029 -0.37707361578941345
-0.04421690106391907 -0.6215676665306091 -0.016922609880566597
0.2737455368041992 0.0008864323608577251 -0.11905879527330399
-0.5421624183654785 -0.06511279195547104 -0.405257910490036
0.13231174647808075 0.002813059836626053 0.19954931735992432
-0.3609589636325836 -0.025748468935489655 -0.17591825127601624
0.30249693989753723 -0.6010175943374634 -0.23659566044807434
-0.020260166376829147 0.37250593304634094 0.34457752108573914
0.07398601621389389 0.3959384262561798 -0.2705695629119873
0.05429648235440254 0.23366008698940277 -0.4062071442604065
-0.072422556579113 -0.4118860363960266 -0.2535264194011688
0.41228169202804565 -0.0027770251035690308 0.05679813772439957
0.07033069431781769 -0.04666868969798088 0.4506867825984955
0.30778178572654724 0.0018298914656043053 -0.023791886866092682
-0.23296722769737244 0.008148234337568283 0.33774682879447937
-0.06868494302034378 -0.15788623690605164 -0.3276306986808777
0.043467678129673004 0.4025658369064331 0.08916089683771133
0.28767961263656616 -0.28369614481925964 0.259625107049942
0.2044820934534073 0.46699783205986023 0.43335527181625366
0.22437062859535217 0.0007622512057423592 -0.08453653007745743
-0.2869696319103241 0.39950233697891235 0.1313016563653946
-0.1706560254096985 -0.37101754546165466 0.18480953574180603
-0.07857105880975723 -0.0013425098732113838 -0.2140655666589737
-0.0058494252152740955 -0.0009169420227408409 -0.04295659810304642
-0.41890087723731995 0.4009312689304352 -0.15915824472904205
0.32996833324432373 0.40199586749076843 -0.010998062789440155
