-0.5806261897087097 0.08794641494750977 -0.12704651057720184
-0.034858036786317825 -0.35722246766090393 0.28513672947883606
-0.21040992438793182 0.39732182025909424 -0.3894418478012085
0.07420697808265686 -0.4365217089653015 -0.31774643063545227
0.4407849609851837 0.001251295441761613 0.20236612856388092
0.359780877828598 -0.15544793009757996 -0.2670215666294098
0.19274720549583435 0.0037854863330721855 0.01890060491859913
0.4006992280483246 -0.24596810340881348 0.15082037448883057
0.1366860568523407 0.37499624490737915 0.34408020973205566
0.3592832684516907 -0.32615378499031067 -0.2578202784061432
0.31737884879112244 0.12289409339427948 0.3823922276496887
-0.23461267352104187 -0.35331273078918457 -0.062132611870765686
-0.2664860188961029 0.4043846130371094 0.14749878644943237
-0.5465174317359924 0.3901376724243164 -0.27192965149879456
-0.527814507484436 0.0810498520731926 -0.27936315536499023
-0.21148404479026794 0.40567028522491455 0.24664178490638733
0.5264605283737183 0.3974457085132599 -0.09665769338607788
0.07323302328586578 -0.35537999868392944 0.31350189447402954
-0.1991690844297409 0.4011519253253937 0.10943879932165146
-0.4180653989315033 0.006112261675298214 0.27358901500701904
-0.5373221039772034 -0.08415395021438599 0.13706357777118683
-0.06926766037940979 -0.6232513189315796 0.08629582077264786
0.5558874011039734 0.4012862741947174 -0.16222096979618073
-0.01708226650953293 0.28367340564727783 0.3850131034851074
0.1445503681898117 0.47146475315093994 0.4207456409931183
-0.12211191654205322 0.3730977475643158 0.3400229513645172
0.5721195936203003 0.0370570607483387 -0.39716413617134094
0.328885555267334 -0.00036985520273447037 0.12568405270576477
0.3821690082550049 0.002637583762407303 -0.008215933106839657
-0.13302072882652283 -0.5827867388725281 -0.19405464828014374
0.3701627850532532 0.37836503982543945 -0.40183010697364807
0.26664647459983826 0.0024935733526945114 -0.26254960894584656
-0.20951823890209198 -0.06611242890357971 -0.17374727129936218
0.5805197954177856 0.18747155368328094 0.2508581876754761
-0.25569143891334534 0.20272471010684967 0.3412338197231293
-0.014606315642595291 0.40021663904190063 -0.2910720109939575
0.48458996415138245 0.3388032615184784 -0.4060211479663849
0.4173222482204437 -0.08177542686462402 0.10915037989616394
0.34840792417526245 0.4008849561214447 -0.003090702462941408
0.320894718170166 -0.6212671399116516 -0.10418091714382172
0.35123708844184875 -0.635697603225708 -0.036172766238451004
0.3968603312969208 -0.0044890642166137695 0.052866045385599136
-0.5728334188461304 0.08458980917930603 -0.21620303392410278
0.22305695712566376 7.585901767015457e-05 -0.36974355578422546
-0.1883160024881363 -0.07072623819112778 -0.1990983784198761
-0.5513342022895813 -0.06931091099977493 0.2148670256137848
-0.4157649278640747 0.3874683082103729 -0.1753581315279007
-0.5690510272979736 0.21909409761428833 0.3372063636779785
-0.17058458924293518 -0.45344167947769165 0.0581025667488575
0.15934304893016815 -0.44642373919487 -0.31376078724861145
-0.5135300755500793 -0.10060002654790878 0.24508948624134064
-0.39750221371650696 0.07385308295488358 -0.15864165127277374
0.1955982744693756 0.35471171140670776 -0.4065946340560913
-0.5806502103805542 0.3592416048049927 0.016824791207909584
0.1846315860748291 0.26877447962760925 -0.4038369357585907
-0.21138152480125427 0.2184372991323471 0.343092143535614
0.10699063539505005 -0.6246830224990845 0.18560677766799927
-0.5753883123397827 0.07751177996397018 0.023055987432599068
0.07181720435619354 -0.1624525785446167 -0.3706724941730499
0.21594269573688507 0.47317734360694885 0.39539405703544617
0.04990289732813835 -0.06542342156171799 0.4400623142719269
-0.5773960947990417 0.018689047545194626 0.2141428291797638
0.031450532376766205 0.3998374342918396 0.3407171368598938
0.017448490485548973 -0.032147131860256195 0.33517366647720337
-0.16550160944461823 0.399822860956192 -0.0365135557949543
-0.06423501670360565 -0.03255351260304451 0.2708410918712616
0.5854389667510986 0.25318044424057007 -0.37632057070732117
0.11364272981882095 0.40082699060440063 -0.22516502439975739
-0.03857507184147835 0.295524001121521 0.3486080467700958
0.07332724332809448 -0.6455678343772888 0.21645043790340424
0.3811151385307312 -0.6416939496994019 -0.06741515547037125
0.3844771683216095 0.004023069050163031 -0.05804133787751198
-0.3732137978076935 -0.02268441580235958 -0.2347002625465393
-0.4260442554950714 0.2101031392812729 0.342286616563797
0.06908751279115677 0.40096473693847656 0.00373068917542696
0.3779304623603821 -0.6331125497817993 0.052893634885549545
0.2658206522464752 0.03187984973192215 0.3436391055583954
0.2875012457370758 -0.6234064698219299 0.08455117791891098
-0.5721530318260193 0.34701526165008545 -0.3940691351890564
-0.5772117972373962 0.25500792264938354 -0.3241128921508789
0.35787662863731384 0.3978819251060486 -0.3622756004333496
0.36281442642211914 -0.5689922571182251 0.10749316960573196
-0.40628400444984436 0.09288282692432404 -0.046093687415122986
0.23215170204639435 -0.0069456580094993114 0.28966397047042847
-0.19412285089492798 0.3982924520969391 -0.3844496011734009
-0.366487056016922 0.06612231582403183 -0.03507192060351372
0.3410916328430176 -0.012949762865900993 0.21935142576694489
-0.5047754049301147 0.09437242150306702 -0.32882168889045715
0.1760530322790146 0.39964115619659424 0.012421746738255024
0.07016277313232422 0.05195120722055435 0.34553831815719604
0.3780609667301178 0.3990327715873718 -0.21780046820640564
0.0928536057472229 0.40103742480278015 0.12814725935459137
0.15043409168720245 -0.6262884140014648 -0.20046627521514893
-0.12459280341863632 0.15410646796226501 0.3437177538871765
0.1619303673505783 -0.4209426939487457 0.2538408637046814
0.027074135839939117 0.39038366079330444 0.4441199004650116
0.16098828613758087 0.00457640178501606 0.22643019258975983
-0.018605712801218033 0.3993256688117981 -0.19280722737312317
-0.09303400665521622 0.0022620733361691236 -0.10725660622119904
-0.5183902978897095 0.32373300194740295 -0.4023537039756775
-0.5677409768104553 0.07219803333282471 -0.3307328522205353
-0.5470960140228271 0.3874233663082123 -0.35108259320259094
-0.21263398230075836 0.003330943174660206 -0.19775135815143585
-0.3504740297794342 0.0029794159345328808 0.17222405970096588
-0.14023278653621674 -0.5786779522895813 -0.1791263073682785
0.5783454775810242 0.33711767196655273 -0.08363639563322067
-0.3722846806049347 0.2553141415119171 0.3432903289794922
0.5271777510643005 0.3984037935733795 -0.15795117616653442
-0.506974458694458 0.11333680152893066 -0.16524215042591095
0.5837836265563965 0.08789155632257462 -0.1857728660106659
0.4985866844654083 0.3955942988395691 -0.3621845543384552
-0.5680056214332581 -0.04230187460780144 0.035579830408096313
0.04822676628828049 -0.6389732360839844 0.21390032768249512
0.08253560960292816 -0.6204986572265625 -0.06044663116335869
-0.16885606944561005 -4.898570477962494e-05 -0.15057294070720673
0.0301430132240057 0.39926448464393616 -0.2445749193429947
-0.30253133177757263 0.0016698872204869986 0.23455600440502167
-0.010541275143623352 0.08783451467752457 -0.40359801054000854
-0.380819708108902 -0.0030247275717556477 -0.3959200382232666
-0.30052393674850464 0.39997419714927673 -0.24021777510643005
0.26757335662841797 0.0010275226086378098 -0.3252750635147095
-0.22998106479644775 -0.37340593338012695 -0.00041169580072164536
0.25777965784072876 -0.37115123867988586 -0.3302519619464874
-0.5334728360176086 0.3942614793777466 -0.08164642006158829
-0.532069981098175 0.3924984037876129 0.004484108649194241
-0.5496845841407776 -0.07033327966928482 0.26894858479499817
0.04636586457490921 -0.6225505471229553 -0.06643667072057724
0.3414407968521118 0.3987216353416443 -0.20355215668678284
0.22834743559360504 0.004173700697720051 -0.06545454263687134
0.4470363259315491 -0.14254304766654968 -0.018802516162395477
0.480244904756546 0.32416030764579773 0.34427568316459656
-0.18687042593955994 0.002012737561017275 -0.2840896248817444
0.24463404715061188 -0.21001598238945007 -0.34443631768226624
0.07168607413768768 0.3143605589866638 -0.4010537266731262
0.3115956783294678 0.16513380408287048 -0.4052102267742157
-0.009570179507136345 -0.6241711974143982 -0.04570640251040459
0.3474085032939911 -0.4785296320915222 0.12892290949821472
-0.08241789788007736 0.0018762373365461826 0.07329582422971725
0.5826685428619385 0.35324186086654663 -0.07042358070611954
0.4435759484767914 0.06269171833992004 0.3418886363506317
-0.17344994843006134 0.18853947520256042 0.34332072734832764
0.10690458863973618 -0.008092375472187996 0.46695676445961
-0.14673775434494019 0.403361052274704 0.26878735423088074
0.5839296579360962 0.19188369810581207 -0.040233511477708817
-0.0057962629944086075 -0.6431102752685547 0.2043498158454895
0.14910683035850525 0.3990139663219452 -0.1872560977935791
0.13513390719890594 0.4003584682941437 0.3075109124183655
-0.46294456720352173 -0.0008276812732219696 -0.25807708501815796
0.04288431257009506 -0.0013858217280358076 0.3305426239967346
-0.2364807426929474 0.10964944958686829 -0.4029891788959503
-0.023944802582263947 -0.6207508444786072 -0.06205875426530838
-0.26060616970062256 -6.9374218583106995e-06 0.14095669984817505
0.3734629452228546 -0.0186142660677433 -0.22978602349758148
0.07680180668830872 -0.5799146294593811 0.2605017125606537
0.41045641899108887 0.002285705879330635 0.07312441617250443
0.5811829566955566 0.0688360333442688 0.2706684470176697
-0.49011853337287903 0.1214229166507721 -0.21384835243225098
0.10292410850524902 -0.3756185472011566 0.28967976570129395
-0.2250177413225174 -0.34283626079559326 -0.14008010923862457
-0.47289642691612244 0.10837627202272415 0.3403184711933136
0.08082105219364166 0.004353530239313841 -0.3668832778930664
-0.39250919222831726 0.004515293054282665 -0.27797046303749084
-0.5471811294555664 -0.07294660806655884 0.2446836233139038
-0.4210207462310791 -0.09410323947668076 -0.1842065453529358
0.034726742655038834 0.0026821112260222435 0.016164368018507957
0.446124792098999 -0.3065846264362335 0.024228379130363464
0.37167245149612427 -0.2832801043987274 -0.2427394837141037
0.2836367189884186 0.061714835464954376 -0.40368014574050903
0.09763883054256439 -0.15761949121952057 -0.3733380436897278
-0.27801933884620667 0.4016088545322418 0.3226340413093567
0.15640853345394135 -0.6217408776283264 -0.08266213536262512
0.15684354305267334 -0.3961988687515259 0.2644692659378052
-0.5454084873199463 -0.07578644901514053 0.19589348137378693
0.315263032913208 0.001839127391576767 -0.23115451633930206
-0.023521436378359795 -0.3712754547595978 -0.3421953320503235
0.12027738988399506 -0.6258963942527771 0.12263555079698563
0.42762792110443115 0.0030281785875558853 0.03208285570144653
-0.5721195936203003 0.30547454953193665 0.33677008748054504
0.19745396077632904 0.0030375104397535324 -0.16066701710224152
-0.5816370248794556 0.161338210105896 0.04680775851011276
0.17883270978927612 0.16353371739387512 -0.40380313992500305
0.3283378481864929 -0.21254263818264008 0.22840692102909088
-0.22432449460029602 -0.1114891991019249 0.08033978939056396
-0.277325302362442 0.2746388614177704 0.34033364057540894
0.2877217233181 -0.3734844923019409 0.243177130818367
-0.18484561145305634 -0.6255896091461182 -0.027297688648104668
0.09275855869054794 -0.6235418319702148 -0.2129976749420166
0.03236280381679535 0.24765563011169434 0.45707765221595764
0.5663691163063049 0.39690497517585754 -0.22005823254585266
0.008291851729154587 -0.6238780617713928 0.17304927110671997
0.32228952646255493 0.284967303276062 0.4448135197162628
0.5293607711791992 0.20620889961719513 -0.40486574172973633
-0.3889606297016144 0.0956992655992508 -0.40080296993255615
-0.11134612560272217 0.40103965997695923 0.07975062727928162
0.14967794716358185 -0.6213636994361877 -0.22715523838996887
0.2960011959075928 -0.5505164861679077 0.18605095148086548
-0.2450648546218872 -0.11542833596467972 -0.021263044327497482
0.2981126308441162 0.005083673633635044 -0.0743592157959938
0.06802750378847122 0.4002014100551605 0.22707140445709229
-0.1792706549167633 -0.4668385088443756 0.033875852823257446
0.12977643311023712 0.03352677822113037 0.4670872986316681
0.03778323531150818 0.386952668428421 0.3631270229816437
-0.545548141002655 0.12425382435321808 -0.401797354221344
0.11507806926965714 -0.2749178111553192 0.3150058388710022
0.12678591907024384 0.003576226532459259 0.24926553666591644
0.23440028727054596 0.2531490623950958 0.34342169761657715
0.19023320078849792 0.47003594040870667 0.38087812066078186
-0.0006802965654060245 0.0026280945166945457 0.04376986622810364
-0.23640429973602295 -0.2975044250488281 -0.07245432585477829
0.21724125742912292 -0.6190893054008484 -0.054020244628190994
-0.28271129727363586 0.39270004630088806 0.33495035767555237
0.3079027235507965 -0.4933173358440399 -0.23376570641994476
0.5619733333587646 0.31480494141578674 0.3446013331413269
0.5825663805007935 0.114084392786026 -0.3591214716434479
-0.20409148931503296 -0.10967253148555756 -0.19514581561088562
0.034353725612163544 0.12096158415079117 0.35820311307907104
0.33372414112091064 0.003749096766114235 0.15105196833610535
0.559078574180603 0.15592685341835022 -0.40343326330184937
0.30725598335266113 0.30385637283325195 0.46417540311813354
-0.572675347328186 0.04784701019525528 -0.23853673040866852
0.5820417404174805 0.10971761494874954 0.009536080062389374
-0.2895589768886566 0.3646783232688904 -0.0261033084243536
0.08260993659496307 -0.622997522354126 -0.2621191740036011
0.31346452236175537 -0.4267234802246094 0.1763332337141037
0.49569737911224365 0.39961951971054077 -0.14229409396648407
0.11610595881938934 -0.6235609650611877 0.044402893632650375
-0.042607180774211884 -0.6240155696868896 -0.2105190008878708
0.5648349523544312 0.002574171870946884 -0.2927313446998596
0.09877510368824005 0.39816710352897644 0.0693739727139473
0.22683091461658478 0.3998974561691284 0.1551593840122223
-0.04264617711305618 -0.21520963311195374 -0.34142300486564636
0.2996540665626526 0.4014611840248108 -0.15370216965675354
-0.3076481521129608 0.3795091509819031 0.3432846963405609
0.16590361297130585 0.002682128921151161 0.21134299039840698
0.18912962079048157 0.3015889823436737 0.34114933013916016
-0.213069885969162 0.15591444075107574 -0.40288880467414856
0.4768903851509094 0.2423732578754425 0.3433414697647095
-0.44178280234336853 -0.10673151165246964 -0.1688160002231598
0.3086318373680115 0.0020448206923902035 0.2946885824203491
-0.1612381786108017 -0.38536810874938965 0.11372153460979462
-0.5224178433418274 0.09651409834623337 -0.1508973240852356
-0.5817587375640869 0.18982185423374176 0.08298160135746002
-0.12091900408267975 -0.5616913437843323 0.1507156491279602
0.2675720751285553 0.002880978398025036 -0.1349748969078064
0.3004445433616638 -0.0005592501838691533 -0.27422335743904114
-0.47251927852630615 0.1118752658367157 0.2421424239873886
-0.37782782316207886 -0.05470612272620201 0.2592800557613373
0.4447646737098694 -0.0636327862739563 0.02470571920275688
0.586249589920044 0.3053051829338074 -0.2933735251426697
0.1796393245458603 -0.0041441284120082855 0.2599931061267853
-0.07448943704366684 0.40156543254852295 -0.010757194831967354
0.21147705614566803 -0.6522993445396423 0.2118372768163681
-0.32218703627586365 0.0013101291842758656 0.12292978167533875
0.0024930997751653194 0.401708722114563 -0.016104262322187424
-0.43031051754951477 0.08399271965026855 0.33836397528648376
-0.21447929739952087 0.20177866518497467 -0.402845174074173
0.3534923195838928 0.26280707120895386 0.34521082043647766
-0.14856038987636566 -0.19099865853786469 0.20560269057750702
0.5821812152862549 0.1644737869501114 -0.2514787018299103
-0.2228705883026123 -0.07444802671670914 -0.15027958154678345
0.18021143972873688 0.3642113208770752 -0.4061283767223358
-0.5657944083213806 0.34060972929000854 0.33679431676864624
-0.05499885603785515 -0.6425487995147705 -0.22331134974956512
0.04177720099687576 -0.39191901683807373 0.26165202260017395
0.2836736738681793 0.004270313307642937 0.02192249521613121
-0.42486995458602905 0.37975168228149414 -0.20114171504974365
0.09749503433704376 0.4705226719379425 0.4360513389110565
0.532264232635498 0.21254369616508484 -0.4026029706001282
-0.04734382778406143 0.0008283089846372604 0.27843165397644043
0.11151318997144699 -0.6226757764816284 -0.11269945651292801
-0.0735655352473259 0.002051291987299919 0.08481014519929886
0.44176194071769714 0.2542682886123657 0.34334003925323486
-0.1170709952712059 -0.6233636140823364 -0.013211478479206562
-0.5620071887969971 -0.06158113479614258 -0.22845609486103058
0.26099875569343567 0.40100717544555664 0.2114713490009308
0.3007248640060425 -0.2773459255695343 -0.3094072639942169
-0.23337869346141815 -0.12425234913825989 0.042384956032037735
0.4020030200481415 -0.3844999372959137 -0.03004561737179756
0.3244536817073822 -0.6244494915008545 -0.08701106905937195
0.30704575777053833 -0.6285382509231567 0.06954047083854675
0.2117317169904709 0.40114304423332214 -0.015510368160903454
-0.009006978012621403 0.4008325934410095 0.04701971262693405
-0.2178386002779007 0.002710023894906044 -0.1111675500869751
0.3367646038532257 0.23508945107460022 0.34536460041999817
0.1685406118631363 0.4020083546638489 0.01667316071689129
0.20789000391960144 0.0041919429786503315 -0.10467677563428879
0.38352257013320923 -0.44649264216423035 0.04013789817690849
-0.08707582205533981 0.012632242403924465 -0.40100646018981934
-0.04778259992599487 0.4003751277923584 -0.18360327184200287
0.32663434743881226 -0.18795213103294373 0.2368737757205963
-0.4640766978263855 0.006305742543190718 0.2818521559238434
-0.06381820142269135 0.20683787763118744 -0.40654778480529785
-0.5413833260536194 0.14526069164276123 0.33970701694488525
-0.44262176752090454 0.10355925559997559 -0.16642065346240997
-0.034362245351076126 -0.4118087887763977 0.23281438648700714
0.3942461311817169 -0.0019804295152425766 0.20656931400299072
-0.495760440826416 0.4015296697616577 0.28991496562957764
0.24808935821056366 0.4663703441619873 0.3797101378440857
0.25009846687316895 0.42756006121635437 0.4570474624633789
-0.3939661383628845 0.3571161925792694 -0.19807468354701996
-0.5097707509994507 -0.09529794752597809 0.0263369083404541
-0.1532333940267563 -0.1780940294265747 0.19692650437355042
0.0831831842660904 0.45928892493247986 0.4371747672557831
0.2267434000968933 -0.030308831483125687 0.3021305501461029
-0.5263828039169312 -0.08464860171079636 0.2121439129114151
-0.1254361867904663 0.001055681612342596 0.1395229548215866
0.07244108617305756 -0.5703540444374084 -0.3174467384815216
-0.10507617890834808 -0.3528529703617096 -0.30030110478401184
0.4486454129219055 -0.3214541971683502 0.006835413631051779
-0.5267991423606873 0.09736273437738419 0.23825222253799438
0.5638551712036133 0.39971914887428284 0.24988748133182526
-0.5465564131736755 0.011020654812455177 0.3073294758796692
0.40191948413848877 0.0035191408824175596 0.02558205835521221
0.40895572304725647 0.3967786431312561 -0.3568851947784424
0.23647940158843994 0.3739604949951172 0.34094229340553284
-0.5706472396850586 -0.004947734996676445 0.3268040120601654
0.261186420917511 0.003067169338464737 -0.2626335322856903
0.4915182590484619 0.1857045590877533 -0.4054466784000397
-0.23288679122924805 -0.06812086701393127 -0.12501265108585358
0.582876980304718 0.052002038806676865 0.24385692179203033
0.2516981065273285 0.46785011887550354 0.4312537908554077
-0.21196489036083221 -0.15495269000530243 0.1267600804567337
0.00011970996274612844 -0.016598902642726898 -0.35993123054504395
-0.18852843344211578 -0.4923710227012634 -0.011640140786767006
0.17528900504112244 -0.49806761741638184 -0.3092474043369293
-0.10174353420734406 -0.3240866959095001 0.24858415126800537
-0.16344302892684937 -0.49139404296875 0.08167069405317307
0.5794952511787415 0.31252890825271606 0.007338972762227058
-0.5799852013587952 -0.019075855612754822 -0.04292432963848114
-0.2408081442117691 0.20211222767829895 -0.40311330556869507
0.18375886976718903 -0.030088815838098526 0.32462239265441895
-0.1362707018852234 -0.35846012830734253 -0.27003636956214905
-0.5836830139160156 0.2659952938556671 -0.14974594116210938
0.28902170062065125 -0.4790496528148651 -0.252940833568573
0.33767780661582947 -0.6029170155525208 0.1425940990447998
0.20197370648384094 -0.6192635893821716 0.06452292203903198
0.2368917018175125 -0.08380279690027237 0.3118410110473633
-0.5785474181175232 0.004830026999115944 -0.04019039124250412
0.0882025733590126 -0.6195584535598755 0.08769592642784119
0.3573296070098877 -0.6434615254402161 -0.12359090894460678
-0.41690370440483093 0.1050330400466919 -0.14417453110218048
-0.2361205518245697 0.003835870884358883 -0.34418603777885437
0.015875721350312233 0.0027072886005043983 -0.0004286404000595212
-0.5788493156433105 0.33634644746780396 0.08005356043577194
0.14669659733772278 0.04103474318981171 0.3436253070831299
0.11951056122779846 -0.2870590388774872 -0.3730805814266205
0.5595976114273071 0.0003411993384361267 -0.24170199036598206
0.15576869249343872 0.39997807145118713 -0.11089273542165756
0.37336406111717224 -0.0030935220420360565 0.16196970641613007
0.5329296588897705 0.4010447859764099 -0.030511438846588135
0.34658512473106384 0.40123116970062256 0.02093162015080452
0.2888415455818176 0.00019256677478551865 -0.0852968841791153
0.14845405519008636 -0.6227102279663086 0.13437744975090027
0.09339648485183716 -0.6215527653694153 0.08916023373603821
0.10841838270425797 -0.6223031282424927 -0.0681447833776474
-0.5470912456512451 0.09391084313392639 0.24731066823005676
0.03198648989200592 0.28505396842956543 0.39925912022590637
0.3386145532131195 -0.4612838923931122 -0.19774490594863892
-0.30620378255844116 0.376105397939682 -0.034778300672769547
-0.43414655327796936 0.33485472202301025 -0.20958709716796875
-0.06382564455270767 0.0008523724973201752 0.09762457758188248
0.15958744287490845 0.4015468955039978 0.27166712284088135
-0.18650364875793457 0.005665695294737816 0.33012959361076355
0.30551594495773315 0.122896209359169 -0.4050820469856262
-0.06748944520950317 -0.6441711783409119 -0.21779917180538177
0.5723280906677246 0.007405320182442665 -0.272964745759964
0.581510066986084 0.03906389698386192 -0.09255286306142807
-0.5735423564910889 -0.04171191528439522 -0.26437434554100037
-0.40453529357910156 -0.08420397341251373 0.026044275611639023
0.243223175406456 0.4661616086959839 0.3924500048160553
0.21808017790317535 -0.3969877362251282 0.24245844781398773
-0.2336784154176712 0.40455883741378784 0.24893641471862793
0.17945654690265656 -0.09062204509973526 0.3375847339630127
0.24533677101135254 -0.5505067706108093 0.22500048577785492
0.15430429577827454 0.06598970293998718 0.4616371989250183
0.0833069309592247 0.0035118302330374718 0.27219516038894653
0.40556833148002625 0.40003272891044617 0.07740162312984467
-0.15051238238811493 0.001647871220484376 0.03449806943535805
0.3868367373943329 -0.39047837257385254 0.04240376129746437
-0.4841432273387909 -0.10617096722126007 -0.29050594568252563
-0.5010879039764404 0.0010656907688826323 -0.19082501530647278
-0.5076761245727539 0.3993198275566101 0.2987965941429138
-0.5369596481323242 0.389735609292984 0.02465146966278553
-0.5666508078575134 0.03793011233210564 0.23790843784809113
-0.07310028374195099 0.2823845446109772 0.3885168731212616
0.5758491158485413 0.17566677927970886 -0.39989757537841797
0.5506227612495422 0.3996105492115021 -0.04634875804185867
0.28283604979515076 -0.4391573369503021 0.20457735657691956
-0.08826976269483566 -0.12784667313098907 -0.31930795311927795
-0.4623907506465912 0.3330662250518799 -0.4043474793434143
0.01457440759986639 0.25591522455215454 0.3507038652896881
0.4987469017505646 0.0937829241156578 -0.40588682889938354
-0.556677520275116 -0.06423477828502655 -0.16453149914741516
0.16688616573810577 -0.03342081978917122 -0.3694598376750946
-0.1552470326423645 -0.13650386035442352 0.19379502534866333
0.583550214767456 0.23966354131698608 -0.1774410903453827
-0.17022110521793365 -0.18425743281841278 0.17947648465633392
0.5835942029953003 0.18943175673484802 -0.09712497144937515
-0.44396376609802246 0.3916459381580353 -0.39829257130622864
0.24654966592788696 0.31733259558677673 0.3429752588272095
0.2835588753223419 -0.05058133229613304 0.2678448557853699
-0.1438574492931366 -0.5939490795135498 -0.16990002989768982
0.13057099282741547 -0.03422659635543823 0.31783604621887207
-0.05779135599732399 -0.00010617543011903763 -0.20820418000221252
-0.06333909928798676 0.0017572464421391487 -0.2978466749191284
-0.5740511417388916 0.3440537750720978 -0.018855003640055656
0.274235337972641 -0.531636655330658 -0.2621542513370514
-0.4590938091278076 0.010000897571444511 0.35273799300193787
-0.1833684891462326 0.3999306559562683 0.11780672520399094
0.08684026449918747 0.3992854952812195 0.07753532379865646
-0.3711449205875397 -0.0035611982457339764 -0.2276456356048584
-0.05055858939886093 0.16976408660411835 -0.40690338611602783
-0.4587162435054779 0.34992843866348267 -0.17709983885288239
0.0008419323712587357 -0.3779051601886749 0.280836284160614
-0.08013135939836502 0.08648176491260529 0.3422492742538452
0.2554377317428589 -0.38430020213127136 0.2431192696094513
0.30999240279197693 0.40133121609687805 0.09181583672761917
0.19686807692050934 -0.6220948696136475 -0.14549842476844788
-0.5754870772361755 0.006461396347731352 -0.16459470987319946
0.5797419548034668 0.06283366680145264 -0.353796124458313
0.5779746174812317 0.01776154898107052 -0.17150215804576874
0.2194412350654602 0.003429485484957695 -0.10105028748512268
-0.17846225202083588 -0.6393309831619263 -0.06940234452486038
-0.5750797986984253 0.0034057272132486105 0.12418957054615021
0.14277081191539764 -0.01579001359641552 0.4676719009876251
-0.09906729310750961 -0.11163298785686493 0.24962829053401947
0.17282159626483917 -0.6244164109230042 0.0891624465584755
0.3040156066417694 -0.6507291197776794 -0.22147656977176666
-0.22514626383781433 0.3053630292415619 -0.40272802114486694
0.1622844785451889 0.3983173072338104 0.23058059811592102
0.47694602608680725 0.08576514571905136 0.34131303429603577
0.11871926486492157 0.3993147909641266 -0.20263054966926575
0.16070641577243805 -0.5100165605545044 -0.31608209013938904
-0.542128324508667 0.058484066277742386 0.339682012796402
0.04903753474354744 -0.6424851417541504 -0.3077792525291443
0.2320183664560318 0.2856338322162628 0.34191519021987915
-0.5821223855018616 0.1399526298046112 -0.22667285799980164
0.584308922290802 0.016906913369894028 -0.0018789665773510933
0.05831162631511688 0.33408498764038086 -0.40277761220932007
0.27649950981140137 0.4651707112789154 0.4348703920841217
-0.006352147087454796 0.0034188744612038136 -0.005308620166033506
0.17927615344524384 0.0048211002722382545 0.23606957495212555
-0.3943329453468323 -0.0755796879529953 -0.038395415991544724
0.08473584055900574 0.002875300357118249 0.11137303709983826
0.3240082263946533 0.0037766490131616592 0.22078494727611542
-0.5497236251831055 -0.06798931211233139 0.24505390226840973
-0.49363988637924194 0.24410824477672577 -0.4037935733795166
-0.4647964537143707 -0.11257157474756241 -0.02928679995238781
0.268939346075058 0.019431129097938538 0.33767127990722656
0.14475186169147491 0.003153097117319703 0.05985173210501671
0.4713609516620636 -1.6732607036828995e-05 0.07787645608186722
0.34916022419929504 -0.34710967540740967 -0.2592429518699646
0.16216769814491272 -0.18731625378131866 -0.3708840310573578
-0.36276775598526 -0.028508497402071953 -0.25991514325141907
-0.2856384813785553 -7.485318928956985e-05 -0.19183634221553802
0.2875642776489258 0.07570105046033859 0.4653903841972351
0.10812310874462128 0.3466433882713318 0.33972370624542236
0.5817514657974243 0.3232441246509552 0.156499445438385
0.35895830392837524 0.40336117148399353 0.24757978320121765
-0.042369596660137177 -0.6230978965759277 -0.060945555567741394
-0.5780684947967529 0.15315331518650055 -0.31300127506256104
-0.5767620205879211 0.0568963885307312 -0.24073366820812225
0.5691307187080383 0.009013436734676361 -0.1720716655254364
-0.583585262298584 0.21899427473545074 -0.07453358918428421
0.21209701895713806 0.0017953692004084587 0.162661612033844
0.05756515637040138 -0.27322685718536377 0.31324827671051025
0.40447407960891724 -0.0013328292407095432 -0.18123994767665863
-0.18556557595729828 0.0023717815056443214 -0.24471741914749146
-0.01894484832882881 -0.6196045279502869 -0.1557295322418213
-0.09946656227111816 0.0016407058574259281 -0.22364281117916107
0.40123915672302246 0.32391369342803955 -0.4008827209472656
-0.41103821992874146 -0.086125947535038 0.22301939129829407
0.12974299490451813 -0.47343289852142334 0.25960972905158997
-0.08482692390680313 -0.00972793623805046 0.25167378783226013
-0.21618206799030304 -0.3195115625858307 -0.14794611930847168
-0.02727179042994976 -0.5346404910087585 0.23181045055389404
0.014182721264660358 0.0024195900186896324 -0.06753777712583542
0.0023372110445052385 -0.39395320415496826 0.24135856330394745
-0.02002890780568123 0.0464656725525856 -0.4016146957874298
-0.05622466281056404 -0.452656626701355 0.21244099736213684
-0.4376686215400696 0.04298875853419304 0.3437492549419403
0.286750853061676 0.4011419713497162 -0.18872250616550446
-0.47924336791038513 0.39986228942871094 -0.23586517572402954
-0.2403578907251358 0.26767343282699585 0.34252116084098816
-0.4327711760997772 0.004347549751400948 -0.3726411461830139
0.5703837275505066 0.00581256952136755 -0.35279956459999084
-0.4241149425506592 0.10129968822002411 0.33051982522010803
-0.43768876791000366 0.0014142761938273907 -0.3444339632987976
0.10798735171556473 -0.45555970072746277 -0.31955409049987793
-0.10270273685455322 -0.0028425599448382854 0.26572003960609436
0.5408031344413757 0.01367077324539423 0.3357391059398651
0.4166576564311981 0.0027865376323461533 0.1991729438304901
0.5752442479133606 0.321159690618515 -0.39549118280410767
0.33587145805358887 -0.6368458271026611 -0.11357831209897995
0.5834404230117798 0.26579585671424866 -0.2495671808719635
-0.37009432911872864 -0.004423858597874641 0.059505097568035126
-0.5824077725410461 0.25663700699806213 0.27103284001350403
-0.5363660454750061 -0.0844329223036766 -0.16772691905498505
-0.3656349778175354 0.005441552959382534 0.23012199997901917
-0.4825734794139862 0.23144939541816711 0.3429572582244873
-0.14273303747177124 0.16779856383800507 -0.4045519232749939
-0.5757092833518982 0.003550667315721512 0.22091920673847198
0.18352757394313812 0.003232625313103199 -0.30908438563346863
-0.22979559004306793 0.002624147105962038 0.2552168369293213
0.2835157513618469 -0.08181855082511902 0.32897308468818665
0.22958466410636902 0.012857754714787006 -0.3998030424118042
-0.22609354555606842 -0.04336465895175934 -0.12690843641757965
-0.5750090479850769 0.017179738730192184 0.09768030792474747
0.4580790400505066 0.00565295061096549 0.2650015950202942
0.32571646571159363 -0.6267564296722412 0.06603290140628815
-0.4934624135494232 0.30059435963630676 0.341896653175354
-0.577529788017273 0.045007117092609406 -0.18559695780277252
0.5818214416503906 0.23066174983978271 0.09509743750095367
-0.3601137399673462 0.3670639395713806 0.34024667739868164
-0.4596790373325348 0.10374850034713745 -0.056916192173957825
-0.5641835927963257 0.08377895504236221 -0.24363897740840912
-0.004309762269258499 -0.00367394438944757 -0.3498757481575012
-0.17068728804588318 -0.0024250485002994537 -0.1002468392252922
0.012256661430001259 0.2676672339439392 0.35616180300712585
-0.36537137627601624 -0.002993327099829912 0.15920251607894897
-0.4310814440250397 -0.0849323570728302 -0.39853519201278687
-0.398332417011261 -0.0007339809089899063 0.23566678166389465
-0.2747620940208435 0.00159457977861166 -0.2544965445995331
-0.2778298258781433 0.331193208694458 -0.4034399688243866
0.2172793447971344 -0.5204078555107117 0.23931722342967987
-0.41181498765945435 0.0035601924173533916 -0.047560859471559525
0.19777043163776398 0.06279304623603821 0.3400760889053345
0.5577970743179321 0.3977040648460388 0.04003992676734924
-0.13234855234622955 0.0030617937445640564 -0.07815410196781158
0.42431771755218506 -0.08702728152275085 -0.16222156584262848
-0.016565557569265366 -0.14755983650684357 -0.35121530294418335
-0.11312194168567657 0.0018683606758713722 -0.2300376147031784
-0.4472488760948181 0.04654186964035034 0.35283443331718445
0.2778422236442566 -0.6496877670288086 0.15811747312545776
-0.3986607491970062 0.39073652029037476 -0.17723189294338226
-0.03800182044506073 0.4014453887939453 0.05903082340955734
0.1545981466770172 0.09428880363702774 -0.4027503728866577
-0.5753916501998901 0.1204262301325798 0.3325144648551941
0.05724859610199928 0.3727201223373413 0.34617334604263306
0.1446855664253235 0.004642707295715809 -0.09256064891815186
-0.24355490505695343 0.37655767798423767 0.33966705203056335
-0.22733208537101746 -0.06122617796063423 0.07847830653190613
0.29055148363113403 -0.6202435493469238 -0.031356483697891235
0.41309070587158203 0.39850887656211853 -0.21716158092021942
0.5778469443321228 0.37523597478866577 -0.3854101002216339
0.02731027640402317 0.22045569121837616 0.41282549500465393
-0.3012642562389374 0.400439590215683 -0.3290855884552002
0.2530117630958557 0.27680841088294983 -0.40401986241340637
-0.21225246787071228 0.29896220564842224 0.3456186354160309
0.2793286144733429 -0.32582888007164 -0.3254166543483734
0.13637833297252655 -0.0793817862868309 0.3777995705604553
0.00116895348764956 0.05322251468896866 0.3492259979248047
0.20613902807235718 0.002049391157925129 -0.3301640450954437
0.3592851459980011 -0.6446958184242249 0.09774073213338852
0.06660112738609314 0.24573861062526703 0.4664982855319977
0.38690385222435 -0.5648179650306702 0.023802781477570534
0.3083510994911194 0.13408957421779633 -0.40477699041366577
-0.22287806868553162 0.28811410069465637 0.34241124987602234
-0.27788957953453064 0.4012715816497803 -0.12814749777317047
0.29887574911117554 -0.6223028302192688 -0.07802141457796097
-0.5809036493301392 0.3231188654899597 0.13137012720108032
0.44208377599716187 -0.02543276734650135 0.050756167620420456
0.07200856506824493 0.4002980589866638 0.1586817353963852
0.2602911591529846 -0.6309512257575989 0.21281349658966064
0.4921491742134094 0.39372947812080383 0.3346751630306244
-0.41350477933883667 0.15508857369422913 0.3412085771560669
0.07583107799291611 0.4157926142215729 0.44181185960769653
-0.5428942441940308 -0.07618583738803864 0.2747061550617218
0.5803675055503845 0.12969665229320526 0.21567648649215698
-0.31237104535102844 0.18372732400894165 -0.4041721224784851
-0.00920444168150425 0.40149542689323425 -0.08206526190042496
0.3202703595161438 -0.3704344630241394 -0.2881125211715698
-0.18434740602970123 -0.5795007944107056 -0.059798430651426315
0.46013203263282776 0.030882850289344788 0.33993223309516907
0.32428643107414246 0.003797648474574089 0.08707978576421738
-0.13069956004619598 -0.634868860244751 -0.05672049894928932
0.3822835087776184 -0.4906633496284485 0.06219350919127464
0.5762649774551392 0.25799378752708435 0.08984272927045822
0.10770691931247711 0.0035653128288686275 -0.35897862911224365
-0.02433750219643116 0.40022361278533936 -0.049173079431056976
0.22914083302021027 0.39997661113739014 -0.2595609426498413
-0.33201268315315247 0.12214405089616776 -0.40102019906044006
-0.04588834196329117 -0.32744598388671875 0.2817269563674927
0.17003175616264343 -0.6228116154670715 0.15751247107982635
-0.28357023000717163 0.007915418595075607 0.3152715265750885
0.01535033993422985 0.2655673325061798 0.4086487889289856
0.423948734998703 -0.318984717130661 -0.1637328863143921
-0.5019422769546509 0.05094141513109207 0.3423125445842743
-0.12867918610572815 -0.6317978501319885 -0.03962083160877228
0.11291173845529556 0.3882715404033661 -0.4017346501350403
0.29061955213546753 0.3970469832420349 0.31629759073257446
0.14705218374729156 0.002264646114781499 0.28014636039733887
0.2715291678905487 -0.25127649307250977 0.274567574262619
-0.3927430510520935 0.0893026739358902 0.3391759395599365
0.34955349564552307 -0.1722111999988556 0.21657006442546844
0.2029190957546234 -0.6378011703491211 0.2376643270254135
-0.016953246667981148 -0.002364249899983406 0.318013995885849
0.20965397357940674 -0.6210272312164307 0.09523673355579376
-0.4422507584095001 0.0044472357258200645 0.025198746472597122
0.39396563172340393 -0.5573833584785461 -0.04492969065904617
-0.1667531132698059 -0.4409918189048767 0.09303142130374908
-0.05379042401909828 0.4007924497127533 0.05985620990395546
-0.5391749143600464 0.36693212389945984 -0.3986550569534302
0.06792864203453064 0.39966049790382385 0.07229926437139511
-0.5841174125671387 0.2683004140853882 0.20269279181957245
0.04308741167187691 -0.30338796973228455 -0.36536705493927
0.12108628451824188 -0.40041789412498474 0.2638496458530426
0.40840649604797363 -0.3810977041721344 -0.07433165609836578
-0.08598264306783676 -0.38903412222862244 -0.27179229259490967
0.3757283687591553 0.39800289273262024 0.29973605275154114
0.22326956689357758 0.004819908645004034 -0.08594442903995514
0.4841138422489166 0.0005640294402837753 -0.13042563199996948
0.18865206837654114 0.14675606787204742 0.33980873227119446
-0.35497650504112244 0.35264381766319275 0.0343000628054142
0.5836813449859619 0.3007447123527527 -0.011457295157015324
0.22196659445762634 0.46791303157806396 0.3871924579143524
-0.23383550345897675 -0.3332761228084564 0.02740388736128807
0.29470837116241455 -0.0015244591049849987 -0.2928696870803833
-0.568936824798584 0.03243124112486839 -0.3368876874446869
0.006227433681488037 -0.46594807505607605 -0.29994359612464905
-0.05617572367191315 -0.37806153297424316 -0.30901989340782166
0.14582936465740204 0.003848231164738536 0.008953463286161423
0.5140934586524963 0.004013574682176113 -0.03198818117380142
0.03293609619140625 -0.3712703287601471 0.30360808968544006
0.1083177700638771 0.25075575709342957 0.4666324555873871
0.02720448188483715 0.003576340153813362 -0.32528436183929443
-0.4828766882419586 0.10321284085512161 -0.4031737744808197
-0.21039323508739471 -0.0009744977578520775 0.017480578273534775
-0.5114237070083618 0.11691218614578247 -0.3029290735721588
-0.2647910714149475 0.015792876482009888 -0.401935338973999
-0.14861804246902466 0.0018206099048256874 -0.19267655909061432
0.1623426079750061 0.002198495902121067 0.043334681540727615
-0.20671291649341583 0.4017065465450287 0.11181731522083282
-0.10498569160699844 0.02351834438741207 -0.40253978967666626
-0.5269263982772827 0.0027861883863806725 0.1673002988100052
-0.14747020602226257 0.0008919350802898407 -0.03574240580201149
0.09771028161048889 -0.620617687702179 0.02249864861369133
0.19342981278896332 0.3991855978965759 0.3195716142654419
0.44081541895866394 0.3983519971370697 -0.17781095206737518
0.33266040682792664 -0.6348549723625183 -0.13665732741355896
0.2875511050224304 0.004734941758215427 -0.19586268067359924
0.45346105098724365 -0.025402355939149857 -0.058171920478343964
-0.2236933559179306 -0.37503790855407715 0.030561598017811775
0.07987139374017715 -0.20504061877727509 0.31639403104782104
0.48707523941993713 0.40216851234436035 0.253845751285553
0.305812269449234 0.0014362595975399017 -0.2919778525829315
-0.5080958604812622 0.032138463109731674 0.34743544459342957
0.1427159160375595 -0.4035048484802246 -0.3121773898601532
0.00534870196133852 -0.22375403344631195 0.2989348769187927
-0.526260256767273 0.3935171961784363 -0.16253073513507843
0.26227864623069763 0.0038232486695051193 -0.2461375892162323
0.03812539950013161 0.4000636339187622 -0.2047060877084732
0.28899112343788147 0.003601711243391037 -0.23182569444179535
-0.3729252219200134 0.3638770878314972 -0.40279513597488403
-0.22654177248477936 0.18978402018547058 -0.40090104937553406
-0.14641453325748444 0.016562137752771378 0.335971862077713
-0.34560829401016235 0.2191905677318573 0.34245073795318604
-0.4626586139202118 -0.11180014163255692 -0.26194971799850464
0.5834794640541077 0.3002817630767822 0.30134305357933044
-0.5812016725540161 0.13543377816677094 0.31736767292022705
0.33536678552627563 -0.6174073815345764 0.14977240562438965
-0.4369632303714752 0.1032741591334343 -0.23975031077861786
0.3946494460105896 0.1826050877571106 0.3437943458557129
-0.1912418156862259 0.39855751395225525 -0.3818952739238739
0.31205886602401733 -0.06540453433990479 0.24731549620628357
0.20755210518836975 0.0021339906379580498 -0.058656755834817886
-0.3780445158481598 -0.056119099259376526 0.11411342769861221
-0.41532382369041443 0.002138250507414341 -0.32295292615890503
-0.07773851603269577 -0.30616316199302673 0.26320257782936096
0.2119774967432022 0.3997589349746704 0.1717543751001358
0.20233115553855896 0.16188229620456696 0.3398711085319519
0.16253142058849335 0.004136715549975634 -0.11939933896064758
-0.47023308277130127 -0.11034474521875381 0.08225633203983307
0.3875228464603424 0.39873945713043213 -0.27053603529930115
0.18062233924865723 -0.18527787923812866 0.30593952536582947
0.16964206099510193 0.31135573983192444 0.3397919833660126
0.25307050347328186 0.37145528197288513 0.34349408745765686
-0.5755100250244141 0.05001765489578247 0.1669166535139084
-0.14821095764636993 0.0011611743830144405 -0.01781533658504486
-0.06053191050887108 0.19021287560462952 0.4034406840801239
-0.4601670205593109 0.04356902092695236 0.3467080593109131
0.5805356502532959 0.38911309838294983 0.21001727879047394
-0.4558941125869751 0.250074565410614 -0.4038274586200714
-0.4661185145378113 0.23456376791000366 0.343444287776947
0.05655699223279953 0.08291976153850555 0.34478533267974854
-0.2668731212615967 0.1210901066660881 0.34174269437789917
0.5789223909378052 0.14882808923721313 -0.1734084188938141
0.358955979347229 0.0031054383143782616 0.10795801132917404
-0.07069955766201019 0.0018498394638299942 -0.20914709568023682
-0.5540222525596619 0.06520199030637741 -0.2566969692707062
-0.04341527819633484 -0.41995859146118164 0.2265029400587082
-0.06790242344141006 0.3632294833660126 -0.39931657910346985
0.3410450220108032 -0.6197298765182495 -0.059262972325086594
0.08294086903333664 0.0023909853771328926 -0.24080102145671844
-0.4841531813144684 0.0012172148562967777 -0.08419226855039597
0.06043504178524017 -0.20288188755512238 -0.36982545256614685
-0.06190050020813942 0.2414182722568512 0.40271443128585815
0.10697994381189346 -0.0008739414624869823 0.3095458745956421
0.10166800767183304 -0.4847158193588257 -0.3200851380825043
0.42550423741340637 0.39987245202064514 0.138818621635437
0.28440114855766296 0.400433748960495 0.20330053567886353
-0.029371732845902443 0.40019845962524414 0.15566110610961914
-0.08009180426597595 -0.3831857144832611 -0.28495651483535767
0.497568815946579 0.0025452510453760624 0.03189832717180252
0.10655303299427032 0.002426569350063801 -0.10915977507829666
0.029969071969389915 0.11312638968229294 0.4263518154621124
0.13587409257888794 -0.6230447888374329 0.15998564660549164
-0.5804669260978699 0.2868359386920929 0.005104666575789452
0.3233453631401062 -0.6252245306968689 0.038101647049188614
-0.2799852192401886 0.0022985637187957764 0.31697791814804077
0.3013964295387268 0.39976680278778076 -0.317462295293808
0.30984431505203247 -0.09079310297966003 -0.3098185658454895
0.38839027285575867 -0.6418092250823975 -0.0137873450294137
0.5829454064369202 0.208419531583786 -0.16568918526172638
-0.40289613604545593 0.3532508909702301 -0.21031831204891205
0.11818525940179825 -0.3191142678260803 0.31335416436195374
0.5062777996063232 0.4015854597091675 0.28354233503341675
0.3107101023197174 0.005353760905563831 -0.0755605548620224
-0.3894723355770111 0.04919837415218353 0.3371288478374481
0.5579120516777039 0.006067108362913132 -0.17879535257816315
-0.16011302173137665 -0.3331923484802246 -0.2451552003622055
-0.37651801109313965 0.20975367724895477 -0.4042844772338867
-0.151265487074852 -0.6376688480377197 -0.03700066730380058
-0.10988319665193558 0.012583745643496513 -0.39486363530158997
0.12294074892997742 -0.6253272294998169 -0.025448940694332123
-0.5754373669624329 0.0034681311808526516 0.1250034123659134
-0.17062830924987793 0.0015322575345635414 0.09001310914754868
0.21362021565437317 0.0054007284343242645 -0.017231322824954987
-0.1846565455198288 -0.596406102180481 -0.03435901552438736
-0.16596511006355286 -0.14122915267944336 0.1816158890724182
-0.5654292702674866 0.37302494049072266 -0.2498103380203247
0.07940477132797241 -0.6561907529830933 -0.30916836857795715
0.388391375541687 -0.527513861656189 -0.058182962238788605
-0.23519651591777802 -0.27291083335876465 0.021662656217813492
0.31689590215682983 -0.3778108060359955 0.21594278514385223
0.31991130113601685 -0.0006966202054172754 -0.30107080936431885
-0.024569887667894363 -0.06176890432834625 -0.3495861291885376
-0.5473610758781433 -0.07212328165769577 0.17086631059646606
0.04142633080482483 -0.6259291172027588 -0.26082643866539
0.12359318137168884 -0.012209882959723473 0.31269991397857666
-0.429581880569458 0.35448288917541504 0.02723764069378376
-0.17775219678878784 -0.45020192861557007 -0.0739804282784462
0.09034711122512817 0.0031755296513438225 0.22851864993572235
0.1908651441335678 0.0035609181504696608 -0.17127889394760132
-0.5796084403991699 0.008093304000794888 -0.08226682990789413
0.3876323401927948 -0.5218283534049988 0.030959781259298325
0.21339981257915497 0.003991368226706982 -0.11662180721759796
-0.2587045431137085 0.18080341815948486 0.3413100242614746
0.5793246030807495 0.3203379213809967 0.18992842733860016
0.5792356729507446 0.04899704083800316 -0.2107943445444107
-0.4058438837528229 -0.08775563538074493 -0.07871439307928085
-0.12837599217891693 0.3995363116264343 -0.08501322567462921
-0.09161101281642914 0.3979816734790802 -0.04840756207704544
0.17097042500972748 -0.620061993598938 -0.27007371187210083
-0.4038718044757843 0.3963741958141327 -0.1846974790096283
-0.2502460181713104 0.39766353368759155 -0.34371092915534973
0.5569518208503723 0.395436555147171 -0.08149465918540955
0.4247167408466339 -0.08676792681217194 -0.15605854988098145
0.07949737459421158 0.16917859017848969 -0.40401673316955566
-0.480614572763443 0.3822755515575409 -0.39765143394470215
0.11907784640789032 0.399183064699173 -0.1935301572084427
0.3245440721511841 0.25275030732154846 0.4169103801250458
-0.460918128490448 0.11054288595914841 -0.331906259059906
0.32764744758605957 0.39204126596450806 -0.3929390013217926
0.3391578197479248 0.2778319716453552 -0.40555593371391296
-0.5761170387268066 0.28234419226646423 -0.3792850971221924
-0.11920418590307236 0.40098291635513306 0.23441676795482635
0.4954432249069214 0.006785730831325054 -0.3895118534564972
-0.18012256920337677 -0.49824264645576477 -0.0534621998667717
0.3147656321525574 0.20644856989383698 0.4526841640472412
-0.08782429248094559 -0.22299237549304962 0.25884079933166504
-0.5524847507476807 -0.07372508943080902 -0.38685372471809387
0.5801478624343872 0.3661893606185913 -0.1574946641921997
-0.009737826883792877 0.4002170264720917 0.025898270308971405
0.10984735190868378 0.0029771351255476475 0.01844380982220173
-0.5562461614608765 0.09777474403381348 0.029859043657779694
-0.17754121124744415 -0.45913925766944885 0.011849879287183285
0.3320035934448242 -0.642279326915741 -0.18833431601524353
-0.548486053943634 0.09627065807580948 -0.06436902284622192
-0.5206732749938965 0.3976340889930725 0.061043690890073776
0.5628737807273865 0.23887409269809723 -0.4000649154186249
-0.48067983984947205 0.00627946900203824 0.21473757922649384
-0.4197889566421509 -0.014246385544538498 0.34385859966278076
-0.0486249104142189 -0.6324882507324219 -0.23702290654182434
0.10373763740062714 -0.6240606904029846 -0.31710702180862427
-0.5589099526405334 -0.015524155460298061 0.34048232436180115
0.297637403011322 0.40085485577583313 0.23724223673343658
0.3609400689601898 -0.6262394189834595 0.10639451444149017
-0.09617266058921814 0.39988240599632263 0.1537122130393982
-0.16529977321624756 -0.1359875351190567 -0.2362583428621292
-0.47821497917175293 0.3928791284561157 -0.12406964600086212
-0.5398974418640137 -0.0846923366189003 -0.20538155734539032
-0.5299491882324219 0.0956183597445488 0.16827227175235748
