0.06512802839279175 -0.0988292470574379 -0.37004321813583374
-0.2944623827934265 0.14391793310642242 -0.4015558958053589
-0.4787122905254364 0.3998488187789917 0.03624884784221649
-0.0473751462996006 0.001902255229651928 -0.34024038910865784
0.3693293631076813 0.3983680009841919 0.2845669090747833
0.3290894627571106 -0.6256298422813416 -0.011529142037034035
0.043505847454071045 -0.6420050263404846 -0.25758397579193115
-0.3612590730190277 0.016416411846876144 -0.18774332106113434
0.5814245939254761 0.14208953082561493 -0.2659410536289215
-0.5743563771247864 -0.021599318832159042 0.021998075768351555
-0.241877943277359 -0.23163992166519165 -0.007125497795641422
0.08799824118614197 -0.0801265761256218 0.3806527554988861
0.28720587491989136 0.45480862259864807 0.36631113290786743
0.2527084946632385 0.40015536546707153 0.08105548471212387
0.4877606928348541 0.40204399824142456 0.17704643309116364
0.13514985144138336 -0.6456889510154724 -0.31168100237846375
-0.3504296541213989 0.3978613615036011 -0.07721540331840515
-0.5670338273048401 0.353171706199646 0.3407959043979645
0.24577616155147552 0.38722383975982666 0.3408820331096649
-0.13678976893424988 0.4025740325450897 -0.08406071364879608
-0.07171451300382614 0.0015784832648932934 -0.3102254867553711
-0.3495709002017975 0.40026581287384033 0.2561923861503601
-0.5737522840499878 0.00065965810790658 0.21747994422912598
-0.0118806641548872 0.40144598484039307 0.007143061142414808
0.33071473240852356 0.23068936169147491 -0.40220630168914795
0.4084310829639435 -0.33411097526550293 -0.17851167917251587
-0.060435689985752106 -0.17357449233531952 -0.328559547662735
0.36862167716026306 0.4011121988296509 -0.2657398581504822
0.5817873477935791 0.18286599218845367 0.16680234670639038
-0.5110957622528076 -0.09826350957155228 -0.26115578413009644
0.2376331388950348 -0.16575950384140015 0.2900356948375702
-0.36276569962501526 0.00014507095329463482 0.01017998531460762
0.2975802719593048 -0.40306219458580017 0.18855662643909454
0.3554673194885254 -0.6539753675460815 -0.12239843606948853
0.28190407156944275 -0.001097009051591158 -0.3123812973499298
0.03077000007033348 -0.5138355493545532 -0.30514904856681824
-0.12040288001298904 -0.5747271776199341 0.1535521149635315
-0.4076288640499115 0.0915178582072258 -0.21478843688964844
-0.23023374378681183 0.3954378366470337 0.0016777042765170336
0.584537923336029 0.359295129776001 0.15096110105514526
-0.17578017711639404 -0.08739472925662994 0.17299048602581024
-0.5374296307563782 0.001309284009039402 -0.3826789855957031
0.25131890177726746 0.33656972646713257 0.3450388014316559
-0.40866705775260925 0.42261257767677307 -0.07975680381059647
-0.09355732798576355 0.0019602705724537373 -0.21961797773838043
-0.41795676946640015 0.0801125019788742 -0.39929676055908203
0.016171686351299286 0.0027275672182440758 0.20798605680465698
0.35834601521492004 -0.00031670182943344116 -0.2459172159433365
-0.21858707070350647 -0.21281534433364868 0.08506200462579727
-0.16442693769931793 -0.039453454315662384 0.1917809396982193
0.5832454562187195 0.013582022860646248 -0.03872771933674812
0.3392066955566406 -0.6342360377311707 0.012612679973244667
0.29413390159606934 0.06535233557224274 0.3479624390602112
-0.5453625917434692 0.068801648914814 0.3421624004840851
0.2144336849451065 -0.08506639301776886 0.4361790120601654
0.27228689193725586 0.0023504458367824554 0.13397321105003357
0.17653580009937286 -0.4663090407848358 -0.30682286620140076
0.5853680968284607 0.29488682746887207 -0.16550514101982117
0.5814675688743591 0.32506945729255676 0.2673960328102112
-0.3559415340423584 -0.013328693807125092 -0.21284101903438568
0.1890808343887329 0.047363247722387314 -0.4017494320869446
-0.4767102897167206 0.41393595933914185 -0.09328997135162354
0.34291067719459534 -0.399082750082016 -0.18900729715824127
0.2806680500507355 0.002327021211385727 0.14466296136379242
-0.5736547708511353 0.24055127799510956 0.30081459879875183
-0.33188989758491516 0.4017470180988312 0.20570258796215057
-0.534810483455658 0.06447597593069077 -0.3362543284893036
-0.5730024576187134 0.008159642107784748 -0.035420019179582596
-0.3554244041442871 0.40445998311042786 -0.3545583188533783
-0.011196639388799667 0.0009716721251606941 -0.15027570724487305
-0.09688179194927216 0.23183515667915344 0.3933560848236084
0.43018639087677 -0.0028190838638693094 -0.15619848668575287
0.581610918045044 0.019520986825227737 0.07671671360731125
0.07892314344644547 -0.37944185733795166 0.27168840169906616
-0.297785222530365 0.367769718170166 -0.3995778560638428
-0.3618069887161255 0.038159485906362534 0.107635498046875
-0.36069878935813904 -0.0024354010820388794 0.09667280316352844
-0.14316698908805847 0.3550953269004822 -0.39715108275413513
-0.5011172890663147 -0.09469793736934662 0.04648035019636154
0.30243778228759766 0.0038384515792131424 0.10038270801305771
0.22477111220359802 -0.0001487256959080696 -0.22125734388828278
0.582665741443634 0.13217514753341675 0.28193214535713196
-0.5794986486434937 0.27893638610839844 0.17690731585025787
0.09866385161876678 -0.009187423624098301 -0.37604233622550964
0.37811732292175293 0.004447492770850658 0.3008556365966797
-0.00941421277821064 0.2508097290992737 0.3997478485107422
0.09507467597723007 0.0029559144750237465 0.24250619113445282
0.26176947355270386 0.395693302154541 -0.36583954095840454
-0.4658694565296173 0.38828524947166443 -0.16187985241413116
-0.1135219857096672 0.0022827880457043648 0.16556283831596375
0.2683594524860382 0.4012352228164673 -0.20592232048511505
0.287266343832016 -0.6159339547157288 -0.247439444065094
0.0014754922594875097 -0.6270845532417297 -0.07372531294822693
-0.5110604166984558 0.117153599858284 0.3258553147315979
0.082656629383564 -0.13647150993347168 -0.37236782908439636
-0.5741245150566101 0.014390714466571808 -0.053776226937770844
0.45330461859703064 -0.07543320208787918 -0.048075415194034576
-0.36467450857162476 0.023894304409623146 -0.31509819626808167
-0.003330100327730179 -0.38099753856658936 0.2551439702510834
-0.5468080639839172 0.3924383521080017 -0.24856366217136383
0.03748612850904465 0.21803352236747742 0.4653261601924896
-0.5394135117530823 0.38574233651161194 0.3323942720890045
0.47949883341789246 0.40174344182014465 -0.17142857611179352
0.5841370820999146 0.06460925191640854 -0.20609833300113678
0.1704588085412979 -0.483597993850708 -0.3064630925655365
0.13532590866088867 0.0026205070316791534 -0.36665165424346924
-0.18597544729709625 -0.3613511919975281 -0.20443777740001678
0.06216806918382645 -0.0025651399046182632 -0.33137375116348267
-0.39625290036201477 0.031439706683158875 -0.4001692533493042
-0.48612356185913086 0.3951529562473297 0.013775439001619816
0.21478962898254395 0.139370396733284 0.46577584743499756
0.581947386264801 0.22323346138000488 -0.20246295630931854
0.4846007227897644 0.21089902520179749 0.3467414379119873
-0.304809033870697 0.000763818621635437 -0.15967631340026855
0.5694425106048584 0.009315583854913712 -0.0421270877122879
-0.2379397451877594 -0.0791030079126358 -0.055003561079502106
0.40086913108825684 0.36384356021881104 -0.40080928802490234
0.34708258509635925 -0.4273950457572937 0.12907296419143677
-0.23537960648536682 0.3457176685333252 -0.4005459249019623
0.3956124484539032 0.0009074395056813955 -0.1369427591562271
-0.3436945974826813 0.1771654486656189 -0.4028390347957611
-0.3632979989051819 0.40333813428878784 -0.35723641514778137
0.32573312520980835 0.0027590496465563774 -0.07908917963504791
-0.18424029648303986 0.0027173124253749847 -0.03487297147512436
0.5806167125701904 0.37196674942970276 -0.1044086366891861
-0.1967906355857849 0.40347036719322205 -0.26333144307136536
0.3956577777862549 -0.4569070637226105 -0.024963829666376114
0.31071579456329346 -0.5036418437957764 -0.2264765053987503
0.1020689457654953 -0.30097126960754395 0.32002517580986023
0.3460434079170227 0.2907615900039673 0.3471705913543701
0.27872753143310547 0.0017089853063225746 -0.3554022014141083
0.2206839770078659 0.0014301799237728119 -0.018993815407156944
-0.0043342080898582935 -0.4451606571674347 -0.2962738871574402
-0.5474923253059387 0.3919074237346649 -0.025876399129629135
0.28863510489463806 0.402753084897995 -0.12182719260454178
-0.3896294832229614 0.3001686930656433 0.34492602944374084
0.177006796002388 -0.6203263401985168 0.19128166139125824
0.015325626358389854 0.00143789267167449 0.047123655676841736
0.333740234375 -0.6269034743309021 -0.10002157092094421
0.002164160832762718 0.002481756266206503 0.15506324172019958
-0.5312342047691345 0.013560774736106396 0.34705206751823425
0.395646870136261 -0.4670689105987549 -0.03425414115190506
0.07089617848396301 0.37920331954956055 0.46014705300331116
0.18251530826091766 0.4157172739505768 0.3577858507633209
0.3188720643520355 0.11334361135959625 0.3483744263648987
0.43230488896369934 -0.000372661161236465 -0.04146730154752731
0.48637285828590393 0.08287442475557327 0.3388989269733429
0.08937183767557144 0.409506231546402 0.36334893107414246
0.22268536686897278 0.24997752904891968 0.4651000499725342
-0.4770295023918152 0.3864683508872986 -0.16876812279224396
-0.17920459806919098 -0.6210521459579468 -0.07503113895654678
-0.10191546380519867 0.0036356067284941673 0.032282259315252304
0.26989588141441345 -0.3756999671459198 -0.32884112000465393
-0.44255760312080383 0.003369404934346676 0.2766638994216919
-0.35295984148979187 0.37408751249313354 -0.18744225800037384
-0.2381977140903473 0.17969805002212524 -0.4023243188858032
0.41637223958969116 0.0031274016946554184 -0.21099987626075745
-0.35193222761154175 0.39751702547073364 -0.39102622866630554
-0.4124426543712616 -0.09048980474472046 -0.07057218253612518
0.25397661328315735 0.10555686801671982 0.46082478761672974
0.12124267220497131 -0.31968915462493896 0.31721192598342896
0.5825059413909912 0.2658514380455017 -0.06121865659952164
-0.24294069409370422 -0.01511860080063343 -0.017729822546243668
-0.09096334874629974 0.3771476745605469 0.34256166219711304
-0.5160537362098694 -0.08064065873622894 0.3396540582180023
-0.3666127920150757 -0.047278210520744324 0.2602806091308594
0.41196584701538086 -0.0026830376591533422 -0.1928759515285492
0.18406999111175537 0.0024181753396987915 0.09317538887262344
0.5846331715583801 0.13152244687080383 -0.14940524101257324
0.4170064926147461 0.3992980420589447 -0.09702076762914658
0.19532597064971924 0.2953857481479645 -0.4043603539466858
0.2529202401638031 0.4013274908065796 -0.008230715990066528
-0.38297343254089355 -0.05921404808759689 0.14191482961177826
0.08348116278648376 0.24406929314136505 -0.4006885290145874
0.17904141545295715 0.17047452926635742 -0.4025731086730957
0.35759425163269043 -0.002831251360476017 -0.2725224494934082
-0.1219436526298523 0.10676314681768417 0.34395578503608704
-0.29410219192504883 0.394218385219574 -0.1283261477947235
-0.2357478141784668 0.0020602671429514885 -0.09919687360525131
-0.5748302936553955 0.08342843502759933 -0.2898973524570465
0.5840357542037964 0.33350104093551636 -0.22627271711826324
0.5771327614784241 0.15155014395713806 -0.2044205218553543
-0.4080563187599182 0.07994731515645981 0.22341497242450714
0.33380600810050964 0.06979837268590927 0.3482142388820648
0.5743851065635681 0.39414188265800476 0.033892929553985596
-0.37303435802459717 0.37835466861724854 -0.18673627078533173
0.2812577486038208 -0.6306479573249817 -0.1325460821390152
0.030694836750626564 -0.6279463171958923 -0.05611699819564819
-0.11718306690454483 0.4012889564037323 -0.12474504858255386
-0.01616896688938141 0.003910839557647705 0.25163334608078003
0.017311295494437218 0.24769632518291473 0.4004260301589966
0.0053297788836061954 -0.627906858921051 -0.1028699278831482
0.30662262439727783 0.3903277814388275 0.3456653952598572
-0.5058131814002991 0.3955843150615692 -0.04403933510184288
0.10691402852535248 0.09592656791210175 0.3480300307273865
0.13574014604091644 -0.358218789100647 -0.37321609258651733
-0.5534796118736267 0.001933692255988717 -0.2109830528497696
0.06691756844520569 -0.08410240709781647 0.3788469433784485
-0.4491092562675476 -0.05431041494011879 0.34849345684051514
0.42286497354507446 -0.06442718952894211 -0.15870247781276703
-0.5784531831741333 0.08920188993215561 -0.23805031180381775
-0.0699029192328453 0.27598679065704346 -0.4006003737449646
-0.4160396456718445 -0.09724661707878113 -0.33181503415107727
0.45320218801498413 0.27171656489372253 -0.4022637605667114
-0.5695501565933228 0.3706190288066864 0.09752076119184494
-0.10597134381532669 -0.6069892048835754 0.16062869131565094
0.45534706115722656 0.1205502599477768 -0.4020358920097351
-0.05862833932042122 0.07062443345785141 0.34698429703712463
-0.16341964900493622 -0.38438230752944946 -0.17020979523658752
-0.31947726011276245 0.006082598119974136 -0.05277637764811516
-0.5746010541915894 0.07006659358739853 -0.11803729832172394
-0.328864187002182 0.38369131088256836 -0.0007587692234665155
0.38985759019851685 0.0010140854865312576 -0.3592929244041443
0.5350622534751892 0.0010276855900883675 0.04037385433912277
0.021701762452721596 -0.49775299429893494 -0.30339154601097107
-0.2288503795862198 -0.3747275769710541 0.0033344998955726624
-0.22299763560295105 -0.11951054632663727 0.07832209020853043
-0.5393796563148499 0.3994605243206024 -0.3660835027694702
0.1654963493347168 -0.38510406017303467 0.28989723324775696
-0.5808254480361938 0.32103607058525085 0.24957536160945892
0.5826338529586792 0.21469534933567047 0.20088760554790497
-0.4449586272239685 0.40210819244384766 0.2562168836593628
-0.36106231808662415 0.3996891677379608 -0.27085620164871216
-0.5826334357261658 0.26006487011909485 -0.19391348958015442
-0.4209081530570984 0.3968885838985443 0.31639453768730164
0.4471338987350464 -0.14507661759853363 0.0031444146297872066
-0.0211782269179821 -0.6365468502044678 0.19509060680866241
-0.5620266199111938 0.3783295452594757 0.23611725866794586
0.08986790478229523 -0.3840656876564026 -0.3200532793998718
-0.3359138071537018 0.07575949281454086 -0.401930034160614
0.3905058801174164 -0.44294843077659607 -0.07265123724937439
-0.04348773881793022 0.3740125298500061 -0.3997769355773926
-0.07034393399953842 -0.5611632466316223 0.19145198166370392
-0.23156102001667023 0.0024577584117650986 -0.13031543791294098
-0.3163260519504547 0.0027932440862059593 0.05670081079006195
0.0237368606030941 0.4032498300075531 -0.1188521683216095
0.5443443059921265 0.2302505224943161 -0.4028228521347046
0.5773704051971436 0.21984153985977173 0.09218575060367584
-0.13540464639663696 0.23099815845489502 -0.4032348394393921
-0.12368638813495636 0.39401987195014954 -0.3946332633495331
0.23780401051044464 0.3975202143192291 0.21439345180988312
-0.4618326723575592 0.4045725166797638 -0.36332979798316956
-0.1134464368224144 -0.5476884841918945 -0.21994511783123016
0.5831847190856934 0.22596986591815948 0.11056450754404068
0.31476932764053345 -0.6291824579238892 0.0077790264040231705
0.35123327374458313 0.004875378683209419 0.31943437457084656
-0.5822967886924744 0.1860450804233551 -0.0685252696275711
0.02968217246234417 -0.025688879191875458 0.45956364274024963
0.22683903574943542 -0.6269955039024353 0.004451032727956772
0.35112881660461426 -0.525512158870697 0.12553465366363525
-0.4804920256137848 0.0978303998708725 -0.19687113165855408
-0.4218912720680237 0.09879734367132187 0.02037125639617443
-0.22574985027313232 -0.2811978757381439 -0.1306867152452469
0.2550540268421173 -0.4470892548561096 -0.27298223972320557
0.53795325756073 0.0012247676495462656 -0.02879287116229534
0.17217756807804108 0.28549423813819885 -0.40122517943382263
0.3876109719276428 0.08612038195133209 0.34739449620246887
0.4336462914943695 -0.15323354303836823 0.08009207248687744
-0.07320759445428848 0.23477306962013245 -0.40312284231185913
0.0971115380525589 -0.27912893891334534 -0.3730945885181427
0.41722938418388367 -0.05908619612455368 -0.18137113749980927
-0.04845643788576126 -0.13505786657333374 0.28524264693260193
0.31202924251556396 0.10005819797515869 0.45777076482772827
-0.46358388662338257 0.4009273648262024 0.2908111810684204
0.3654957115650177 0.4004899263381958 -0.07506399601697922
-0.08645446598529816 -0.6318120956420898 -0.14307016134262085
0.1613156646490097 0.4019474387168884 -0.14129497110843658
0.5790828466415405 0.3817352056503296 0.17875894904136658
-0.5740007162094116 -0.0024040979333221912 -0.3121131956577301
-0.2680314779281616 0.38179919123649597 0.34264832735061646
-0.11254280060529709 -0.6221047639846802 -0.08001095801591873
-0.4905538260936737 -0.005465946160256863 -0.28747430443763733
0.03487659990787506 0.39493879675865173 0.34918901324272156
-0.18113496899604797 -0.6319758296012878 -0.0008797576301731169
-0.42110204696655273 0.09897466748952866 -0.24219055473804474
0.3390015959739685 -0.31106022000312805 -0.28510722517967224
0.3200225830078125 -0.6305021643638611 -0.1324366331100464
0.44849491119384766 -0.18950305879116058 -0.01666882447898388
0.09683787077665329 -0.22649550437927246 -0.37399595975875854
0.25386497378349304 0.4008672535419464 0.00656767887994647
0.3694359064102173 0.003013196401298046 -0.056760191917419434
-0.4344186782836914 0.08914735168218613 0.33838018774986267
0.29181697964668274 0.2693166136741638 0.4586593806743622
0.262430876493454 0.00031404197216033936 0.25041767954826355
-0.27200931310653687 0.39850252866744995 -0.09793569892644882
-0.498925119638443 0.003946351818740368 0.3464758098125458
0.38269826769828796 -0.6140604019165039 0.03342287614941597
-0.19999822974205017 0.0019491077400743961 -0.10541453212499619
0.31943103671073914 -0.46309977769851685 -0.22005203366279602
-0.39686331152915955 -0.0803363025188446 -0.15671084821224213
-0.05614268779754639 -0.21440716087818146 0.27914273738861084
0.44188064336776733 -0.292272686958313 -0.08824721723794937
0.21300199627876282 -0.6247076988220215 0.021653223782777786
0.21428559720516205 -0.2756521999835968 0.3042330741882324
0.3311685025691986 -0.07790547609329224 0.23722755908966064
0.390057772397995 -0.0021705087274312973 -0.09439168125391006
0.3248779773712158 0.30381202697753906 -0.4024900197982788
-0.43541377782821655 0.22857186198234558 -0.4028235971927643
-0.3361522853374481 0.3287423253059387 0.3440414071083069
0.44445306062698364 -0.07447564601898193 0.03514254093170166
0.09418261051177979 -0.6269384622573853 -0.07361643016338348
0.49747127294540405 -0.00036100996658205986 -0.12155008316040039
-0.24314455687999725 0.40288811922073364 -0.22657367587089539
0.3086571991443634 0.0017388733103871346 -0.15078625082969666
0.4043348729610443 -0.0019294703379273415 -0.1774347871541977
0.37446311116218567 -0.2605702877044678 0.186390683054924
0.3892303705215454 -0.6357356309890747 -0.021612970158457756
0.5637884140014648 0.23849499225616455 -0.39934125542640686
-0.1077832281589508 -0.26908865571022034 0.24666756391525269
-0.17803382873535156 -0.5093340277671814 0.010866934433579445
0.19520632922649384 0.40154892206192017 -0.017141232267022133
0.09269073605537415 -0.28166890144348145 0.31946349143981934
-0.09785404801368713 -0.43199074268341064 0.173916757106781
-0.11164336651563644 -0.42591601610183716 0.1639290750026703
0.36466649174690247 -0.6494426131248474 -0.07408042997121811
-0.342225044965744 0.4020773768424988 0.26390814781188965
0.1336548626422882 -0.587102472782135 0.26020321249961853
-0.5713129043579102 -0.0330842025578022 -0.035506874322891235
0.5831449627876282 0.10555283725261688 -0.03912637010216713
-0.40163344144821167 0.24809354543685913 -0.40336278080940247
-0.4333452582359314 0.0021679112687706947 -0.1703108698129654
0.14876744151115417 -0.3904438316822052 -0.3243226408958435
0.579860270023346 0.28976085782051086 0.324422687292099
0.11534735560417175 -0.6275741457939148 -0.13490289449691772
-0.30133867263793945 0.39769116044044495 0.33143308758735657
-0.4700445830821991 0.0067247189581394196 -0.373613566160202
-0.04020410776138306 0.3540853261947632 0.34416019916534424
0.2241251915693283 -0.0008776569738984108 -0.3693413734436035
0.2015446275472641 -0.6435251832008362 -0.259458065032959
0.27176880836486816 0.04197804629802704 0.3441183567047119
0.10269104689359665 -0.09258239716291428 0.4040113091468811
-0.13639993965625763 -0.5975519418716431 -0.17348800599575043
-0.4825718402862549 0.39832383394241333 -0.1502838134765625
0.4000105559825897 0.29426127672195435 0.34759193658828735
-0.576612651348114 0.024123819544911385 -0.34672272205352783
0.31546077132225037 0.15599876642227173 0.46390777826309204
-0.05777328833937645 -0.09508612006902695 0.27732419967651367
-0.4016536772251129 0.4047405421733856 0.05289113149046898
0.3991636037826538 -0.0011735763400793076 -0.11763260513544083
0.21673956513404846 -0.6193913817405701 0.09795128554105759
-0.38500574231147766 0.39712831377983093 0.10592027008533478
-0.039460405707359314 0.001819084631279111 -0.06696205586194992
-0.3377651870250702 0.22080636024475098 0.344806969165802
0.003703676164150238 0.0012991237454116344 -0.06061282381415367
0.5796973705291748 0.3647298216819763 0.14948253333568573
0.34673404693603516 -0.0024605533108115196 0.006829491816461086
0.36296215653419495 -0.6445648670196533 0.07782461494207382
-0.5810450911521912 0.30455905199050903 -0.13831961154937744
-0.23226088285446167 0.00037182215601205826 0.14420005679130554
-0.39623358845710754 -0.07913202792406082 0.0007549549918621778
0.5789454579353333 0.22517508268356323 -0.39150136709213257
0.5575528144836426 0.40063536167144775 0.09433485567569733
0.22303637862205505 0.0030553159303963184 -0.13043895363807678
0.5792568922042847 0.29877471923828125 0.19472280144691467
-0.13413120806217194 -0.10625007748603821 0.2191842645406723
0.001875355956144631 -0.44773292541503906 0.23930774629116058
-0.13570791482925415 0.001964747440069914 -0.22425006330013275
-0.44286075234413147 0.35098695755004883 -0.4005139172077179
-0.2094319611787796 0.0018392037600278854 -0.1637660562992096
-0.1846952885389328 0.2370844930410385 0.346553772687912
0.37015920877456665 -0.3806554675102234 0.11444748938083649
0.047195713967084885 0.4011254608631134 -0.06495975703001022
0.5594192743301392 0.0033560441806912422 -0.3124154210090637
-0.2866325378417969 0.4010663330554962 -0.1459631323814392
0.08223313838243484 0.0029985280707478523 -0.27066153287887573
0.16718043386936188 0.07085064798593521 0.46583786606788635
-0.3912215828895569 0.27320072054862976 -0.40292680263519287
-0.4804246127605438 0.35583043098449707 -0.16040296852588654
0.39413756132125854 -0.4713633954524994 -0.04774479940533638
-0.5474028587341309 0.3932783901691437 -0.13501809537410736
-0.14705932140350342 0.39716026186943054 0.022337540984153748
-0.06201488524675369 0.0025325026363134384 -0.2360561490058899
0.15057630836963654 -0.6279637813568115 0.18855349719524384
-0.056540053337812424 0.002741599455475807 -0.0888403132557869
-0.5426390171051025 0.0695284754037857 -0.3290499150753021
0.14985567331314087 -0.019898392260074615 0.3197040259838104
-0.5688479542732239 0.000802372582256794 0.3254181444644928
0.022957684472203255 -0.5122327208518982 0.25128135085105896
-0.506562352180481 -0.10006394237279892 0.23664341866970062
0.13973546028137207 0.002820559311658144 -0.11879489570856094
-0.05457371473312378 -0.5655094981193542 -0.2703761160373688
0.3155263364315033 -0.6193355917930603 0.003443812020123005
-0.041264720261096954 0.40167468786239624 -0.3521791398525238
0.5737742185592651 0.018282108008861542 0.20239011943340302
-0.19729292392730713 0.3986656367778778 -0.04689378663897514
0.33810389041900635 0.23270930349826813 0.4146423041820526
0.3027450144290924 -0.3763364255428314 0.2432035356760025
-0.3737756609916687 0.35976043343544006 0.04552529379725456
-0.48972004652023315 0.009057142771780491 0.2970791161060333
0.18985745310783386 -0.09011007845401764 0.3095617890357971
0.2929765582084656 -0.22921264171600342 -0.31470465660095215
-0.42924344539642334 0.10652237385511398 0.315591424703598
-0.16378089785575867 -0.3235037624835968 0.1900153011083603
0.08326920121908188 0.08329279720783234 0.34484168887138367
0.356315016746521 -0.10960111767053604 -0.2629515826702118
-0.5813551545143127 0.34303587675094604 -0.24788597226142883
0.5840814113616943 0.215399369597435 0.03118707239627838
0.2822469174861908 -0.6281835436820984 -0.057443004101514816
0.2250971645116806 0.397493451833725 0.29914847016334534
-0.3316497802734375 0.005184956826269627 0.3201976418495178
-0.5749521851539612 0.007586885243654251 0.1064576581120491
-0.4472023844718933 0.02873433381319046 -0.3954771161079407
-0.4677322804927826 0.068834587931633 0.34636491537094116
0.31118565797805786 -0.5082311034202576 -0.22655439376831055
0.5831011533737183 0.24097856879234314 -0.01267117541283369
0.10195273160934448 0.0011861668899655342 0.20360349118709564
0.4005654454231262 -0.35027673840522766 -0.1967819631099701
0.2784290015697479 -0.6270903944969177 0.06251359730958939
-0.16715535521507263 0.16559350490570068 0.34481483697891235
-0.09592930972576141 -0.12824268639087677 -0.3119947612285614
0.26554039120674133 -0.6567320823669434 -0.240840882062912
-0.24050647020339966 0.002392508089542389 -0.2474408745765686
-0.5832502245903015 0.17561154067516327 0.02684762328863144
0.5546916127204895 0.002002227120101452 -0.3645750880241394
0.3948439955711365 -0.4481072723865509 -0.024670260027050972
-0.5714244246482849 -0.02001577615737915 -0.1499204933643341
0.2350698858499527 0.0018551039975136518 0.17242439091205597
-0.2886413037776947 0.36219218373298645 -0.13564936816692352
0.5577903389930725 0.011710056103765965 0.3384389579296112
0.0010339920409023762 -0.6263584494590759 0.026575779542326927
-0.40915754437446594 0.005331415683031082 -0.12539421021938324
0.5053552389144897 0.031007057055830956 -0.40338459610939026
0.03548572212457657 0.2388143390417099 0.46085137128829956
0.04820800572633743 0.0028021298348903656 0.26270705461502075
0.4784806966781616 0.40172386169433594 0.051957517862319946
-0.12533703446388245 -0.509106457233429 0.14865374565124512
0.3716481328010559 -0.5405592322349548 -0.1388487070798874
-0.05916622653603554 0.3557470738887787 -0.39954057335853577
-0.4534844160079956 0.4032125473022461 0.15156011283397675
0.3118184804916382 0.0015573878772556782 -0.22884678840637207
-0.18277236819267273 0.39769917726516724 0.32644709944725037
-0.1444130539894104 0.40158742666244507 0.2990923523902893
-0.35349008440971375 0.00043527502566576004 -0.18002638220787048
-0.16440075635910034 -0.595065712928772 0.0760638415813446
0.3000513017177582 0.004610876552760601 0.08596412092447281
-0.1009180098772049 0.200391486287117 0.35314953327178955
0.2827364504337311 0.002027821261435747 -0.012220841832458973
0.47563642263412476 0.40060973167419434 0.12339015305042267
0.3386320173740387 -0.6353260278701782 -0.02576030232012272
-0.3661969006061554 0.052966635674238205 -0.26388031244277954
-0.17823897302150726 -0.3666304051876068 -0.21828551590442657
0.1798732578754425 0.15016449987888336 0.46600115299224854
0.0950857400894165 -0.620121955871582 0.04486102610826492
-0.39781805872917175 -0.0062505220994353294 0.1960023194551468
0.0781063362956047 -0.18508213758468628 -0.375083863735199
-0.3755231499671936 0.2850220501422882 0.34511658549308777
0.09130564332008362 -0.02471151575446129 0.3278290033340454
-0.004461667500436306 -0.006406575441360474 0.2996113896369934
-0.501940906047821 0.0035713864490389824 0.2767942249774933
0.3583953380584717 0.2234007567167282 0.3472808599472046
-0.2183748185634613 0.005011408589780331 0.3148708939552307
-0.1297266036272049 -0.6271517872810364 -0.10885263979434967
-0.5360655784606934 0.3871619403362274 -0.39243537187576294
0.30741411447525024 0.019774485379457474 0.46087637543678284
0.49189865589141846 0.00012628117110580206 -0.16570889949798584
-0.5782732367515564 0.12291527539491653 0.008471003733575344
-0.009359960444271564 0.40150541067123413 -0.37603795528411865
-0.5304253101348877 0.10781041532754898 0.03625444322824478
0.4036610424518585 0.2195265144109726 0.3471054434776306
0.3475985825061798 0.001682717353105545 -0.3576676547527313
-0.15180563926696777 -0.16733451187610626 -0.2586991786956787
-0.07563837617635727 -0.08944506198167801 0.26836735010147095
0.1304180920124054 -0.15007714927196503 0.3181789517402649
0.3725878894329071 -0.05837799608707428 0.1949181854724884
0.13403461873531342 0.2497333139181137 0.3459865152835846
0.2896451950073242 0.39854171872138977 0.15023285150527954
-0.04506924748420715 0.3924531042575836 0.3371785581111908
0.37072497606277466 -0.37224650382995605 -0.2385329157114029
0.0018909487407654524 -0.1142214685678482 0.3045705556869507
-0.1407305896282196 -0.6563959121704102 -0.15849611163139343
-0.4999977648258209 0.3991093933582306 0.02313212677836418
0.26987916231155396 -9.675417095422745e-05 0.2821371555328369
-0.013151771388947964 0.402413010597229 -0.05658862739801407
0.15600456297397614 -0.4453358054161072 0.26055189967155457
0.40122008323669434 0.000495654996484518 -0.3381443917751312
-0.462904691696167 0.4023769497871399 0.20991908013820648
0.5131977796554565 0.001119113527238369 -0.2354242354631424
0.16830286383628845 0.0032916460186243057 0.07487043738365173
0.46784788370132446 0.39296263456344604 0.34370186924934387
-0.00874328799545765 -0.6228551268577576 0.06364355981349945
-0.4347289502620697 -0.1032489538192749 0.33333879709243774
-0.15980589389801025 0.28839853405952454 -0.4008547365665436
0.2806912660598755 -0.3722054660320282 -0.3199203908443451
0.3777392506599426 -0.6534242630004883 -0.08805078268051147
-0.4062032103538513 0.09249139577150345 0.13574515283107758
0.3743549883365631 -0.6507697105407715 -0.049560874700546265
0.42100441455841064 -0.1906171441078186 -0.1616213172674179
-0.0518997460603714 0.0029330234974622726 0.23653200268745422
-0.535098671913147 0.09634464234113693 0.06260889768600464
0.13011497259140015 -0.00024296343326568604 -0.14859333634376526
-0.30781376361846924 0.004904152825474739 0.29348066449165344
0.38309934735298157 0.39995765686035156 -0.16274596750736237
0.2306855469942093 -0.04771140217781067 0.4636189639568329
-0.3395533561706543 0.39837145805358887 0.29868239164352417
-0.4097428023815155 -0.09056362509727478 -0.004745465237647295
0.5336830019950867 0.4023685157299042 -0.24769790470600128
0.26366281509399414 -0.27627432346343994 0.28030917048454285
-0.4880051016807556 0.05439857020974159 0.34757786989212036
-0.04268568009138107 0.40168437361717224 0.14197926223278046
-0.48581716418266296 0.11769814044237137 -0.35861364006996155
0.18082550168037415 -0.4971711337566376 0.25477656722068787
-0.10045761615037918 -0.6250432729721069 -0.10417059808969498
-0.5747703313827515 0.0984310507774353 -0.2493647187948227
-0.33240005373954773 0.002736456226557493 -0.25954756140708923
0.1855470836162567 0.1048407107591629 0.46529021859169006
0.19839239120483398 0.40164363384246826 -0.1794162392616272
0.058552131056785583 -0.23819461464881897 -0.36448293924331665
-0.12116845697164536 -0.5415322780609131 -0.2008899599313736
-0.4694502353668213 -0.10673264414072037 0.02366844192147255
0.1701931655406952 -0.05491042137145996 0.32012152671813965
-0.046685997396707535 -0.6474416255950928 0.21297772228717804
-0.03345850482583046 -0.3268231451511383 -0.3448665738105774
0.5807559490203857 0.11098235100507736 0.09540970623493195
0.5522804856300354 0.01615947112441063 0.33492907881736755
0.15248215198516846 -0.1287820041179657 -0.36962297558784485
-0.32384204864501953 0.10848715901374817 -0.40103742480278015
0.2148626446723938 0.0014877109788358212 0.2620216906070709
-0.35952702164649963 0.002279391046613455 -0.21754606068134308
0.4327920377254486 0.40206241607666016 -0.08688158541917801
-0.3966670334339142 0.08480459451675415 0.3064778447151184
0.2802959382534027 -0.42650648951530457 0.20390933752059937
-0.4766170084476471 0.11481816321611404 -0.031815946102142334
-0.31980079412460327 0.3799966275691986 -0.3965853154659271
0.43567848205566406 0.40133756399154663 -0.2655906081199646
0.582592248916626 0.27188292145729065 0.1496797353029251
-0.007692764513194561 0.0014615245163440704 -0.30677908658981323
0.14973141252994537 0.07411351799964905 0.46614721417427063
0.2443593591451645 -0.3472817838191986 0.2893652319908142
-0.5495908260345459 0.38858428597450256 -0.07532719522714615
-0.25279274582862854 0.40249255299568176 0.1340174674987793
-0.05309782549738884 0.13965949416160583 -0.4028933644294739
0.2202034443616867 0.00016812141984701157 -0.04677389934659004
-0.11279113590717316 0.2761264443397522 0.3448238670825958
0.0891827940940857 0.003029489889740944 -0.08578181266784668
-0.07523950934410095 0.0038346238434314728 0.1209709495306015
0.03480635583400726 0.22204457223415375 0.46215975284576416
-0.2229984700679779 0.10386002063751221 -0.40062272548675537
-0.13642387092113495 0.07861972600221634 0.34434571862220764
-0.03453303128480911 0.15912854671478271 -0.4030943810939789
0.3456234633922577 0.22834928333759308 -0.40142232179641724
0.5779817700386047 0.3693293035030365 -0.12123332172632217
0.07100389897823334 0.4024500548839569 -0.07929173111915588
0.20641013979911804 0.39910924434661865 0.23727041482925415
-0.5735626220703125 0.07750753313302994 0.15118464827537537
0.5832928419113159 0.12061354517936707 -0.22167988121509552
0.32666584849357605 0.0022995283361524343 0.1657191962003708
-0.2932789921760559 0.004893185570836067 0.09629730880260468
0.013908423483371735 -0.0006828969344496727 0.11680704355239868
0.18827909231185913 0.002703511156141758 -0.22494743764400482
0.32489338517189026 0.09897416830062866 -0.4008792042732239
-0.47162407636642456 0.10589736700057983 0.13640612363815308
0.2840081453323364 0.003880356438457966 -0.15982024371623993
-0.12625491619110107 0.0008448171429336071 -0.0033099805004894733
0.4288006126880646 -0.0009428765624761581 0.11324471980333328
-0.42795443534851074 -0.0962006077170372 -0.19138269126415253
-0.5750036239624023 0.010147789493203163 0.00413872953504324
0.389489084482193 -0.504305899143219 -0.07677826285362244
-0.564599335193634 0.3695426285266876 0.33521029353141785
0.4031699299812317 0.0023887623101472855 0.26878494024276733
0.581230878829956 0.09943714737892151 -0.15149381756782532
-0.4627230167388916 -0.00010477472096681595 -0.3181929290294647
0.08140860497951508 -0.15626437962055206 -0.3728734850883484
-0.15202312171459198 -0.6503640413284302 0.061418041586875916
-0.3943621814250946 0.09077624976634979 0.1593274176120758
-0.5817972421646118 0.28546029329299927 -0.22557015717029572
0.23664982616901398 -0.251220703125 -0.34439370036125183
0.36773598194122314 -0.47220733761787415 -0.13787226378917694
0.3013480007648468 0.39727622270584106 -0.3890402615070343
0.4053516685962677 -0.38471999764442444 -0.12090624123811722
-0.14810718595981598 -0.5244496464729309 0.11561384052038193
-0.1446877419948578 -0.6487234830856323 0.10557134449481964
-0.029199346899986267 0.4020795524120331 0.26160815358161926
0.2846507728099823 0.0028306213207542896 -0.01386317890137434
0.015127683989703655 0.26776355504989624 0.35547709465026855
-0.08829472959041595 -0.3175062835216522 0.261319100856781
-0.07296054810285568 0.19010241329669952 -0.4034430980682373
-0.4060760736465454 0.13758540153503418 0.34293949604034424
0.5773990154266357 0.10231589525938034 0.3218916356563568
0.47539833188056946 -0.0005338884657248855 -0.10480916500091553
0.12903885543346405 0.4493121802806854 0.3622885048389435
-0.3666459619998932 0.061560653150081635 -0.21348917484283447
-0.4667203724384308 0.40247851610183716 0.12882225215435028
-0.007119974587112665 0.00015585869550704956 -0.10852755606174469
-0.24886153638362885 0.18840859830379486 0.3454311192035675
0.13990503549575806 -0.6279394030570984 -0.02645055390894413
0.2858016788959503 -0.001284944824874401 0.23011237382888794
-0.10065428912639618 -0.4162602424621582 -0.23060257732868195
-0.3643014430999756 0.04506440833210945 0.2301912158727646
-0.31662696599960327 0.40185096859931946 0.03722495958209038
-0.15704591572284698 -0.5189365148544312 -0.15675130486488342
-0.4615910053253174 0.10085055977106094 0.09586738049983978
0.25352638959884644 0.0021701473742723465 -0.03919530287384987
0.05914802476763725 -0.39353710412979126 0.26223650574684143
-0.20321029424667358 -0.05697420611977577 -0.17969639599323273
0.3979381024837494 -0.0004233353538438678 0.11019288003444672
0.032684605568647385 0.3659798800945282 0.40130898356437683
-0.4555210769176483 -0.10909335315227509 -0.31694722175598145
0.504502534866333 0.012339004315435886 -0.3944751024246216
0.11410387605428696 -0.06991232931613922 0.3243332505226135
0.3709709048271179 0.16950900852680206 -0.40144550800323486
-0.02491806261241436 0.0031523550860583782 0.245162695646286
0.5174312591552734 0.0011464077979326248 0.09827780723571777
-0.42797574400901794 0.024609636515378952 0.35313209891319275
-0.1327088475227356 0.1401236653327942 -0.4026853144168854
0.42206841707229614 -0.0009970231913030148 -0.10625633597373962
-0.4980301856994629 0.010216121561825275 -0.39923450350761414
-0.2193099707365036 0.0010993154719471931 -0.13279731571674347
0.04213603585958481 0.002674215007573366 0.010065301321446896
0.23039264976978302 0.09823252260684967 0.465700626373291
0.03512163832783699 0.11628364771604538 0.46176213026046753
0.16089089214801788 0.003094583749771118 0.012682398781180382
-0.02154923602938652 0.4013763666152954 -0.3230297267436981
-0.19298258423805237 0.39833521842956543 0.32238268852233887
-0.399260938167572 0.3549656867980957 -0.40159136056900024
0.22668567299842834 -0.6305068731307983 0.03813319280743599
0.5829298496246338 0.12384628504514694 0.2452325075864792
-0.10517507046461105 -0.3761115074157715 0.22705082595348358
0.2211679369211197 0.0015903690364211798 0.3444807529449463
-0.1620810478925705 0.0017197034321725368 -0.06806927174329758
0.31373491883277893 -0.6291254758834839 0.0176665261387825
-0.030395420268177986 -0.015162281692028046 0.28840622305870056
0.4143855571746826 -0.19200536608695984 -0.1763574779033661
0.04655137285590172 -0.6259822249412537 0.19655324518680573
-0.16110792756080627 -0.3351839780807495 -0.243719220161438
-0.3572165071964264 0.023601870983839035 -0.09256847947835922
0.16493895649909973 0.46554094552993774 0.4480848014354706
-0.022062227129936218 0.0024405326694250107 -0.08710916340351105
0.020601557567715645 0.4015830457210541 -0.18986725807189941
-0.23695014417171478 0.049186475574970245 -0.39916718006134033
-0.1680532544851303 -0.48446032404899597 0.08082064241170883
0.10070326179265976 -0.6327725052833557 0.21252033114433289
-0.08767122775316238 -0.0019439486786723137 0.24933721125125885
-0.00024705950636416674 0.10522688180208206 -0.40331634879112244
0.4468711316585541 -0.000581040047109127 0.07158184796571732
0.11096692830324173 -0.6298832893371582 -0.21002960205078125
0.003945368807762861 0.004457080736756325 0.30778178572654724
0.2939547002315521 -0.6596102714538574 -0.21861861646175385
0.10311134159564972 0.0030051320791244507 0.2183905988931656
-0.11104336380958557 0.3154429793357849 0.34763261675834656
0.3926085829734802 -0.40019384026527405 0.0009448709897696972
-0.11212603747844696 -0.3522675633430481 -0.2977517545223236
0.22028587758541107 0.3057767450809479 -0.4037209451198578
0.0007047370891086757 -0.0007341448217630386 -0.04110908880829811
0.01913619413971901 0.3729149103164673 0.3447361886501312
0.20912820100784302 0.16603988409042358 -0.4009055197238922
0.22430355846881866 0.3563089370727539 -0.4024662375450134
-0.2253459095954895 -0.08583828061819077 0.08256670087575912
0.1970866173505783 0.4540932774543762 0.4445982277393341
-0.33379697799682617 0.40226981043815613 0.1922033578157425
-0.358007550239563 -0.001422123983502388 -0.15005263686180115
0.20677292346954346 0.0024869893677532673 -0.2061132788658142
0.319390207529068 -0.6408906579017639 0.09602799266576767
-0.492885023355484 -0.00801507942378521 -0.4033738076686859
-0.09697741270065308 0.3988245129585266 0.28957268595695496
-0.5015310645103455 -0.09473442286252975 0.13308215141296387
0.43377020955085754 -0.3734762668609619 -0.014195828698575497
-0.5784852504730225 0.13009220361709595 -0.03042694367468357
0.23208318650722504 0.0026740278117358685 -0.0527644045650959
0.261764258146286 0.402845174074173 0.3042810261249542
-0.10791010409593582 -0.09138010442256927 -0.2977955639362335
0.03231144696474075 -0.3114796578884125 -0.36614421010017395
0.3366880714893341 0.1739804446697235 -0.4006672203540802
0.02740517072379589 0.2136518955230713 0.3858155608177185
-0.4550827443599701 0.3589586913585663 0.34433022141456604
-0.08096639811992645 -0.6280484199523926 0.12107551842927933
-0.19167783856391907 0.3965563476085663 0.3327133059501648
-0.27557849884033203 0.2980031669139862 -0.4004838764667511
-0.5748493671417236 0.2534716725349426 -0.32499462366104126
0.324884295463562 -0.3819217383861542 0.20495469868183136
0.3616943955421448 0.0005555301904678345 0.2361842393875122
0.019724754616618156 0.23414231836795807 0.3536455035209656
0.36238008737564087 -0.28244319558143616 0.20807614922523499
-0.5151463747024536 -0.09752073138952255 0.052465759217739105
0.11248716711997986 0.4008377194404602 0.20063818991184235
0.12541522085666656 -0.24125926196575165 -0.3731628656387329
-0.14346399903297424 0.40153583884239197 0.178963303565979
-0.15006785094738007 -0.08382001519203186 0.20411433279514313
-0.1805688887834549 -0.4077379107475281 -0.09310517460107803
-0.17482545971870422 -0.5546361207962036 -0.08390426635742188
0.3512105345726013 0.0005404234398156404 -0.28646546602249146
0.2940278649330139 -0.030558321624994278 0.33371487259864807
-0.5780847072601318 0.272510290145874 0.20236322283744812
0.5827380418777466 0.3710327744483948 0.2207927256822586
-0.0028246650472283363 0.4035376012325287 -0.32349467277526855
-0.0724518895149231 0.0018130859825760126 -0.3399396538734436
-0.43830573558807373 0.22852277755737305 0.34434232115745544
0.17275728285312653 -0.08142053335905075 0.39223137497901917
0.12677793204784393 -0.0745919942855835 0.38041257858276367
0.4734364151954651 2.6839785277843475e-05 -0.1548675298690796
-0.5696551203727722 0.06751386821269989 0.01606927067041397
-0.3962388038635254 0.11147774755954742 -0.39873310923576355
-0.02049357071518898 0.0026824274100363255 -0.0023472777102142572
-0.42723456025123596 0.3608120381832123 0.02757459506392479
-0.5779940485954285 0.10548224300146103 -0.1407582312822342
0.001700694439932704 -0.6272510886192322 -0.21558508276939392
0.5122650861740112 0.4019875228404999 0.16426745057106018
-0.540428102016449 -0.0793851837515831 -0.06760085374116898
0.006922837346792221 0.0021406146697700024 0.23370924592018127
-0.31793901324272156 0.3576190173625946 -0.14690814912319183
0.24939166009426117 0.2985118329524994 -0.4033898115158081
-0.33941546082496643 0.3082459568977356 -0.4010061025619507
0.12190527468919754 0.0018395676743239164 0.10428134351968765
-0.39762404561042786 0.37439730763435364 -0.20030638575553894
0.08591247349977493 -0.24764584004878998 0.31983262300491333
-0.3650556802749634 0.40269947052001953 0.26097989082336426
0.3850206732749939 -0.4399321675300598 0.03766091167926788
-0.42727556824684143 -0.09899579733610153 0.2727196216583252
-0.21718646585941315 -0.2578318119049072 0.09735957533121109
0.3637794554233551 0.22376522421836853 -0.40063178539276123
0.12986312806606293 -0.4019901752471924 -0.32612279057502747
0.5789888501167297 0.08589011430740356 -0.36985060572624207
0.5732032060623169 0.3881341516971588 -0.3506811559200287
-0.18048684298992157 0.4016273319721222 0.053249482065439224
0.4398118257522583 -0.0036719078198075294 0.08256155252456665
0.40388691425323486 0.0010367501527071 0.02506040222942829
0.4361560344696045 0.40294405817985535 -0.16928425431251526
0.34301096200942993 -3.79905104637146e-05 0.2008531242609024
0.2830832600593567 -0.09514427930116653 0.39179909229278564
-0.2090490758419037 0.0016016835579648614 0.22555021941661835
-0.18509359657764435 -0.5082657933235168 -0.01813327521085739
-0.18005584180355072 0.0013574734330177307 -0.14329670369625092
0.125479593873024 0.27037039399147034 -0.40213537216186523
-0.19381114840507507 0.14585889875888824 -0.40181148052215576
-0.5643702745437622 -0.05079566314816475 0.2988589406013489
0.5802521705627441 0.3505846858024597 0.14172062277793884
0.20749057829380035 0.0021003647707402706 0.10974922776222229
-0.35242730379104614 0.292432576417923 -0.4017477333545685
0.42293107509613037 -5.0758011639118195e-05 -0.11883165687322617
0.47535240650177 0.4017082452774048 0.14191901683807373
0.11815353482961655 0.0010660355910658836 0.05803384259343147
-0.09385105222463608 0.0011994242668151855 0.05802640691399574
-0.2509898841381073 0.4034980535507202 0.17870070040225983
-0.5320975184440613 0.13663452863693237 0.34196922183036804
0.2376692146062851 0.4492795765399933 0.439531534910202
-0.48808884620666504 0.10711690038442612 -0.028683621436357498
0.007228986360132694 5.382951349020004e-05 -0.08767309784889221
0.41800281405448914 0.4023204445838928 0.2825462520122528
0.5821506381034851 0.09330572187900543 -0.2059912234544754
-0.1303589791059494 0.0014475001953542233 -0.35814645886421204
-0.5479754209518433 0.38708436489105225 0.10919645428657532
0.4813719391822815 -0.0014131958596408367 -0.31645646691322327
-0.026973063126206398 0.00171714648604393 0.03437596186995506
0.055803779512643814 0.3797647953033447 -0.3999251127243042
0.2210816890001297 0.4012073278427124 -0.21541132032871246
-0.3712363839149475 -0.005055156536400318 0.13724221289157867
0.22004693746566772 0.001827957108616829 0.24720048904418945
0.07145868986845016 0.022588519379496574 -0.4012519121170044
0.014824436977505684 0.17696116864681244 0.39532575011253357
0.10507037490606308 -0.6339733600616455 0.213412806391716
0.31738486886024475 0.4534124732017517 0.4103687107563019
0.5208064317703247 0.07944312691688538 -0.40210506319999695
0.12831518054008484 0.012209959328174591 -0.3964413106441498
0.34881898760795593 -0.6203158497810364 -0.07664192467927933
0.37853914499282837 0.1885310411453247 0.343983918428421
-0.23234644532203674 -0.1320343315601349 -0.10861445218324661
0.21107584238052368 -0.041695140302181244 0.2870454788208008
-0.1569543480873108 -0.6402806043624878 -0.010898718610405922
-0.3384419083595276 0.4002208113670349 0.05347861349582672
0.03252831846475601 -0.0009782779961824417 0.286863774061203
-0.244282066822052 0.40186816453933716 -0.09383516013622284
0.5175058245658875 0.06860564649105072 0.34386855363845825
0.5122649073600769 0.016796182841062546 -0.4003158211708069
-0.11862865835428238 0.000731634208932519 0.16516269743442535
-0.10851649940013885 0.001767398789525032 -0.2737666368484497
0.1782437562942505 0.2614075541496277 0.345737099647522
0.3136270046234131 0.015504313632845879 0.34183090925216675
0.002212901134043932 0.4019022583961487 0.003032171633094549
-0.1255992352962494 -0.18319153785705566 0.23243926465511322
0.28367623686790466 -0.5338387489318848 -0.25380653142929077
0.41528210043907166 0.1284659206867218 0.3464236259460449
0.5806390047073364 0.058087483048439026 -0.3693087697029114
0.3818345367908478 -0.12128127366304398 0.17840512096881866
0.1562163233757019 -0.001114050392061472 0.33171936869621277
0.1768462061882019 0.09979382902383804 0.34557950496673584
-0.31963348388671875 0.40744301676750183 -0.10875073075294495
-0.5745194554328918 -0.0057573989033699036 0.2810734510421753
-0.27500900626182556 0.2133132666349411 -0.40220412611961365
-0.23331262171268463 0.27315545082092285 -0.4005642235279083
-0.24748939275741577 0.39592573046684265 -0.39374256134033203
-0.3943469524383545 -0.0006680279038846493 -0.29145321249961853
-0.02410983294248581 -0.65529865026474 -0.24231381714344025
-0.011044265702366829 -0.3238123953342438 0.300899475812912
0.5731126070022583 0.01183069683611393 -0.19723506271839142
-0.4892864227294922 0.13872316479682922 -0.39944374561309814
-0.2503151297569275 0.02781936712563038 -0.3993479907512665
0.2985052466392517 0.0037855831906199455 0.12874160706996918
-0.2375568151473999 0.002988063730299473 -0.13849128782749176
0.0036060786806046963 0.0014080554246902466 -0.10478632897138596
0.353626549243927 -0.06963106244802475 0.2154766321182251
0.31533530354499817 -0.2705017030239105 0.24613431096076965
0.5848752856254578 0.308640718460083 -0.021848319098353386
