0.020823169499635696 -0.00736172404140234 -0.35800978541374207
-0.19812437891960144 0.009882304817438126 0.3380589783191681
0.08611661940813065 -0.6362041234970093 -0.31515011191368103
0.20204731822013855 0.39507758617401123 0.19060209393501282
-0.4149499833583832 0.4052281081676483 -0.008520495146512985
-0.14346115291118622 0.39819836616516113 -0.07894477248191833
-0.5694367289543152 0.005994191858917475 0.16997818648815155
-0.5762527585029602 0.3198094666004181 -0.3678743839263916
-0.16699062287807465 -0.41707149147987366 -0.1237945705652237
-0.14965015649795532 0.15320663154125214 0.3444114923477173
-0.3257363736629486 0.2845914363861084 -0.3984316289424896
-0.03487425297498703 0.0016581611707806587 -0.23229868710041046
-0.14838844537734985 0.08597863465547562 -0.3977228105068207
-0.5724442601203918 0.05429653450846672 -0.34464502334594727
0.3314204514026642 0.002444333164021373 0.08263693749904633
-0.5744243860244751 0.0013158773072063923 0.009867968037724495
0.4416329264640808 -0.10759444534778595 0.04616610333323479
-0.2357475608587265 0.004096418619155884 -0.20458339154720306
-0.005191430449485779 0.3972836434841156 0.12745435535907745
0.07355009764432907 0.24825622141361237 -0.3977859914302826
0.16313795745372772 -0.03862634673714638 -0.366651713848114
-0.009120144881308079 -0.6200116872787476 -0.048851627856492996
-0.24106289446353912 0.3834114372730255 -0.39365750551223755
0.0780620351433754 0.22541488707065582 0.46551698446273804
0.17879746854305267 -0.36639532446861267 -0.3577002286911011
-0.2212388515472412 0.39936330914497375 -0.03631312772631645
0.2937154173851013 -0.27202287316322327 -0.309165358543396
-0.07533225417137146 -0.6227388978004456 -0.1735108643770218
0.5744428038597107 0.018717898055911064 -0.0813453197479248
0.13155518472194672 -0.6419080495834351 -0.3049905598163605
0.10123393684625626 -0.6222243309020996 0.04333613067865372
0.15299715101718903 0.00170128233730793 0.1467529833316803
0.38193202018737793 -0.04363344982266426 -0.21431750059127808
0.4403005838394165 -0.36347684264183044 -0.04815378785133362
0.5734447240829468 0.3884022533893585 -0.3530484437942505
-0.28446832299232483 0.02311830036342144 0.34327036142349243
0.1866999715566635 0.22425809502601624 -0.39790287613868713
0.2830970287322998 0.3953486382961273 0.09940279275178909
-0.4072761535644531 0.3955240249633789 -0.3938146233558655
0.2705707550048828 -0.001937648979946971 -0.32750794291496277
0.17025460302829742 -0.1525101214647293 0.3080030083656311
0.34842634201049805 -0.6478518843650818 -0.11368034780025482
-0.394246369600296 0.003237572032958269 -0.08544007688760757
0.57452392578125 0.38836854696273804 0.08050058037042618
0.3073534667491913 -0.6546664237976074 -0.21741430461406708
0.1816612035036087 0.38333308696746826 0.46456974744796753
-0.05763387680053711 -0.09706472605466843 -0.33455729484558105
0.5747997760772705 0.22027069330215454 -0.38794609904289246
0.3322612941265106 -0.6303287148475647 -0.11923141032457352
0.21023769676685333 -0.6185941696166992 -0.1934971809387207
-0.4710449278354645 -0.10538960248231888 -0.11343344300985336
0.15051229298114777 0.00032147858291864395 -0.26683470606803894
0.2850739359855652 0.0026126401498913765 -0.1808667927980423
0.34629926085472107 -0.26191237568855286 0.21871723234653473
0.3322848379611969 -0.5117393136024475 0.14435230195522308
-0.11703839898109436 0.0038091547321528196 -0.37697887420654297
0.039642464369535446 -0.0004795510321855545 -0.07500877976417542
-0.29446226358413696 0.3697172999382019 -0.043374378234148026
0.12962333858013153 0.2107722908258438 -0.39956900477409363
-0.07481060922145844 -0.6201092600822449 -0.016173388808965683
-0.002111149486154318 -0.00015639234334230423 -0.21668104827404022
-0.03875413164496422 -0.6488465070724487 0.1957385540008545
-0.29532021284103394 0.004554483108222485 0.20040564239025116
0.13953372836112976 0.33900582790374756 0.33836549520492554
-0.46241843700408936 0.15160779654979706 0.3433770537376404
0.5789006948471069 0.042590126395225525 0.19596852362155914
-0.010098333470523357 0.4008137881755829 -0.1800169050693512
-0.1780518889427185 -0.5215332508087158 0.0010059303604066372
0.02023174986243248 0.06391296535730362 0.39437204599380493
-0.4098537564277649 0.05110008269548416 -0.40030142664909363
0.40139052271842957 -0.0057889726012945175 -0.1943558305501938
0.4413002133369446 -0.002431768923997879 0.026311859488487244
0.5792421698570251 0.11435429006814957 -0.0033871319610625505
0.5836416482925415 0.24859021604061127 0.31461697816848755
0.2642601430416107 0.39303410053253174 0.20422972738742828
-0.5268541574478149 -0.08440863341093063 -0.2892698347568512
0.2963583767414093 0.0023590296041220427 0.15296904742717743
0.43833890557289124 0.39116621017456055 0.3220231533050537
-0.13937567174434662 0.20384958386421204 0.34748098254203796
-0.09021734446287155 0.0005156411789357662 -0.15329906344413757
-0.5762354731559753 0.17059247195720673 -0.18556201457977295
-0.5665246248245239 0.2060338854789734 0.33491000533103943
-0.5764788389205933 0.23041921854019165 -0.11480353027582169
-0.3438659608364105 0.30505606532096863 -0.3971748948097229
-0.5505059957504272 0.3839576542377472 0.27289479970932007
0.13074971735477448 0.4583999216556549 0.3685533106327057
0.45488181710243225 -0.0020592412911355495 -0.008803603239357471
-0.2471352219581604 0.40009385347366333 -0.1221170723438263
-0.5698323249816895 0.027741022408008575 0.2952190935611725
0.32023367285728455 -0.6372235417366028 0.09552837163209915
-0.520823061466217 0.0940857008099556 0.022770630195736885
0.2931932210922241 0.1843796968460083 -0.399251252412796
-0.48357275128364563 0.11173402518033981 0.12314994633197784
-0.09166217595338821 0.3978681266307831 0.045024365186691284
0.4450828433036804 -0.02550385892391205 -0.06571133434772491
0.1410800963640213 -0.6214616298675537 -0.24459333717823029
0.11055611073970795 -0.6143850684165955 0.2597677409648895
0.16988512873649597 -0.6225369572639465 -0.24864061176776886
-0.5651297569274902 -0.03729955852031708 0.17285551130771637
-0.4577493965625763 0.10154175758361816 -0.3787356913089752
-0.08477851748466492 -0.5687317252159119 -0.24234245717525482
0.38262781500816345 -0.6506826877593994 -0.03807917982339859
0.23689667880535126 0.00016586354468017817 -0.29306209087371826
-0.04376595467329025 -0.36917445063591003 -0.3294169008731842
-0.2837190628051758 0.3391591012477875 -0.08914724737405777
0.00753894355148077 -0.06119459494948387 -0.36007511615753174
0.4344352185726166 0.17174018919467926 -0.397635817527771
-0.15090319514274597 -0.025118660181760788 -0.24800758063793182
0.06741391122341156 -0.6212950944900513 -0.21691922843456268
-0.4720660448074341 -0.08746349066495895 0.3410874307155609
-0.46188828349113464 0.045834463089704514 0.3491635024547577
0.22718097269535065 0.3948643207550049 0.15673869848251343
0.12757600843906403 0.03560353070497513 -0.3986818492412567
0.5234464406967163 0.13759131729602814 -0.3983306884765625
-0.2454003542661667 -0.039359357208013535 -0.025701854377985
0.20242014527320862 0.06180674955248833 0.4627525508403778
-0.5606935024261475 0.011644378304481506 0.33368319272994995
0.5804983377456665 0.19583521783351898 -0.20207643508911133
0.35454702377319336 -0.1477944701910019 -0.2614867091178894
-0.5773676037788391 0.23744674026966095 -0.19705551862716675
0.2626836597919464 -0.6253427267074585 -0.20421868562698364
0.22810982167720795 0.3847397267818451 0.33995750546455383
0.09398487955331802 -0.0006557807791978121 -0.3797386884689331
0.07854880392551422 0.1624394655227661 0.34420281648635864
0.13367892801761627 -0.05357290804386139 0.32231274247169495
-0.4188172221183777 0.004150320775806904 0.13931626081466675
-0.39271825551986694 0.06340675055980682 0.20664682984352112
0.03954187035560608 -0.09514020383358002 -0.36355921626091003
-0.36813145875930786 0.3996126353740692 0.09996511042118073
0.5293174386024475 0.39605990052223206 0.23016798496246338
0.31919875741004944 -0.6181366443634033 -0.10426080226898193
-0.23041580617427826 -0.20738787949085236 -0.10409125685691833
-0.3731592893600464 -0.0007416526786983013 0.04157649353146553
0.232992485165596 0.0015502329915761948 0.1973767727613449
-0.00901732686907053 0.4010258615016937 -0.08333564549684525
0.577329695224762 0.22038908302783966 -0.2982586920261383
-0.21476225554943085 0.39884108304977417 0.08592689037322998
0.2535719871520996 -0.6072322130203247 -0.2737458646297455
0.22815100848674774 0.0009042066521942616 -0.3755437135696411
-0.07644589990377426 -0.568230390548706 -0.2504396140575409
-0.04383501037955284 -0.6226983070373535 -0.06366205960512161
0.3415762186050415 -0.16768473386764526 -0.277010977268219
0.5786656737327576 0.08761122077703476 0.1649762988090515
0.023663586005568504 -0.004698349162936211 -0.36668750643730164
-0.027015920728445053 0.3994307219982147 -0.21272414922714233
-0.3766827881336212 -0.05817744880914688 0.01948092132806778
0.1609719693660736 -0.5114731192588806 0.2517910301685333
-0.5492258667945862 0.38599565625190735 -0.3088442087173462
0.17950329184532166 -0.39637160301208496 -0.30463850498199463
0.16884559392929077 -0.6209245324134827 -0.06779856234788895
-0.14499931037425995 -0.45289793610572815 -0.16330742835998535
0.34653735160827637 0.002705189399421215 0.034709952771663666
0.032048944383859634 -0.5319719910621643 -0.30521613359451294
-0.37890177965164185 0.3131314218044281 0.3440510928630829
0.022123213857412338 -0.6219536066055298 -0.07442589104175568
-0.2932216227054596 0.3623659908771515 -0.06711458414793015
0.1838076114654541 0.31722304224967957 -0.3991473317146301
-0.5662236213684082 0.2598918080329895 -0.39280077815055847
-0.19216786324977875 0.023146677762269974 0.3413465619087219
0.15898019075393677 -0.0895705297589302 -0.36148691177368164
0.11158835142850876 0.11021319776773453 0.4642181098461151
0.40933480858802795 -0.14870470762252808 0.12828555703163147
-0.03384493291378021 -0.37860384583473206 -0.31260013580322266
0.08155063539743423 0.39833521842956543 0.003932008519768715
-0.23354698717594147 -0.25775638222694397 -0.0732048898935318
-0.5308766961097717 0.391987144947052 0.018516242504119873
0.24492740631103516 -0.6160441637039185 -0.07422545552253723
0.045923665165901184 -0.00015943404287099838 -0.04673285409808159
-0.18018189072608948 -0.48501157760620117 -0.03381210193037987
-0.41291314363479614 -0.093366339802742 -0.22739863395690918
-0.010675125755369663 0.003794649615883827 0.1877870261669159
0.232759028673172 0.3977561295032501 -0.059641316533088684
0.25451597571372986 -0.22200384736061096 -0.33394864201545715
-0.12196975201368332 0.008047407492995262 -0.3866465985774994
0.03125741332769394 -0.6454991102218628 0.22610801458358765
0.3127421438694 0.10496862977743149 0.3436886966228485
-0.27766814827919006 0.32555851340293884 0.34358903765678406
0.11771934479475021 -0.33837243914604187 0.3140581250190735
-0.45792055130004883 -0.10606271028518677 -0.03540662303566933
-0.49568068981170654 0.10868863761425018 -0.06516876071691513
0.34788575768470764 -0.0382334440946579 -0.27255508303642273
0.1381722241640091 0.16478534042835236 0.342855304479599
0.16159719228744507 -0.14723972976207733 -0.3675141930580139
0.043228521943092346 -0.08311328291893005 0.3799706697463989
-0.5163713097572327 0.0014339843764901161 0.14012660086154938
0.014045152813196182 0.0016546174883842468 -0.08692772686481476
0.25663888454437256 0.387937992811203 0.3416479229927063
0.5058638453483582 0.0011501079425215721 0.21866102516651154
0.2724992334842682 0.39712607860565186 0.0884670540690422
0.4367152452468872 0.31696394085884094 -0.3975485861301422
0.17962056398391724 0.0003441944718360901 -0.33302736282348633
-0.036428287625312805 0.00172776123508811 -0.09814687073230743
-0.14486323297023773 0.0013218671083450317 -0.14133460819721222
-0.25771471858024597 -0.0009033060632646084 -0.03964902460575104
-0.00620571244508028 0.39874470233917236 -0.2748831808567047
0.09611181169748306 0.0013593740295618773 -0.24917930364608765
-0.46545687317848206 -0.0348004549741745 -0.3983664810657501
-0.19894608855247498 0.2967067062854767 -0.3963639438152313
0.25735709071159363 -0.6180644035339355 0.02761927992105484
0.5722870826721191 0.05044873431324959 -0.03029661625623703
-0.574509859085083 0.017590822651982307 -0.1138978898525238
-0.22253549098968506 -0.18659909069538116 0.07126947492361069
-0.4468153715133667 0.3957759439945221 -0.02394217438995838
-0.577823281288147 0.1929999738931656 0.2564842998981476
0.11952737718820572 0.0024008825421333313 0.20021969079971313
0.5633254051208496 0.3942202031612396 0.24446336925029755
0.1127931997179985 0.00537823885679245 -0.38511553406715393
0.2936605215072632 0.0016550896689295769 -0.181050106883049
0.523658275604248 0.34889134764671326 -0.3966096341609955
0.5746413469314575 0.28553807735443115 0.3362017571926117
-0.5131921172142029 -0.09210127592086792 -0.2803150415420532
-0.4247199594974518 -0.09626215696334839 -0.029973020777106285
-0.3308180272579193 0.0014254385605454445 -0.2048349678516388
-0.27525487542152405 0.3965735137462616 0.06616838276386261
0.2662662863731384 0.3977801501750946 -0.07589808851480484
0.33156147599220276 0.39669743180274963 0.1925802230834961
0.13986220955848694 -0.02832677587866783 0.4657336473464966
0.43557506799697876 -0.14569303393363953 -0.09891393780708313
-0.10197841376066208 0.022236352786421776 0.33653998374938965
0.5832988619804382 0.2462766170501709 -0.3529910743236542
0.3495738208293915 0.00799325667321682 -0.38372108340263367
-0.38174402713775635 0.0030893830116838217 -0.27876177430152893
0.0900190994143486 -0.6217751502990723 0.03766890615224838
-0.03191053867340088 0.003078967100009322 0.3254584074020386
-0.2396378070116043 -0.22947677969932556 -0.030611276626586914
0.3787820041179657 -0.21886084973812103 0.17914383113384247
-0.07241039723157883 0.0003371862694621086 0.2674620449542999
0.5722984075546265 0.012260745279490948 0.10509872436523438
0.30097252130508423 -0.620276927947998 -0.15262408554553986
0.4437563121318817 -0.1841995120048523 0.021211035549640656
-0.04348703846335411 0.0005438076332211494 0.15106935799121857
-0.025211650878190994 0.001249578665010631 0.04165893793106079
-0.4506351053714752 0.002433926798403263 -0.2549423277378082
-0.46060362458229065 0.39797869324684143 -0.03142952173948288
-0.5308676958084106 0.3920314311981201 0.25617507100105286
-0.453572541475296 0.1087241917848587 -0.03876443952322006
-0.5761746168136597 0.24397648870944977 -0.1368785798549652
0.3572376072406769 -0.2581111192703247 0.2023935317993164
-0.4682094156742096 0.3801160156726837 -0.0019235853105783463
0.22932077944278717 -0.6203347444534302 -0.17972256243228912
0.22700335085391998 -0.3773244023323059 -0.31219086050987244
-0.07805488258600235 -0.6210869550704956 0.023352375254034996
0.26010337471961975 0.3981645703315735 -0.11657942831516266
0.43370679020881653 0.21958671510219574 0.3445917069911957
0.40552493929862976 -0.3623620867729187 -0.17464981973171234
0.03402875363826752 -0.629497230052948 0.24400301277637482
-0.4800722599029541 0.003953129053115845 0.18489937484264374
-0.493196576833725 0.40085333585739136 0.1499008983373642
0.09360792487859726 0.0020008659921586514 0.014660084620118141
-0.5752071142196655 0.0024869462940841913 0.2944631278514862
-0.41207125782966614 0.09298920631408691 0.3260125517845154
-0.458213210105896 0.36710798740386963 0.024305813014507294
-0.056284934282302856 0.39966702461242676 -0.1279168277978897
-0.0811849907040596 -0.3907940089702606 -0.2448028028011322
-0.5782316327095032 0.009666506201028824 -0.3452286720275879
0.5778341293334961 0.37843865156173706 0.25535526871681213
-0.411092072725296 0.2586207389831543 -0.39863651990890503
-0.47176921367645264 0.0005038557574152946 0.03602459654211998
-0.5747402906417847 0.3321590721607208 -0.19929732382297516
0.3083324730396271 -0.0638401061296463 0.37262627482414246
0.5712915062904358 0.38901472091674805 0.17110933363437653
0.17922769486904144 -0.46649929881095886 -0.30676552653312683
0.20907342433929443 0.2964421510696411 0.46357396245002747
-0.1088390201330185 -0.016355684027075768 0.23868806660175323
0.013026554137468338 -0.001118373591452837 0.30574601888656616
0.32026493549346924 -0.44502654671669006 -0.21360209584236145
0.5846324563026428 0.3664880096912384 -0.2338516265153885
0.20448364317417145 0.16161654889583588 0.3466835021972656
0.024835869669914246 0.3999682068824768 -0.213676318526268
-0.17533954977989197 -0.0693826898932457 0.17077502608299255
0.3800885081291199 -0.01963578164577484 -0.22786927223205566
0.38745954632759094 0.19257378578186035 0.3433406352996826
0.19033274054527283 0.010739604942500591 0.33740538358688354
-0.40117305517196655 -0.08660654723644257 0.21618476510047913
0.37242814898490906 -0.12558113038539886 -0.23876088857650757
0.5527470111846924 0.005468979477882385 0.16226136684417725
-0.014883292838931084 -0.6194043755531311 -0.18069356679916382
0.28492113947868347 0.002501126378774643 0.09880650043487549
-0.13913726806640625 -0.638203501701355 -0.0021256376057863235
-0.5674855709075928 0.007655217777937651 -0.023472923785448074
0.2760201096534729 -0.3594777286052704 0.26573053002357483
-0.3711800277233124 0.38964322209358215 0.3381064832210541
-0.1968543380498886 0.10362551361322403 0.34223851561546326
0.2586689889431 0.3128420114517212 -0.39788782596588135
-0.5089501738548279 0.3798016607761383 -0.13047702610492706
0.13936106860637665 0.001990837510675192 0.25064995884895325
-0.5125176310539246 0.10972113907337189 0.25361308455467224
-0.5652976632118225 0.05541310831904411 0.14626449346542358
0.15804658830165863 0.001644916133955121 -0.20043697953224182
0.229854553937912 0.3691791594028473 0.46591413021087646
0.5688772797584534 0.01947537064552307 0.3359735906124115
-0.16813145577907562 -0.0031455857679247856 0.17689266800880432
0.06600098311901093 -0.6236969232559204 -0.19545620679855347
-0.5782498121261597 0.25336581468582153 -0.03211278095841408
-0.16090211272239685 -0.17026972770690918 -0.24378155171871185
0.1444462239742279 -0.6213500499725342 -0.20758260786533356
-0.27212774753570557 0.39944493770599365 -0.2723931074142456
0.034073203802108765 0.13522140681743622 -0.4003981351852417
-0.4074108898639679 0.4151786267757416 -0.05606647953391075
0.37625551223754883 0.044617462903261185 0.3454231321811676
0.06519414484500885 0.0023475782945752144 -0.21120813488960266
-0.3660898208618164 -0.04155847430229187 0.2742167115211487
-0.050441525876522064 0.1371929943561554 0.34642723202705383
-0.028819456696510315 -0.5374550819396973 0.23160044848918915
-0.05583665147423744 0.3957069516181946 0.2681218683719635
0.14050227403640747 -0.3642745018005371 0.30608847737312317
0.1801295429468155 -0.5729618668556213 -0.30423247814178467
0.21374459564685822 -0.17504994571208954 0.2960421144962311
0.30451422929763794 -0.46476802229881287 -0.23157350718975067
-0.576560378074646 0.11855297535657883 0.3307890295982361
-0.15646319091320038 -0.4854605197906494 0.09308326989412308
0.16299612820148468 0.18199816346168518 0.3425998389720917
-0.4511631727218628 0.03746970742940903 -0.4020250141620636
-0.48472291231155396 -0.018618423491716385 -0.3988822102546692
0.32450056076049805 -0.6283398270606995 0.07577784359455109
0.17975877225399017 -0.6192485094070435 0.0806872546672821
0.25893232226371765 0.0011944454163312912 -0.20660746097564697
-0.2323155701160431 -0.13522487878799438 0.038693707436323166
-0.5685452818870544 0.05513311177492142 -0.07300577312707901
0.11117545515298843 -0.0258858110755682 -0.37104910612106323
0.5496165156364441 0.0034121228381991386 -0.03397011011838913
-0.08361553400754929 0.3942379057407379 -0.38735419511795044
0.06893841177225113 -0.0038365861400961876 0.4635453522205353
-0.2184484899044037 0.3056575059890747 0.34597426652908325
0.38723960518836975 -0.3756459355354309 -0.18485765159130096
-0.5135106444358826 0.33081743121147156 0.3423917889595032
-0.04627091810107231 0.004658967722207308 0.20546410977840424
-0.39126524329185486 0.29269829392433167 0.3450506627559662
0.5813764333724976 0.3103523850440979 0.21916775405406952
0.1634131371974945 7.4826180934906e-05 -0.10550428926944733
0.07182522863149643 0.002369658090174198 -0.11011148989200592
-0.13442158699035645 0.0013173422776162624 -0.08922149986028671
0.08837655186653137 -0.5034887790679932 0.26025718450546265
-0.5629938840866089 0.2082952857017517 0.3379983603954315
0.47962382435798645 0.39346498250961304 0.12021605670452118
0.39068612456321716 -0.4997519552707672 0.013587269932031631
0.5282629132270813 0.3971349895000458 -0.35107481479644775
-0.3625090718269348 -0.02922399342060089 0.007048019208014011
0.11558905988931656 -0.06352095305919647 0.4504754841327667
0.017496800050139427 0.3993000388145447 -0.15065132081508636
0.07849418371915817 0.3562192916870117 0.46414169669151306
0.49459660053253174 0.002476829569786787 -0.2663959860801697
-0.12136243283748627 0.39780402183532715 -0.0462268702685833
-0.0952824279665947 0.2217370718717575 0.3974100351333618
-0.08140666037797928 0.38201990723609924 -0.39599743485450745
0.48987507820129395 9.205285459756851e-05 -0.36615630984306335
-0.03196381777524948 -0.40477070212364197 0.22880350053310394
0.42940181493759155 0.04962035268545151 -0.4004772901535034
0.5794031620025635 0.33471930027008057 -0.3419671952724457
0.5786290764808655 0.2026873081922531 -0.30310773849487305
-0.24125640094280243 0.37665194272994995 -0.3956609070301056
0.3101934790611267 0.21807421743869781 0.3864823281764984
0.582503080368042 0.13809236884117126 0.16586323082447052
-0.4758340120315552 0.10829710960388184 0.040470462292432785
-0.1771172732114792 0.00583259854465723 -0.39223378896713257
0.5269635319709778 0.0015794243663549423 -0.07720483839511871
-0.5575228929519653 0.212486132979393 0.33718645572662354
-0.28600651025772095 0.398535817861557 0.28430160880088806
0.20368592441082 -0.619855523109436 0.007740995846688747
-0.5773906707763672 0.3301984667778015 -0.25288286805152893
-0.148887038230896 -0.4708313047885895 -0.16804848611354828
-0.5705035924911499 0.09469667822122574 -0.0847184881567955
-0.41823041439056396 0.09046550840139389 -0.2029188573360443
0.3643852770328522 -0.12817105650901794 0.19820764660835266
0.3053128123283386 0.2965507209300995 -0.3985905349254608
0.5822585225105286 0.20872506499290466 -0.011996913701295853
0.42608922719955444 -0.30379316210746765 0.08835679292678833
0.28864020109176636 0.00038786977529525757 -0.26422885060310364
0.40099969506263733 0.0008925176225602627 -0.33423763513565063
-0.10000617802143097 -0.6431226134300232 -0.17422568798065186
0.3592417240142822 -0.2787855565547943 -0.2548789978027344
0.542510986328125 0.00480866152793169 -0.24896900355815887
-0.13460958003997803 -0.6420661807060242 0.11860146373510361
0.5761471390724182 0.38451331853866577 -0.06752565503120422
0.3834854066371918 -0.49913209676742554 -0.08577822893857956
-0.4061725437641144 0.08207710832357407 -0.2657735347747803
0.2924186587333679 -0.46035003662109375 0.19012898206710815
-0.3360077440738678 0.016683951020240784 0.33818644285202026
0.13644887506961823 -0.5471906065940857 -0.31425729393959045
0.5831149220466614 0.2376055270433426 -0.14618578553199768
0.04693065211176872 -0.21414026618003845 0.3128233551979065
-0.5615763664245605 0.23505087196826935 0.33701539039611816
0.08251166343688965 0.3696586787700653 0.45978429913520813
-0.36665624380111694 -0.013712352141737938 0.07540436089038849
0.3172633647918701 0.059073809534311295 0.3754827380180359
-0.04986562579870224 0.2286071479320526 -0.3992903530597687
0.4860106110572815 0.3967723846435547 -0.1738402545452118
-0.36395829916000366 0.3977035582065582 -0.1416611671447754
-0.5749826431274414 0.0066360048949718475 -0.31575170159339905
-0.04117054119706154 -0.48779335618019104 0.2227131426334381
-0.4464644193649292 -0.04577816650271416 0.348782479763031
-0.36049142479896545 0.012792309746146202 -0.2674170434474945
-0.5753579139709473 0.18702152371406555 0.12170450389385223
0.3917856514453888 0.39738428592681885 -0.07934006303548813
-0.16192005574703217 -0.3461942970752716 0.18952730298042297
-0.0162658654153347 0.001343259122222662 -0.24096399545669556
0.0528770312666893 0.39648595452308655 0.27848201990127563
0.02107059583067894 -0.5163894891738892 0.25123491883277893
-0.5739995837211609 -0.017920993268489838 0.2522178888320923
-0.12290437519550323 -0.4423235356807709 -0.20109756290912628
0.40589338541030884 0.0036294828169047832 0.2928355634212494
0.04921749234199524 0.2877935469150543 -0.3969610929489136
0.46870508790016174 0.0003642132505774498 -0.22540812194347382
-0.16171570122241974 -0.4860908091068268 0.07878659665584564
0.2735191285610199 0.0029670577496290207 -0.0008456564974039793
0.25886812806129456 -0.620368480682373 0.006311784498393536
-0.2075834721326828 -0.1553279310464859 0.1186237633228302
-0.1459926962852478 -0.05149238184094429 0.2081601917743683
0.15656669437885284 -0.42569100856781006 0.2565363049507141
0.41980916261672974 -0.33866217732429504 0.09883425384759903
-0.5433993935585022 0.06889255344867706 -0.24688972532749176
0.15406084060668945 -0.5717179775238037 -0.311728835105896
-0.563504695892334 -0.04393567144870758 -0.20608891546726227
-0.3808935284614563 0.06243770942091942 0.2686731219291687
0.18718422949314117 -0.6201913356781006 -0.13649751245975494
-0.31944215297698975 0.3947322964668274 -0.12426838278770447
-0.04747828096151352 0.002153165638446808 -0.009877104312181473
0.20341920852661133 0.3961290717124939 0.30247434973716736
0.15230529010295868 0.09463099390268326 0.4644030034542084
-0.26605889201164246 0.03734053298830986 0.3387981653213501
-0.5699794888496399 0.049872539937496185 -0.10152372717857361
0.33181560039520264 -0.05136920511722565 0.3601665794849396
-0.5782058835029602 0.2976547181606293 -0.2766060531139374
-0.3692774772644043 0.0037399628199636936 -0.28498414158821106
0.3232363164424896 -0.5308384299278259 0.15747933089733124
0.0979403704404831 -0.6190581321716309 0.13557422161102295
0.22778627276420593 -0.001003139652311802 -0.3480742871761322
0.13581421971321106 -0.3659617006778717 -0.363290935754776
0.11957170069217682 -0.10982644557952881 -0.36893972754478455
0.021252309903502464 0.029306462034583092 0.3616824150085449
-0.577835202217102 0.15159545838832855 0.0478956401348114
0.4940623641014099 0.0013190226163715124 0.25551244616508484
-0.3570568859577179 0.20705249905586243 0.3443092703819275
-0.4397815763950348 0.40101271867752075 0.1803574115037918
0.1351301372051239 0.3963604271411896 -0.380070298910141
0.580899715423584 0.06665036082267761 -0.3162267208099365
0.43544405698776245 0.39309749007225037 0.2955164611339569
-0.11088605970144272 -0.40412893891334534 -0.2088606208562851
-0.4586046636104584 -0.10307811945676804 -0.2153329998254776
0.19043755531311035 0.29391002655029297 0.3456529676914215
-0.5746581554412842 0.012807735241949558 -0.27694061398506165
0.5813290476799011 0.2159477323293686 0.18097354471683502
0.2745955288410187 0.1636630743741989 0.462358295917511
-0.41648146510124207 0.05739923566579819 0.34354665875434875
-0.2202812135219574 -0.1326180398464203 0.07583615183830261
0.21625365316867828 0.18386158347129822 0.463825523853302
-0.5638705492019653 -0.0412164181470871 -0.0010188048472627997
0.10074649006128311 0.3974469304084778 0.20889294147491455
-0.5750687718391418 0.2633066475391388 -0.020005827769637108
0.380071222782135 -0.36587265133857727 -0.21010103821754456
0.36741068959236145 -0.6465335488319397 -0.015135664492845535
-0.554897665977478 0.3749305009841919 -0.26396444439888
-0.07110986113548279 -0.3796968162059784 -0.28357475996017456
-0.159542977809906 0.20985832810401917 -0.4009286165237427
-0.29299184679985046 0.3488316535949707 -0.39900702238082886
0.15211574733257294 0.4650093615055084 0.4279135465621948
0.22801031172275543 -0.6225462555885315 -0.21473608911037445
-0.4249688982963562 -0.09884418547153473 0.01338606420904398
-0.4126885235309601 0.09175931662321091 0.15043297410011292
-0.45184579491615295 0.0006935736164450645 -0.3298184871673584
0.12549680471420288 -0.619163990020752 0.11398518085479736
-0.35730716586112976 -0.005688510835170746 0.1554338037967682
-0.16023746132850647 0.0014616703847423196 -0.109658382833004
-0.02274935133755207 0.0014809840358793736 -0.013531089760363102
0.2724684476852417 0.0006957342848181725 -0.20297600328922272
0.04825247451663017 -0.000500991940498352 -0.17854295670986176
0.4005741477012634 -0.13638067245483398 0.1496327966451645
-0.040436457842588425 0.3980799615383148 0.03846575692296028
-0.5814838409423828 0.31441715359687805 -0.11505304276943207
0.44226986169815063 0.2614455223083496 -0.3976837396621704
-0.5225325226783752 0.3867209553718567 -0.38594409823417664
-0.5707759857177734 0.09250650554895401 0.05427916720509529
-0.050489965826272964 0.000728103332221508 -0.32580575346946716
0.021687854081392288 -0.2811373174190521 -0.3609446585178375
0.12721674144268036 -0.6252658367156982 -0.27247482538223267
0.06725221127271652 -0.4621148109436035 -0.3115902543067932
0.37853050231933594 -0.4652681052684784 0.03709462657570839
-0.552264392375946 0.37837687134742737 0.009065449237823486
0.17746658623218536 0.00017702719196677208 -0.20189541578292847
-0.17829132080078125 -0.057880476117134094 -0.22549095749855042
0.09512262791395187 -0.34748169779777527 0.31282827258110046
0.07276428490877151 0.3998810946941376 0.16217206418514252
0.26517289876937866 -0.5025653839111328 0.20924803614616394
0.5805114507675171 0.26192495226860046 -0.31091630458831787
0.5757771134376526 0.16123056411743164 0.23209510743618011
-0.38896071910858154 0.4047051668167114 -0.0033884267322719097
0.33033159375190735 -0.3368476927280426 0.23004448413848877
0.05476310849189758 0.39949625730514526 -0.10154450684785843
-0.08554995059967041 -0.2543473243713379 0.2607280910015106
-0.07484737038612366 -0.06813520938158035 0.26621773838996887
0.12922947108745575 0.3974260687828064 0.0003213163872715086
-0.45659247040748596 0.0016608284786343575 -0.2813202738761902
-0.31203779578208923 0.20448744297027588 0.34415537118911743
0.581268846988678 0.2699262797832489 -0.09252728521823883
-0.30800870060920715 0.3516702353954315 -0.14881226420402527
-0.23029765486717224 -0.32595616579055786 0.023332595825195312
0.5680291652679443 0.25917938351631165 -0.39224669337272644
0.12869760394096375 -0.6204745769500732 0.08591002970933914
0.39170750975608826 0.16599926352500916 -0.39924705028533936
0.10750395059585571 -0.6210427284240723 -0.030411386862397194
-0.09216871857643127 0.3971780836582184 0.012392695993185043
-0.5707958936691284 0.09253139048814774 0.14976900815963745
0.18710413575172424 -0.06518350541591644 0.31184130907058716
0.3957870602607727 0.0010770028457045555 0.07400759309530258
0.16344445943832397 -0.6200212240219116 -0.11157505959272385
-0.17293372750282288 -0.4173223674297333 -0.09969131648540497
-0.39494624733924866 0.0022613194305449724 0.2241509109735489
-0.23173293471336365 -0.09732593595981598 0.04440256953239441
0.302325040102005 0.07325966656208038 0.3449556529521942
-0.38125452399253845 0.39875513315200806 0.14010211825370789
-0.1807021051645279 -0.4169711768627167 -0.011226191185414791
0.5770156383514404 0.09448977559804916 0.2469698190689087
-0.5154314041137695 0.38643965125083923 -0.054376907646656036
-0.5034440755844116 0.39183276891708374 -0.05496830865740776
-0.5741034150123596 0.10946116596460342 -0.07055731117725372
0.42405951023101807 -0.22165454924106598 -0.13519559800624847
0.08517742156982422 0.0016685081645846367 -0.3179437220096588
0.21294985711574554 0.40108975768089294 -0.21508316695690155
-0.4358239471912384 0.3961730897426605 -0.26571646332740784
-0.5338118672370911 -0.08632174134254456 0.25304973125457764
0.5600245594978333 0.39308881759643555 -0.15824590623378754
-0.16559210419654846 -0.5910400152206421 -0.12438372522592545
0.23584428429603577 -0.0008990122005343437 -0.3274344801902771
-0.5193289518356323 0.001254417933523655 0.2624637484550476
0.440499871969223 -0.10569796711206436 0.05213171988725662
0.2435293346643448 -0.00017783348448574543 0.2655593156814575
-0.08239805698394775 -0.24972735345363617 -0.3130115568637848
-0.1101745069026947 -0.6448443531990051 -0.17566049098968506
0.10290047526359558 0.002401947509497404 0.08824865520000458
-0.10403100401163101 0.39938774704933167 -0.27390429377555847
-0.4671229124069214 -0.10709792375564575 -0.2443114072084427
-0.24482519924640656 0.39779403805732727 -0.2421843409538269
-0.16928322613239288 0.0030305180698633194 -0.06889208406209946
0.29527342319488525 0.0019430667161941528 -0.1918519288301468
0.35361719131469727 0.003943315707147121 -0.007321400102227926
0.2858826220035553 0.4304198920726776 0.4473816454410553
0.24473103880882263 -0.06720098108053207 0.29744964838027954
0.5356503129005432 0.39058414101600647 -0.38817116618156433
0.10949540138244629 0.463101863861084 0.4308735132217407
-0.023969510570168495 0.07144178450107574 -0.39906957745552063
-0.5728733539581299 0.1100536361336708 -0.15422287583351135
-0.07340489327907562 -0.5771948099136353 0.19936662912368774
0.16408222913742065 -0.05644647777080536 -0.36744022369384766
0.3993164300918579 0.2030516117811203 0.34359416365623474
0.1427944004535675 -0.6195294857025146 -0.09741463512182236
-0.36266082525253296 0.007348629646003246 0.026917139068245888
0.0642116442322731 -0.6210184097290039 -0.05829322710633278
0.2179981768131256 -0.2885826528072357 0.2952708601951599
-0.3560402989387512 0.3508226275444031 0.026770412921905518
0.4878091514110565 0.0025337347760796547 -0.20653747022151947
0.36776891350746155 -0.30706965923309326 0.19861926138401031
0.24042406678199768 0.39825496077537537 -0.15054799616336823
-0.10883568227291107 0.39810094237327576 -0.3311969041824341
0.4434492290019989 -0.17679917812347412 -0.06759472191333771
-0.44599655270576477 -0.10540688037872314 -0.3361299932003021
0.4000951051712036 0.3950304388999939 0.12199021875858307
-0.2106856256723404 -0.2963339388370514 0.10662979632616043
0.5803428888320923 0.2310173213481903 0.2001550942659378
0.15388964116573334 -0.5620718598365784 0.25395533442497253
0.017616134136915207 -0.10244838148355484 -0.3616825342178345
0.06895226240158081 0.00203649397008121 -0.2220432609319687
0.5543948411941528 0.3910429775714874 0.3414140045642853
0.3897891342639923 -0.3856693506240845 0.039461225271224976
-0.006335251498967409 -0.20027703046798706 -0.3560863435268402
0.5831406712532043 0.08261726796627045 0.2690493166446686
-0.45094871520996094 0.0017246156930923462 0.03774784505367279
0.037949785590171814 0.0021238066256046295 -0.060462698340415955
0.15899775922298431 -0.1891816258430481 0.31054016947746277
0.45380136370658875 0.25229334831237793 0.3448008596897125
-0.5817512273788452 0.2993543744087219 -0.3386901915073395
0.3336985409259796 0.11380521953105927 0.3444092273712158
0.4036378562450409 0.39414966106414795 0.19835901260375977
-0.021910330280661583 0.001452090684324503 0.25306403636932373
-0.20878690481185913 0.3991874158382416 -0.2943233847618103
-0.5779730081558228 0.12250915169715881 -0.31435781717300415
0.37757113575935364 -0.5474967360496521 0.06350356340408325
-0.44568490982055664 0.39663785696029663 -0.00606298353523016
0.3677341341972351 -0.17179226875305176 -0.24263417720794678
-0.09651205688714981 0.2253229171037674 0.3966365456581116
-0.5748400688171387 0.13080839812755585 -0.018235988914966583
0.5097705125808716 0.3773530423641205 -0.39866578578948975
-0.3912343680858612 -0.07270639389753342 -0.0891367644071579
-0.15399914979934692 0.2314044088125229 0.34692999720573425
-0.11880437284708023 0.12295932322740555 0.3427317440509796
0.51933753490448 0.39466142654418945 0.2025577574968338
-0.3798513114452362 -0.0670776516199112 0.2336750626564026
0.09927236288785934 0.3955560624599457 0.25202059745788574
-0.2718907296657562 0.05916266515851021 0.34386929869651794
-0.1643710732460022 -0.5474215745925903 -0.12820954620838165
-0.48933205008506775 0.39006927609443665 -0.15175898373126984
-0.49852269887924194 0.3984268009662628 0.1518642008304596
0.577802300453186 0.2887868881225586 -0.05825462564826012
-0.49769848585128784 0.0010034870356321335 0.002005654852837324
-0.5250211954116821 0.0936388224363327 0.02949911542236805
0.5780866146087646 0.2769283354282379 -0.3723669648170471
0.5485562086105347 0.397113174200058 0.30000823736190796
-0.294026643037796 0.39564111828804016 0.3319321274757385
-0.3639490306377411 0.013790683820843697 0.24863487482070923
0.1300390511751175 0.0004106680862605572 0.02370349131524563
0.4698786735534668 0.39215895533561707 0.321203351020813
0.06283945590257645 -0.6192898154258728 -0.09619203954935074
0.05576612800359726 -0.6240561604499817 -0.24827347695827484
0.1378873586654663 0.3990483283996582 -0.24958080053329468
0.31972047686576843 0.33910253643989563 0.37622058391571045
-0.5607110261917114 0.06955966353416443 -0.01772598922252655
0.4241856336593628 -0.0035961903631687164 -0.19359517097473145
-0.1296664923429489 0.4001092314720154 -0.24627187848091125
-0.49625882506370544 0.22822466492652893 0.34262338280677795
0.5384030342102051 0.0024106395430862904 -0.30157217383384705
-0.3808406889438629 -0.06432149559259415 0.22978585958480835
-0.20777066051959991 -0.09017456322908401 0.11226443946361542
-0.2544842064380646 0.39909490942955017 -0.31307128071784973
-0.10615617036819458 0.0034174430184066296 0.32532766461372375
-0.564575731754303 0.07752413302659988 0.04093098267912865
0.34400832653045654 -0.6175119876861572 -0.003237609751522541
0.38462838530540466 -0.5231776237487793 -0.0605449341237545
0.33464446663856506 -0.5504322052001953 0.14026525616645813
-0.4909399747848511 -0.08046030253171921 0.340419203042984
0.3037547767162323 -0.49050068855285645 -0.22767291963100433
-0.38451215624809265 0.06933652609586716 0.13696719706058502
-0.570825457572937 0.04769193008542061 -0.3180920481681824
-0.411796897649765 0.3878307044506073 0.013464794494211674
-0.029905026778578758 -0.6317949295043945 -0.23477062582969666
-0.14932650327682495 -0.6328291296958923 -0.012914061546325684
0.2577891945838928 0.22539116442203522 -0.39814475178718567
0.4377412796020508 -0.20228175818920135 -0.09634508937597275
-0.3045046031475067 0.3377649188041687 0.34532052278518677
0.2763793170452118 0.0030012428760528564 0.059932369738817215
-0.18073607981204987 0.3159444034099579 0.34348106384277344
-0.2243393361568451 -0.06249922886490822 0.0770985558629036
-0.1824668049812317 -0.41959068179130554 -0.032414402812719345
0.2524385154247284 0.014512000605463982 -0.3935558795928955
-0.2199791967868805 -0.3062131404876709 0.09441428631544113
-0.16539466381072998 -0.33457517623901367 0.17789922654628754
0.12419142574071884 0.3385334014892578 -0.3968629539012909
-0.5717877149581909 -0.02981417067348957 0.3131844997406006
0.327580988407135 -0.5546600222587585 0.14926816523075104
0.22218839824199677 -0.0014122938737273216 -0.33375078439712524
0.422564834356308 0.3977188169956207 -0.1722160130739212
-0.5736420750617981 0.08063071966171265 -0.344295859336853
0.5811788439750671 0.26951345801353455 -0.3302764594554901
0.4475802481174469 -0.10827241837978363 -0.026684364303946495
0.48975735902786255 0.39515572786331177 -0.2935645878314972
0.3669568598270416 0.3962322473526001 -0.3858896493911743
0.28553488850593567 0.3976632058620453 -0.10996198654174805
0.5788046717643738 0.35121846199035645 0.2757837474346161
-0.06679967790842056 0.3981691300868988 -0.31375446915626526
0.3744683563709259 -0.5160110592842102 0.06917159259319305
0.25932690501213074 -0.034295015037059784 0.4626350402832031
-0.4306498169898987 -0.09692366421222687 -0.335199773311615
0.07549771666526794 0.38888853788375854 0.34819552302360535
0.5779381394386292 0.3718351721763611 0.0843329057097435
-0.16562478244304657 0.002587522380053997 -0.1824072152376175
0.2624557614326477 -0.0638485997915268 -0.3303488492965698
-0.15586578845977783 -0.0011331010609865189 0.12006738781929016
0.37405040860176086 0.3979491591453552 -0.01129019446671009
0.5526950359344482 0.06588548421859741 0.34159308671951294
-0.4131101071834564 -0.09281792491674423 0.22211027145385742
0.30495160818099976 -0.23609653115272522 -0.3008406162261963
-0.13571982085704803 0.3580102324485779 0.34319666028022766
-0.27714863419532776 0.006054925732314587 0.27951931953430176
0.19841022789478302 0.008597793988883495 0.4634263515472412
0.03453622758388519 0.002042497508227825 0.275329053401947
0.22001200914382935 0.23426735401153564 0.34345877170562744
-0.17367865145206451 0.0006302129477262497 -0.10636153817176819
0.0013704831944778562 0.3968438506126404 0.08264819532632828
-0.385187029838562 0.06997501850128174 0.17125271260738373
0.04451524838805199 0.3986450433731079 -0.24528108537197113
-0.5744624733924866 0.34944143891334534 0.12671878933906555
0.34007591009140015 -0.5245880484580994 -0.18466392159461975
0.2629486620426178 0.29469722509384155 0.34384217858314514
-0.04181279242038727 0.07405984401702881 0.3432571589946747
-0.0406070202589035 0.39983323216438293 -0.07954385131597519
-0.379841685295105 0.06439056992530823 -0.1567714363336563
0.3147272765636444 -0.2710440456867218 -0.29660364985466003
-0.5443499088287354 -0.07487388700246811 -0.07897307723760605
0.3226427733898163 -0.4780980348587036 0.16216807067394257
-0.47002413868904114 0.2108674943447113 -0.4005695879459381
-0.11049431562423706 0.0020789927802979946 0.10054507106542587
-0.56074059009552 0.017949964851140976 -0.39427196979522705
0.40697720646858215 0.12019506841897964 0.3439706861972809
0.33299532532691956 -0.44544145464897156 0.14711862802505493
0.283236026763916 0.17351604998111725 -0.399014413356781
0.17295795679092407 -0.6186770796775818 0.13135454058647156
0.2054155170917511 0.0014460159000009298 -0.06462103873491287
-0.39449548721313477 0.003945853095501661 -0.3543873727321625
-0.09616189450025558 0.39815282821655273 0.06273623555898666
-0.230889230966568 -0.36592990159988403 0.012934819795191288
0.4498506486415863 -0.07472798228263855 -0.043604809790849686
-0.5382664799690247 -0.08401947468519211 0.2851943373680115
0.1076446920633316 0.0023097568191587925 0.24076053500175476
0.05827911198139191 -0.0007930519059300423 -0.12776274979114532
0.30484500527381897 0.39823997020721436 -0.24537956714630127
-0.13026215136051178 -0.4599635601043701 0.14104034006595612
-0.35472536087036133 -0.004000057466328144 0.12486302107572556
0.07044809311628342 -0.4265568256378174 -0.3144984841346741
0.1272720992565155 -0.38621801137924194 0.2773607075214386
-0.5703582763671875 0.04218287765979767 0.22077502310276031
-0.5423764586448669 0.0007697081309743226 -0.2182885706424713
-0.3654586672782898 -0.0204320028424263 -0.2890416383743286
0.36427104473114014 -0.06130348891019821 -0.24582801759243011
-0.3931514024734497 -0.07320882380008698 0.18107932806015015
0.17129921913146973 0.39859849214553833 -0.14362093806266785
-0.437915563583374 0.10219700634479523 -0.16179977357387543
-0.1936061531305313 -0.3742702901363373 -0.16912288963794708
0.05396515876054764 0.2020220309495926 0.4590098261833191
0.5485092997550964 0.22117654979228973 -0.3958171010017395
-0.5713565945625305 0.3406754732131958 0.022144092246890068
0.07848930358886719 -0.6194812059402466 0.03086647391319275
-0.39146721363067627 -0.07722464948892593 0.13676615059375763
0.2601238787174225 0.06055491790175438 -0.39787325263023376
-0.5772446393966675 0.1631234586238861 0.08101148158311844
0.041344571858644485 0.06047054007649422 0.34714898467063904
0.32553476095199585 0.1064228042960167 0.4497416317462921
0.4075643718242645 -5.4936157539486885e-05 -0.12213204801082611
0.02675311267375946 -0.1699245572090149 0.3058300316333771
0.09370649605989456 0.16043564677238464 -0.3998637795448303
-0.5686412453651428 0.37507376074790955 -0.34395426511764526
0.21246980130672455 -0.1928766965866089 -0.35222339630126953
-0.031539931893348694 -0.47692355513572693 -0.2787848114967346
-0.35384324193000793 0.032845865935087204 -0.39906275272369385
0.023726124316453934 -0.6198810935020447 0.0636524111032486
0.35307884216308594 -0.5705379247665405 0.11250381171703339
0.4558936059474945 0.21590082347393036 -0.398385614156723
0.3119351267814636 0.0018877079710364342 -0.18397130072116852
0.289490669965744 -0.3820522129535675 0.20528358221054077
-0.12240119278430939 -0.5902488231658936 -0.2030487060546875
-0.434440016746521 0.41335591673851013 -0.07507091015577316
-0.3325766921043396 0.00026253703981637955 0.10027926415205002
0.2580299377441406 0.3984583914279938 -0.25830140709877014
0.030611339956521988 -0.055233437567949295 0.45237472653388977
0.17625373601913452 -0.6193139553070068 -0.07325635105371475
-0.5509833693504333 0.07995530217885971 0.16987480223178864
-0.37685471773147583 -0.06456802040338516 -0.08514508605003357
0.35732606053352356 -0.5894582867622375 -0.1548711210489273
0.4425343871116638 -0.0010264723096042871 -0.1747550368309021
-0.2689778804779053 0.00568055035546422 0.32833850383758545
0.054646726697683334 -0.29657304286956787 0.31477364897727966
0.33013486862182617 0.21663549542427063 -0.3987405300140381
0.530488133430481 0.29714393615722656 -0.3960188329219818
-0.41629305481910706 0.09486265480518341 -0.006019093096256256
0.3035201132297516 0.2558969557285309 -0.4014071226119995
0.13963817059993744 -0.6227664351463318 -0.0017671172972768545
0.37338167428970337 0.3951679766178131 -0.3789958655834198
0.5440585017204285 0.0015646405518054962 -0.3112911283969879
-0.13025784492492676 -0.383955717086792 0.15819263458251953
-0.5737223029136658 0.15237650275230408 -0.08775822818279266
0.5042313933372498 0.39678022265434265 -0.15146559476852417
-0.4840836226940155 0.007646848913282156 -0.40079188346862793
0.10972514748573303 0.38421210646629333 0.461552232503891
-0.4631892442703247 0.4015927016735077 -0.059534668922424316
0.1520557999610901 -0.30936771631240845 0.31339824199676514
0.11330736428499222 0.3980896770954132 -0.33412864804267883
-0.014553342945873737 0.0015782134141772985 0.10884314030408859
0.4436148703098297 -0.10984700918197632 0.052268918603658676
-0.060675252228975296 -0.623354434967041 -0.04993398115038872
0.5790249705314636 0.13399863243103027 -0.06716571003198624
-0.14136779308319092 -0.3937605917453766 0.12508094310760498
-0.023979324847459793 0.34405431151390076 -0.3961983621120453
-0.5746354460716248 0.1021781787276268 -0.3039681613445282
-0.2980247437953949 0.39717912673950195 -0.39183640480041504
0.049562737345695496 0.15405085682868958 -0.3988727033138275
0.21461065113544464 0.0017772256396710873 0.19322431087493896
0.16539916396141052 0.0007049725390970707 -0.28421229124069214
0.3108985722064972 0.26428890228271484 0.45268237590789795
-0.08123956620693207 -0.5990397334098816 -0.2427886724472046
-0.1472490131855011 -0.08495647460222244 -0.26624760031700134
-0.42811381816864014 0.41007882356643677 -0.03148636221885681
0.3241840898990631 0.0028813122771680355 -0.02506498247385025
0.22703328728675842 -0.6198554039001465 0.03347158804535866
-0.5530257225036621 0.03343374282121658 -0.40109044313430786
0.31173431873321533 0.13275882601737976 -0.39868292212486267
0.26935240626335144 -0.6347517967224121 0.16582399606704712
0.22500891983509064 -0.6224259734153748 -0.13696527481079102
-0.21345895528793335 0.3981165587902069 0.2600310146808624
-0.33369311690330505 0.3982138931751251 -0.07732222229242325
0.31285470724105835 0.03929014131426811 0.454723596572876
0.050894733518362045 -0.08949372172355652 0.3279791474342346
0.2388378381729126 -0.10372403264045715 0.28948578238487244
-0.34671980142593384 2.1625077351927757e-05 -0.036517396569252014
-0.4725465774536133 0.22031943500041962 0.34311559796333313
0.30597639083862305 0.38956838846206665 0.34549272060394287
0.5711016058921814 0.3872191607952118 0.0048900083638727665
0.02635524421930313 0.3199966847896576 0.4244609475135803
-0.5277172327041626 0.39869818091392517 0.24704648554325104
0.2718689739704132 0.4582347571849823 0.4363414943218231
-0.11380794644355774 -0.1788819581270218 0.23696643114089966
-0.06284172087907791 -0.00042566750198602676 -0.20509260892868042
0.037523940205574036 0.020434178411960602 -0.3985825479030609
0.4466109573841095 -0.2594967782497406 -0.0002372153103351593
-0.014194618910551071 0.0021061538718640804 -0.15970374643802643
-0.45342451333999634 0.0004926994442939758 -0.11669526249170303
