-0.2938375473022461 0.35027065873146057 -0.04029105603694916
0.25781840085983276 -0.3774310350418091 0.24163760244846344
-0.4807291626930237 -0.09435573220252991 0.06919819116592407
-0.02572677470743656 -0.627107560634613 0.10069938004016876
0.28906676173210144 0.18452689051628113 0.4608670175075531
-0.4406100809574127 0.10069287568330765 -0.11689263582229614
-0.3625527322292328 -0.047830916941165924 0.036163944751024246
-0.15134675800800323 0.23167920112609863 -0.39342403411865234
0.27899882197380066 -0.28490474820137024 0.2879822552204132
-0.5177890062332153 0.38555708527565 0.08842489868402481
-0.4123936891555786 -3.7510370020754635e-05 -0.19374144077301025
-0.011548742651939392 -0.6080381870269775 -0.0964101105928421
-0.2410062700510025 -0.38937124609947205 -0.024354251101613045
0.08191267400979996 -0.4655444324016571 -0.3112269937992096
0.5882710814476013 0.16278833150863647 -0.1469440460205078
0.19318968057632446 -0.6340686082839966 0.25032874941825867
0.3956235647201538 0.4066351056098938 -0.04502442479133606
-0.5726680159568787 0.33183711767196655 0.12756653130054474
0.3833199441432953 0.1828588843345642 -0.3991725742816925
-0.24899207055568695 0.01182265393435955 -0.21511857211589813
-0.13679984211921692 -0.6137968897819519 0.025924138724803925
0.13574743270874023 -0.6134234666824341 -0.07037796080112457
-0.5762386322021484 0.22714225947856903 0.3211756646633148
-0.14298200607299805 -0.009084953926503658 0.15917178988456726
-0.10869745910167694 -0.31207916140556335 0.24392737448215485
-0.17256751656532288 -0.6307310461997986 -0.08328964561223984
-0.5705062747001648 0.33972153067588806 0.03763294219970703
-0.18022622168064117 -0.3697647154331207 -0.18939732015132904
-0.15707948803901672 0.001791152055375278 0.03208005428314209
-0.28374290466308594 0.007396824192255735 0.16304276883602142
-0.03138987720012665 0.40763014554977417 0.22311007976531982
-0.21474328637123108 0.3347911834716797 0.3473707139492035
0.46942365169525146 0.39845338463783264 -0.15386897325515747
-0.07171984016895294 -0.006373229436576366 -0.32797250151634216
-0.42237550020217896 -0.010331114754080772 0.21460962295532227
0.07464583963155746 -0.0019716378301382065 0.22406995296478271
0.41801702976226807 0.4144325852394104 -0.25283220410346985
-0.5922320485115051 0.1855473667383194 -0.37588778138160706
-0.38537341356277466 0.3950713276863098 0.1196412444114685
-0.10125643014907837 0.23325911164283752 -0.40528392791748047
-0.3784911334514618 0.06816719472408295 0.22619368135929108
0.11147288978099823 0.015008965507149696 -0.12436570972204208
0.18935929238796234 0.41026461124420166 0.17572805285453796
0.3291720747947693 0.14843936264514923 0.3528592586517334
0.35059666633605957 -0.2759847640991211 0.2014201432466507
0.18918439745903015 -0.009334578178822994 0.2645174562931061
-0.5793394446372986 0.014466323889791965 -0.3730356991291046
-0.5253713726997375 0.08820651471614838 0.342679888010025
-0.4202825129032135 -0.09934723377227783 0.2581750154495239
0.28320837020874023 0.4126381576061249 0.22353355586528778
-0.16156098246574402 -0.6539459228515625 -0.018937358632683754
-0.18502283096313477 -0.4986957907676697 -0.010542375035583973
0.1022028923034668 -0.618169903755188 0.21817339956760406
0.016235627233982086 0.03273576870560646 0.3793734014034271
0.4492339491844177 0.3951427638530731 -0.06114738807082176
-0.4871118664741516 0.33394643664360046 -0.40515202283859253
0.1866333782672882 -0.39811569452285767 -0.2993934154510498
-0.1668151319026947 0.202476367354393 0.346170574426651
-0.5477772355079651 -0.0817166119813919 -0.12111634016036987
-0.3523988425731659 0.4114076495170593 -0.026643401011824608
0.13203397393226624 -0.03581777587532997 0.3130921423435211
0.03410937264561653 0.012639293447136879 -0.03577054664492607
0.07105668634176254 -0.5581818222999573 0.26004257798194885
-0.04804285988211632 -0.16574110090732574 -0.3436114490032196
0.461853563785553 0.001104314811527729 0.033647339791059494
0.12579213082790375 0.009454010985791683 0.15932166576385498
-0.22253504395484924 -0.2181166410446167 -0.09931334108114243
-0.17514187097549438 -0.427540123462677 0.06459811329841614
0.2293958216905594 0.21041354537010193 0.3581603765487671
-0.10854334384202957 -0.2716612219810486 0.23980751633644104
-0.57708740234375 0.13949930667877197 -0.04816417768597603
0.43800514936447144 -0.25730931758880615 0.03190990537405014
-0.5791025161743164 0.033212918788194656 -0.20767971873283386
0.31357795000076294 0.3724222481250763 0.45580175518989563
0.12532517313957214 0.4012231230735779 0.4593856632709503
-0.07908817380666733 -0.1317993849515915 -0.32194259762763977
0.08485289663076401 0.0005611228989437222 -0.051720429211854935
0.22200019657611847 0.4329053461551666 0.35800567269325256
-0.1624651551246643 0.11979375034570694 0.32855406403541565
0.5860860347747803 0.2463834136724472 -0.05129498243331909
0.04997299239039421 -0.009441608563065529 -0.04936087131500244
-0.1502765566110611 -0.3849146068096161 -0.1740374118089676
0.40471822023391724 -0.5155415534973145 -0.03033609502017498
-0.5897817015647888 0.17066043615341187 -0.15045709908008575
0.17936496436595917 -0.6280435919761658 0.1725652515888214
-0.592046320438385 0.24688765406608582 -0.2775706946849823
-0.3907754123210907 0.20562472939491272 0.3296646773815155
-0.5355978012084961 -0.08291551470756531 0.20188307762145996
0.19934320449829102 -0.009274836629629135 -0.2509514391422272
-0.04077238589525223 0.3562385141849518 -0.398880273103714
-0.40858641266822815 0.40379777550697327 0.2752149701118469
0.5915225744247437 0.38105812668800354 0.268719881772995
0.5498908758163452 0.013138527050614357 0.003101537935435772
-0.4879031181335449 0.17304402589797974 0.33741697669029236
0.10131753236055374 0.01479083951562643 0.09726331382989883
-0.5128005743026733 -0.016868559643626213 -0.4136984646320343
-0.4219093322753906 -0.08479873836040497 -0.4009459912776947
-0.3709366023540497 -0.018140461295843124 0.018268892541527748
-0.427136093378067 -0.0025132594164460897 -0.30685675144195557
0.028918858617544174 0.4010564088821411 0.20617717504501343
-0.514328122138977 -0.10308189690113068 -0.3018173277378082
0.525055468082428 0.39986369013786316 -0.3137296736240387
0.21691666543483734 -0.007424426730722189 -0.10528682917356491
-0.435832142829895 -0.07622028887271881 0.3477533459663391
0.14664117991924286 0.05916357785463333 -0.4112841486930847
0.12338856607675552 -0.6234483122825623 0.26009947061538696
0.21080340445041656 0.2524382472038269 0.3469333052635193
-0.47345730662345886 0.4103242754936218 -0.36942771077156067
-0.19486814737319946 0.39671698212623596 -0.3797905445098877
0.22921045124530792 0.31525057554244995 -0.41490331292152405
0.11191499978303909 0.3961603045463562 -0.22352783381938934
0.19011589884757996 0.2125377357006073 0.4593120515346527
0.26558718085289 -0.4302103519439697 -0.2566475570201874
0.12366106361150742 -0.08957336097955704 0.3313458263874054
0.3085857331752777 -0.0015770287718623877 0.2560223340988159
-0.5709148049354553 0.017241863533854485 -0.16179893910884857
0.42892175912857056 0.4038689136505127 0.26052841544151306
-0.36749476194381714 -0.004179490730166435 0.26109156012535095
0.4061526656150818 -0.00782685074955225 0.009266484528779984
0.110238216817379 0.40881338715553284 -0.026131387799978256
-0.5840609073638916 0.3628668785095215 0.032643839716911316
0.2840957045555115 0.4082893133163452 -0.02791270613670349
0.155578151345253 0.2792666256427765 -0.38673943281173706
-0.02779465541243553 0.07056386768817902 -0.4055154323577881
0.3631090521812439 0.003337192814797163 -0.0004013091092929244
-0.5864757299423218 0.26788586378097534 -0.14968203008174896
0.00824705883860588 0.05625167861580849 0.33107563853263855
0.14601556956768036 -0.011431007646024227 0.28698229789733887
0.40255269408226013 0.0038037654012441635 -0.38983041048049927
-0.03282815217971802 0.12244274467229843 -0.4001639783382416
0.15312226116657257 -0.07120926678180695 0.3139341175556183
0.4163198173046112 0.30386999249458313 0.35069307684898376
0.11735066771507263 -0.607660710811615 -0.12813639640808105
0.4924568235874176 -0.001225511310622096 0.02074303664267063
-0.0904468223452568 -0.0012903877068310976 -0.1044577807188034
-0.5500391125679016 0.044704336673021317 0.15705794095993042
0.23896238207817078 -0.37081900238990784 0.259291410446167
0.5945994853973389 0.25127989053726196 -0.05799164995551109
0.28678828477859497 0.29649344086647034 -0.38811445236206055
0.05691226199269295 -0.008340273052453995 0.3278334438800812
-0.26563113927841187 0.0825839713215828 -0.40797606110572815
0.20712360739707947 0.04509029537439346 0.33880919218063354
0.3010141849517822 -0.5993313193321228 0.19315645098686218
-0.5157047510147095 0.0003247125423513353 -0.061346348375082016
0.23048126697540283 0.3954719007015228 -0.31736934185028076
0.2063898742198944 0.01396368071436882 -0.05016706883907318
0.569754958152771 0.15712012350559235 -0.3022679388523102
0.5825740098953247 0.14415135979652405 -0.10923414677381516
0.4294913411140442 -0.2896585464477539 -0.07260528206825256
-0.4093729555606842 0.04948600009083748 -0.3919243812561035
0.20063284039497375 0.4043129086494446 0.136002317070961
0.5940800309181213 0.2511402666568756 -0.15181845426559448
0.43945449590682983 -0.27262720465660095 0.02441990189254284
0.14996576309204102 -0.40360206365585327 0.25907087326049805
0.575445830821991 0.25275495648384094 0.030482493340969086
0.07664266228675842 0.3377428650856018 -0.4124494194984436
0.2421903759241104 -0.039508938789367676 0.44878512620925903
0.003988792188465595 0.276826947927475 0.35976576805114746
0.3622066080570221 0.16218186914920807 0.34466037154197693
0.34926918148994446 -0.21472972631454468 0.22761566936969757
-0.03267677500844002 -0.5041484832763672 0.21638503670692444
0.5853491425514221 0.39649394154548645 -0.03487154841423035
-0.2118341475725174 0.1890048235654831 -0.41260382533073425
0.20019850134849548 -0.6328113675117493 0.07070339471101761
0.07928725332021713 -0.622350811958313 -0.023916661739349365
0.32055047154426575 0.020213767886161804 0.3393620550632477
0.08739269524812698 0.013729346916079521 -0.030226456001400948
0.4336012601852417 -0.32923194766044617 0.02392643876373768
0.2513969838619232 -0.013397998176515102 0.07547316700220108
0.5856994390487671 0.1072302982211113 0.27565398812294006
-0.2126893550157547 -0.1343996375799179 -0.14789192378520966
0.44665196537971497 0.005296471528708935 0.34291017055511475
-0.38054439425468445 -0.029704151675105095 0.029804524034261703
-0.12482264637947083 0.4022890627384186 -0.05298294499516487
-0.5704163908958435 -0.059864193201065063 0.25623592734336853
-0.02741934172809124 0.3294459283351898 -0.4013579487800598
0.24241220951080322 0.010489950887858868 0.23263026773929596
-0.49329784512519836 0.3956230580806732 -0.12870463728904724
0.591516375541687 0.025312218815088272 -0.12442319840192795
0.38924074172973633 -0.3700324296951294 0.12896907329559326
0.3353651463985443 -0.6010181307792664 0.12473063915967941
0.23383165895938873 0.40960872173309326 -0.3777470290660858
-0.2837017774581909 -0.003416420891880989 -0.01388502772897482
-0.20053653419017792 -0.2682204246520996 0.12768886983394623
-0.4497407376766205 -0.09969690442085266 -0.10488715767860413
-0.08305692672729492 -0.6145671010017395 0.09836269915103912
-0.5262109041213989 0.2945864200592041 0.35095688700675964
0.2512919306755066 -0.17251481115818024 -0.345357209444046
-0.21787312626838684 0.0057398416101932526 -0.07866311818361282
0.41826871037483215 -0.19025161862373352 -0.16019146144390106
-0.2994450628757477 -0.0009449820499867201 -0.20570310950279236
-0.5569446086883545 -0.0006215913454070687 0.21322135627269745
-0.5465006232261658 0.06653865426778793 -0.2130267173051834
0.061294298619031906 -0.5770246386528015 -0.3233790099620819
0.06513552367687225 -0.6135754585266113 0.12239591777324677
0.07689187675714493 -0.6191953420639038 -0.0636807307600975
-0.41087979078292847 0.09722378104925156 -0.36894991993904114
0.18917518854141235 -0.0037291795015335083 -0.007004548329859972
-0.06034138426184654 0.004337431862950325 -0.062181223183870316
0.1985672563314438 0.469192236661911 0.4361463189125061
0.08644101023674011 0.00844118557870388 0.2763128876686096
0.03480127453804016 -0.002361845690757036 -0.09059096872806549
0.07122694700956345 0.4074470102787018 -0.11810557544231415
0.05174359679222107 -0.4657433032989502 -0.32279402017593384
0.4314766824245453 -0.15376850962638855 -0.0013981221709400415
0.4269810914993286 -0.310202419757843 0.05402841046452522
0.5875036716461182 0.3083783984184265 -0.09451253712177277
0.11080968379974365 -0.48900988698005676 0.26580893993377686
-0.12374655902385712 -0.005551367998123169 0.10765451192855835
0.13876444101333618 -0.5087907314300537 -0.31285491585731506
0.30725738406181335 0.2700468897819519 -0.3933687210083008
0.13604332506656647 0.002759286668151617 0.141938716173172
0.4068130850791931 -0.24052782356739044 0.11537782102823257
-0.57855623960495 0.03374598175287247 0.32964015007019043
-0.4551332890987396 0.3100813627243042 0.3276961147785187
-0.448710560798645 0.00391664681956172 -0.3656633794307709
0.40576669573783875 0.39938420057296753 0.05671203136444092
-0.5295796990394592 0.39285680651664734 0.27492591738700867
-0.3530517518520355 -0.01953955739736557 0.02774897962808609
0.5788928866386414 0.2178952693939209 -0.3169267177581787
0.03674842044711113 0.02402619831264019 -0.38725876808166504
0.38977283239364624 0.04810899868607521 0.3488770127296448
-0.3490270972251892 0.1171233057975769 0.34437093138694763
0.23619692027568817 -0.6184321641921997 0.23940415680408478
-0.555255115032196 -0.009243805892765522 -0.40713658928871155
0.3178519308567047 0.07795313745737076 -0.4140685200691223
0.34653374552726746 -0.5216518640518188 -0.19717912375926971
-0.4236692488193512 0.2310391515493393 -0.3917960822582245
0.5790789723396301 0.3859376907348633 0.19779977202415466
-0.26704415678977966 0.40255269408226013 -0.10411516577005386
-0.398390531539917 0.08280637860298157 0.04861162602901459
0.17543858289718628 -0.011720131151378155 0.0007932884036563337
-0.554303765296936 0.06751155108213425 0.13080890476703644
-0.22803747653961182 -0.19269251823425293 -0.04184935241937637
-0.27822935581207275 0.003499664133414626 0.015495870262384415
0.3773506283760071 -0.4990359842777252 0.042169395834207535
0.3400295674800873 0.11038228124380112 0.351713627576828
-0.2486356645822525 -0.2228764295578003 -0.08572881668806076
-0.04042309895157814 0.402729868888855 -0.35077258944511414
-0.23204082250595093 -0.30474358797073364 0.05793769285082817
0.0952070951461792 -0.006193837616592646 0.19571088254451752
0.5340546369552612 0.0044853100553154945 -0.18207556009292603
-0.15012036263942719 -0.5515871047973633 -0.14761728048324585
-0.5837088823318481 0.0968623235821724 0.16714435815811157
-0.3985399305820465 -0.0870107114315033 -0.17093785107135773
-0.4668623208999634 0.12032058089971542 -0.040233392268419266
-0.10329197347164154 -0.6241163015365601 -0.13498486578464508
0.375407338142395 -0.00903549138456583 -0.08846871554851532
0.559472382068634 0.050069473683834076 0.35081514716148376
-0.20638319849967957 -0.3175678253173828 -0.2051878720521927
-0.5633217096328735 0.23646099865436554 0.31722491979599
-0.14071010053157806 -0.0029561619739979506 -0.2946930527687073
0.45441582798957825 -0.15645045042037964 -0.08335629850625992
-0.33298516273498535 0.3856450319290161 0.17670921981334686
0.5781958103179932 0.1244848296046257 0.18581043183803558
0.26019614934921265 0.388336181640625 0.18923306465148926
0.2585512399673462 0.4298359751701355 0.44905298948287964
0.13779360055923462 0.10676684230566025 0.3514082729816437
-0.45166653394699097 -0.0026502320542931557 0.2522949278354645
-0.06896065920591354 -0.6128413081169128 0.12985911965370178
0.3134589195251465 0.3867745101451874 0.020516924560070038
0.3878527581691742 -0.0013988630380481482 0.13091641664505005
0.3164869546890259 0.3559649884700775 0.45129474997520447
0.13688218593597412 -0.6327946186065674 -0.02251366339623928
-0.2123781144618988 -0.16522753238677979 -0.1462825983762741
-0.5546216368675232 -0.05103364214301109 0.346897691488266
-0.22704631090164185 -0.3037600815296173 -0.10481023788452148
-0.41447433829307556 0.006418078672140837 0.04974159225821495
0.4291968047618866 0.3925417363643646 0.19523252546787262
0.15992304682731628 -0.0008178240968845785 0.040466565638780594
-0.38281047344207764 0.3895004093647003 -0.005559101700782776
0.46732717752456665 0.017319340258836746 0.31438329815864563
0.4111602306365967 0.08602920919656754 -0.39004191756248474
-0.2731418311595917 -0.0026307033840566874 -0.38267263770103455
-0.46329814195632935 0.013517852872610092 -0.2771514654159546
-0.24815601110458374 -0.005544661544263363 0.01804022304713726
-0.4977673590183258 0.10128021240234375 -0.2140461951494217
-0.3186846673488617 0.3303234577178955 -0.3947673439979553
-0.18978503346443176 -0.17174848914146423 0.16520634293556213
0.4884916841983795 0.011086305603384972 0.20542334020137787
0.27749741077423096 -0.012574714608490467 -0.14253199100494385
0.11389307677745819 -0.04852008447051048 0.33833861351013184
-0.575584352016449 0.34765228629112244 0.24391388893127441
-0.1514797806739807 -0.367669939994812 0.13095444440841675
0.04332683980464935 0.2513641119003296 0.4483981430530548
0.26897892355918884 0.31403473019599915 -0.3937971889972687
0.1193213164806366 0.10015076398849487 0.34505704045295715
-0.526795506477356 0.37454766035079956 -0.1006578579545021
-0.18400190770626068 0.00934713613241911 0.0687698945403099
0.1600821614265442 0.3527621328830719 0.4721069931983948
0.12462230026721954 0.4005691707134247 0.355099618434906
-0.42413023114204407 -0.10612767934799194 -0.17448587715625763
0.18120494484901428 -0.6163915395736694 -0.2539120614528656
0.3003600239753723 0.45312562584877014 0.4345296025276184
-0.5680487751960754 -0.01594671979546547 -0.18286238610744476
0.4318101406097412 0.015673456713557243 -0.33278971910476685
-0.5210999846458435 -0.08711649477481842 -0.3162851631641388
0.01575678586959839 -0.32359790802001953 -0.3693245053291321
-0.21934813261032104 0.4127689599990845 -0.15523812174797058
-0.3629201352596283 -0.048609811812639236 -0.29153022170066833
-0.5866854786872864 0.3028779625892639 -0.08011120557785034
0.06361555308103561 0.008801702409982681 0.15486420691013336
0.026068877428770065 0.39660874009132385 0.24999012053012848
0.1318676620721817 -0.6342356204986572 -0.10312672704458237
0.24838460981845856 -0.6088162660598755 0.03782416135072708
0.5000516772270203 0.15014559030532837 0.32981884479522705
-0.0605451762676239 0.39096614718437195 -0.08697998523712158
0.578981876373291 0.12163090705871582 -0.27483680844306946
-0.1496519148349762 -0.6446774005889893 0.06390970200300217
0.20529784262180328 0.0828099325299263 0.3384037911891937
-0.396109938621521 0.09930182248353958 -0.048405423760414124
0.3038756847381592 -0.5017330050468445 -0.21968580782413483
0.001968058291822672 0.007086943835020065 0.1565047800540924
-0.421938419342041 -0.09792301803827286 0.3284074068069458
-0.46370765566825867 0.40066295862197876 0.13038283586502075
0.5534836649894714 0.09681220352649689 0.3471144735813141
0.2322516143321991 0.404573917388916 0.30863267183303833
-0.09618532657623291 0.32208365201950073 0.35166001319885254
-0.20739538967609406 0.3359512984752655 -0.3920994699001312
0.07206706702709198 0.3957769572734833 -0.3352639079093933
0.554068386554718 0.4117504358291626 0.22463051974773407
0.03906343877315521 0.07089483737945557 0.37060490250587463
0.10041097551584244 0.4065757095813751 -0.20801742374897003
-0.4326969385147095 0.01403090264648199 0.1813155561685562
0.5785112977027893 0.27354344725608826 0.20794205367565155
-0.46625348925590515 0.1189533919095993 -0.3551490008831024
0.3898662328720093 -0.09760836511850357 0.16844294965267181
-0.14879079163074493 0.004440438002347946 -0.2386794090270996
0.3743850886821747 -0.2834853231906891 0.16968755424022675
0.5588918328285217 0.19309517741203308 -0.39527833461761475
0.003942482639104128 0.010138222947716713 0.003083215793594718
0.32480791211128235 -0.6095721125602722 0.059998005628585815
-0.27517828345298767 0.15604405105113983 -0.39049482345581055
0.025040218606591225 0.1074279397726059 -0.40471121668815613
-0.35622286796569824 0.007899368181824684 0.3435509204864502
-0.10571402311325073 0.4007725715637207 -0.3117777109146118
-0.3796326220035553 0.40197283029556274 -0.15612374246120453
-0.5866502523422241 0.265171080827713 0.19106057286262512
-0.33215534687042236 -0.011549814604222775 -0.229960098862648
0.29575130343437195 0.40012529492378235 -0.045496296137571335
0.06538302451372147 -0.14810656011104584 -0.37695884704589844
0.4414125084877014 0.3970411419868469 -0.07307523488998413
0.539146363735199 0.4069270193576813 -0.2956544756889343
-0.14490370452404022 -0.3475242257118225 0.18102653324604034
-0.23038539290428162 -0.016452288255095482 -0.11836542934179306
0.3298666179180145 0.35053572058677673 0.3567167818546295
0.5818483233451843 0.162478968501091 -0.16142995655536652
-0.38735154271125793 -0.09757382422685623 -0.08051867038011551
0.2516060173511505 -0.60997474193573 0.026698775589466095
-0.21723979711532593 -0.2890762984752655 -0.15695446729660034
-0.569194495677948 0.2766309380531311 -0.3458830416202545
-0.573150098323822 0.2163185328245163 -0.21946308016777039
0.5793166160583496 0.0311378575861454 -0.38856860995292664
0.05617869272828102 0.39779043197631836 -0.3441001772880554
0.18436327576637268 -0.6168296933174133 0.1618489772081375
0.4481375217437744 0.39118871092796326 -0.3546954393386841
0.309465616941452 0.01615825854241848 -0.1938304752111435
0.1378472000360489 0.45888400077819824 0.38553526997566223
-0.026656195521354675 0.3850804567337036 0.22921060025691986
0.3208768963813782 0.011563995853066444 0.19932405650615692
0.31751951575279236 0.12328090518712997 -0.4137820601463318
-0.5902743935585022 0.23249901831150055 0.05160612240433693
0.12079966813325882 0.20024415850639343 -0.393224835395813
0.5669273734092712 0.14835244417190552 0.16997770965099335
0.26547670364379883 -0.37990522384643555 0.23956423997879028
0.35363996028900146 -0.0004934297176077962 -0.016332058236002922
0.3575509786605835 -0.3823542594909668 -0.15828460454940796
0.32192257046699524 -0.6236212849617004 -0.20516467094421387
0.012660002335906029 0.39075857400894165 0.23906971514225006
-0.09321657568216324 -0.0020602690055966377 -0.3658595085144043
0.27011382579803467 -0.3841596245765686 0.22154390811920166
-0.008418275974690914 -0.0036482124123722315 -0.1544930785894394
0.4218103885650635 -0.31267425417900085 -0.18127089738845825
-0.5673586130142212 0.36970263719558716 -0.1335945576429367
0.5823163390159607 0.37188228964805603 0.32202276587486267
0.2488095909357071 -0.008633831515908241 -0.29177218675613403
-0.5557180643081665 0.08730030059814453 -0.28214699029922485
0.16029490530490875 0.12138395756483078 -0.39090463519096375
-0.22342251241207123 -0.38531729578971863 -0.08763689547777176
-0.29257383942604065 0.003758783685043454 -0.22412560880184174
0.044853322207927704 0.008381220512092113 -0.39233142137527466
0.03243114799261093 -0.4427527189254761 0.24540309607982635
0.3202460706233978 -0.17616525292396545 -0.2971963584423065
0.564957320690155 0.08619176596403122 0.11133956909179688
0.2519681751728058 0.2996250092983246 0.34881189465522766
0.42878448963165283 0.006779547315090895 0.10849163681268692
-0.2225940078496933 -0.3662898540496826 0.012132267467677593
0.019454065710306168 -0.08694043755531311 -0.34958410263061523
-0.5785790681838989 -0.02038366161286831 -0.09505058825016022
-0.5818924903869629 0.036797862499952316 0.190623477101326
-0.17435039579868317 0.012911364436149597 -0.06195231154561043
0.5821616053581238 0.35995224118232727 -0.18372371792793274
0.3164610266685486 -0.37241998314857483 0.184744194149971
0.14769119024276733 -0.6299121975898743 -0.16117556393146515
0.3342683017253876 0.053160738199949265 0.40922948718070984
0.04934263601899147 0.39565104246139526 -0.22130119800567627
0.23449385166168213 0.08449732512235641 0.45727968215942383
0.3126615881919861 -0.2656991183757782 -0.2927365303039551
0.029429368674755096 0.013060072436928749 -0.12815245985984802
-0.4115314483642578 0.0030555089469999075 -0.037789829075336456
-0.27982503175735474 0.3865205645561218 0.1910705864429474
0.31492507457733154 0.4098658263683319 -0.39434415102005005
-0.20832501351833344 0.18461473286151886 -0.38657259941101074
0.3353387415409088 0.01625669188797474 0.1291731894016266
-0.5329720973968506 0.39712128043174744 -0.09864030033349991
0.27436208724975586 -0.4629359543323517 0.199522465467453
-0.10118075460195541 -0.009939391165971756 -0.1758379489183426
0.5738689303398132 0.027208887040615082 0.09999053925275803
-0.0689883604645729 -0.6235524415969849 0.06132516264915466
0.27453988790512085 -0.615995466709137 0.03560008481144905
0.2866259813308716 -0.09427719563245773 0.39733874797821045
0.09050463140010834 0.2189113348722458 0.4750013053417206
-0.18907831609249115 -0.13377165794372559 -0.22285319864749908
0.003479795064777136 0.39176979660987854 0.021720873191952705
0.3475117087364197 0.3985609710216522 -0.11835703998804092
0.35292673110961914 -0.3939072787761688 0.14522545039653778
-0.49021095037460327 -0.09735096991062164 -0.11732867360115051
0.022973762825131416 0.3749350309371948 0.3939496576786041
-0.1526133418083191 -0.006548184435814619 -0.015546008944511414
-0.3180430233478546 -0.009639340452849865 0.13056151568889618
-0.4061826467514038 -0.10692785680294037 0.0315045528113842
-0.18950624763965607 0.01500473078340292 -0.0003311418113298714
-0.060469601303339005 -0.6305040121078491 -0.052390772849321365
0.3792499005794525 -0.5456131100654602 -0.030847705900669098
0.33998408913612366 0.28481754660606384 -0.3972809314727783
0.26593780517578125 -0.1952172964811325 0.2748740017414093
0.025956733152270317 -0.6255283951759338 0.209307461977005
0.15602454543113708 0.41798508167266846 0.44553861021995544
-0.08019769191741943 -0.6151865720748901 -0.2603214383125305
0.41305235028266907 -0.3243086636066437 -0.19057346880435944
0.07275120168924332 -0.016530334949493408 0.3402356505393982
0.2707912027835846 0.4047228693962097 -0.03333082050085068
0.027817804366350174 -0.6411969661712646 0.21070276200771332
0.3169458210468292 0.3953123092651367 -0.024992162361741066
0.05570902302861214 0.002783337375149131 -0.25831595063209534
0.2926602363586426 0.002205260330811143 0.10860287398099899
-0.5793533325195312 0.3156352937221527 -0.12013226002454758
0.421762079000473 -0.06726106256246567 0.08148301392793655
0.39722657203674316 -0.4315735995769501 -0.06658477336168289
-0.5475191473960876 -0.07655034214258194 0.039710238575935364
-0.5411518216133118 -0.07025818526744843 0.028801007196307182
0.3605024814605713 0.404400497674942 -0.23232613503932953
0.28542834520339966 0.006493725348263979 -0.18178880214691162
0.3610556125640869 -0.5197408199310303 0.12412788718938828
0.028208892792463303 0.32674166560173035 0.35714611411094666
-0.5460131764411926 -0.09332742542028427 0.29567378759384155
-0.14194869995117188 0.3862067461013794 -0.373691201210022
0.27783799171447754 0.4726424515247345 0.3503909707069397
-0.3837626576423645 0.0686417743563652 0.009422862902283669
0.16654308140277863 0.44912123680114746 0.36134910583496094
0.3721805214881897 -0.06422945857048035 0.19401361048221588
0.3970661759376526 -0.010269363410770893 -0.14000995457172394
-0.5906167030334473 0.11020148545503616 0.20859453082084656
0.2702517807483673 -0.09850699454545975 -0.33462730050086975
-0.05988336354494095 0.38481464982032776 -0.21519355475902557
0.32614651322364807 0.011561826802790165 0.15595753490924835
0.24328085780143738 -0.6320025324821472 0.11021188646554947
0.09802774339914322 -0.09256193041801453 0.38688725233078003
0.06437438726425171 0.011345316655933857 0.24120470881462097
0.46238431334495544 -0.03226316720247269 -0.04882868751883507
0.2582623362541199 0.4683367609977722 0.39841338992118835
0.1693115532398224 -0.6231948733329773 0.11475325375795364
-0.24081219732761383 -0.353966623544693 -0.05959859862923622
-0.09373432397842407 -0.47357991337776184 0.19280719757080078
0.005487622693181038 -0.6166616678237915 -0.21674662828445435
0.390917032957077 0.3715859353542328 -0.4095882773399353
0.0493004135787487 0.39215877652168274 0.35103175044059753
0.27619749307632446 0.4138135612010956 -0.009301738813519478
-0.11167912930250168 -0.5357072353363037 0.16826163232326508
-0.2996225357055664 0.41355568170547485 0.16405266523361206
-0.40613022446632385 0.05990935489535332 -0.40780195593833923
-0.5490303039550781 0.3954905867576599 -0.08715161681175232
0.03411250188946724 0.05546179041266441 0.44070756435394287
-0.18219952285289764 0.0065783485770225525 4.399841418489814e-05
-0.1284566968679428 0.3970668911933899 0.16226015985012054
-0.5716745853424072 0.3765258491039276 -0.20271387696266174
-0.22929896414279938 -0.011324819177389145 0.1579766422510147
0.10546223074197769 0.3995249271392822 0.12292128056287766
0.05073002725839615 0.007264102343469858 -0.184225395321846
-0.07097644358873367 0.3884739279747009 0.2274923324584961
0.3347947299480438 0.00996200367808342 -0.04529256001114845
-0.09683696180582047 -0.6182780265808105 -0.11387737840414047
0.36922287940979004 0.40815767645835876 -0.09612491726875305
0.4636710286140442 -0.01168724987655878 0.04726191237568855
-0.1135191023349762 -0.623658299446106 -0.2241744101047516
-0.3315254747867584 0.34897148609161377 0.012819869443774223
-0.46965324878692627 -0.09695751219987869 -0.326595664024353
-0.5587361454963684 -0.059155479073524475 0.03314995765686035
-0.40587517619132996 0.0339970737695694 -0.40835872292518616
-0.17606772482395172 -0.13390423357486725 -0.25088927149772644
-0.0535450279712677 0.38203030824661255 0.3374060094356537
-0.4986381530761719 0.10358794033527374 0.16394633054733276
0.24960178136825562 -0.41848939657211304 -0.27054375410079956
-0.05709899216890335 0.027569275349378586 -0.4037940800189972
0.18839097023010254 0.3908850848674774 0.459757536649704
0.499977707862854 0.015168225392699242 0.25991711020469666
-0.5088797211647034 0.012280142866075039 -0.03681406006217003
-0.022825974971055984 -0.18139348924160004 0.30586743354797363
0.5058208703994751 0.32296764850616455 0.3314683139324188
0.23813816905021667 -0.09165199846029282 0.27521055936813354
0.10295288264751434 -0.2609623968601227 -0.3725440800189972
0.0012576715089380741 -0.12496273964643478 0.31217238306999207
0.02695181965827942 0.3194335401058197 -0.38743507862091064
-0.254928320646286 -0.3249747157096863 -0.034214891493320465
0.5855315327644348 0.3314065635204315 -0.28733211755752563
0.24956059455871582 0.41433441638946533 -0.27420318126678467
-0.1332477629184723 0.010580380447208881 -0.04099533334374428
-0.5540568828582764 -0.07118028402328491 0.001701987348496914
0.575688362121582 0.39774057269096375 -0.0037696813233196735
-0.11300724744796753 -0.6277597546577454 0.044417984783649445
-0.1768658608198166 -0.06099933385848999 -0.2140023410320282
0.47570300102233887 0.23605817556381226 -0.3872714042663574
-0.13265343010425568 -0.14980119466781616 -0.2720376253128052
-0.009163618087768555 0.13412536680698395 -0.39620351791381836
-0.30400514602661133 0.004623306915163994 -0.1750802844762802
-0.10718520730733871 0.19291329383850098 0.41409897804260254
0.27399030327796936 0.3915344178676605 -0.06985687464475632
0.2898111939430237 0.41063782572746277 -0.2250232994556427
0.10856261849403381 0.21745699644088745 0.4701116979122162
0.1708507537841797 -0.6356530785560608 0.0020102467387914658
-0.21074940264225006 0.39858686923980713 -0.2617742419242859
-0.37697967886924744 -0.06020962446928024 -0.3617662787437439
-0.29128333926200867 0.32528918981552124 -0.41107460856437683
0.11109030246734619 -0.0007435056613758206 -0.2093047797679901
-0.1699220985174179 -0.4714736342430115 -0.08773025125265121
0.33061379194259644 0.3873642086982727 0.3490394949913025
-0.21484246850013733 -0.01216557901352644 0.25384917855262756
0.03729121759533882 -0.49235033988952637 -0.29466214776039124
0.5853855609893799 0.36934831738471985 0.14879605174064636
0.3789966404438019 -0.01213045883923769 -0.1928054243326187
0.17542511224746704 -0.6276850700378418 0.04091687500476837
-0.44206860661506653 0.4108940660953522 0.299881249666214
0.12153197824954987 0.34761834144592285 -0.40721452236175537
0.3377886712551117 0.26803696155548096 0.37519365549087524
0.3592609167098999 -0.6618730425834656 -0.14166668057441711
0.07009118795394897 0.015216865576803684 0.05579148232936859
0.5892235040664673 0.12483812868595123 -0.08213824033737183
0.579990029335022 0.3939017951488495 0.13468506932258606
0.348140686750412 0.41274404525756836 0.3104232847690582
0.2845246493816376 -0.4408593773841858 0.2005762755870819
-0.1092778742313385 -0.26330941915512085 0.2465810477733612
0.07141819596290588 0.008659099228680134 0.2182389795780182
-0.027032939717173576 -0.5036455392837524 -0.28590962290763855
-0.12430458515882492 -0.43794432282447815 0.17008964717388153
-0.24539652466773987 0.1369902789592743 0.34974655508995056
0.15761271119117737 -0.28617194294929504 -0.37571242451667786
0.19550052285194397 -0.6395832896232605 0.21732331812381744
-0.3469644784927368 -0.018223941326141357 -0.3080187439918518
-0.034496527165174484 -0.571259617805481 -0.2693083584308624
0.38162434101104736 0.389566570520401 -0.403522789478302
0.5491366386413574 0.0035519811790436506 -0.12861153483390808
-0.5846850275993347 0.33652204275131226 0.05572585016489029
-0.41823866963386536 0.32119449973106384 -0.4086448848247528
0.2966192662715912 0.39628562331199646 -0.006832431070506573
0.0026124566793441772 -0.6271885633468628 0.1495894193649292
0.06881662458181381 0.40634116530418396 0.23990498483181
0.4172402322292328 0.3859589397907257 -0.24432243406772614
-0.19240091741085052 -0.3699253499507904 -0.21059203147888184
0.04623959958553314 -0.011396750807762146 0.1793927401304245
-0.42173540592193604 0.3887065052986145 -0.29103508591651917
0.3578921854496002 -0.6459102034568787 -0.037580572068691254
-0.04468695446848869 -0.6343173980712891 -0.05017812177538872
-0.42779725790023804 -0.09358223527669907 -0.14374040067195892
0.1332709938287735 0.010149290785193443 -0.05777784064412117
0.5758402347564697 0.14639684557914734 -0.3432314395904541
-0.16483287513256073 -0.3759051561355591 0.09299232810735703
0.00836143083870411 -0.610407292842865 -0.15873469412326813
0.21975164115428925 0.130077064037323 0.4643610715866089
0.16609011590480804 0.10964198410511017 -0.41005760431289673
-0.09438882023096085 0.3413392901420593 0.3471575975418091
-0.5488500595092773 0.380649209022522 0.010856655426323414
-0.19718685746192932 0.00315970741212368 0.11952248215675354
0.5806974172592163 0.021501002833247185 -0.04422280937433243
-0.41022157669067383 0.05331654101610184 0.3488623797893524
0.038488682359457016 0.2525392174720764 0.3758310377597809
-0.3148021697998047 0.03707154467701912 0.3282439708709717
0.2090059071779251 0.17319373786449432 -0.40985581278800964
-0.21234478056430817 0.40058809518814087 -0.3279334604740143
-0.49438712000846863 -0.05665721371769905 -0.4081304967403412
0.3267248868942261 0.4138137698173523 0.17982687056064606
0.1811394840478897 0.005031375214457512 0.048344194889068604
-0.23692084848880768 -0.24521994590759277 -0.1193234920501709
0.08734744042158127 0.003300110809504986 0.05689070373773575
-0.24635282158851624 0.21852149069309235 -0.4119083285331726
-0.5628591775894165 0.37660565972328186 0.20486123859882355
-0.09533753991127014 -0.6078189015388489 -0.06303465366363525
0.05636947602033615 0.006189295556396246 0.23809942603111267
-0.3883923888206482 -0.008756879717111588 0.3194941282272339
0.3150668740272522 0.09490037709474564 0.39067673683166504
-0.4743223488330841 0.16447801887989044 0.32987046241760254
-0.4600384831428528 0.04800262302160263 0.3561224043369293
-0.3541010320186615 0.39807039499282837 -0.3087739050388336
-0.2015099823474884 -0.3660110533237457 -0.06391654163599014
0.46725529432296753 0.21236461400985718 0.3498469591140747
0.2601914703845978 -0.0131505336612463 -0.19763123989105225
0.4352577328681946 0.12845870852470398 0.34245213866233826
0.5687289834022522 0.1409001350402832 0.2583008408546448
-0.19697260856628418 -0.010186492465436459 -0.006164581049233675
0.16986294090747833 -0.666353702545166 0.2376578003168106
0.08374776691198349 0.34202924370765686 0.33094897866249084
-0.5917384028434753 0.2126038521528244 0.0246218740940094
0.19089408218860626 -0.317466139793396 -0.36090904474258423
0.24390646815299988 -0.628169059753418 -0.12057468295097351
0.5936455130577087 0.3052383363246918 0.1589384377002716
-0.594612181186676 0.2059740275144577 -0.37584546208381653
-0.0687321126461029 0.3975398540496826 -0.3780316114425659
0.3798200488090515 0.0017169297207146883 -0.07187129557132721
0.4963253140449524 0.393350750207901 -0.020854217931628227
0.1450839787721634 -0.07639700919389725 0.3792334794998169
-0.5381236672401428 -0.09217970818281174 0.29082241654396057
0.07021922618150711 0.023749912157654762 -0.3996106684207916
-0.4849850833415985 0.2765234112739563 0.3356446325778961
-0.2014981359243393 -0.27510496973991394 0.12382863461971283
-0.40314576029777527 0.4017694890499115 -0.2597329020500183
-0.5731812715530396 -0.011104225181043148 0.06707655638456345
0.197828471660614 0.03384929895401001 -0.4124782979488373
0.3833054304122925 -0.005873292218893766 -0.005552118644118309
0.45674455165863037 -0.3139002025127411 -0.02367023564875126
0.44476211071014404 -0.22516688704490662 -0.09498399496078491
-0.32251834869384766 -0.00885048322379589 -0.20601658523082733
0.03881252929568291 0.39276784658432007 0.4232994019985199
-0.5697492957115173 0.03919374570250511 -0.1451989859342575
-0.5714735984802246 -0.021701820194721222 -0.4123152494430542
0.3972778618335724 -0.011678055860102177 0.01842428743839264
0.16490590572357178 -0.004324670415371656 0.17675991356372833
-0.23879432678222656 0.10162068903446198 -0.3950340151786804
-0.40857040882110596 0.010148546658456326 -0.2663232088088989
-0.20504078269004822 -0.010001001879572868 0.028132719919085503
0.567595362663269 0.3953559696674347 0.2738749384880066
0.12517309188842773 0.24895761907100677 0.3293507397174835
-0.1269669234752655 0.40696778893470764 0.12868301570415497
-0.49405637383461 0.3479516804218292 -0.15992514789104462
0.0113203264772892 -0.6309807300567627 0.036259379237890244
-0.2262270599603653 -0.388510137796402 -0.08975157141685486
0.15671014785766602 -0.07036049664020538 0.3788289427757263
-0.1883186250925064 0.11290071904659271 0.33491766452789307
-0.07177186757326126 0.4045146107673645 0.07971233129501343
-0.4104214012622833 -0.08946871012449265 0.18742775917053223
0.5720579624176025 0.4112926423549652 0.06343520432710648
0.0922275185585022 -0.6191509366035461 0.09905112534761429
-0.06532393395900726 0.24152478575706482 0.4022972285747528
0.5825040340423584 0.30726736783981323 -0.3492110073566437
-0.5418238639831543 0.3200567960739136 0.3449043035507202
-0.0036579621955752373 -4.753080429509282e-05 0.1043979600071907
0.574193000793457 0.004754152148962021 -0.2480631172657013
-0.24331384897232056 -0.2613280713558197 -0.03517797961831093
-0.5654762387275696 -0.019842874258756638 -0.4069284498691559
-0.545199453830719 0.10377591103315353 -0.3411819338798523
-0.5640303492546082 0.02704833634197712 0.19768108427524567
-0.5502541065216064 0.39046409726142883 -0.05164307355880737
0.3957030475139618 -0.11553726345300674 -0.19920386373996735
0.389167845249176 -0.5101480484008789 -0.10637872666120529
-0.14659276604652405 0.4011761546134949 0.12580743432044983
0.2689969837665558 0.36781755089759827 0.45471757650375366
-0.5754069685935974 0.3594158887863159 0.26208388805389404
-0.5928342342376709 0.11263615638017654 -0.264192670583725
0.041282497346401215 0.1727169305086136 -0.39345109462738037
-0.5734040141105652 0.3885979652404785 -0.2880522310733795
-0.4189969599246979 0.18242689967155457 -0.4057901203632355
-0.5905274152755737 0.16958871483802795 0.3016900420188904
-0.09752772003412247 -0.010832046158611774 -0.17020957171916962
-0.57410728931427 -0.03032524883747101 -0.08541722595691681
-0.5616899728775024 0.03421960398554802 0.32401466369628906
-0.49875256419181824 0.3675468862056732 -0.050657302141189575
-0.571605920791626 -0.0025310153141617775 0.17161253094673157
0.03567086160182953 -0.619407057762146 -0.01626691035926342
0.33400997519493103 0.0625450387597084 -0.40860888361930847
-0.053137436509132385 -0.593275785446167 0.213955357670784
0.4273042678833008 0.07589937001466751 0.3584144115447998
-0.40399202704429626 0.1008506789803505 -0.3405866026878357
-0.4063658118247986 -0.08537709712982178 0.2010541409254074
-0.031632259488105774 -0.1002456322312355 0.29435211420059204
-0.21844565868377686 0.21229755878448486 0.34819483757019043
0.5684744119644165 0.27470633387565613 0.3488825857639313
0.2432974874973297 -0.6450284719467163 0.22782669961452484
-0.04527004435658455 0.39585188031196594 -0.3252364695072174
0.008806816302239895 -0.6231083869934082 -0.13720184564590454
-0.5332136154174805 0.00040777307003736496 0.09940085560083389
-0.369098961353302 -0.07476376742124557 0.2453138381242752
-0.5708747506141663 0.21991504728794098 -0.22847405076026917
0.03945217654109001 -0.21741999685764313 0.3226940929889679
-0.5676240921020508 0.08306871354579926 -0.2591264843940735
-0.08902150392532349 -0.05712856352329254 0.2773926258087158
-0.24496160447597504 -0.1207788735628128 -0.10984112322330475
-0.0899861603975296 -0.009853670373558998 -0.014967982657253742
0.30947306752204895 -0.2578125 0.2692725658416748
-0.5739675164222717 0.2462061643600464 0.21076178550720215
0.5586135387420654 -0.002114594914019108 -0.14957372844219208
-0.10870961099863052 -0.011973834596574306 -0.3341280519962311
0.5279017090797424 0.41538435220718384 0.3032631576061249
-0.28917017579078674 0.08794355392456055 -0.4120756685733795
0.2994133532047272 -0.010914681479334831 -0.2854202091693878
0.0024679868947714567 -0.634685218334198 -0.13145512342453003
-0.04792565107345581 0.01472055446356535 -0.03207613155245781
-0.5711313486099243 -0.02900834195315838 -0.17964954674243927
0.17135536670684814 -0.0037836204282939434 -0.4088526964187622
-0.5442298650741577 0.07763497531414032 0.18579590320587158
-0.15874049067497253 -0.3384912312030792 0.20331798493862152
0.3769225776195526 0.004288814030587673 0.024524742737412453
0.3126913905143738 -0.3733288049697876 0.25851333141326904
-0.36120760440826416 -0.042181726545095444 -0.38031134009361267
-0.08447562158107758 -0.4048718512058258 -0.25268352031707764
0.12680445611476898 0.38769087195396423 0.3368218243122101
-0.5894854664802551 0.11173620820045471 -0.2951217293739319
-0.24830657243728638 0.05463850870728493 -0.38706663250923157
0.582744836807251 0.05192179977893829 -0.1807563602924347
0.2897624969482422 -0.2539026439189911 -0.3208918571472168
0.3439147472381592 -0.615654468536377 0.11619620770215988
0.24505408108234406 -0.0021455129608511925 -0.08632286638021469
0.24511325359344482 -0.6074370741844177 -0.09150326251983643
0.2914747893810272 0.011512143537402153 -0.07074223458766937
0.4994298815727234 0.39945757389068604 -0.3611443042755127
0.5828246474266052 0.1098535880446434 0.036062829196453094
-0.3749615550041199 0.0034871066454797983 -0.1578252911567688
-0.5952452421188354 0.2994428277015686 -0.192650705575943
0.5490981936454773 0.39803677797317505 0.2638855576515198
0.3229157328605652 0.36097630858421326 0.3690716326236725
0.22214609384536743 -0.050188347697257996 0.3196389675140381
-0.5896828174591064 0.3092157542705536 -0.06568874418735504
0.03147789463400841 -0.05516064539551735 0.41121262311935425
0.27296289801597595 0.013476063497364521 0.22970996797084808
0.01170563604682684 -0.614483118057251 0.1376337856054306
-0.3040820360183716 -0.0056989798322319984 -0.2802703380584717
-0.4859142303466797 0.07949314266443253 -0.4048951268196106
0.38901081681251526 -0.0028610117733478546 0.05071110650897026
0.35528990626335144 -0.11894458532333374 0.21876130998134613
-0.22564852237701416 0.03304818645119667 0.32964688539505005
-0.578792154788971 0.04018842801451683 0.23078711330890656
-0.5727542042732239 0.07438050210475922 -0.18085208535194397
0.13396690785884857 -0.6354642510414124 -0.2089499533176422
0.22994332015514374 0.007614606525748968 -0.14647921919822693
-0.5122159123420715 0.3915170431137085 0.03384647145867348
0.4407004117965698 -0.35350289940834045 -0.07824857532978058
-0.09413493424654007 0.0854966789484024 -0.4007530212402344
0.204726442694664 -0.6089292764663696 0.24595671892166138
0.15859557688236237 -0.0049231089651584625 0.256997674703598
0.33539438247680664 0.29328420758247375 0.44169479608535767
-0.21552203595638275 -0.07141266763210297 -0.13804440200328827
0.15182816982269287 -0.004475012421607971 -0.16440549492835999
0.22837017476558685 -0.06715349107980728 0.3369597792625427
-0.18414247035980225 0.011597917415201664 -0.0767422765493393
0.3219996988773346 0.28164443373680115 0.45419374108314514
-0.12218361347913742 0.2718586027622223 -0.4023396372795105
-0.26152655482292175 0.005899135023355484 0.01602284610271454
-0.048021357506513596 -0.2924918532371521 0.29184797406196594
0.24066518247127533 -0.6383611559867859 -0.2869041860103607
0.36454248428344727 0.14998474717140198 -0.40545719861984253
-0.19461975991725922 0.09550897777080536 0.35599255561828613
0.320283442735672 0.295215904712677 0.3409750163555145
-0.5699484944343567 -0.008278195746243 -0.3513583838939667
-0.39763832092285156 0.4116877019405365 0.059464093297719955
-0.4447699785232544 0.008421717211604118 -0.0027370445895940065
0.1863519847393036 -0.6258574724197388 0.03612031787633896
0.06327643990516663 0.39460983872413635 0.16885420680046082
-0.4028831422328949 0.10227102786302567 0.09948015958070755
0.3942178189754486 0.0029412449803203344 -0.025893986225128174
-0.49147018790245056 0.13759751617908478 0.3430464565753937
0.5835726857185364 0.10215522348880768 0.3135179877281189
-0.5541520714759827 0.07538890838623047 0.20767243206501007
-0.30631229281425476 0.013295989483594894 0.08542266488075256
-0.3803800344467163 -0.010420393198728561 0.2616768181324005
0.4096898138523102 0.3982566297054291 -0.278205931186676
0.2265188992023468 0.2524625360965729 0.4576500356197357
0.0480276383459568 0.40022751688957214 0.03680139034986496
0.19734370708465576 0.38796040415763855 0.47289103269577026
-0.02109443210065365 -0.007996993139386177 -0.2873927652835846
0.10959367454051971 -0.6223611235618591 -0.06661423295736313
-0.3429008722305298 0.06966685503721237 -0.3872900903224945
-0.4630733132362366 0.4222368597984314 -0.13699857890605927
0.2973308265209198 -0.049489885568618774 0.33296364545822144
0.30150365829467773 0.4601342976093292 0.4330008924007416
0.563855767250061 0.10133083909749985 0.29046207666397095
0.45789629220962524 0.40239766240119934 -0.13800404965877533
0.5063477754592896 0.012922421097755432 0.24687236547470093
0.0331379696726799 -0.07036943733692169 0.42491063475608826
-0.20102055370807648 -0.002785950666293502 -0.21197661757469177
-0.08644359558820724 -0.6277750730514526 -0.059697020798921585
-0.12287196516990662 -0.2761702537536621 -0.29732608795166016
-0.588083028793335 0.21673764288425446 -0.2614298164844513
0.04108133539557457 -0.6118983626365662 -0.044751930981874466
-0.45236852765083313 0.06919530779123306 0.3664202094078064
0.002241699490696192 -0.14306674897670746 -0.3458671271800995
0.4734332859516144 0.07092586159706116 -0.39574870467185974
-0.4436098039150238 0.297878623008728 0.32772523164749146
-0.23981240391731262 -0.3575679063796997 -0.11312174052000046
0.07472093403339386 -0.380268394947052 0.25442543625831604
0.09624195098876953 -0.08629535883665085 -0.37191370129585266
0.4134725332260132 0.0025626064743846655 0.09094575047492981
-0.2819749712944031 0.011222588829696178 -0.30389606952667236
0.14209884405136108 0.006114214658737183 0.15708743035793304
0.5849835276603699 0.37516161799430847 -0.23939737677574158
-0.4084896147251129 -0.08210695534944534 -0.289130836725235
0.4501953125 0.22714389860630035 -0.3948090374469757
-0.10929787158966064 -0.37982842326164246 -0.22486045956611633
