-0.5746703147888184 0.1658613681793213 -0.11789636313915253
0.3162290155887604 0.40023475885391235 0.458156555891037
0.12102404236793518 0.030557692050933838 0.4662558138370514
0.2833346724510193 -0.6274881958961487 0.010813981294631958
0.13837172091007233 0.0006498685106635094 0.18512719869613647
-0.3546612560749054 0.25406602025032043 -0.4015393853187561
-0.11344341933727264 -0.36296162009239197 -0.29836368560791016
0.2627675533294678 0.40608763694763184 0.25862404704093933
-0.41915163397789 -0.0939604714512825 -0.3909841477870941
0.2106526643037796 -0.6199379563331604 -0.2006922960281372
-0.3749835789203644 0.3996047377586365 0.04370037093758583
0.34384170174598694 -0.0011889185989275575 -0.21848879754543304
-0.48844555020332336 -0.10282878577709198 0.023699987679719925
-0.04687375947833061 0.4034045338630676 -0.18734939396381378
0.16355212032794952 0.11391490697860718 0.3407646715641022
0.09183132648468018 -0.6232858896255493 0.08273164182901382
0.12838339805603027 0.0011915173381567001 0.02195572853088379
0.06818728893995285 0.0009886105544865131 0.048377346247434616
-0.4907640218734741 0.4023019075393677 0.16877752542495728
0.42490506172180176 2.9256800189614296e-05 -0.06176947429776192
0.41304972767829895 -0.1491602063179016 -0.17232593894004822
0.2685015797615051 0.0017000125953927636 0.18720008432865143
-0.5761672854423523 0.04439933970570564 0.25333502888679504
0.3920636475086212 -0.6190568208694458 -0.05289285629987717
0.3604055643081665 0.40678659081459045 0.24788998067378998
-0.12798240780830383 -0.4486026465892792 0.143950954079628
-0.13017228245735168 -0.00019114968017674983 -0.2865413725376129
0.3865227997303009 -0.38826286792755127 -0.15289178490638733
0.11221342533826828 0.4148983657360077 0.34756389260292053
0.368461936712265 0.23532836139202118 0.3435790538787842
0.30039259791374207 0.002082433085888624 0.04532049223780632
-0.3933131694793701 0.41668760776519775 -0.12702494859695435
-0.40211784839630127 0.005410006269812584 0.14542831480503082
-0.0518503300845623 0.40300098061561584 0.07512743771076202
0.5727465152740479 0.40078043937683105 -0.01569097675383091
0.31302836537361145 -0.0011973544023931026 -0.24642959237098694
0.3072700500488281 -0.0001581599935889244 -0.3069625794887543
0.12514448165893555 0.0012368140742182732 -0.2535753548145294
0.579805850982666 0.3272051215171814 0.34306344389915466
0.21431463956832886 -0.3833451569080353 -0.321232408285141
0.2167791873216629 0.039402611553668976 0.4657803177833557
-0.15379244089126587 0.003356366418302059 -0.14311149716377258
-0.4207655191421509 0.39965343475341797 0.06170453876256943
0.5862492322921753 0.2474394589662552 -0.20329202711582184
-0.1399596929550171 0.4039655923843384 -0.15315234661102295
-0.574591875076294 0.004296127241104841 -0.11406279355287552
-0.5817030072212219 0.2736031711101532 -0.23668891191482544
0.12652510404586792 0.4026371240615845 -0.20656181871891022
0.28378546237945557 -0.0571223720908165 0.32470688223838806
0.13905708491802216 0.40481117367744446 0.15283702313899994
0.019864993169903755 -0.6237260103225708 -0.03788067027926445
0.24035848677158356 0.13482338190078735 -0.4028216600418091
-0.18245191872119904 0.09343360364437103 0.3444302976131439
-0.21246764063835144 -0.06331828981637955 0.11556952446699142
-0.15671420097351074 -0.0017257872968912125 0.11787071079015732
0.5844041705131531 0.08373510092496872 0.12477901577949524
-0.5768112540245056 0.09857065975666046 0.33054301142692566
0.3640218675136566 -0.6047869920730591 0.09692581743001938
-0.18990203738212585 0.2273053377866745 -0.3995848596096039
-0.19701340794563293 -0.20137828588485718 0.1304723620414734
-0.024061385542154312 -0.5676239728927612 0.2293677031993866
-0.26882848143577576 0.4039250910282135 0.246315598487854
0.24184419214725494 0.20295025408267975 0.468351274728775
0.5913835763931274 0.06441006809473038 0.22073692083358765
-0.5751821398735046 0.21785835921764374 -0.21920964121818542
-0.5763102769851685 0.014756914228200912 -0.02743009477853775
0.26208510994911194 0.3991202414035797 0.192899689078331
0.32997649908065796 -0.29419949650764465 0.23598001897335052
0.0908658429980278 0.0013685212470591068 0.01381285022944212
0.14482881128787994 0.4733203053474426 0.4050849676132202
-0.024059616029262543 -0.2862376272678375 -0.35103484988212585
0.3679940700531006 -0.566622257232666 0.08314552903175354
-0.21928252279758453 -0.23483146727085114 0.09403347969055176
-0.31361228227615356 0.3801935017108917 -0.17636261880397797
0.050497401505708694 0.4032902121543884 -0.23464623093605042
-0.32455310225486755 0.3925201892852783 -0.39300769567489624
0.509842038154602 0.1067836582660675 -0.40056249499320984
-0.04985722899436951 0.10350329428911209 -0.4021774232387543
0.43870872259140015 0.0019437475129961967 0.1957814246416092
-0.2633211314678192 0.000858657993376255 0.07363501191139221
-0.43302178382873535 0.004365338943898678 0.0482608899474144
0.08664914965629578 0.4041215181350708 0.06525565683841705
0.021314911544322968 0.403011679649353 -0.044952839612960815
0.1788451373577118 0.30293670296669006 0.46496492624282837
0.20458464324474335 -0.627373993396759 -0.016195623204112053
0.331050306558609 -0.010650751180946827 0.3611096143722534
-0.18892432749271393 -0.3717085123062134 -0.1977715641260147
0.297583669424057 0.36925429105758667 0.46729445457458496
0.19913597404956818 -0.6218706369400024 0.11977216601371765
-0.40624287724494934 0.08809702098369598 0.33885467052459717
-0.15079502761363983 0.00018331222236156464 -0.30916863679885864
-0.39194291830062866 0.41428065299987793 -0.11342770606279373
-0.3089291751384735 0.40663859248161316 0.13914501667022705
-0.45172712206840515 0.1099274680018425 -0.3987099528312683
-0.31322160363197327 0.002164156874641776 0.24272771179676056
0.29585692286491394 0.03850989788770676 0.3425232172012329
0.565142035484314 0.00676156859844923 -0.06207463517785072
-0.3060084581375122 0.2037798911333084 -0.40165165066719055
0.21294188499450684 -0.28953859210014343 -0.3545796573162079
0.5194017887115479 0.002596456091850996 0.23360848426818848
0.41440799832344055 -0.0010854874271899462 0.2105368673801422
0.06943605840206146 -0.025794247165322304 0.3055886924266815
0.18813660740852356 0.0030018221586942673 -0.21006067097187042
-0.02348966710269451 0.4042249619960785 0.09879634529352188
-0.15616261959075928 0.0009478091960772872 -0.17312607169151306
-0.2418137490749359 0.3540274202823639 0.3416125774383545
0.09977772831916809 -0.6264557838439941 -0.17478406429290771
-0.1849098652601242 -0.14201883971691132 -0.21087442338466644
-0.5475705862045288 0.3758154809474945 -0.07065258175134659
0.17373593151569366 -0.6200270056724548 -0.26303818821907043
0.3464672267436981 0.4062489867210388 0.2380572259426117
0.3967803418636322 -0.2183738797903061 -0.21038810908794403
-0.10299433767795563 -0.0015735328197479248 0.16640673577785492
0.581936776638031 0.06882057338953018 0.1795419454574585
-0.25577789545059204 -0.0027263835072517395 -0.010286575183272362
-0.14585286378860474 0.0005878363735973835 -0.26416826248168945
-0.18784883618354797 -0.4261530041694641 -0.025135179981589317
-0.3718009889125824 -0.04696503281593323 0.26116040349006653
0.28054875135421753 0.4057580232620239 0.25512370467185974
0.19140243530273438 -0.43670496344566345 0.24199813604354858
-0.5716412663459778 0.0492333360016346 -0.14602205157279968
0.4105239510536194 0.40357643365859985 -0.23353825509548187
0.4120825529098511 -0.3885866105556488 -0.03748113289475441
0.08458904176950455 0.4226812422275543 0.3954819440841675
0.0022602430544793606 -0.6240113377571106 -0.19672909379005432
0.2617264688014984 -0.07047845423221588 0.44889408349990845
0.122464120388031 0.4050109386444092 0.2575666904449463
0.03933505713939667 0.402978777885437 0.18740825355052948
0.07493876665830612 0.002845289185643196 -0.3422701358795166
-0.09751985222101212 -0.5231102705001831 0.1772807538509369
0.534889817237854 0.4058505594730377 0.15524573624134064
0.002947777509689331 0.0016140695661306381 0.1632365733385086
0.45285868644714355 -0.09036149084568024 -0.05343611538410187
0.0013390821404755116 -0.17526516318321228 0.29830819368362427
0.3411206901073456 0.40322282910346985 -0.24649441242218018
0.16605152189731598 -0.4562990367412567 0.2496328204870224
0.24768556654453278 0.0005258871242403984 -0.29711177945137024
0.4467485249042511 -0.18045029044151306 -0.029768239706754684
0.12274259328842163 -0.6222785711288452 0.12715159356594086
0.5866534113883972 0.36682364344596863 -0.10755398124456406
0.12215527892112732 0.39436307549476624 -0.392513245344162
-0.0058188061229884624 0.402578204870224 -0.2971454858779907
0.30275535583496094 -0.6344704627990723 0.10188217461109161
8.941395208239555e-05 -0.26595383882522583 -0.3610682785511017
0.21695826947689056 -0.3926277458667755 0.23322340846061707
-0.5705128908157349 -0.003538666758686304 -0.025447184219956398
0.09008658677339554 -0.095305435359478 -0.3668925166130066
0.3009004294872284 0.00040675001218914986 -0.3170659840106964
-0.38883882761001587 -0.06990890949964523 0.11487264931201935
-0.20635093748569489 -0.07112010568380356 -0.1820436269044876
-0.5617660284042358 0.04721615090966225 0.1592506617307663
-0.00040368339978158474 0.4034617245197296 0.06760714948177338
0.34750181436538696 0.40456801652908325 0.3055962920188904
-0.3044848144054413 0.005138464272022247 -0.1328984647989273
0.4892902970314026 0.1695197969675064 0.3446098268032074
0.16673609614372253 -0.39257514476776123 0.25770238041877747
0.29986053705215454 -0.04467270150780678 0.32879403233528137
0.5192667841911316 0.14119651913642883 -0.40208274126052856
0.5778372883796692 0.09275593608617783 -0.39072296023368835
0.15622319281101227 0.051808085292577744 0.4635743498802185
-0.41128844022750854 -0.0005751550197601318 0.31557512283325195
-0.1826476752758026 0.005753564648330212 0.304002046585083
0.4560626447200775 0.40678757429122925 0.21669508516788483
0.1404142528772354 -0.6267831325531006 -0.23518985509872437
-0.40786460041999817 -0.07624326646327972 -0.39683401584625244
0.18034039437770844 0.40402713418006897 0.18236911296844482
-0.23322957754135132 -0.2661973237991333 -0.10246983915567398
0.1656055748462677 -0.2183661013841629 0.3069240152835846
0.3380235433578491 -0.0019699037075042725 0.2343117594718933
-0.28645071387290955 0.39402103424072266 -0.016403814777731895
0.5470763444900513 0.0036929678171873093 0.3135056495666504
0.40983837842941284 -0.04469851031899452 -0.1760334074497223
-0.5255150198936462 0.39271649718284607 0.09920509904623032
0.1707402616739273 -0.6278086304664612 -0.1419052630662918
0.32490217685699463 0.00022372975945472717 0.19921690225601196
0.33226969838142395 0.32708826661109924 0.3728974163532257
-0.1271786093711853 0.398148775100708 0.01735270954668522
0.5838104486465454 0.1993045061826706 -0.02725616656243801
0.1790023148059845 0.40483492612838745 0.25814497470855713
-0.027355046942830086 0.003179555758833885 0.21496105194091797
-0.1885814219713211 0.1564619541168213 -0.4010831117630005
-0.527874767780304 -0.06319534778594971 0.33858704566955566
-0.37086525559425354 0.04302842542529106 -0.014076372608542442
0.4280857443809509 0.2985071837902069 0.3446185886859894
0.584317684173584 0.012050962075591087 0.1567506641149521
0.10914143174886703 0.33846497535705566 -0.40082985162734985
-0.4961954951286316 0.2891389727592468 -0.39985933899879456
0.31636154651641846 0.16844721138477325 0.3434789478778839
0.4051470458507538 -0.2586582899093628 0.14770634472370148
-0.01492797676473856 0.14698883891105652 -0.40218305587768555
0.18221049010753632 0.200022354722023 0.3411584794521332
-0.5218566656112671 0.3593943119049072 0.3397836983203888
0.2246016561985016 0.22119490802288055 0.468986451625824
0.14557310938835144 -0.0018695583567023277 0.3044492304325104
-0.04603768512606621 -0.30643191933631897 0.28089994192123413
-0.01602252572774887 -0.6551834344863892 -0.2624926269054413
-0.03482253476977348 -0.6256008744239807 0.015382912941277027
0.5663238167762756 0.004960860125720501 -0.1182837188243866
0.11500702053308487 -0.6205477118492126 -0.26234138011932373
-0.14255452156066895 -0.618207573890686 0.11646139621734619
0.41397300362586975 0.24582839012145996 0.3468475341796875
0.4330295920372009 0.04804903641343117 0.34413230419158936
-0.09408429265022278 -0.024814998731017113 0.25686371326446533
-0.04596656933426857 0.0012591476552188396 -0.02889709174633026
0.45064711570739746 0.002776091918349266 -0.16856034100055695
-0.10837700217962265 -0.6576524972915649 0.14145702123641968
0.32852885127067566 0.23358917236328125 -0.4013959765434265
-0.07972627878189087 -0.33652248978614807 -0.32782506942749023
0.06190597638487816 0.001101214438676834 -0.028003914281725883
-0.09064927697181702 0.0027183955535292625 -0.1193607896566391
0.06293931603431702 0.1904294788837433 0.34631961584091187
-0.3747904300689697 -0.045487262308597565 0.17059512436389923
0.2798084020614624 -0.5323636531829834 0.1989331692457199
0.590050220489502 0.29853662848472595 0.1653071790933609
-0.1536644697189331 -0.14928312599658966 0.1992916315793991
0.49198615550994873 0.4071807265281677 0.17913615703582764
-0.3919879198074341 0.06920397281646729 -0.21052688360214233
0.4318804144859314 -0.16863109171390533 0.08205778151750565
-0.010315352119505405 -0.026545708999037743 0.2959180772304535
0.2965683937072754 -0.4224696159362793 0.18459662795066833
0.3054615259170532 -0.5152516961097717 -0.22929051518440247
-0.2330201417207718 0.0004412529815454036 -0.04206901043653488
-0.03341583162546158 -0.6237527132034302 -0.1370949149131775
0.3180781900882721 -0.00013928418047726154 0.22312408685684204
-0.3768811821937561 -0.05887454003095627 0.05963381752371788
-0.38008856773376465 -0.05321771278977394 0.06001194939017296
0.3724428117275238 -0.08758006989955902 -0.2432103157043457
0.08996973931789398 -0.6250783205032349 -0.2483706772327423
0.5842277407646179 0.1749408096075058 -0.16357421875
0.31993043422698975 -4.014093428850174e-05 -0.26652517914772034
-0.0211789570748806 -0.6249547600746155 0.1393437534570694
-0.30535468459129333 0.3989269435405731 -0.21791121363639832
-0.13795797526836395 0.00422583008185029 0.2953941226005554
-0.42045244574546814 0.004612348508089781 -0.03236617520451546
0.2696581482887268 -0.36886125802993774 -0.3281106650829315
0.1146191880106926 -0.07228836417198181 0.44230756163597107
0.2552052438259125 0.40207046270370483 0.0847778245806694
0.14718252420425415 0.1279967874288559 -0.3998495936393738
-0.045368559658527374 -0.6501193642616272 0.20402158796787262
-0.1199088767170906 0.0009939661249518394 -0.06764916330575943
-0.554283857345581 0.07789149880409241 -0.3873852491378784
-0.08077199012041092 -0.3861673176288605 -0.27910977602005005
0.08366981148719788 -0.6193141937255859 -0.016726622357964516
-0.3996400237083435 0.3283025324344635 0.3430168032646179
-0.456149697303772 0.3996918201446533 0.15451879799365997
-0.14266522228717804 -0.6047426462173462 0.11326935142278671
0.2392432689666748 -0.6209487915039062 -0.029897598549723625
0.019603362306952477 0.046560924500226974 0.4378358721733093
-0.17684049904346466 -0.5164315700531006 -0.09697937965393066
0.08859067410230637 0.4673474133014679 0.41062018275260925
-0.17630049586296082 -0.4541143774986267 -0.10736604779958725
0.05490298569202423 0.40484878420829773 0.2795434892177582
0.09318657219409943 0.0016615393105894327 -0.38199383020401
0.1321960687637329 0.414472371339798 0.3547382354736328
0.29566967487335205 0.40302377939224243 0.0759623646736145
0.27077698707580566 -0.23110449314117432 0.2758117616176605
0.3942277133464813 -0.00016288738697767258 -0.14011141657829285
0.05279514566063881 0.26805123686790466 -0.4021887183189392
0.0651974081993103 0.27262386679649353 -0.4014706313610077
-0.4584248661994934 0.09829095005989075 0.34134015440940857
0.039211612194776535 -0.0024673035368323326 0.28869304060935974
0.32977011799812317 -0.3878386616706848 0.15619386732578278
-0.3542676866054535 0.05987708643078804 0.3392011821269989
0.18108633160591125 0.4736880362033844 0.3800336718559265
-0.4554022550582886 -0.09815709292888641 -0.21582642197608948
-0.5772666931152344 0.227891206741333 0.003665860742330551
0.01044823694974184 0.22625651955604553 0.389665812253952
0.5894201993942261 0.32470807433128357 0.31834763288497925
0.063917376101017 -0.6260901093482971 0.01805940829217434
0.037186119705438614 -0.6231096982955933 -0.0007700832793489099
-0.1715221256017685 -0.03218443691730499 0.17222586274147034
0.21678850054740906 -0.4295802116394043 -0.29226332902908325
0.07869504392147064 0.0017625996842980385 -0.2010362297296524
0.2683408260345459 -0.43559086322784424 0.20674346387386322
-0.021793734282255173 -0.6336314082145691 -0.24238306283950806
0.05234825238585472 -0.0834243968129158 0.3892638087272644
0.20829102396965027 -0.13985738158226013 0.298396497964859
0.39842382073402405 0.404765784740448 0.035768404603004456
-0.39871931076049805 -0.07223783433437347 0.3285185396671295
-0.11362212151288986 -0.4113290011882782 -0.21999430656433105
0.24648113548755646 0.0016642699483782053 0.04436255618929863
-0.4240483343601227 0.0055500660091638565 -0.024877622723579407
-0.5012823939323425 -0.09179211407899857 0.046252716332674026
-0.43328920006752014 -0.00045524537563323975 0.2238270789384842
0.12154331058263779 -0.533501148223877 -0.31600436568260193
-0.5706373453140259 0.01882057636976242 -0.38711291551589966
0.1685335636138916 -0.41158851981163025 -0.31072452664375305
0.36341577768325806 -0.10794162005186081 0.2012799233198166
0.06986881792545319 0.0018275585025548935 0.05482152849435806
0.12433160841464996 -0.4324816167354584 -0.3211878836154938
-0.044511474668979645 -0.4481591284275055 -0.27477791905403137
0.17575132846832275 -0.6323528289794922 0.20837143063545227
-0.005387548357248306 -0.624121904373169 -0.04192134365439415
0.5318911075592041 0.1948404759168625 0.34390872716903687
0.17016012966632843 -0.625846266746521 -0.17902018129825592
-0.5001245737075806 0.3993484079837799 -0.25376659631729126
-0.5793539881706238 -0.002033160999417305 0.03596191108226776
0.3100282549858093 0.040400948375463486 0.3440835177898407
0.33353179693222046 -0.0011032591573894024 0.23060709238052368
-0.06001156568527222 -0.6258952617645264 -0.12823383510112762
0.3267571032047272 -0.20314346253871918 -0.28889161348342896
-0.20687155425548553 -0.00016501173377037048 -0.2853304445743561
-0.5617114901542664 -0.041588302701711655 0.10922203212976456
-0.4142361581325531 0.08547845482826233 -0.2538491189479828
-0.573815107345581 0.026008225977420807 -0.3457307815551758
0.25814297795295715 -0.00034230388700962067 -0.32216891646385193
0.48968973755836487 0.13505324721336365 0.3435792922973633
0.1273048222064972 0.4046236276626587 0.1667950451374054
0.3524591326713562 -0.6565791368484497 0.07235197722911835
0.09162626415491104 -0.6293208599090576 -0.03528982773423195
-0.510585367679596 0.10275156050920486 0.1511903703212738
0.42531368136405945 0.14180228114128113 -0.40174004435539246
-0.28718510270118713 0.40550902485847473 0.20330561697483063
0.40459972620010376 -0.3074970543384552 0.14356160163879395
0.2453596591949463 0.403890460729599 -0.3304782807826996
-0.5673295259475708 0.05997304618358612 -0.2277035266160965
0.3109813928604126 0.36687570810317993 0.4644899368286133
0.03317899629473686 0.0009949607774615288 0.29081884026527405
-0.007509299088269472 0.0012245569378137589 0.05226920172572136
-0.5772848129272461 0.15068911015987396 0.18709388375282288
-0.008618316613137722 0.0007740538567304611 0.1136426031589508
-0.1124749630689621 0.39968010783195496 0.012597613967955112
-0.22098572552204132 0.3197006583213806 0.34369394183158875
-0.5080606937408447 0.0272574033588171 0.353773295879364
-0.579200029373169 0.008070752955973148 -0.09935476630926132
0.43183112144470215 -0.1304391324520111 0.07273347675800323
0.07549717277288437 -0.48653775453567505 -0.3170435428619385
0.41102921962738037 -0.1260574758052826 0.14259380102157593
-0.055263664573431015 -0.0017454246990382671 0.2584254741668701
-0.22506564855575562 -0.17513121664524078 -0.09503849595785141
0.25908759236335754 -0.6233884692192078 -0.13358701765537262
-0.2091747224330902 -0.36105290055274963 -0.16757714748382568
-0.10030723363161087 -0.6229029893875122 -0.08405958861112595
-0.37318742275238037 0.10118245333433151 0.3407329022884369
0.19189277291297913 0.002146748825907707 -0.10168509185314178
0.30254149436950684 -0.31506550312042236 0.26075267791748047
0.04853002354502678 0.40307772159576416 -0.23217764496803284
0.10048709064722061 0.0013665324077010155 0.010537701658904552
0.38119828701019287 4.661409184336662e-05 -0.3347398340702057
0.2317463606595993 0.4025076925754547 -0.23095601797103882
-0.1522405445575714 -0.483070433139801 -0.14522849023342133
-0.116050586104393 -0.2978891134262085 0.23683971166610718
-0.35834798216819763 -0.007647751364856958 -0.06403666734695435
0.5884873270988464 0.21032632887363434 -0.2661936581134796
-0.030659621581435204 -0.6278964877128601 -0.10703709721565247
-0.0418773889541626 0.12269560992717743 0.3453661799430847
0.3045561611652374 0.0017888732254505157 0.30802175402641296
0.59303879737854 0.340004026889801 -0.35879403352737427
0.03689469397068024 -0.03095034882426262 -0.3625776767730713
0.16179658472537994 -0.03954198956489563 0.31893032789230347
0.3118172287940979 -0.08416157960891724 0.4151901304721832
-0.5064615607261658 0.3980313837528229 -0.2112085223197937
0.4680648446083069 -9.338697418570518e-05 0.15368087589740753
-0.04576563835144043 -0.5622129440307617 -0.2812723219394684
-0.13113944232463837 -0.6541561484336853 -0.17500029504299164
0.23895536363124847 0.0018031354993581772 -0.12175729870796204
0.26268473267555237 0.40397965908050537 0.21711821854114532
0.21601508557796478 -0.624170184135437 -0.09098400175571442
0.10155058652162552 0.061754122376441956 0.46660682559013367
-0.3966518044471741 0.0822782889008522 -0.24415767192840576
-0.12267602235078812 0.29958057403564453 -0.4006683826446533
-0.12494257837533951 0.40189364552497864 -0.24667097628116608
0.36231935024261475 0.0007773106917738914 -0.28904128074645996
0.2577594518661499 0.0025093471631407738 -0.21628427505493164
-0.18526290357112885 -0.4221959114074707 -0.08739214390516281
0.143938809633255 -0.11192796379327774 -0.3691069781780243
0.39055487513542175 -0.4604325294494629 -0.06038053333759308
0.3916134238243103 -0.0010864809155464172 -0.30192679166793823
-0.43587225675582886 -0.10119042545557022 0.19587045907974243
0.37063130736351013 -0.07492702454328537 0.1981884390115738
0.3089381158351898 -0.007688779383897781 0.33288171887397766
-0.567747950553894 -0.028681455180048943 -0.33781084418296814
0.31978291273117065 0.001858878880739212 -0.2077784687280655
0.12900637090206146 0.08867374062538147 0.3429190218448639
-0.18717962503433228 0.4008644223213196 -0.36660197377204895
-0.04137778282165527 0.2726556360721588 0.3497247099876404
-0.47030410170555115 0.404380738735199 -0.13644666969776154
0.5850121974945068 0.37779659032821655 0.32552456855773926
-0.5747062563896179 -0.014837462455034256 -0.36395949125289917
0.15818145871162415 0.39288055896759033 -0.39606478810310364
0.45110899209976196 0.40388545393943787 0.34666895866394043
-0.33344149589538574 0.233542799949646 -0.40261051058769226
0.2582373321056366 -0.07380250096321106 0.43844103813171387
-0.36140176653862 0.40142786502838135 0.3139549493789673
-0.570265531539917 0.034774746745824814 0.15036948025226593
0.07727450877428055 0.403459370136261 0.10803308337926865
-0.19263048470020294 0.0017271297983825207 0.01609012857079506
0.3136897087097168 0.0006853430531919003 -0.3527781665325165
0.22487151622772217 0.0019916570745408535 0.17216351628303528
-0.03549191728234291 0.4028533697128296 0.29250824451446533
-0.5548558831214905 -0.06457648426294327 -0.3611990511417389
-0.480376273393631 0.36772993206977844 -0.011595817282795906
-0.5207062363624573 -0.09204591065645218 0.2515694797039032
0.3354704976081848 0.24024467170238495 -0.39984291791915894
0.3288714587688446 0.1219387799501419 0.34404581785202026
-0.23295272886753082 -0.25284817814826965 -0.12014053016901016
-0.5715703368186951 0.006220449693500996 0.1454102098941803
0.009155234321951866 -0.6238570809364319 0.12186063081026077
0.05476074293255806 0.16813360154628754 0.3441380262374878
0.028610095381736755 0.32579219341278076 0.37560489773750305
0.45872095227241516 0.4032744765281677 -0.3679617643356323
-0.16130629181861877 0.36757028102874756 0.3415909707546234
0.25822192430496216 0.014937453903257847 -0.4040372967720032
-0.5707614421844482 0.057276204228401184 0.23980200290679932
0.2886204123497009 -0.6252968311309814 0.08371914178133011
-0.16196487843990326 0.38528183102607727 0.33747440576553345
-0.24034158885478973 -0.316047340631485 0.013899550773203373
0.37796953320503235 0.40585312247276306 0.22430646419525146
-0.11086826771497726 -0.6545486450195312 0.11944278329610825
-0.32629358768463135 0.3849562704563141 0.0009405370219610631
-0.09908845275640488 0.003984598442912102 0.1926598995923996
-0.12893669307231903 0.003577078692615032 0.11582213640213013
0.04574189707636833 0.24101299047470093 0.3456759452819824
-0.3892606198787689 0.40340912342071533 -0.16037419438362122
-0.5799348950386047 0.20246189832687378 -0.3567892909049988
-0.5049939155578613 0.007886973209679127 0.25416678190231323
0.3825090825557709 -0.15115731954574585 -0.23428334295749664
0.12311841547489166 -0.39880985021591187 0.2601257860660553
0.04116087406873703 0.4029237627983093 -0.06097672879695892
0.461203396320343 0.40561726689338684 0.26216137409210205
0.4261953830718994 -0.31697341799736023 -0.14183224737644196
-0.46329426765441895 0.3993307650089264 -0.11342134326696396
-0.5532726645469666 0.37965911626815796 -0.26512411236763
0.2600691020488739 0.19940191507339478 -0.40114468336105347
-0.5556137561798096 -0.06060095131397247 -0.050105903297662735
-0.5769997835159302 0.3007556200027466 -0.17170384526252747
-0.5736531615257263 0.3088228404521942 -0.26852670311927795
0.31672558188438416 0.048936255276203156 0.4028662145137787
0.11113853007555008 -0.6199079155921936 -0.15022732317447662
0.25331223011016846 -0.3742171823978424 0.2663557231426239
-0.5711694359779358 0.07975126802921295 -0.11042758822441101
-0.13810168206691742 0.0013143138494342566 0.1544599086046219
-0.21298018097877502 -0.21779190003871918 -0.18242162466049194
0.39012280106544495 -0.0015001790598034859 -0.024937324225902557
-0.5123157501220703 -0.054967623203992844 0.33763056993484497
0.29027169942855835 0.0009257642668671906 -0.34782469272613525
0.5763369202613831 0.0037684934213757515 0.12172869592905045
0.11624728888273239 0.0025003058835864067 0.024470509961247444
-0.03196965157985687 -0.3181234896183014 0.28732410073280334
0.5346113443374634 0.0008430159650743008 -0.34966224431991577
-0.02465595304965973 -0.24249085783958435 -0.34879860281944275
0.5905823707580566 0.1697721928358078 0.3068815767765045
-0.009484712034463882 -0.6259984374046326 -0.0007026579696685076
0.3170330822467804 0.0857982188463211 -0.4020063579082489
-0.10635256767272949 -0.467241495847702 -0.2324969470500946
0.5864022374153137 0.22728700935840607 -0.3437909185886383
-0.040086302906274796 0.2979715168476105 0.34698599576950073
-0.5573155879974365 0.09121182560920715 -0.22211401164531708
-0.0562199130654335 -0.6265327334403992 0.06504097580909729
-0.45430248975753784 0.004376897122710943 -0.04375800862908363
0.38703444600105286 -0.3968411684036255 0.004590127617120743
0.2731926739215851 0.3827964663505554 0.34490182995796204
-0.11946867406368256 -0.5725736618041992 -0.19914916157722473
0.31208062171936035 0.39823058247566223 0.42897850275039673
0.4278911352157593 -0.11252910643815994 -0.1543058305978775
-0.2442510575056076 0.003548559732735157 0.19799722731113434
0.34836676716804504 -0.11567987501621246 0.21837078034877777
0.388447105884552 -0.40933212637901306 0.013836180791258812
0.40457484126091003 0.40307092666625977 -0.16417579352855682
0.30261170864105225 -0.0015304526314139366 0.11368705332279205
-0.04703773930668831 0.0010438455501571298 -0.2852648198604584
-0.5103855729103088 -0.09671226888895035 -0.1799549162387848
-0.3434675335884094 0.062240906059741974 0.3396294116973877
0.5809817910194397 0.06095828115940094 -0.2132776379585266
-0.033170200884342194 0.19098997116088867 -0.4010431468486786
0.5863780975341797 0.14851488173007965 -0.001888819388113916
-0.5779016613960266 0.1887274980545044 -0.05009268596768379
0.009198029525578022 0.000880272826179862 0.21864216029644012
0.45290684700012207 0.0033954791724681854 0.26669272780418396
-0.18581832945346832 0.4033057987689972 0.2665588855743408
0.5878599286079407 0.1146884486079216 0.28454574942588806
0.5789610147476196 0.3840663731098175 -0.03248374164104462
0.12848511338233948 0.39200684428215027 -0.39573419094085693
-0.07046584039926529 0.1547599732875824 0.3455906808376312
-0.17638945579528809 0.2197670191526413 -0.40095728635787964
-0.5715065002441406 0.3621191084384918 0.02090173028409481
0.2027536779642105 0.22815605998039246 0.4702998697757721
0.3956356942653656 -0.0020093070343136787 0.21838124096393585
0.03373502194881439 -0.6235098838806152 0.07187031209468842
-0.18783335387706757 -0.2449520081281662 0.15340210497379303
-0.47400525212287903 0.003982997499406338 -0.16154105961322784
-0.4289606213569641 0.3625635504722595 -0.1729331910610199
-0.01292969100177288 0.40336549282073975 -0.15894760191440582
0.1630723476409912 -0.001963892485946417 0.31286463141441345
0.2946414351463318 0.3353973627090454 -0.4019578993320465
-0.4111689627170563 0.2828589081764221 -0.40238824486732483
0.15106679499149323 0.4027673900127411 -0.22651726007461548
0.0686924159526825 -0.5579702258110046 -0.3203083276748657
0.44988876581192017 -0.29396089911460876 -0.06440069526433945
0.2619493901729584 -0.00272237416356802 -0.30101341009140015
-0.3570541441440582 0.04703468829393387 -0.010836134664714336
0.045942798256874084 -0.6264236569404602 -0.18947991728782654
0.16055172681808472 -0.6200524568557739 -0.14002792537212372
-0.40468651056289673 0.36865052580833435 -0.20108412206172943
-0.10348835587501526 -0.04771546274423599 -0.2961030900478363
0.4297430217266083 0.4056921601295471 0.14350956678390503
0.44949871301651 0.4036657512187958 -0.35920146107673645
-0.23024986684322357 0.40452975034713745 0.09233555197715759
-0.13102684915065765 0.40255409479141235 -0.21689647436141968
0.02523045800626278 -0.05270414799451828 0.3844832479953766
-0.5570296049118042 -0.06096038967370987 0.27934715151786804
-0.46515554189682007 0.030017288401722908 -0.402300626039505
-0.18408438563346863 -0.5601239800453186 0.00014125159941613674
-0.4308461844921112 -0.0915466696023941 0.019318891689181328
0.29299041628837585 0.004831324331462383 0.33198845386505127
-0.5007924437522888 0.3996616303920746 0.1307373046875
-0.08985982835292816 0.0013109720312058926 0.13794909417629242
0.2641187906265259 0.002273735124617815 0.07952263206243515
-0.4733623266220093 0.3989325165748596 -0.2982483208179474
-0.5761348009109497 0.1091303750872612 -0.3256058394908905
0.2848113775253296 -0.03282533586025238 0.46308770775794983
0.25179702043533325 0.33031269907951355 0.46876320242881775
-0.5744668841362 -0.018861830234527588 -0.26243698596954346
0.5871224999427795 0.3103635013103485 -0.1413695216178894
0.18420368432998657 0.09451646357774734 -0.3998643457889557
0.129327654838562 0.18603356182575226 0.4685303866863251
0.5813013315200806 0.3939485251903534 -0.11909352988004684
-0.4048228859901428 0.2234356701374054 -0.4033988416194916
-0.5714305639266968 0.0737537145614624 0.2057347297668457
0.030747227370738983 0.38549184799194336 0.45251768827438354
0.42804017663002014 -0.0006319028325378895 -0.18457715213298798
0.5887701511383057 0.14819364249706268 0.15809914469718933
-0.08440318703651428 0.2921554148197174 -0.402871698141098
0.2889346480369568 -0.13760995864868164 -0.3207249939441681
-0.5204535722732544 0.3977685868740082 0.05046995356678963
-0.45113077759742737 -0.019486932083964348 -0.3983011841773987
0.177260160446167 -0.6345763206481934 -0.26444488763809204
0.12466961145401001 -0.39688271284103394 -0.32774409651756287
0.2978660762310028 -0.20406970381736755 0.2533080279827118
0.12275229394435883 0.0013828130904585123 0.33314645290374756
0.05901278555393219 0.40292730927467346 -0.29919707775115967
0.2815593183040619 0.0018852781504392624 -0.25025832653045654
-0.12901677191257477 0.0009672432206571102 -0.2728152573108673
0.33866381645202637 0.40014076232910156 -0.25103282928466797
-0.09204322844743729 -0.41133517026901245 0.18379247188568115
0.40735164284706116 -0.3863731622695923 0.05480277165770531
-0.5743246078491211 0.2919671833515167 -0.05175026133656502
0.31060656905174255 0.0028099785558879375 0.3182772397994995
-0.5725488066673279 0.347480833530426 0.2391778528690338
0.34659039974212646 0.002418289892375469 0.10502634197473526
0.28719276189804077 -0.5855101346969604 -0.2512817680835724
0.08468842506408691 0.0016618957743048668 0.18092946708202362
-0.4648457169532776 0.40212568640708923 0.07259275019168854
-0.3634243607521057 0.3837975859642029 -0.203022763133049
-0.09904612600803375 -0.6209558844566345 -0.04655216634273529
-0.3476426601409912 0.007629947736859322 0.07394812256097794
0.2106919139623642 0.13862447440624237 0.4672684669494629
-0.4618821442127228 -0.10936025530099869 0.033285047858953476
0.3171137571334839 -0.0014587589539587498 -0.25304993987083435
0.12470001727342606 0.34898868203163147 0.4696475565433502
-0.2711256742477417 0.21266382932662964 -0.40157315135002136
0.13072559237480164 0.08689715713262558 0.46700066328048706
0.4978255331516266 0.0004309839569032192 0.1528530716896057
-0.2874615490436554 0.005080966278910637 -0.12184655666351318
0.06503932178020477 -0.6229372620582581 0.039934270083904266
0.586081862449646 0.01727483421564102 -0.033018119633197784
-0.037100423127412796 0.0791449025273323 0.34366297721862793
0.30303511023521423 0.29183855652809143 0.3455786406993866
-0.0900135189294815 0.0010283736046403646 -0.15412761270999908
0.008284829556941986 -0.5054064989089966 -0.3043287694454193
0.4203583300113678 0.00033909501507878304 0.05359407886862755
0.09862295538187027 0.001974575687199831 0.2643393874168396
0.3971453309059143 -0.012498010881245136 -0.17764641344547272
0.3352316617965698 -0.4252859950065613 0.13800793886184692
-0.5711987614631653 -0.026329196989536285 0.21716737747192383
0.16413983702659607 -0.635004997253418 -0.31091344356536865
-0.5123346447944641 0.395486980676651 0.17163074016571045
-0.5659447312355042 -0.04854932427406311 0.2954806685447693
0.028523121029138565 0.2288932055234909 0.3605337142944336
-0.5380786061286926 0.09278368204832077 0.3346553444862366
-0.5689058303833008 0.36613431572914124 -0.16529512405395508
-0.5711367130279541 0.05414019152522087 0.18462727963924408
-0.4560679793357849 0.09384766221046448 -0.28853487968444824
0.2079952210187912 -0.024567756801843643 0.3061075508594513
0.05945960432291031 0.0009415177628397942 0.1346578449010849
0.015428205952048302 0.02087041363120079 0.4426683783531189
0.5605655312538147 0.36629363894462585 -0.4006273150444031
0.05208791792392731 -0.4892391562461853 0.2523863613605499
-0.16061562299728394 0.00044858548790216446 -0.24743667244911194
-0.06865958869457245 -0.5291895866394043 -0.26419371366500854
-0.4399683177471161 0.03234011307358742 0.3407685458660126
0.2912633717060089 -0.6492859721183777 -0.21089671552181244
0.29557961225509644 0.23529581725597382 0.3425544202327728
-0.5795369744300842 0.19817273318767548 -0.023464282974600792
0.33396467566490173 -0.6275263428688049 -0.1978408694267273
-0.19912993907928467 0.0035555590875446796 0.24302655458450317
-0.03661806508898735 -0.16848209500312805 0.2848016023635864
-0.23544111847877502 -0.04336100071668625 -0.09951460361480713
-0.0009652814478613436 0.0007051150314509869 -0.015028075315058231
0.018061388283967972 0.167844757437706 0.34843793511390686
-0.06270414590835571 -0.1769265979528427 -0.32664525508880615
0.4206184148788452 -0.38607919216156006 0.07057767361402512
-0.3740343153476715 0.08361754566431046 0.3390738070011139
0.2452547550201416 -0.5440555810928345 0.21916958689689636
0.2527850568294525 0.3987695574760437 0.3393688499927521
-0.3584667146205902 0.037216588854789734 0.22768636047840118
-0.05855840444564819 0.03575916215777397 0.3431558310985565
-0.2942945957183838 -0.0019856980070471764 -0.027159787714481354
0.012407263740897179 0.40310055017471313 -0.23379455506801605
0.2534666061401367 -0.03793539106845856 0.27720826864242554
0.3917463421821594 -0.6406489014625549 -0.02211802452802658
0.4245378077030182 -0.05068296194076538 -0.15410122275352478
0.17943637073040009 -0.6199309229850769 -0.03404175490140915
-0.11796945333480835 0.40232327580451965 -0.2883175015449524
-0.18286369740962982 -0.5824699401855469 0.014594729989767075
0.012554343789815903 0.001997807063162327 0.10510504245758057
0.2815530002117157 0.13527385890483856 0.34481802582740784
-0.5812352299690247 0.18574368953704834 -0.29927414655685425
-0.4141119122505188 0.0804063230752945 -0.17804986238479614
0.3336648941040039 0.007671096362173557 0.3319660723209381
0.3884017765522003 0.0012801897246390581 0.04957668483257294
0.2670559585094452 -0.6314268708229065 -0.19941134750843048
-0.14852824807167053 0.3596595525741577 0.34348413348197937
-0.5748198628425598 0.2123594880104065 0.22721722722053528
0.40163660049438477 -0.00226530060172081 -0.18477429449558258
0.32772067189216614 0.26931893825531006 0.43397533893585205
-0.2526368498802185 0.31311947107315063 0.3429374098777771
-0.16831977665424347 -0.5261589884757996 0.06953570991754532
0.5606348514556885 0.04021625220775604 -0.39667198061943054
0.09361150860786438 -0.6250218749046326 -0.14840470254421234
0.1090347170829773 -0.04583359882235527 0.46241363883018494
-0.43685096502304077 -0.10108111053705215 0.13480700552463531
0.1353682577610016 0.11163174360990524 0.3429185152053833
0.5830093026161194 0.39616864919662476 0.10021885484457016
0.27868780493736267 0.002082258462905884 0.24450236558914185
-0.475050687789917 0.09989551454782486 -0.35903432965278625
0.03263228386640549 0.002167763188481331 -0.2838747799396515
-0.29448848962783813 0.3947720527648926 -0.1489114761352539
-0.0832262933254242 0.031562626361846924 0.3387511670589447
-0.01532479003071785 0.0004544537514448166 0.31541261076927185
0.2139003872871399 0.0017871763557195663 0.03713839128613472
-0.5685588717460632 0.08975423872470856 0.04655347764492035
-0.08276449143886566 0.0014983071014285088 -0.18280698359012604
-0.46744412183761597 0.4003452956676483 -0.2586505115032196
-0.03199417144060135 0.0013939954806119204 0.22911842167377472
0.40475204586982727 0.16596412658691406 -0.4014439880847931
-0.18769048154354095 -0.6251351833343506 -0.0364827886223793
-0.12110703438520432 0.4011092483997345 -0.3667595088481903
-0.4904642701148987 -0.10380551218986511 0.13732625544071198
0.32751166820526123 -0.002453293651342392 -0.2600996792316437
-0.36509427428245544 0.02322360873222351 -0.2747081518173218
0.05847325921058655 0.2502293586730957 -0.40031591057777405
-0.10110560059547424 0.17201870679855347 0.4002304673194885
0.5344409346580505 0.4047793745994568 -0.18889057636260986
0.17958083748817444 0.0021333927288651466 0.13152962923049927
0.48540785908699036 0.004430089145898819 -0.331631600856781
-0.47699645161628723 0.11800555884838104 0.26140308380126953
0.19410376250743866 0.29253628849983215 -0.4033837914466858
-0.40752100944519043 0.39437687397003174 0.03229270502924919
0.5896778702735901 0.123009592294693 -0.3321460485458374
0.2184257209300995 0.26070860028266907 -0.40033385157585144
0.39836233854293823 0.2910478711128235 0.34508249163627625
0.3875744342803955 -0.2037792205810547 0.17149792611598969
0.012417029589414597 0.20843572914600372 -0.39952021837234497
0.17353716492652893 0.4728011190891266 0.4195067882537842
-0.42379477620124817 0.40606310963630676 -0.01940114237368107
-0.45975300669670105 0.37701866030693054 -0.1956491768360138
-0.12394437938928604 -0.2771177291870117 -0.2916136384010315
0.38465484976768494 -0.4050925672054291 -0.05679173022508621
-0.5725291967391968 0.007152179721742868 0.019627094268798828
0.35836687684059143 -0.08108969777822495 0.19538705050945282
-0.1881990283727646 -0.18768154084682465 -0.21805931627750397
0.27889886498451233 0.0026833368465304375 0.17287179827690125
0.043860819190740585 0.22839704155921936 0.3456580340862274
-0.2931734323501587 0.0061170607805252075 -0.38513219356536865
0.20757652819156647 0.001667848788201809 0.0036792296450585127
0.5827648043632507 0.39335229992866516 -0.24049700796604156
0.16493184864521027 -0.11098301410675049 0.30946189165115356
0.4298023581504822 -0.26879042387008667 0.076841801404953
-0.5656086206436157 0.377791166305542 -0.24754928052425385
0.059848882257938385 0.3582390546798706 0.4679577648639679
-0.3311505615711212 0.005448302254080772 0.21172001957893372
-0.5742658376693726 0.2202116847038269 -0.3174472153186798
-0.08445625007152557 0.40344589948654175 -0.17306697368621826
0.2652510702610016 -0.6247782707214355 -0.15096287429332733
0.16846726834774017 0.0013721506111323833 0.21694180369377136
-0.498322069644928 -0.09372599422931671 -0.1148202121257782
0.28030163049697876 -0.13685820996761322 -0.32698091864585876
0.21909783780574799 0.40167441964149475 0.3465866446495056
0.40360695123672485 0.40318334102630615 -0.0261533223092556
-0.35219618678092957 0.3859201669692993 -0.39800798892974854
-0.48763060569763184 0.11392921954393387 -0.0295022614300251
-0.2279445379972458 0.36570075154304504 -0.4004744291305542
-0.16994470357894897 0.0008635058766230941 -0.06771248579025269
0.3128037452697754 0.27163630723953247 -0.4023439586162567
-0.35252997279167175 0.3995676040649414 -0.2674465775489807
0.2768363654613495 -0.07368050515651703 0.27289479970932007
-0.5513387322425842 0.3872402608394623 -0.22922922670841217
0.31522834300994873 0.4034424126148224 -0.17334620654582977
-0.08689291775226593 -0.008459802716970444 0.25113704800605774
-0.5433644652366638 -0.005888327956199646 0.1300850212574005
-0.4031866192817688 -0.09475421160459518 -0.21345335245132446
-0.3035339117050171 0.40721336007118225 0.16645357012748718
0.06294571608304977 -0.6165360808372498 -0.31465381383895874
0.1765010505914688 0.469142347574234 0.37860724329948425
-0.5678390860557556 0.07969106733798981 0.0982460230588913
-0.5533335208892822 0.38010260462760925 0.00311972270719707
0.12376206368207932 0.3107417821884155 0.46941375732421875
-0.23187294602394104 -0.1154613345861435 -0.08368771523237228
0.5818328261375427 0.22266653180122375 -0.3184066116809845
-0.2735193967819214 0.14118975400924683 -0.4012286365032196
-0.28029292821884155 0.35191088914871216 -0.04659879580140114
-0.5151797533035278 -0.09565582126379013 -0.10382195562124252
0.57997065782547 0.03510115295648575 -0.06364582479000092
0.21179267764091492 0.4029369354248047 0.24286042153835297
0.21185895800590515 -0.6246468424797058 -0.009399864822626114
0.4481135606765747 -0.13425885140895844 -0.003694417653605342
-0.18687446415424347 -0.5910569429397583 -0.03981735184788704
-0.11946498602628708 -0.1513616144657135 0.23142766952514648
-0.3498346507549286 0.018462002277374268 -0.12017450481653214
-0.5754029750823975 0.1410418003797531 -0.25843778252601624
-0.028259091079235077 0.23792698979377747 -0.40051713585853577
-0.21928595006465912 -0.2616584897041321 0.0958930030465126
0.4185450077056885 0.4061148762702942 0.19360099732875824
0.3663671314716339 0.0011465614661574364 0.09372159093618393
-0.11145390570163727 0.40192463994026184 -0.05077865347266197
0.5897388458251953 0.24674540758132935 -0.2810480296611786
-0.12708382308483124 0.40204378962516785 -0.3361087739467621
-0.3649069368839264 -0.01334540918469429 0.20777522027492523
0.3183286786079407 0.002094049472361803 0.09751356393098831
0.390511691570282 -0.001146072056144476 0.22955116629600525
0.03753992170095444 0.003053494729101658 0.22934164106845856
-0.4870246648788452 0.11524834483861923 0.20953989028930664
0.44759657979011536 -0.001553029753267765 -0.08630125969648361
-0.23001740872859955 0.04426158592104912 0.34006187319755554
-0.0049126967787742615 0.0005317758768796921 -0.2189273238182068
0.5763672590255737 0.3948644697666168 -0.06193831190466881
-0.08753221482038498 -0.5586438775062561 -0.24653518199920654
-0.4817586839199066 -0.007974214851856232 -0.39886564016342163
-0.023812657222151756 1.41877681016922e-05 0.32346662878990173
0.15686166286468506 -0.16574689745903015 0.30893775820732117
0.3028249740600586 0.4026471972465515 0.017377838492393494
-0.10206066071987152 -0.6227689981460571 -0.036357998847961426
-0.28319790959358215 0.0014359420165419579 -0.06166867911815643
0.04147624596953392 0.0019591052550822496 -0.25892385840415955
0.5904445648193359 0.19995537400245667 0.15580500662326813
-0.40432974696159363 0.3409428894519806 0.0441025085747242
-0.5787349939346313 0.08514754474163055 0.042008113116025925
0.35217511653900146 0.002148362807929516 -0.11530493944883347
-0.4658355116844177 0.4049162268638611 -0.08689042925834656
0.318687379360199 -0.5286056995391846 -0.21985788643360138
0.1254693567752838 0.3837002217769623 -0.39859434962272644
0.5732085704803467 0.012888087891042233 0.3378315269947052
0.06525951623916626 -0.6205437183380127 -0.10052429139614105
-0.20055840909481049 0.32805347442626953 -0.40052080154418945
-0.47170454263687134 0.07374325394630432 -0.40257760882377625
-0.581485390663147 0.2398882955312729 -0.003113105893135071
0.0027579946909099817 0.4033433496952057 -0.23128503561019897
-0.15427735447883606 -0.642632007598877 -0.06558707356452942
0.03447836637496948 0.000528463686350733 0.09289577603340149
-0.5547580122947693 -0.05933763459324837 0.18649671971797943
-0.5481593608856201 0.39081043004989624 0.183272585272789
0.18986842036247253 -0.4732937216758728 -0.30594268441200256
0.2171201854944229 0.0018029315397143364 0.17071977257728577
-0.5791614651679993 0.04495417699217796 0.2050374299287796
0.06257791817188263 -0.624692440032959 -0.13550058007240295
0.5375519394874573 0.004006826784461737 -0.013544021174311638
0.38271334767341614 0.40438413619995117 0.184635192155838
-0.5814775228500366 0.1982482522726059 0.055609870702028275
0.4683080017566681 0.40285933017730713 -0.3832932114601135
-0.5757326483726501 0.32515573501586914 0.33600449562072754
0.10752817988395691 0.4021952152252197 -0.37357255816459656
0.5899485945701599 0.35191455483436584 0.32349929213523865
-0.1014871895313263 -0.01742040365934372 -0.3167918026447296
-0.5607446432113647 0.21356520056724548 -0.3943432867527008
0.3430279791355133 0.00013501569628715515 -0.109430693089962
-0.45623019337654114 0.2627568542957306 0.34261342883110046
0.1539793610572815 0.4696924686431885 0.4430246651172638
-0.5460464358329773 -0.07185831665992737 0.10523875802755356
0.5908321738243103 0.3289831876754761 -0.1257772594690323
0.08969782292842865 -0.32187801599502563 -0.37359878420829773
0.13912074267864227 0.403307169675827 -0.3401488661766052
0.1318194419145584 0.0015663886442780495 -0.3624356687068939
0.02801046334207058 0.40297600626945496 -0.34212350845336914
0.3857101798057556 -0.23790742456912994 0.17364248633384705
0.03762559965252876 0.40212109684944153 -0.12465550005435944
0.2688954174518585 -0.10490015149116516 -0.329195499420166
-0.08455970138311386 -0.3886658847332001 -0.25924474000930786
0.2998661696910858 -0.18546125292778015 0.25913265347480774
0.30915889143943787 0.03831091150641441 0.46023616194725037
0.29000720381736755 -0.0743069276213646 -0.3204779326915741
-0.09472841024398804 0.0028917035087943077 0.05089060962200165
-0.5769098401069641 0.16232241690158844 0.14888454973697662
-0.34795132279396057 0.12239767611026764 -0.40132811665534973
0.01764046400785446 -0.4737427532672882 -0.3037392497062683
-0.4382442533969879 0.1104835793375969 0.040208712220191956
-0.1876268982887268 -0.09840454906225204 0.1587245762348175
-0.21678327023983002 -0.13518357276916504 -0.1526271551847458
0.3264763355255127 -0.24461498856544495 -0.29347604513168335
-0.04599476605653763 -0.6240845918655396 0.10464350879192352
-0.3643985390663147 0.34191223978996277 -0.19621291756629944
0.19522900879383087 -0.6572337746620178 -0.29428020119667053
