0.3546634018421173 0.4017896354198456 0.10852576047182083
0.46345022320747375 0.0028300508856773376 -0.18642939627170563
0.006798654794692993 0.10227102041244507 -0.4023384749889374
-0.37487950921058655 -0.0037419116124510765 0.26137402653694153
-0.47031649947166443 0.12066864222288132 -0.11949771642684937
-0.2914235591888428 0.18133489787578583 0.3446425795555115
-0.5456982851028442 -0.07163004577159882 0.06778275966644287
-0.5514823794364929 -0.06721772998571396 -0.3061402440071106
-0.04793384298682213 0.28077948093414307 0.35000038146972656
0.2820883095264435 -0.3819983899593353 -0.27873924374580383
0.1775761842727661 0.013876275159418583 0.4635133445262909
-0.45534756779670715 0.3938674330711365 0.007786006201058626
0.15510240197181702 0.4015651047229767 -0.1012183278799057
0.01661526970565319 0.0024910178035497665 -0.16833551228046417
-0.23381304740905762 -0.33553585410118103 0.010651592165231705
0.1249452754855156 0.37236785888671875 -0.3962854743003845
-0.4883958697319031 0.10997556895017624 -0.366323858499527
-0.04246729239821434 0.400060772895813 -0.3109060823917389
0.31969204545021057 0.4234926998615265 0.35265371203422546
-0.5586943030357361 -0.0556805357336998 0.25161853432655334
0.012249113060534 -0.00016367854550480843 0.2777930200099945
-0.5760958790779114 0.21379242837429047 0.30409371852874756
0.17823711037635803 -0.618749737739563 0.19424223899841309
0.5798730850219727 0.2981504797935486 -0.05097898468375206
0.42157500982284546 0.39808955788612366 -0.2821057438850403
0.4032004773616791 0.3988106846809387 -0.20038193464279175
0.189956933259964 0.29272839426994324 0.463604599237442
0.28692826628685 -0.03078261949121952 -0.3192143440246582
-0.3603760600090027 -0.0005681631155312061 0.31313732266426086
0.16892924904823303 -0.618687629699707 0.000262695481069386
-0.16290895640850067 -0.5925406217575073 0.07619281858205795
0.4685753583908081 0.3449949622154236 -0.4017684757709503
0.04069674015045166 0.3358474373817444 0.34342268109321594
-0.5792750716209412 0.24362710118293762 0.19927804172039032
0.584942102432251 0.13197727501392365 0.31347227096557617
-0.2138906568288803 -0.3712783753871918 0.08139835298061371
-0.3776375353336334 0.0037104785442352295 -0.3063724637031555
0.013609477318823338 0.40106016397476196 -0.16455607116222382
-0.40654727816581726 0.10724055022001266 -0.33547288179397583
0.2938043475151062 0.39573538303375244 0.3445073366165161
0.02056892029941082 0.253225713968277 0.3920133709907532
0.18781578540802002 0.039110779762268066 0.34085342288017273
0.36459994316101074 -0.557547926902771 0.09166470170021057
-0.38143494725227356 -0.026371851563453674 0.33844488859176636
-0.18628476560115814 0.31299036741256714 0.34130385518074036
0.2297399491071701 0.39943069219589233 -0.21984682977199554
0.08576062321662903 -0.1562355011701584 0.31370094418525696
0.3297019600868225 -0.08231723308563232 0.3879413902759552
-0.02126559242606163 -0.5410144329071045 0.22986963391304016
-0.5701630115509033 0.029049072414636612 0.01872185431420803
-0.5386399030685425 0.3933170437812805 0.14600226283073425
-0.08468803018331528 -0.39857250452041626 0.18888017535209656
0.12127458304166794 0.0021967655047774315 -0.04834654927253723
0.2899021804332733 -0.13279478251934052 -0.3121757507324219
-0.3536530137062073 -0.00575301144272089 -0.38681113719940186
0.4480341076850891 0.20381398499011993 -0.40055298805236816
-0.3559011220932007 -0.004462416283786297 -0.10515979677438736
-0.0992313101887703 -0.41789883375167847 -0.23365432024002075
-0.5753677487373352 0.15421631932258606 0.3327256441116333
-0.31791967153549194 0.0024780314415693283 0.051816992461681366
-0.2678236961364746 0.25046059489250183 0.34329357743263245
-0.17666886746883392 0.40056324005126953 -0.3206910192966461
-0.4138295352458954 -0.08672865480184555 -0.0012556093279272318
-0.5718731880187988 0.040560830384492874 0.24429859220981598
-0.10840047895908356 -0.38279902935028076 0.1666129231452942
0.014793670736253262 -0.5215091705322266 -0.30619657039642334
0.5804996490478516 0.03719395026564598 -0.32087644934654236
0.5802150368690491 0.11468613147735596 0.1294611543416977
-0.1451610028743744 -0.5125353336334229 0.110967718064785
0.09930460155010223 -0.06948975473642349 0.44643640518188477
-0.2336292415857315 -0.3697369694709778 -0.03495141863822937
0.4409106969833374 0.2006370723247528 -0.4000413119792938
-0.07551682740449905 -0.6198024153709412 0.06011989712715149
0.21077188849449158 -0.5382036566734314 -0.2932851314544678
-0.2325958013534546 0.002619418315589428 -0.145869642496109
0.26566359400749207 -0.09053225070238113 0.27188625931739807
0.3551308512687683 0.3975861370563507 -0.294940710067749
0.3743208050727844 -0.19620704650878906 -0.2409408539533615
-0.4874859154224396 0.40312013030052185 0.12591992318630219
-0.016078956425189972 0.40176013112068176 -0.03614569082856178
0.1955590397119522 -0.6234572529792786 0.2339698225259781
-0.575114905834198 0.04446279630064964 -0.38365083932876587
0.11633990705013275 0.0032571787014603615 0.03987030312418938
-0.5734951496124268 0.33671140670776367 0.23349864780902863
0.34729090332984924 0.3984546661376953 -0.3063107430934906
-0.23176687955856323 -0.3664584755897522 0.007876500487327576
0.028021609410643578 -0.3692895770072937 -0.3582954704761505
0.544052243232727 0.005065277684479952 -0.3588688373565674
-0.583467960357666 0.257628858089447 -0.21311824023723602
0.5061154365539551 0.003786505199968815 0.03978244215250015
-0.5788424611091614 0.2691308259963989 0.11626309156417847
0.3775651454925537 -0.650259256362915 0.025587182492017746
0.20811116695404053 -0.5833332538604736 0.2371945083141327
-0.5311487913131714 0.3879065215587616 -0.3954140841960907
0.2747577130794525 -0.6197029948234558 -0.18047742545604706
0.3142107129096985 0.3047616481781006 0.4408552050590515
-0.5741415619850159 0.048447445034980774 0.033583126962184906
0.5803963541984558 0.03594107925891876 -0.034264061599969864
0.08252377063035965 0.003652416169643402 -0.11096999049186707
0.4432147443294525 0.29868343472480774 -0.40221574902534485
-0.582485556602478 0.20275749266147614 0.0035721356980502605
0.25623616576194763 0.47205233573913574 0.3932850658893585
-0.27364885807037354 0.09672866761684418 -0.39936161041259766
0.19900651276111603 0.3988223075866699 0.18068675696849823
-0.09616181999444962 -0.5416051745414734 -0.23327118158340454
0.17150592803955078 -0.32256144285202026 -0.36570093035697937
0.41540592908859253 0.3999817669391632 -0.28968536853790283
0.03620181232690811 0.0032950001768767834 -0.322014719247818
0.24328593909740448 0.006243481300771236 0.2522260546684265
0.17494754493236542 -0.6136969923973083 0.19323474168777466
-0.5027529001235962 0.1174154207110405 0.1075749546289444
-0.1958325207233429 -0.36176133155822754 -0.18548119068145752
-0.012908990494906902 0.0012186942622065544 0.2605353891849518
0.2562865614891052 0.059642571955919266 -0.3975510597229004
0.492713063955307 0.40020808577537537 0.06451752781867981
0.2009764313697815 0.3997998535633087 -0.26294052600860596
-0.3085341453552246 0.04816819727420807 -0.3981219530105591
-0.03437303379178047 0.0025563975796103477 -0.34540456533432007
0.1595047414302826 0.0026263559702783823 0.038185425102710724
0.47008660435676575 0.0020180735737085342 0.22162486612796783
-0.5654998421669006 0.0505063496530056 0.12082552909851074
0.3232989013195038 0.2897092401981354 0.4454585611820221
-0.12745323777198792 0.38763970136642456 0.3361192047595978
-0.585303544998169 0.21221484243869781 -0.3009118437767029
-0.007354332134127617 -0.6183812618255615 -0.20549622178077698
0.34701770544052124 -0.16953185200691223 -0.2571069896221161
-0.3476526439189911 6.700167432427406e-05 -0.21791869401931763
0.2835775911808014 -0.6176069378852844 -0.04095903038978577
0.31173762679100037 0.07609192281961441 0.44715967774391174
-0.45953959226608276 0.10297323763370514 -0.05599765107035637
-0.23058326542377472 -0.041705090552568436 0.05279076099395752
0.14581158757209778 -0.6177165508270264 -0.18295812606811523
0.41213810443878174 -0.14527539908885956 0.12775078415870667
-0.2672691345214844 0.37375500798225403 0.34136033058166504
-0.004195859655737877 0.1681210845708847 0.3503032922744751
0.21920505166053772 0.23738862574100494 0.46463173627853394
0.1706560105085373 -0.11298386752605438 -0.3637119233608246
-0.5771971344947815 0.3254752457141876 -0.2452412098646164
0.2032158374786377 -0.6480928063392639 0.22208251059055328
0.022625649347901344 0.036056533455848694 0.40161463618278503
-0.10981174558401108 -0.21897734701633453 -0.2919293940067291
-0.5384958982467651 0.384062796831131 -0.39479032158851624
0.5492927432060242 0.2646096348762512 0.33918315172195435
-0.2357856035232544 -0.11712802946567535 -0.05570469796657562
0.25257644057273865 -0.6162230372428894 0.04830627888441086
0.580142080783844 0.32385721802711487 0.018335456028580666
-0.14219966530799866 0.0014930376783013344 0.13827484846115112
0.3370794653892517 0.4014133810997009 0.014803864061832428
0.439968079328537 0.40126925706863403 0.16042129695415497
-0.3686746656894684 -0.035437051206827164 -0.23597322404384613
-0.5698956847190857 0.0700385719537735 0.11265037208795547
-0.4351644814014435 0.10821372270584106 -0.07664836943149567
0.28892186284065247 0.0012293914332985878 0.18510523438453674
-0.4755653142929077 -0.1040830910205841 -0.023061422631144524
-0.02205381914973259 -0.6437719464302063 -0.2660548985004425
0.441891610622406 -0.352512001991272 0.01834229938685894
-0.06373311579227448 0.003025852609425783 0.1726873517036438
-0.06096862256526947 -0.214451864361763 -0.3264818787574768
-0.550651490688324 0.10289108008146286 -0.3454860746860504
0.031105896458029747 -0.40990811586380005 -0.30991584062576294
-0.20936694741249084 0.0005971277132630348 -0.0071449619717895985
0.262973815202713 0.0033375704661011696 0.11790715157985687
0.3251810073852539 0.08576390147209167 0.4336530268192291
0.28355658054351807 -0.09462478756904602 0.26592451333999634
-0.12313617020845413 -0.5165460705757141 -0.2029007077217102
-0.42139214277267456 0.0036562499590218067 -0.025184711441397667
0.12171024829149246 0.1661490499973297 0.4658678472042084
0.26981353759765625 0.004380656406283379 -0.18048851191997528
-0.16895638406276703 -0.4880474805831909 -0.13281162083148956
0.1322312355041504 0.4027365446090698 -0.2845933735370636
-0.020478587597608566 -0.17070963978767395 -0.34550750255584717
0.29794973134994507 0.385609894990921 0.46179768443107605
-0.4710194170475006 0.3526645302772522 -0.39906957745552063
0.048959918320178986 0.39894410967826843 0.07181039452552795
-0.5445783734321594 0.002457241527736187 -0.39324072003364563
-0.5369592905044556 0.38943952322006226 0.02579793892800808
0.11412455886602402 0.0028158314526081085 -0.09374503046274185
-0.5353425741195679 0.3764183223247528 0.33860599994659424
-0.30289024114608765 0.40052181482315063 -0.30319949984550476
-0.10599973052740097 0.3700001835823059 0.3398134410381317
-0.259916752576828 0.1465134620666504 0.34456539154052734
-0.07830435037612915 0.39905157685279846 -0.3405417203903198
0.17565365135669708 -0.6188053488731384 0.18292106688022614
0.20271825790405273 -0.20582769811153412 -0.3518635034561157
-0.5590064525604248 -0.05491982772946358 -0.11440511047840118
-0.242808997631073 -0.239739328622818 -0.027552619576454163
-0.37305617332458496 0.057971082627773285 -0.36590147018432617
0.5598170757293701 0.29239723086357117 0.3398387134075165
0.07427443563938141 0.0024560922756791115 0.11418894678354263
0.3295717239379883 -0.3856341540813446 0.14569400250911713
0.34967440366744995 0.2704797387123108 -0.39896735548973083
-0.10491807758808136 -0.6216733455657959 -0.08912049233913422
-0.10286030173301697 0.002685046987608075 0.0195950735360384
0.02476450614631176 0.29126086831092834 0.35024985671043396
0.2063862830400467 -0.6182980537414551 -0.1375507414340973
-0.10999924689531326 0.001067022792994976 0.22388209402561188
0.2266400009393692 0.3986673057079315 0.029310081154108047
-0.48952287435531616 0.09206367284059525 0.34229469299316406
-0.33786237239837646 -8.008535951375961e-05 0.01595655083656311
0.5061908960342407 0.3988095223903656 0.18039675056934357
-0.56930011510849 0.061374958604574203 0.1195712685585022
-0.5732839703559875 0.11139018833637238 0.034275226294994354
-0.2383497655391693 0.012456723488867283 -0.39727121591567993
-0.014737489633262157 -0.6214471459388733 -0.22936013340950012
-0.24690157175064087 -0.0006355615332722664 -0.005908128805458546
0.16685879230499268 0.0035740677267313004 -0.12726546823978424
-0.3746553957462311 0.17199935019016266 -0.4018709063529968
0.4605390131473541 0.3940366208553314 -0.39296185970306396
0.20533208549022675 -0.3789377510547638 -0.32805895805358887
-0.45853549242019653 0.09837456792593002 0.07847025245428085
0.231044739484787 -0.6547718048095703 -0.276197612285614
-0.05972381308674812 -0.29727593064308167 -0.3263174593448639
0.3893716335296631 -0.49374648928642273 -0.05242544785141945
-0.07303319126367569 0.26374366879463196 -0.40318185091018677
-0.19896523654460907 -0.19632680714130402 0.13249239325523376
0.03570576757192612 -0.6186005473136902 0.17595712840557098
0.2843458950519562 -0.6235865950584412 -0.134212464094162
-0.5210475921630859 0.09712497144937515 -0.021898550912737846
-0.20549847185611725 0.0031459806486964226 -0.14776594936847687
-0.13483427464962006 -0.5648006200790405 0.12447161227464676
-0.07019931823015213 9.7430674941279e-06 0.2690631151199341
-0.3683967590332031 -0.017522504553198814 -0.11316723376512527
0.1496879756450653 0.004258737899363041 -0.12133805453777313
0.3375231921672821 -0.6274670958518982 0.11922073364257812
-0.11688143014907837 0.0029983187559992075 -0.05292230844497681
-0.1642492264509201 -0.47079774737358093 0.07167088985443115
-0.5389395356178284 0.0036148973740637302 -0.2949465215206146
-0.5784839987754822 0.22414784133434296 -0.05054434388875961
0.10647128522396088 0.19153794646263123 -0.3993068337440491
0.37480103969573975 0.39848029613494873 0.29136788845062256
0.07013043761253357 0.16503770649433136 -0.39806583523750305
0.15551196038722992 0.0020494963973760605 0.07117907702922821
0.5824810862541199 0.34189358353614807 -0.22062484920024872
-0.14761124551296234 0.0021069692447781563 0.12079866975545883
0.5772086381912231 0.2219267040491104 -0.28735023736953735
-0.1765679568052292 -0.008354421705007553 0.17229343950748444
-0.5787343978881836 0.15134991705417633 -0.08339598029851913
0.5762671232223511 0.03507054224610329 -0.09215057641267776
-0.046774670481681824 0.25901779532432556 -0.4015651345252991
0.3076569736003876 0.20694534480571747 0.37614867091178894
0.38453415036201477 -0.40191584825515747 0.018805669620633125
-0.41690269112586975 -0.0938117504119873 0.12118154019117355
-0.2813769280910492 0.0005871327593922615 -0.0927237942814827
0.024474378675222397 0.32888826727867126 0.3483111560344696
-0.5696762800216675 -0.042673781514167786 -0.21875916421413422
0.1290924996137619 -0.6196278929710388 0.0867651104927063
0.4796067476272583 0.400934636592865 0.03837171941995621
-0.10617725551128387 0.00260471785441041 -0.14125408232212067
-0.37454861402511597 0.03263993561267853 0.34091582894325256
0.003959842957556248 0.40210503339767456 -0.0657411739230156
0.2701530456542969 0.003982940688729286 0.10077815502882004
-0.09516851603984833 -0.1287698894739151 0.2494150549173355
-0.3411572575569153 0.12745316326618195 0.3439008593559265
0.07731672376394272 -0.538165271282196 -0.32167524099349976
-0.38099032640457153 0.3990974426269531 0.21178878843784332
0.5742337703704834 0.12122111022472382 -0.32451170682907104
0.3330768644809723 0.22694754600524902 0.41075873374938965
-0.4465455710887909 0.1321040242910385 -0.39858201146125793
-0.5770053267478943 0.3528119623661041 0.1910635232925415
0.5771241188049316 0.20066310465335846 -0.35372257232666016
0.5778298377990723 0.379991739988327 -0.0797664076089859
-0.12537875771522522 0.01261611096560955 -0.38945719599723816
0.23232348263263702 0.3982311487197876 0.146112859249115
0.3464120924472809 -0.5277177095413208 0.12388492375612259
0.5026500821113586 0.1800728589296341 -0.39914023876190186
-0.3912639319896698 0.40064752101898193 -0.33476024866104126
-0.5748842358589172 0.10591476410627365 0.20513752102851868
-0.5789392590522766 0.26490312814712524 -0.16986750066280365
-0.3514364957809448 0.010056190192699432 -0.09969530999660492
0.07005956023931503 0.18751999735832214 -0.4031798839569092
-0.00885673426091671 0.0026035867631435394 0.22100575268268585
-0.21658040583133698 0.4006701409816742 0.2082667350769043
-0.35723668336868286 0.013439612463116646 0.10100441426038742
0.42019951343536377 0.4008176028728485 -0.0745670348405838
0.3692522644996643 0.0038967442233115435 -0.06745097041130066
0.01341653149574995 0.012705298140645027 -0.38554710149765015
0.3611142635345459 0.07056481391191483 0.342856228351593
0.38458430767059326 -0.3791937828063965 0.051591452211141586
0.5819752216339111 0.359345942735672 -0.06190202385187149
-0.3295833468437195 0.40213799476623535 -0.33613887429237366
0.2244109809398651 0.3668442666530609 0.3412613570690155
0.07592956721782684 0.003109261393547058 -0.3602127432823181
0.5775988101959229 0.29471835494041443 -0.28609681129455566
0.01207540463656187 0.0023658014833927155 0.04105493053793907
0.10274022817611694 -0.09129432588815689 0.35470443964004517
0.4636543095111847 0.39947932958602905 -0.3482043445110321
0.5794743299484253 0.06935818493366241 -0.029674848541617393
0.45507609844207764 0.0014322061324492097 -0.04690147563815117
0.44694051146507263 0.11188594251871109 -0.40215688943862915
0.20640917122364044 -0.40323469042778015 0.2419767826795578
0.011930364184081554 -0.47583043575286865 -0.2966432571411133
-0.09506283700466156 0.0025582839734852314 -0.1895870864391327
-0.28527387976646423 0.06629621982574463 -0.39814430475234985
-0.04170436039566994 -0.5589432120323181 0.21957889199256897
0.18278925120830536 0.20717480778694153 0.34105533361434937
0.5757900476455688 0.04009196162223816 -0.07662681490182877
-0.46451467275619507 0.4013407230377197 0.19774925708770752
0.32025596499443054 0.327592134475708 0.42241111397743225
-0.10945799201726913 -0.5029783844947815 -0.22182799875736237
-0.5734573006629944 0.11108191311359406 -0.15465082228183746
-0.04612823948264122 -0.1593445986509323 -0.338151216506958
0.2558036744594574 0.4009826183319092 -0.051719799637794495
-0.1954272985458374 0.40204480290412903 0.04957811161875725
0.40931597352027893 0.009164582006633282 0.3421717882156372
-0.027231277897953987 0.40099310874938965 -0.3112536370754242
0.06794402003288269 0.08866526186466217 0.46291792392730713
0.4288543164730072 -0.3048608899116516 -0.14263732731342316
-0.1417432576417923 -0.4565122127532959 0.13333673775196075
-0.10737503319978714 -0.603575587272644 0.1715647429227829
-0.16645236313343048 0.2605143189430237 0.3459462523460388
-0.22085580229759216 -0.3638755679130554 -0.1279241442680359
0.2601941227912903 -0.46316826343536377 -0.27182596921920776
0.572131335735321 0.33908483386039734 0.33770981431007385
-0.011493018828332424 0.23828861117362976 -0.4007895886898041
0.2512241005897522 -0.3664350211620331 0.2763809561729431
-0.17760874330997467 0.3930199146270752 -0.3876390755176544
0.33110201358795166 -0.6257021427154541 -0.09697870910167694
-0.4405617415904999 0.367453932762146 0.03563474863767624
-0.19828838109970093 -0.23696619272232056 0.13363862037658691
-0.07818473130464554 0.2343275099992752 -0.40109339356422424
0.049185533076524734 -0.5560432076454163 -0.3095860481262207
-0.025957852602005005 -0.6563872694969177 0.21300634741783142
0.03170553594827652 0.38571834564208984 -0.39584410190582275
0.580583393573761 0.11164084821939468 0.002776313340291381
0.23599527776241302 0.0033437395468354225 -0.2764144837856293
0.5818426609039307 0.30216073989868164 -0.16166222095489502
-0.3615228831768036 0.03975197300314903 -0.03636516258120537
-0.2266235202550888 0.0010758605785667896 -0.08049055933952332
0.2677949070930481 0.0031802933663129807 0.22053833305835724
-0.4472125768661499 0.0038334131240844727 0.0902281105518341
-0.22493876516819 -0.09249010682106018 0.08356218039989471
-0.36096957325935364 -0.010515018366277218 0.16035056114196777
-0.5043156743049622 0.005993166007101536 0.26018261909484863
0.26143816113471985 -0.6213970184326172 -0.18721458315849304
0.4713800549507141 0.0038311383686959743 -0.2394794374704361
-0.5026475787162781 0.0458211787045002 -0.40074047446250916
0.16592665016651154 0.08783905953168869 -0.3977392911911011
0.09630978107452393 -0.23672224581241608 0.3134707808494568
-0.41394561529159546 0.39781033992767334 -0.23444315791130066
-0.5261306762695312 0.36115431785583496 -0.07022295147180557
0.1902892142534256 0.003620196133852005 -0.3052307367324829
0.0532822385430336 -0.6196896433830261 -0.11039893329143524
0.016988398507237434 -0.18676725029945374 0.3017083406448364
0.26953253149986267 -0.07315566390752792 0.2767108976840973
0.17197519540786743 0.01288573071360588 0.3361455202102661
0.2588857412338257 0.07407227158546448 0.4616301655769348
0.19468162953853607 0.12994752824306488 0.46721169352531433
-0.440789133310318 0.02824544720351696 0.34871867299079895
0.5826549530029297 0.11372527480125427 0.19476576149463654
0.3151898980140686 -0.07184389978647232 0.4252168536186218
0.34262555837631226 0.00346131669357419 0.11341969668865204
-0.40416908264160156 0.07976480573415756 0.2749406099319458
0.5558778643608093 0.006231324281543493 -0.3011547923088074
0.3560766577720642 -0.399991899728775 -0.1548190861940384
0.1697460114955902 0.16375517845153809 0.4666372239589691
0.31576040387153625 0.38415998220443726 0.3457482159137726
0.10880594700574875 -0.62046879529953 -0.16594423353672028
-0.5400059819221497 0.11178004741668701 -0.3218361437320709
-0.45244100689888 0.03009563498198986 -0.4012939929962158
0.3057028651237488 0.0016482118517160416 -0.28591278195381165
0.5321606993675232 0.003987334668636322 0.0980798676609993
0.41008952260017395 0.0010687304893508554 0.09058092534542084
-0.18403999507427216 -0.370807945728302 0.13881035149097443
-0.4252922534942627 0.27264660596847534 0.3432270586490631
-0.4049082100391388 0.002454947680234909 0.2510351836681366
0.5846521854400635 0.3538438379764557 0.19333650171756744
-0.4249405264854431 -0.08757831901311874 0.33787375688552856
-0.15096515417099 0.003679662011563778 -0.005829302128404379
-0.10757509618997574 0.24327106773853302 0.3925889730453491
0.23289449512958527 -0.1486138552427292 0.29009202122688293
-0.3230493366718292 0.23101980984210968 0.3438074588775635
0.3556024134159088 0.1448674201965332 -0.39969563484191895
0.3986820578575134 0.39923524856567383 0.20313076674938202
0.33327922224998474 0.14267128705978394 -0.39988625049591064
-0.41462811827659607 0.2656566798686981 0.34640827775001526
-0.2851915657520294 0.020654991269111633 0.3428894281387329
-0.0261252261698246 0.07916726171970367 0.34821954369544983
-0.36908629536628723 0.034303925931453705 -0.006857213564217091
-0.3452971875667572 0.375577837228775 0.04258764907717705
-0.408179372549057 0.08184240013360977 -0.05409327894449234
-0.09955380111932755 -0.46112725138664246 -0.22847987711429596
-0.5674869418144226 0.07245036214590073 -0.16392208635807037
-0.1199214980006218 0.0008058538660407066 0.16212524473667145
-0.5562158823013306 0.1534113883972168 -0.39900538325309753
0.5789794325828552 0.18014872074127197 -0.05227486416697502
-0.5767472982406616 0.12581224739551544 0.1347222477197647
-0.004395772702991962 -0.4179959297180176 0.23610852658748627
-0.5717338919639587 0.014213679358363152 -0.04547695070505142
0.5833346843719482 0.2642226219177246 0.29278838634490967
0.12341179698705673 0.0026259208098053932 -0.03863498196005821
-0.3737953007221222 0.40049704909324646 0.2645615041255951
-0.24262447655200958 0.3958629369735718 -0.10030409693717957
0.5771525502204895 0.03506150469183922 -0.09004058688879013
-0.5451096296310425 0.11289023607969284 0.3366943895816803
0.028872953727841377 0.003168754279613495 -0.2860669791698456
-0.5658385753631592 0.09694701433181763 -0.39847633242607117
-0.5690099000930786 -0.03149765729904175 -0.2948095500469208
0.05688218027353287 -0.6195803284645081 0.19159159064292908
0.5801454186439514 0.16613149642944336 -0.023448366671800613
0.3795625865459442 -0.6478258967399597 -0.05491754412651062
-0.30156266689300537 0.0022412664256989956 0.013791452161967754
-0.36696597933769226 -0.030924227088689804 0.12255328893661499
0.07368098944425583 0.414580762386322 0.3524456322193146
-0.28889164328575134 0.0009900620207190514 -0.32005536556243896
0.25860846042633057 -0.6173884272575378 -0.16518546640872955
0.17095240950584412 -0.6185806393623352 -0.0963047444820404
0.02363530732691288 0.002750469371676445 0.14094671607017517
0.21772155165672302 -0.28948095440864563 0.29493406414985657
-0.5837850570678711 0.2713870406150818 0.20434094965457916
0.4293070137500763 -0.36756765842437744 0.05350271239876747
-0.1685088723897934 -0.5312706232070923 -0.12753364443778992
0.3844575583934784 0.000385842053219676 0.2258700579404831
0.14458388090133667 -0.6246894001960754 -0.2699728012084961
0.27711161971092224 -0.0419292077422142 0.3206140398979187
-0.17779703438282013 0.06187719106674194 0.3413649797439575
0.5025506019592285 0.4020509421825409 -0.1200554370880127
-0.22893968224525452 -0.1152210608124733 -0.10546622425317764
0.2828522026538849 -0.6161597371101379 0.028124069795012474
-0.5768719911575317 0.03366021811962128 -0.040966182947158813
0.4958558976650238 0.22619286179542542 -0.4011407792568207
-0.5107815265655518 -0.0994953140616417 0.032501332461833954
0.08777628093957901 0.0028222803957760334 0.02093849703669548
-0.22095170617103577 0.010533045046031475 0.3398130536079407
-0.16919030249118805 -0.6270013451576233 -0.09574425965547562
0.2929227352142334 0.18247726559638977 -0.3991865813732147
-0.5361297726631165 0.09259270131587982 0.12465213239192963
-0.15988749265670776 -0.05861536040902138 0.18286864459514618
0.25628581643104553 -0.31968680024147034 -0.32909291982650757
0.11851255595684052 -0.05872763693332672 0.4583459496498108
0.3041127920150757 0.13832750916481018 0.343587726354599
-0.04283000901341438 0.004283541813492775 0.17981314659118652
-0.31469592452049255 0.001731058582663536 0.1952367126941681
0.17007935047149658 0.40046995878219604 -0.05185671150684357
-0.49853530526161194 -0.09044605493545532 0.3347419798374176
0.22049586474895477 -0.06530781090259552 0.440484881401062
0.47184067964553833 0.154687762260437 -0.3999520242214203
-0.14421963691711426 0.3982592225074768 0.12901179492473602
-0.47501417994499207 0.3963746130466461 -0.3932102918624878
-0.38281726837158203 0.09010324627161026 0.12969154119491577
-0.20535852015018463 -0.09854160249233246 0.11640733480453491
0.2706230878829956 0.2556983530521393 0.46340903639793396
0.4417383670806885 -0.05922382324934006 0.04148166999220848
0.26506274938583374 0.19710232317447662 -0.3991607427597046
0.18252389132976532 -0.6220197081565857 -0.24824710190296173
0.3658231794834137 -0.55755615234375 -0.1421298384666443
-0.056214138865470886 -0.31852394342422485 -0.3345450460910797
-0.4899207055568695 -0.03165943920612335 -0.4000726640224457
0.3271988034248352 -0.5051913261413574 -0.20844148099422455
0.3252870440483093 -0.48080387711524963 0.15682414174079895
-0.18184427917003632 -0.06675641238689423 -0.21750149130821228
0.3498271107673645 0.004112266004085541 -0.15465399622917175
0.20948752760887146 -0.6176919341087341 0.08286529779434204
0.34364259243011475 -0.6236992478370667 -0.06238706782460213
0.18709877133369446 -0.4974130690097809 0.24016371369361877
-0.369194358587265 -0.036241430789232254 -0.2930498421192169
0.3374345600605011 -0.5549443960189819 -0.20315031707286835
0.4755316376686096 0.0034465056378394365 0.23988184332847595
-0.22905157506465912 0.31706610321998596 -0.3991868197917938
-0.5636383891105652 0.18661560118198395 0.33627671003341675
0.321442574262619 -0.5514575839042664 -0.21509261429309845
-0.12830650806427002 -0.3821328580379486 0.1507619470357895
-0.3667255938053131 0.3689977526664734 0.032304272055625916
0.008244602009654045 -0.00276324269361794 0.3171974718570709
-0.545738935470581 0.13299238681793213 0.33574503660202026
-0.5805315375328064 0.21652235090732574 -0.10960852354764938
-0.09215398132801056 -0.6382062435150146 0.18164288997650146
-0.1581401377916336 -0.31385472416877747 -0.2489413321018219
0.29442352056503296 0.458317369222641 0.3624216616153717
0.5635737180709839 0.01143473107367754 0.06867136806249619
-0.5700362324714661 0.05036747083067894 -0.34146153926849365
-0.47321388125419617 -0.051020700484514236 0.35132431983947754
-0.112873375415802 -0.6102051138877869 -0.21513482928276062
0.21042585372924805 0.040759794414043427 0.3418734073638916
0.18680816888809204 0.0020180735737085342 -0.17714692652225494
-0.12064061313867569 0.39953330159187317 0.12041261047124863
-0.0776185616850853 0.283232718706131 0.3503669798374176
0.016012033447623253 0.16978546977043152 0.3689921796321869
-0.5766564607620239 -0.002143784426152706 0.009082598611712456
-0.0166951734572649 0.003050766885280609 -0.015023360028862953
-0.10188287496566772 -0.01776636578142643 -0.29790836572647095
-0.4135790169239044 0.3964121639728546 -0.14589570462703705
-0.0870262086391449 0.0026573268696665764 0.022320155054330826
0.524333119392395 0.0013318108394742012 -0.3316969573497772
-0.040161292999982834 0.03141457214951515 0.3400965631008148
0.21836037933826447 -0.13661569356918335 0.29418012499809265
0.2286599725484848 -0.6169122457504272 -0.1259697675704956
-0.5403897166252136 0.0927354022860527 -0.39756110310554504
-0.07433068007230759 0.08939971029758453 0.34029489755630493
0.19971564412117004 -0.05606193095445633 0.30515235662460327
0.24273879826068878 -0.15502962470054626 -0.3421725034713745
-0.41100507974624634 0.003018529387190938 0.05170862749218941
0.4406810700893402 0.0008531427010893822 0.027544545009732246
0.33068087697029114 -0.01221842784434557 0.22172659635543823
-0.0035952902399003506 -0.6579998135566711 -0.28043800592422485
0.34906697273254395 -0.6358173489570618 0.11027690768241882
0.06329458206892014 -0.3745909631252289 -0.35594066977500916
-0.4443093240261078 0.39741361141204834 0.009901179932057858
-0.5056132674217224 0.10125819593667984 0.239762544631958
0.5768158435821533 0.2640778720378876 -0.3159528374671936
0.3164730668067932 -0.5536394119262695 0.1636074334383011
-0.5131539106369019 -0.09287121891975403 -0.40151965618133545
0.028316223993897438 0.3850448429584503 0.4345109164714813
0.05678769201040268 0.3245909512042999 -0.40390825271606445
-0.029816126450896263 0.003457937389612198 -0.3561190068721771
-0.08722493797540665 0.40019842982292175 -0.3076747953891754
-0.4789975583553314 0.3975690007209778 -0.20701441168785095
0.3139231503009796 0.2231011539697647 -0.399234414100647
0.05116511881351471 0.40104684233665466 -0.22659464180469513
0.12819141149520874 -0.365870863199234 0.3105892539024353
-0.41021695733070374 0.022348985075950623 0.3455829322338104
-0.21410581469535828 -0.11024374514818192 0.09603491425514221
-0.4460185468196869 -0.10454261302947998 0.32715150713920593
0.23783859610557556 -0.6225268244743347 0.06914036720991135
-0.5830005407333374 0.23675788938999176 0.1594884991645813
0.3105674684047699 -0.6245404481887817 -0.21960832178592682
0.08488539606332779 -0.48012295365333557 -0.3148134648799896
0.4688483476638794 0.25774306058883667 -0.40164899826049805
0.3306555449962616 -0.4478989541530609 0.14864516258239746
0.20786543190479279 0.40038546919822693 -0.01061729621142149
0.1433030068874359 -0.6233798265457153 -0.1674235463142395
0.1423056721687317 -0.6182834506034851 -0.07712113857269287
-0.3963267505168915 0.07409050315618515 -0.01916568912565708
-0.13007265329360962 -0.4658471643924713 -0.19323305785655975
-0.5241983532905579 0.08954592049121857 -0.285541832447052
0.3630131483078003 0.003257955424487591 0.058311570435762405
-0.1717052012681961 -0.3929155170917511 0.043420858681201935
-0.21977268159389496 -0.1296129822731018 0.088502436876297
-0.5765305757522583 0.09276992082595825 -0.2922733426094055
-0.34839844703674316 0.003243521321564913 0.09692206978797913
0.08602723479270935 0.401342511177063 -0.10615816712379456
-0.22323159873485565 -0.18324214220046997 -0.12360503524541855
-0.12016364932060242 -0.020415902137756348 -0.2802286446094513
-0.20774811506271362 0.401650071144104 0.18120573461055756
-0.15548215806484222 -0.5936444997787476 0.08790050446987152
-0.15633873641490936 -0.4375494718551636 -0.15245476365089417
-0.34934917092323303 0.39654240012168884 -0.22703887522220612
-0.22375692427158356 -0.08683221787214279 0.08037792891263962
-0.4566795229911804 0.16518950462341309 0.3411584794521332
0.5747398734092712 0.26906007528305054 0.3356771171092987
0.4993042051792145 0.1970020830631256 0.3408660292625427
-0.565499484539032 0.1313675194978714 -0.40056169033050537
0.14808811247348785 -0.6183212399482727 0.0019734606612473726
-0.0853734239935875 0.3963776230812073 0.1918957680463791
0.42800939083099365 -0.08572983741760254 0.09465939551591873
-0.5789139866828918 0.14259012043476105 -0.32874494791030884
0.32241091132164 0.3916577696800232 0.4415787160396576
-0.31710150837898254 0.3994554579257965 0.284191370010376
-0.582459568977356 0.31641489267349243 -0.24047449231147766
0.08690585196018219 -0.48031485080718994 0.2549276649951935
0.050718557089567184 0.21536195278167725 0.46470171213150024
0.3325302004814148 -0.4178656339645386 -0.20525990426540375
0.2900000512599945 0.39839208126068115 -0.3572515845298767
0.2257358878850937 -0.4329965114593506 0.23515388369560242
-0.06793583929538727 0.0018739672377705574 0.1529519408941269
0.44420692324638367 0.16231657564640045 0.3395287096500397
-0.48563152551651 0.33428314328193665 0.004665668588131666
-0.1723373532295227 -0.28625601530075073 -0.22710372507572174
0.004868483170866966 0.4013276696205139 -0.16242629289627075
0.44223347306251526 0.0005861050449311733 0.18171094357967377
0.37592893838882446 0.003270471468567848 0.13158637285232544
0.5793618559837341 0.2707061469554901 -0.04741800203919411
0.5621848702430725 0.009342003613710403 0.32927048206329346
0.17562022805213928 0.46819913387298584 0.4183823764324188
-0.006114443764090538 -0.33027228713035583 0.2961883246898651
-0.3720676302909851 0.03606907278299332 -0.23434337973594666
0.3757690489292145 0.00022182392422109842 -0.2505783438682556
-0.38974326848983765 -0.07652907818555832 -0.18436817824840546
0.5086393356323242 0.00451138149946928 0.13623827695846558
-0.5696507096290588 0.35159045457839966 0.28406545519828796
0.38557764887809753 0.0010770666413009167 -0.2227313220500946
-0.15960101783275604 -0.16278958320617676 0.19054199755191803
0.4074545204639435 0.39909446239471436 0.18348073959350586
-0.2850557863712311 0.37589702010154724 -0.059607941657304764
-0.045686252415180206 -0.12379792332649231 -0.33763352036476135
-0.4072877764701843 0.4009783864021301 -0.34012898802757263
0.3294481039047241 0.4005615711212158 -0.3548170030117035
-0.10409609228372574 0.39954814314842224 -0.3162815272808075
0.5816413164138794 0.2516055107116699 0.12300460040569305
0.5284163355827332 0.004152444191277027 -0.16436660289764404
-0.1764426827430725 -0.6401861906051636 -0.05085606127977371
-0.5579564571380615 0.06912308931350708 0.32744550704956055
0.49897465109825134 0.06311465799808502 -0.4005628824234009
0.24769558012485504 0.40058720111846924 -0.14780502021312714
0.38539955019950867 0.002312892582267523 0.038226716220378876
0.30296847224235535 -0.6164897680282593 -0.1113019734621048
-0.3605503737926483 -0.019745836034417152 -0.3873381018638611
0.3457072675228119 -0.4718267619609833 -0.18142810463905334
0.26357099413871765 -0.0948181226849556 0.37614965438842773
0.13620933890342712 0.0717872604727745 0.4667387306690216
-0.17938627302646637 -0.21438387036323547 -0.21779268980026245
0.5811694264411926 0.06681911647319794 -0.19745038449764252
0.3895999789237976 -0.5112765431404114 0.030034583061933517
0.2788964509963989 0.3242310881614685 0.3410382568836212
-0.07551641762256622 -0.4687862992286682 0.19501549005508423
0.30237534642219543 -0.07208005338907242 0.4291127622127533
0.27921316027641296 -0.3498031497001648 -0.3175385892391205
-0.5527330040931702 0.3826126456260681 -0.046701107174158096
0.5653982758522034 0.3147413730621338 -0.3948519825935364
0.12362301349639893 0.4009547829627991 -0.16097800433635712
-0.10406365245580673 0.025484256446361542 -0.398111492395401
0.042682427912950516 0.058922331780195236 0.3452307879924774
-0.156296044588089 0.002535074483603239 -0.04690954089164734
-0.3586738109588623 0.2624088525772095 0.34468141198158264
-0.020494971424341202 0.07264102250337601 -0.39898860454559326
0.5821349024772644 0.21493782103061676 -0.31979063153266907
-0.5623220801353455 0.37863749265670776 -0.329985648393631
0.39430832862854004 -0.281696081161499 -0.208563432097435
0.4497292637825012 -0.2816328704357147 -0.004860038869082928
0.07112203538417816 0.0036266492679715157 -0.18915744125843048
-0.4551374018192291 0.00475443247705698 0.18892541527748108
0.5832826495170593 0.16279824078083038 -0.06459521502256393
0.17173996567726135 -0.5011721849441528 -0.30730879306793213
-0.080736443400383 0.0030319206416606903 0.15343600511550903
-0.4837004542350769 0.003752150572836399 -0.2069648951292038
0.24083970487117767 -0.5748270153999329 0.2206587791442871
0.33904942870140076 -0.14761172235012054 0.21993474662303925
-0.1327539086341858 0.0024016229435801506 -0.26107698678970337
0.2980287969112396 0.00060298852622509 0.3284896910190582
0.12824809551239014 0.11491905152797699 -0.40047115087509155
-0.2836780846118927 0.40130144357681274 -0.2671063542366028
-0.2699580192565918 0.399613618850708 0.32259249687194824
0.19830317795276642 0.3971100449562073 0.08133523166179657
0.03997703641653061 0.031648386269807816 0.46211519837379456
-0.19233320653438568 0.4019523859024048 0.04235796257853508
0.06549955159425735 -0.6561795473098755 -0.29992327094078064
0.1285097748041153 -0.6176493167877197 -0.31186243891716003
0.4480033814907074 0.3990611135959625 0.07954160869121552
0.5813902020454407 0.18539392948150635 0.006694981828331947
-0.0057735079899430275 -0.3752288222312927 -0.3248317837715149
-0.36525365710258484 -0.026817914098501205 -0.13005228340625763
-0.5701194405555725 0.07144131511449814 -0.3837851285934448
0.5768872499465942 0.010212207213044167 0.11885783076286316
-0.15334023535251617 0.0034929048269987106 -0.04015355184674263
0.32235148549079895 -0.3381839394569397 -0.28782540559768677
0.006616195663809776 0.021474231034517288 0.3411395251750946
0.5495277047157288 0.3925592303276062 -0.3898189663887024
-0.5563331246376038 -0.053250204771757126 -0.39783430099487305
0.3685760796070099 0.399054616689682 -0.22487859427928925
0.2886718511581421 0.0030486690811812878 0.17454080283641815
-0.48929154872894287 0.3953056037425995 0.32429078221321106
0.30015406012535095 -0.12965163588523865 0.2523953914642334
0.11280834674835205 -0.44589582085609436 0.25805968046188354
0.3137894868850708 0.3989732265472412 0.24980491399765015
0.23732683062553406 0.003421619301661849 -0.07546545565128326
0.04319256544113159 -0.4030137062072754 0.25113609433174133
-0.36888107657432556 0.06452284008264542 0.10106184333562851
0.06722103804349899 0.0028221728280186653 -0.3546125888824463
0.4764324128627777 0.39845094084739685 -0.298837274312973
0.09491729736328125 -0.1259525567293167 0.3136451840400696
0.29216960072517395 -0.6200040578842163 -0.17005741596221924
0.4444409906864166 0.37486162781715393 0.3415859043598175
0.5028322339057922 0.29024216532707214 0.3418457806110382
0.5758110880851746 0.037350211292505264 -0.021228132769465446
0.11549502611160278 -0.5590370297431946 0.25480917096138
-0.4074161946773529 0.40062785148620605 0.20560993254184723
-0.17991814017295837 -0.6413213610649109 -0.008840219117701054
0.24592959880828857 -0.6187630295753479 -0.19807828962802887
-0.4028882086277008 0.1544421762228012 0.34148603677749634
0.08644437044858932 0.0005426289280876517 0.2993018925189972
0.3247440755367279 -0.35453322529792786 0.22914543747901917
-0.5729840397834778 -0.027078062295913696 -0.32599225640296936
-0.5442216396331787 0.3161505460739136 0.34407711029052734
0.04988933354616165 0.0026039574295282364 0.043973248451948166
-0.06416135281324387 0.0030803410336375237 -0.06630388647317886
0.0009191632270812988 -0.23303824663162231 -0.3626803457736969
0.24547526240348816 -0.5707190632820129 -0.2781704366207123
-0.42728063464164734 0.1018327847123146 0.335397332906723
-0.0838625580072403 0.15996356308460236 0.3943732678890228
-0.48847320675849915 0.11346109211444855 0.09554960578680038
0.16387616097927094 0.39966660737991333 0.0259005818516016
0.13293489813804626 -0.6217349171638489 -0.09789762645959854
-0.573401927947998 0.04209895431995392 -0.17785871028900146
-0.1857711374759674 0.0030152341350913048 -0.20635798573493958
-0.04109356552362442 0.0021777073852717876 -0.06665264070034027
-0.39814653992652893 -0.06119575724005699 0.33827587962150574
-0.3707315921783447 0.06295318901538849 -0.2936778962612152
0.21406634151935577 0.3997574746608734 -0.1987849920988083
-0.0030756520573049784 -0.3583369255065918 0.2962304651737213
-0.10797029733657837 -0.4202934205532074 -0.21757443249225616
0.577721893787384 0.19913122057914734 0.16481749713420868
-0.5015575885772705 0.09445280581712723 0.14307260513305664
-0.12199455499649048 0.2434542328119278 -0.39904171228408813
-0.2675510346889496 0.0017687417566776276 -0.2163962870836258
-0.39381253719329834 -0.07509870082139969 -0.1555757373571396
0.1545359492301941 -0.4688379168510437 -0.3164025545120239
-0.2248096913099289 -0.22551709413528442 -0.13707146048545837
-0.14662215113639832 0.002972604939714074 -0.07454079389572144
0.06646720319986343 0.3578745126724243 0.3439028263092041
0.4139930009841919 0.4005126953125 -0.2176460474729538
0.2896234095096588 -0.5333853363990784 -0.24471956491470337
0.2280997782945633 -0.06679653376340866 0.3297465443611145
-0.5741714835166931 0.13831418752670288 -0.046854887157678604
0.5824820399284363 0.17579735815525055 0.002726517152041197
0.1491239219903946 0.002895900746807456 -0.2729760408401489
-0.3783870339393616 0.005671915598213673 -0.22594547271728516
-0.2212948352098465 0.3028968870639801 -0.39753982424736023
-0.4474732279777527 0.11203990876674652 -0.13307417929172516
-0.11430098861455917 -0.14244739711284637 -0.29548123478889465
-0.13465076684951782 0.3997577726840973 -0.35106173157691956
0.11211296916007996 -0.2914513349533081 -0.37114015221595764
0.48720476031303406 0.1109546422958374 -0.4021684229373932
0.48453789949417114 0.3984357714653015 0.20199842751026154
-0.363010436296463 -0.009757025167346 0.23447714745998383
0.20810827612876892 -0.10211661458015442 -0.35356369614601135
0.032035961747169495 0.0027194353751838207 0.04883526265621185
-0.1158287301659584 -0.4422498643398285 -0.2071998417377472
-0.532812774181366 -0.08223950862884521 -0.11777135729789734
-0.5075969696044922 0.10165682435035706 0.15735159814357758
0.33066779375076294 -0.6227779984474182 -0.11607527732849121
0.36016911268234253 -0.37328922748565674 0.18494576215744019
-0.5563573837280273 0.07490256428718567 -0.0418226383626461
0.585278332233429 0.3493210971355438 -0.3040305972099304
-0.27836310863494873 0.39810067415237427 -0.12040118128061295
0.13564637303352356 -0.6233701109886169 -0.19482870399951935
0.016450783237814903 -0.6173785924911499 0.24040573835372925
0.08897006511688232 0.0029898392967879772 -0.049353986978530884
0.15188144147396088 0.1864061802625656 -0.4017297923564911
0.3212070167064667 0.39935147762298584 -0.24821682274341583
-0.3316672146320343 0.0005917027592658997 0.04653157666325569
-0.47163674235343933 0.002306397072970867 0.11103709787130356
-0.15319190919399261 0.001339915907010436 0.1106715202331543
0.04497367888689041 0.39661118388175964 0.31102412939071655
0.3282437026500702 -0.23344920575618744 -0.2831098139286041
0.2014593929052353 0.0030435207299888134 -0.20988769829273224
0.3707769215106964 0.2082299292087555 0.3433300256729126
-0.5775726437568665 0.013249681331217289 0.31541889905929565
0.36608269810676575 -0.45023277401924133 0.08675950765609741
0.10177997499704361 -0.16481509804725647 -0.3699285387992859
0.42544999718666077 -0.15502256155014038 0.09070174396038055
-0.06326864659786224 0.002583602908998728 -0.047042831778526306
-0.17971117794513702 -0.41130125522613525 -0.034039951860904694
0.4078091084957123 -0.000577190425246954 0.23376120626926422
0.3037576377391815 0.344414085149765 0.3420005440711975
-0.352997750043869 0.006941727362573147 0.11551470309495926
0.36732879281044006 0.0038480127695947886 -0.10269258916378021
0.09902378171682358 0.40015077590942383 -0.3805597722530365
-0.5536902546882629 -0.029072556644678116 0.34272804856300354
-0.05229082331061363 -0.6210547685623169 -0.1973189264535904
0.46187272667884827 0.18539318442344666 -0.40046003460884094
-0.16999664902687073 0.08346205949783325 -0.39835619926452637
0.5842546820640564 0.0691140741109848 -0.036919932812452316
0.2085076868534088 0.2093258500099182 -0.3984706401824951
-0.07378357648849487 0.4012982249259949 -0.10092886537313461
-0.5806487798690796 0.32002657651901245 0.04401925578713417
-0.32996416091918945 0.38867536187171936 -0.1402944028377533
0.5777689814567566 0.34348830580711365 -0.037231460213661194
0.19696533679962158 0.09785507619380951 0.46653422713279724
-0.388824999332428 -0.06664477288722992 0.04380873218178749
-0.046951744705438614 0.40138331055641174 -0.1861649602651596
-0.4913416802883148 -0.10356688499450684 -0.15564565360546112
-0.2721569538116455 0.4021013081073761 0.2790038585662842
0.30350401997566223 0.3925311267375946 0.45743268728256226
-0.18435311317443848 -0.056404922157526016 0.1562829166650772
0.3208843469619751 -0.4403935670852661 0.16238313913345337
0.040095068514347076 0.0024225828237831593 0.2485256791114807
-0.5737124085426331 0.0064692264422774315 -0.27629539370536804
-0.5296940207481384 0.026612117886543274 0.34425783157348633
-0.3898613154888153 0.005970543250441551 0.08387632668018341
-0.28009113669395447 0.3944774866104126 -0.08294506371021271
0.00044263433665037155 0.3998652994632721 0.08510524779558182
-0.22800135612487793 -0.11100881546735764 -0.11353541910648346
0.08792917430400848 0.003057098016142845 0.11414110660552979
0.5755091309547424 0.07477428019046783 0.32134974002838135
0.5818986892700195 0.3593241572380066 0.20066456496715546
0.4065128564834595 0.1103818491101265 -0.39947351813316345
0.5796165466308594 0.010915246792137623 0.30812007188796997
0.3045090436935425 0.43424251675605774 0.3776998221874237
0.20307497680187225 0.14178553223609924 0.4647071063518524
0.24087834358215332 0.07923286408185959 0.4605086147785187
-0.4418950378894806 0.2978622317314148 0.34320610761642456
0.333176851272583 0.28595319390296936 0.4312399625778198
-0.021257858723402023 -0.11428933590650558 -0.34597206115722656
0.08469240367412567 0.0307467058300972 0.34132254123687744
0.29245853424072266 -0.3783459961414337 0.2112404853105545
-0.5350334048271179 0.0029521635733544827 -0.07799690961837769
0.5241532921791077 0.15725606679916382 -0.39875146746635437
-0.4352874159812927 0.10726205259561539 0.08241739869117737
-0.00048502604477107525 -0.39985352754592896 -0.29864221811294556
0.3544733226299286 -0.18389186263084412 -0.2520652413368225
0.5567560195922852 0.40212544798851013 -0.2706480026245117
-0.42773622274398804 0.05336132273077965 0.3432447016239166
0.029500991106033325 0.28889772295951843 0.45751145482063293
0.026653770357370377 0.3849540054798126 0.41712498664855957
0.5708858966827393 0.01259089820086956 -0.20213040709495544
0.03931908309459686 0.19559307396411896 0.34797585010528564
-0.07229992747306824 0.04950377345085144 0.3458162248134613
0.26514917612075806 0.04421542212367058 0.3417082130908966
-0.4458777904510498 0.10744575411081314 0.00694512203335762
0.42280474305152893 0.004197652451694012 0.3331858217716217
-0.23716914653778076 -0.33981022238731384 -0.04189730063080788
-0.44252192974090576 0.09729167073965073 0.26869434118270874
0.4314582645893097 0.0026656081900000572 -0.3487020432949066
0.05011478066444397 0.23548062145709991 0.34621790051460266
-0.30072203278541565 0.19117319583892822 -0.40188539028167725
