-0.5823381543159485 0.21747170388698578 0.2403862178325653
-0.23419298231601715 0.40133002400398254 0.17445220053195953
0.2357456535100937 -0.00012869102647528052 0.28381767868995667
-0.3017715811729431 0.4008270502090454 0.23270770907402039
-0.030589135363698006 -0.5455269813537598 -0.2828451991081238
0.30411526560783386 0.27413061261177063 0.35119444131851196
0.5820302963256836 0.2707916498184204 -0.2741222083568573
0.023703821003437042 0.048814356327056885 0.3519797921180725
-0.5825556516647339 0.16471469402313232 0.2632865011692047
-0.5052757859230042 0.05654911324381828 0.3435351252555847
0.12095113843679428 0.28015491366386414 0.46750757098197937
0.16025593876838684 -0.6337212324142456 -0.3087466359138489
-0.12055880576372147 0.0037538036704063416 -0.015689706429839134
0.4169849157333374 0.002411666326224804 -0.052753996104002
0.20682965219020844 -0.6236675381660461 -0.08902371674776077
-0.31873297691345215 0.39594417810440063 -0.004434605594724417
-0.41196006536483765 0.3676546514034271 0.3485536575317383
-0.22492095828056335 -0.3555759787559509 0.07794756442308426
-0.5444504618644714 0.38447245955467224 -0.13500246405601501
-0.02507844753563404 -0.621116042137146 -0.03354036435484886
-0.052064526826143265 -0.6005467772483826 0.20970547199249268
-0.01555696688592434 0.032618824392557144 -0.4039365351200104
0.0843564122915268 -0.31375953555107117 0.31882843375205994
0.48209401965141296 0.4025648832321167 -0.24710234999656677
-0.0532335564494133 -0.6215084195137024 0.05161665007472038
-0.3923051357269287 -0.07394995540380478 -0.26238563656806946
0.24665623903274536 -0.4987232983112335 0.22365683317184448
0.5861435532569885 0.1512749046087265 -0.2617819309234619
-0.5367799997329712 -0.07898874580860138 -0.3911811411380768
-0.5889254212379456 0.24310384690761566 -0.06442723423242569
0.030183209106326103 0.29094767570495605 0.4186744689941406
-0.49347415566444397 -0.10222891718149185 -0.14245647192001343
-0.34514954686164856 0.3952857553958893 -0.2706420421600342
-0.07792390882968903 -0.6213049292564392 -0.006821511313319206
0.581949770450592 0.3014734089374542 -0.05801979824900627
-0.47274935245513916 0.03631182014942169 0.35232460498809814
-0.3703567087650299 0.35058802366256714 0.35048478841781616
-0.4663335978984833 0.11870906502008438 -0.3176337778568268
0.19662269949913025 0.0024590990506112576 -0.30212798714637756
0.1431378722190857 0.029409006237983704 -0.39959022402763367
0.5827366709709167 0.04632331803441048 0.018889987841248512
-0.5816170573234558 0.13262636959552765 0.11019924283027649
0.5830206274986267 0.3363209068775177 -0.002839227905496955
-0.5628054738044739 -0.05091564357280731 0.20749154686927795
0.1818801611661911 -0.5468318462371826 -0.30996131896972656
-0.3556899130344391 0.005094126798212528 -0.2875591814517975
-0.39403343200683594 -0.06913836300373077 0.1037573590874672
-0.37586313486099243 0.4181148111820221 -0.046773411333560944
-0.5157369375228882 -0.0908336341381073 -0.33655962347984314
0.583142876625061 0.15461407601833344 -0.10720353573560715
0.17669960856437683 0.005251135677099228 0.2773021161556244
-0.19145992398262024 0.4021596908569336 0.07202047109603882
-0.5669780969619751 -0.05501633509993553 -0.243842214345932
0.3358857333660126 0.05418093129992485 -0.4000209867954254
0.277873158454895 -0.6249397397041321 0.05296182259917259
-0.08430073410272598 0.1253087818622589 -0.4040916860103607
0.3950040340423584 0.35368403792381287 -0.4028390944004059
-0.4471192955970764 0.3926885724067688 -0.39693930745124817
-0.3853215277194977 -0.04603607580065727 -0.2182437628507614
-0.3682660758495331 -0.03691065311431885 0.03183702379465103
0.20118829607963562 0.001721006352454424 -0.0975554957985878
-0.00011565587192308158 0.2324410229921341 0.35460251569747925
-0.555424153804779 0.3836480975151062 0.27648720145225525
-0.4124946892261505 0.3999069929122925 -0.14688348770141602
0.0756528228521347 -0.0018909936770796776 -0.3762606680393219
-0.5783329606056213 0.32820412516593933 0.24803808331489563
-0.10697371512651443 -0.28661689162254333 -0.3040931820869446
0.33234384655952454 -0.012774904258549213 0.22205184400081635
-0.5762585997581482 0.007055152673274279 -0.2924007475376129
-0.5731191635131836 -0.022887298837304115 -0.30578121542930603
0.20344367623329163 0.3928430676460266 0.3394021987915039
-0.3818095624446869 -0.04778207466006279 -0.33241379261016846
0.5772492289543152 0.014688496477901936 -0.13865554332733154
-0.0017368369735777378 0.0033674631267786026 0.03700528293848038
0.13570202887058258 -0.4540908634662628 -0.3188106417655945
0.25107237696647644 0.00030382629483938217 -0.2819373607635498
0.35373687744140625 -0.18240061402320862 0.2065238654613495
-0.4064829647541046 0.08330491185188293 0.029015246778726578
-0.5794868469238281 0.011901927180588245 0.03157283365726471
-0.3705214560031891 0.007008523214608431 0.14071796834468842
-0.43592947721481323 0.0044539207592606544 -0.39934486150741577
0.5796591639518738 0.05319678410887718 0.3128150403499603
0.44577163457870483 0.08187048137187958 -0.4009407162666321
0.3234962224960327 -0.6432358622550964 -0.13260172307491302
-0.09096016734838486 0.40043625235557556 -0.33444568514823914
0.20210488140583038 -0.4644015431404114 0.24388550221920013
0.04523187130689621 -0.620047390460968 0.05730047821998596
0.3547956049442291 -0.38370630145072937 -0.23117397725582123
0.41555914282798767 -0.0024275751784443855 -0.15830940008163452
0.3905327320098877 -0.33724910020828247 0.15627969801425934
0.44781893491744995 -0.2979201078414917 0.01345986220985651
0.04243694618344307 -0.6215794682502747 0.054924581199884415
-0.15504701435565948 -0.6442949175834656 0.07782679796218872
-0.11773760616779327 0.1894879937171936 0.3506888747215271
0.019753331318497658 0.004438844509422779 -0.04792041331529617
0.05678451806306839 -0.49989694356918335 0.25997135043144226
0.2240840643644333 -0.6225246787071228 -0.1813378781080246
0.06047959625720978 -0.20571143925189972 0.3152630925178528
-0.2906445264816284 0.26792120933532715 0.34814441204071045
-0.5773200988769531 0.0018001862335950136 0.23895956575870514
0.3483518362045288 -0.646812915802002 -0.10852701216936111
-0.507283627986908 0.000245641334913671 -0.2760935425758362
-0.38286590576171875 -0.0655764639377594 -0.26237890124320984
-0.11396250128746033 0.009471727535128593 -0.38888728618621826
-0.46811217069625854 -0.10678040236234665 -0.13425251841545105
-0.4357836842536926 0.3941888213157654 -0.1397513449192047
0.15980388224124908 0.45720672607421875 0.369998574256897
-0.5210236310958862 0.0806417390704155 0.17882350087165833
-0.23640568554401398 -0.00783658679574728 -0.026875805109739304
-0.31786003708839417 0.0028441031463444233 0.18098478019237518
0.5806402564048767 0.38601958751678467 -0.03162010759115219
0.32233572006225586 0.100613072514534 0.3495723009109497
0.30535390973091125 -0.6211826801300049 -0.12879405915737152
0.09444581717252731 0.00015240022912621498 0.4700104296207428
-0.5256956219673157 0.22670878469944 -0.4023503363132477
0.10574791580438614 0.402942031621933 0.17290686070919037
-0.015339240431785583 0.004266486503183842 0.21020525693893433
-0.50492262840271 0.15728561580181122 0.3456026613712311
-0.5740281939506531 -0.0022021448239684105 0.26802492141723633
0.263306587934494 -0.30074426531791687 0.2762887477874756
0.58465576171875 0.25661271810531616 -0.14510683715343475
-0.5077754259109497 0.3994356095790863 -0.30291515588760376
-0.08078263700008392 -0.6228654980659485 0.06903215497732162
0.15501300990581512 0.001072482205927372 -0.19645439088344574
-0.5127143263816833 -0.08483125269412994 0.34093689918518066
-0.1009896919131279 0.0013456498272717 0.10402944684028625
-0.14998042583465576 -6.784498691558838e-05 -0.3010719120502472
0.20916599035263062 0.2803855240345001 -0.40033388137817383
0.5812129378318787 0.04236556589603424 -0.23405352234840393
-0.17790065705776215 -0.5879796147346497 0.03499235957860947
-0.408364474773407 0.40325504541397095 0.016512686386704445
-0.3757222294807434 -0.06163156032562256 0.13309329748153687
0.26881033182144165 0.002796242944896221 -0.027535002678632736
-0.39030689001083374 0.0012171808630228043 -0.10624121129512787
-0.16450662910938263 0.3989594578742981 0.32911133766174316
-0.19035694003105164 -0.2752125859260559 0.15097543597221375
0.18445396423339844 0.4192609488964081 0.36082422733306885
-0.18544252216815948 -0.4776897132396698 -0.04057649150490761
-0.4123976230621338 0.0026688463985919952 -0.29059839248657227
-0.25411948561668396 0.401599258184433 0.23270048201084137
0.16641351580619812 0.004000325687229633 0.2714576721191406
-0.5796535611152649 0.00932209100574255 -0.13587558269500732
0.24383750557899475 0.00313403457403183 0.04100430756807327
0.3642420768737793 -0.6525086760520935 0.030915621668100357
-0.10863692313432693 -0.001022733747959137 -0.19454017281532288
-0.35929930210113525 0.23882588744163513 0.34841933846473694
0.5828640460968018 0.10450704395771027 -0.2120083123445511
0.42468544840812683 -0.1185215637087822 0.09396328032016754
0.31623274087905884 0.31624409556388855 0.4518377184867859
0.1068623885512352 0.003394057508558035 0.28582826256752014
-0.048678766936063766 0.1277761161327362 -0.40255311131477356
-0.08220865577459335 0.0037492194678634405 0.15205015242099762
0.315799742937088 0.3988853991031647 -0.35224449634552
0.07802986353635788 0.0007149586454033852 -0.12755633890628815
-0.5830603837966919 0.008328782394528389 -0.27708595991134644
0.20635920763015747 0.34521785378456116 -0.39978349208831787
0.07474241405725479 0.004425302147865295 0.1735466867685318
0.26664796471595764 -0.6248053312301636 0.09004669636487961
0.0445779450237751 0.24554453790187836 0.46412599086761475
-0.15992872416973114 0.13744810223579407 0.3450354039669037
0.5123782157897949 0.40129247307777405 -0.23130369186401367
0.2975844740867615 -0.47398239374160767 0.1880260705947876
-0.5643296241760254 0.03476223349571228 0.04959786683320999
-0.21402740478515625 -0.3690774738788605 -0.13756100833415985
0.5118487477302551 0.07531590014696121 0.34109246730804443
0.3028184175491333 -0.44489985704421997 0.17423859238624573
0.001028798520565033 -0.3972999155521393 0.24690303206443787
-0.5648536682128906 -0.0010526878759264946 -0.3966687023639679
-0.16644731163978577 0.15143577754497528 -0.4011828601360321
-0.28274986147880554 0.003908899612724781 0.3140297830104828
0.3885711133480072 -0.3368038833141327 -0.22146330773830414
0.4387723505496979 0.0023852214217185974 0.24803763628005981
0.2717868387699127 -0.2844504714012146 0.27582016587257385
0.1542007178068161 -0.3683716654777527 0.31022676825523376
0.2467525154352188 0.003617581445723772 0.07515952736139297
0.18344324827194214 0.40178701281547546 -0.2698628902435303
0.354828804731369 -0.6270781755447388 -0.031589001417160034
0.18835759162902832 0.12410668283700943 0.4705143868923187
0.11803819984197617 0.38983309268951416 0.34119147062301636
-0.41706204414367676 0.08482179790735245 0.14213959872722626
-0.048590753227472305 0.10512780398130417 0.34450337290763855
0.009480811655521393 0.40366989374160767 0.32331857085227966
0.5845527648925781 0.11685653775930405 0.016270175576210022
0.5722786784172058 0.1987382024526596 -0.3939420282840729
0.022693322971463203 0.3998057544231415 -0.2628840506076813
-0.580433189868927 0.02605859562754631 0.23271408677101135
-0.36666733026504517 -0.019017746672034264 0.1933077722787857
0.06855469197034836 0.004132759757339954 0.05491767078638077
0.3286079168319702 0.4016399681568146 -0.3509625792503357
-0.23412273824214935 0.00542255025357008 0.33118051290512085
0.1969648003578186 -0.6208844780921936 -0.0765916034579277
-0.10374920815229416 5.648750811815262e-05 -0.30297091603279114
-0.4872828722000122 0.3857589662075043 -0.014833083376288414
0.5413450002670288 0.004967207554727793 -0.2428256720304489
-0.49374374747276306 0.004915675148367882 -0.05241650342941284
0.10937022417783737 -0.6269891858100891 0.2067011445760727
-0.1570121943950653 0.3249818980693817 0.34672197699546814
-0.17369815707206726 -0.00046352786011993885 0.1819576919078827
-0.003681013360619545 0.14816640317440033 0.4001285433769226
-0.4198680520057678 0.10312460362911224 0.14348921179771423
-0.583727240562439 0.17472206056118011 -0.1599130630493164
-0.10167953372001648 -0.6486548185348511 -0.2002382129430771
0.28494417667388916 -0.10180208086967468 0.2632296681404114
-0.1951981633901596 0.0031378627754747868 -0.004237587098032236
0.47567126154899597 0.00035196985118091106 -0.35122835636138916
-0.4560145437717438 -0.013227809220552444 0.3534863293170929
-0.5798141360282898 0.09068603068590164 -0.04894355684518814
0.5819599628448486 0.13018546998500824 -0.23407617211341858
0.3297407329082489 0.06008727103471756 -0.4010256230831146
-0.23136240243911743 0.0031237320508807898 0.2393813133239746
0.43634670972824097 0.011684712953865528 0.3364192843437195
-0.21060247719287872 0.0018289322033524513 -0.07471118867397308
-0.5605499148368835 -0.0532987043261528 0.2665421664714813
-0.2532395124435425 0.003241349011659622 -0.2313913255929947
-0.06142759323120117 0.3998070955276489 -0.05057206004858017
-0.5586274266242981 -0.06047434359788895 0.1974988728761673
-0.022527582943439484 -0.15979675948619843 -0.35288700461387634
-0.5420939326286316 -0.07941876351833344 -0.15432913601398468
-0.4808920919895172 0.31546077132225037 -0.4079321026802063
0.37863966822624207 0.2852983772754669 0.34564805030822754
-0.583216667175293 0.02468489296734333 0.10862278938293457
0.25441819429397583 0.004632594529539347 -0.032837748527526855
0.18844252824783325 0.3972911536693573 -0.3717361390590668
-0.5844447016716003 0.2892490029335022 -0.36741065979003906
0.5798047780990601 0.3922070562839508 0.19953951239585876
0.5723232626914978 0.325276643037796 -0.3996986746788025
-0.4043664336204529 0.09996969252824783 0.29409459233283997
0.31894323229789734 -0.6243468523025513 0.014037953689694405
-0.4254413843154907 -0.0919380784034729 0.04447243735194206
-0.11610789597034454 -0.6343666911125183 -0.14166150987148285
0.5846192240715027 0.11225815117359161 -0.1500779092311859
-0.5211415886878967 0.4015517234802246 0.2925611436367035
-0.01661030389368534 0.0017324816435575485 0.17167159914970398
-0.5607550144195557 0.08110925555229187 -0.05529465526342392
0.1978592574596405 0.0005399947986006737 -0.25853097438812256
0.18994030356407166 0.0030953572131693363 0.0640411451458931
0.3976615369319916 -0.16373945772647858 -0.21133585274219513
0.3775876760482788 -0.08064910024404526 0.1810319423675537
-0.5307209491729736 0.09375716000795364 -0.3256208300590515
0.17209115624427795 -0.4704907536506653 0.2536173164844513
-0.2907630205154419 0.3405856192111969 -0.057072050869464874
0.40578415989875793 -0.18130220472812653 0.1353701949119568
0.2004481703042984 -0.6249561905860901 0.11083729565143585
0.20760983228683472 0.003107943572103977 0.09545838832855225
-0.23054875433444977 -0.2566934823989868 0.061373140662908554
-0.5821218490600586 0.017412874847650528 0.3080877661705017
-0.17917905747890472 -0.4017498791217804 -0.09282825142145157
0.34738418459892273 -0.6227830052375793 -0.07831995189189911
-0.5201393961906433 -0.09013450890779495 -0.04724008962512016
-0.17323289811611176 -0.660739004611969 -0.030872559174895287
-0.5811466574668884 0.12406488507986069 0.30118533968925476
-0.16552381217479706 -0.3659580647945404 0.18959513306617737
-0.09052195399999619 0.4007943570613861 0.2163272351026535
0.1458117514848709 -0.5819279551506042 -0.31778770685195923
0.4492890536785126 -0.11224055290222168 -0.04843967780470848
-0.3873692750930786 0.0208063255995512 -0.4018348455429077
-0.08039432764053345 0.003898973111063242 0.08493106812238693
-0.3392638564109802 0.28994110226631165 0.34726351499557495
0.05190365016460419 -0.6202736496925354 -0.11027947813272476
-0.406837522983551 -0.08327065408229828 -0.0033635427244007587
0.23301962018013 0.3901081681251526 0.3470287024974823
0.31254497170448303 -0.24822436273097992 -0.30085489153862
-0.535216212272644 -0.07797931134700775 -0.31072351336479187
-0.31843045353889465 0.0030977451242506504 0.13433629274368286
-0.49762460589408875 0.3836475908756256 -0.02883356437087059
0.007407241966575384 -0.30049505829811096 -0.3648141324520111
0.028929097577929497 0.002328183501958847 0.4607197344303131
0.2967357635498047 -0.46190401911735535 0.18137316405773163
0.421681672334671 -0.10370952636003494 -0.16353005170822144
0.3522777855396271 0.39963749051094055 0.30761629343032837
0.42435020208358765 -0.27318474650382996 0.094192735850811
-0.4109001159667969 0.09637750685214996 0.121551513671875
0.24423432350158691 0.40178313851356506 0.11540043354034424
-0.5842062830924988 0.2746114730834961 0.29142463207244873
-0.4185401499271393 0.09797313064336777 0.22574308514595032
0.2989698350429535 -0.48640915751457214 -0.24039851129055023
-0.253109872341156 0.4028201997280121 0.11525633931159973
0.4125918447971344 0.002506599761545658 0.08188796043395996
0.17747725546360016 -0.4681330621242523 -0.3099415898323059
-0.18079569935798645 -0.3382247984409332 -0.21842126548290253
0.3058048188686371 0.40263476967811584 0.1141352429986
0.021052442491054535 0.005825699307024479 0.22557036578655243
-0.4506249725818634 -0.10323343425989151 -0.06977202743291855
0.37669649720191956 -0.5655699372291565 -0.11006207019090652
-0.5757025480270386 0.07036007940769196 0.33807194232940674
-0.12100644409656525 -0.459743857383728 -0.21124640107154846
0.014788541942834854 -0.6248284578323364 0.18111497163772583
-0.5644210577011108 0.37464460730552673 0.02854311466217041
-0.019480710849165916 -0.6271987557411194 0.17922884225845337
0.38264283537864685 0.4019642472267151 -0.021856574341654778
0.21090298891067505 0.4753960371017456 0.3972086012363434
0.023323841392993927 -0.5187194347381592 -0.30553779006004333
-0.002138652838766575 0.01736045628786087 -0.39706122875213623
-0.39294204115867615 0.06740281730890274 -0.29006487131118774
-0.05962802469730377 -0.6215503811836243 -0.13051655888557434
0.056805651634931564 0.3999038338661194 0.4536227285861969
-0.17078755795955658 0.002062130719423294 -0.14332979917526245
0.5844531059265137 0.11465860903263092 -0.057841166853904724
-0.312435507774353 0.3808227479457855 -0.17232900857925415
-0.02771540731191635 -0.382727712392807 0.2461063265800476
0.5842353105545044 0.15121129155158997 0.21113809943199158
0.4307517111301422 -0.3035019040107727 0.07139482349157333
-0.008118325844407082 0.22670941054821014 -0.40218979120254517
-0.15613365173339844 0.004719679243862629 0.26650798320770264
-0.18915602564811707 0.0019582537934184074 -0.24348989129066467
-0.46154579520225525 -0.10706967860460281 -0.2596474587917328
0.3060339093208313 -0.29954802989959717 -0.3072187900543213
0.4448026418685913 -0.11581934988498688 0.013227821327745914
-0.4300909638404846 0.035373538732528687 0.3492034673690796
-0.5497626662254333 0.07783898711204529 0.11496139317750931
-0.5820484757423401 0.1401492953300476 0.14932259917259216
0.23701055347919464 0.06416171789169312 -0.3996696472167969
0.36964520812034607 0.40328553318977356 0.044901043176651
0.37266668677330017 0.0026185973547399044 -0.03288966044783592
0.11830654740333557 -0.3151450753211975 0.3183259069919586
0.5845484137535095 0.19091755151748657 -0.2159760594367981
-0.39239901304244995 0.3819657564163208 0.03644617274403572
-0.47847306728363037 0.39598774909973145 -0.2070738822221756
-0.5300120711326599 0.09758032858371735 0.2822806239128113
-0.40651658177375793 0.34788307547569275 -0.18985888361930847
-0.5339936017990112 0.09901716560125351 0.18769875168800354
0.24206745624542236 -0.6234099864959717 -0.05283604562282562
0.412640780210495 0.0010789763182401657 0.23808038234710693
0.35288524627685547 0.4025781452655792 -0.2019285410642624
-0.593412458896637 0.29169961810112 -0.15155377984046936
0.014531719498336315 0.1938265860080719 -0.40170520544052124
0.2665160000324249 0.0018804343417286873 -0.3489002585411072
0.3499157130718231 -0.3275092542171478 -0.2688561975955963
-0.4916294515132904 0.003243681276217103 0.3511563539505005
0.5777954459190369 0.25835493206977844 -0.10526816546916962
-0.3576776087284088 -0.0015159416943788528 -0.23139356076717377
-0.2828940451145172 0.2942659556865692 -0.4010148048400879
0.0684642419219017 -0.367173433303833 -0.36868995428085327
0.5839000940322876 0.1724368929862976 0.13571015000343323
-0.09222257137298584 0.001012197695672512 -0.23521165549755096
0.14459900557994843 0.09513609111309052 0.4705689251422882
0.05551684647798538 -0.3663844168186188 0.31219902634620667
0.505313515663147 0.36772677302360535 -0.4057084619998932
0.024200230836868286 0.0017832736484706402 -0.052199892699718475
0.49139660596847534 0.40313324332237244 -0.3170444369316101
-0.08419186621904373 -0.11109741777181625 0.26361510157585144
0.0866280347108841 -0.01122859213501215 -0.3707696199417114
0.29664531350135803 -0.07639992237091064 0.41893866658210754
-0.5526669025421143 0.07971607148647308 -0.1634940207004547
0.27890679240226746 -0.43937018513679504 0.20062944293022156
0.3024635314941406 -0.6277728080749512 -0.13432414829730988
-0.5040280818939209 0.0014178541023284197 0.1123671606183052
0.18120498955249786 0.27646562457084656 0.3486216962337494
0.015540298074483871 -0.2731986939907074 -0.3615821599960327
-0.2260713428258896 -0.37832939624786377 -0.03180406242609024
0.3919394910335541 0.0030179210007190704 0.10172846913337708
0.3247966766357422 -0.07681235671043396 0.3773655593395233
-0.4037112891674042 0.3002934753894806 -0.4059217572212219
0.5807099342346191 0.25167620182037354 0.2583959996700287
0.24539300799369812 -0.6248288154602051 0.12467212975025177
0.0856003612279892 0.0013481955975294113 -0.07452735304832458
-0.05980098992586136 -0.6237724423408508 -0.21417224407196045
0.3096320927143097 0.40173837542533875 -0.3181895315647125
0.23844042420387268 0.18007203936576843 -0.3993934392929077
-0.20911960303783417 0.1445392668247223 -0.403344988822937
-0.48655012249946594 0.39598745107650757 -0.056383825838565826
-0.04303295910358429 0.0035462859086692333 -0.0008214270928874612
0.08065133541822433 0.40141114592552185 0.10140521079301834
-0.12444230914115906 -0.5227717757225037 -0.2025478482246399
-0.5042755603790283 0.3909794092178345 -0.01175441313534975
-0.3645526170730591 0.12928172945976257 0.34686577320098877
-0.1318836510181427 -0.6236420273780823 0.00052268011495471
0.14942653477191925 0.40156126022338867 -0.15773363411426544
0.41104575991630554 0.39915651082992554 -0.243819460272789
-0.4608362317085266 -0.10787507146596909 -0.25269559025764465
0.23885847628116608 0.24246473610401154 0.3486386835575104
0.2378511130809784 -0.6245692372322083 -0.08488418161869049
-0.23301705718040466 -0.22020648419857025 -0.10335022956132889
0.574333667755127 0.08902083337306976 -0.3945339322090149
0.2064216136932373 0.003281993791460991 -0.22598053514957428
-0.1770671308040619 -0.5272248983383179 -0.10540737956762314
0.2235555797815323 0.0033200301695615053 -0.13957393169403076
-0.5716036558151245 0.3486868143081665 -0.3976103365421295
-0.13793893158435822 -0.263205885887146 -0.27737873792648315
0.056114792823791504 -0.38900360465049744 -0.32331863045692444
0.21867549419403076 0.38378778100013733 0.3461456000804901
-0.2401207536458969 -0.2855028212070465 -0.07854828983545303
-0.5786609649658203 0.0016706252936273813 0.1560002565383911
0.26098060607910156 0.40309154987335205 0.21183012425899506
0.024147428572177887 0.0020671915262937546 0.13578654825687408
0.27829834818840027 -0.6507149338722229 -0.2358277440071106
-0.5732300877571106 0.36726629734039307 -0.36428913474082947
-0.04296697676181793 0.002555202692747116 0.19044102728366852
0.34815001487731934 -0.6364428997039795 -0.0962253138422966
-0.21778921782970428 0.39965489506721497 -0.3304727077484131
0.11626531928777695 -0.6246362924575806 -0.035147715359926224
-0.583095908164978 0.32200542092323303 -0.3746216595172882
-0.3769519627094269 -0.06202103570103645 -0.17728185653686523
-0.5197253227233887 0.09170441329479218 0.25898823142051697
0.21266426146030426 0.002337590791285038 -0.3110738694667816
0.2973288297653198 -0.2937765419483185 0.25409361720085144
-0.3929673135280609 0.0015008538030087948 0.33102983236312866
0.24628987908363342 -0.17141863703727722 -0.34047749638557434
0.5836241245269775 0.3143050968647003 0.028854835778474808
0.4501994252204895 0.009948015213012695 -0.3845696747303009
0.2990960478782654 -0.5849947333335876 0.18085291981697083
-0.38910284638404846 0.07134038954973221 -0.14884258806705475
0.0012065814808011055 0.21541212499141693 0.41257980465888977
0.417702853679657 -0.33488768339157104 -0.169873908162117
0.24596935510635376 0.002018960192799568 -0.17792829871177673
0.16298691928386688 0.0013561253435909748 -0.35332605242729187
-0.31049102544784546 0.3997116684913635 -0.09236958622932434
0.2889670729637146 -0.6262743473052979 0.09944771975278854
-0.5692298412322998 0.3698970079421997 0.33477434515953064
0.3423594534397125 0.3432537615299225 0.34085050225257874
-0.36567485332489014 -0.019624890759587288 -0.0009229914285242558
0.20583784580230713 -0.057237762957811356 0.46101850271224976
-0.12234029173851013 0.39954817295074463 -0.036815911531448364
0.4569542109966278 0.4030815064907074 -0.07757174968719482
0.05205240473151207 -0.4235664904117584 0.25772449374198914
-0.4035990238189697 0.09939891844987869 -0.03472277149558067
0.04063883423805237 -0.6200403571128845 -0.047426532953977585
0.167666494846344 0.07370775192975998 0.34769368171691895
0.4313468337059021 -0.02386569045484066 -0.1138349249958992
0.044097669422626495 -0.6244773268699646 -0.27603548765182495
0.013215513899922371 -0.5210763216018677 0.2502579987049103
0.05571407824754715 -0.14168785512447357 -0.37309420108795166
0.2207435816526413 0.40015363693237305 -0.07060446590185165
-0.1372009813785553 0.3989020586013794 -0.14393596351146698
0.22980763018131256 -0.6267574429512024 -0.22738125920295715
-0.55316162109375 0.38840001821517944 -0.2987265884876251
-0.5374960899353027 -0.08264631032943726 0.23187382519245148
-0.05116898566484451 0.40271246433258057 -0.1184307262301445
0.03497055172920227 -0.6240963339805603 -0.1208455041050911
0.5853404402732849 0.29624685645103455 -0.20318788290023804
0.3181600272655487 -0.06346660852432251 0.4463534355163574
0.01963735930621624 0.030169565230607986 0.43161433935165405
-0.5299696922302246 0.3969559371471405 0.21502390503883362
0.5831161737442017 0.024953927844762802 0.18349489569664001
-0.5773258209228516 0.3589061498641968 -0.18414627015590668
0.3444455862045288 0.40226125717163086 0.04930664971470833
0.438933402299881 -0.011049460619688034 0.03483617678284645
-0.4956646263599396 -0.10249041765928268 0.09066863358020782
-0.12075259536504745 -0.3222295343875885 -0.28043559193611145
-0.04336307570338249 -0.12920190393924713 0.2849026024341583
0.35207292437553406 -0.5017299652099609 -0.17662915587425232
0.3634878993034363 -0.636062741279602 -0.1344805210828781
-0.11623569577932358 0.003197142854332924 -0.10605744272470474
-0.2431408315896988 0.39592769742012024 -0.39606785774230957
0.5848329663276672 0.211628720164299 -0.12038623541593552
0.5125412940979004 0.004453776404261589 -0.024603931233286858
0.23367655277252197 -0.6388623118400574 0.21778780221939087
-0.5771114826202393 0.11461318284273148 -0.18146145343780518
-0.28119245171546936 0.005229373462498188 -0.17386339604854584
-0.28504911065101624 0.20627759397029877 -0.4056779146194458
0.21744704246520996 -0.1085117906332016 0.29545822739601135
-0.08688951283693314 -0.015906982123851776 0.25848984718322754
0.2907317280769348 0.4563947319984436 0.3662983775138855
0.4710337221622467 0.4025570750236511 -0.22928264737129211
0.18551376461982727 0.18444979190826416 0.4706864058971405
-0.3338060677051544 0.41639241576194763 -0.056905388832092285
-0.1574944406747818 0.004233379848301411 0.28171393275260925
0.4651300609111786 0.06020598113536835 -0.40214478969573975
0.10675759613513947 0.06768762320280075 -0.4014163613319397
-0.1667896956205368 -0.13184331357479095 -0.2442733645439148
0.09901631623506546 0.40153083205223083 0.03351280465722084
0.5632266402244568 0.014735031872987747 -0.3913642466068268
-0.5769945979118347 0.04595509171485901 -0.3180287182331085
-0.09923455864191055 -0.14371618628501892 -0.3115592300891876
0.2873803973197937 0.0038635684177279472 0.15704479813575745
0.08453574031591415 -0.625434160232544 -0.2229670286178589
0.2644304633140564 -0.5689976215362549 -0.2672739624977112
-0.32019349932670593 0.00821712613105774 -0.3881053328514099
0.024902796372771263 0.32152771949768066 -0.400170236825943
-0.39821693301200867 -0.0012142215855419636 -0.3967725932598114
-0.05316689983010292 0.0019734399393200874 -0.1631380319595337
0.3452317714691162 -0.633979320526123 -0.16685080528259277
-0.013582006096839905 0.2059181183576584 0.40988773107528687
-0.44649240374565125 0.07016799598932266 0.3459879755973816
0.2259816974401474 0.2508273720741272 0.4682140052318573
0.011694598942995071 0.19517774879932404 0.3809764087200165
0.331157922744751 0.4037269949913025 0.24138379096984863
-0.0393003411591053 0.4026802182197571 0.18749277293682098
0.1896323263645172 -0.6233096122741699 -0.12443839013576508
0.03320647403597832 0.22099211812019348 0.46507784724235535
-0.36864763498306274 0.0036527705378830433 0.05004607141017914
-0.1509220451116562 0.002417987212538719 -0.22584019601345062
0.13311193883419037 0.2832777798175812 0.34417107701301575
-0.5671902298927307 -0.04135991260409355 0.10427222400903702
-0.11790021508932114 -0.3735092878341675 -0.28313106298446655
-0.445785790681839 0.40079808235168457 0.26093751192092896
0.5802903771400452 0.09179877489805222 -0.21200723946094513
0.056583091616630554 -0.2140786498785019 -0.37146419286727905
-0.4564972221851349 0.3609824478626251 0.03494448587298393
-0.0506097637116909 0.4018769860267639 -0.19835226237773895
-0.14865562319755554 -0.38763970136642456 0.14802445471286774
-0.08328641951084137 0.00446777418255806 0.14664827287197113
0.17443178594112396 0.12093275040388107 0.3457458019256592
0.5806553959846497 0.148240327835083 -0.35491442680358887
0.2192845493555069 -0.018134351819753647 0.28828635811805725
-0.126728817820549 0.0036372938193380833 -0.07264479994773865
-0.46605560183525085 -0.0010364754125475883 -0.1738964468240738
-0.14647282660007477 -0.22396890819072723 -0.27096036076545715
-0.37244242429733276 0.04274127259850502 0.2651025056838989
-0.14834828674793243 -0.24574556946754456 0.2071601003408432
-0.5570703744888306 -0.06406547874212265 -0.010207999497652054
-0.12216413766145706 -0.10277674347162247 0.23228409886360168
-0.584743082523346 0.16970838606357574 -0.1937924474477768
0.19267341494560242 -0.3598015606403351 -0.36107373237609863
-0.5725333094596863 -0.004175074398517609 0.33903586864471436
-0.40636977553367615 -0.001849132589995861 0.16896194219589233
0.1453232765197754 0.39166364073753357 0.45903611183166504
-0.5656152367591858 0.0640680342912674 -0.2732674181461334
0.1773795187473297 -0.5463003516197205 -0.3094269931316376
-0.5885568857192993 0.2836781442165375 -0.33905279636383057
-0.18201769888401031 -0.46333184838294983 0.026425648480653763
-0.1865047961473465 0.40250474214553833 0.2797544598579407
0.13114768266677856 -0.5403713583946228 -0.3158009946346283
0.21222496032714844 0.40233686566352844 -0.09372718632221222
0.5361467003822327 0.1125192791223526 -0.4000411629676819
-0.5752058029174805 -0.017473656684160233 -0.0415349118411541
0.5808660984039307 0.09682685881853104 0.3190385699272156
-0.573405385017395 -0.007658133748918772 0.18006053566932678
0.4107225835323334 -0.21799686551094055 -0.1815381795167923
0.32209643721580505 -0.4699418842792511 -0.21461893618106842
0.18463943898677826 -0.22157178819179535 0.30711331963539124
-0.3664345145225525 0.052438195794820786 -0.076381154358387
-0.5303008556365967 -0.08897000551223755 0.12204300612211227
0.11504192650318146 -0.6323004364967346 0.26453617215156555
-0.38152506947517395 -0.06215060129761696 -0.1907697170972824
-0.30377933382987976 0.2572316527366638 -0.4034496545791626
0.26509785652160645 0.3517698347568512 0.4699592590332031
0.3390430510044098 -0.37490567564964294 0.20083890855312347
0.10591350495815277 0.030497636646032333 0.3470383882522583
0.5643106698989868 0.22979673743247986 -0.39830732345581055
-0.18179568648338318 0.3426516652107239 -0.40076205134391785
-0.5849945545196533 0.14969567954540253 -0.06820373982191086
0.4671942889690399 0.4036273956298828 0.25085338950157166
-0.14093050360679626 -0.6471580266952515 0.055097151547670364
0.10091383010149002 0.06045377999544144 0.3480043113231659
0.2878614366054535 0.003438146784901619 0.23267008364200592
0.34066885709762573 -0.5400477051734924 0.1322779804468155
0.1594749242067337 0.004640716128051281 0.0699179470539093
-0.5854169726371765 0.2395227998495102 -0.04687628895044327
-0.14305517077445984 -0.6363904476165771 -0.04563283175230026
-0.4906154274940491 0.1128179281949997 0.1455988585948944
0.0471985787153244 0.004291095770895481 0.21201705932617188
-0.2627285420894623 0.3965994715690613 -0.17827942967414856
0.39287814497947693 -0.41378629207611084 -0.00426822155714035
-0.1503443717956543 -0.10325181484222412 0.20108555257320404
0.2746596038341522 0.0013166144490242004 -0.35137176513671875
-0.5724523067474365 -0.010640284046530724 0.3116137683391571
0.42904597520828247 -0.07035838812589645 -0.1490364670753479
-0.3124070167541504 0.2632911503314972 -0.4035656154155731
-0.3328615725040436 0.07898855209350586 0.3462371230125427
-0.22919930517673492 -0.3429543375968933 -0.1136007234454155
0.2661500573158264 0.004050202202051878 0.22742947936058044
-0.4045812785625458 -0.08621745556592941 0.16634880006313324
-0.574131190776825 -0.016906263306736946 0.20635753870010376
-0.09143859893083572 -0.6486010551452637 0.1449962854385376
-0.06511989235877991 0.0010729203931987286 -0.3365436792373657
0.562549352645874 0.27946436405181885 -0.3990720212459564
-0.038970835506916046 0.02669963799417019 -0.4033053517341614
0.14148268103599548 0.40554216504096985 0.3519676923751831
0.009928921237587929 -0.633247435092926 0.1980413794517517
-0.045482784509658813 0.4015366733074188 -0.0823456346988678
0.34543004631996155 -0.0009819790720939636 0.21892042458057404
0.21891365945339203 0.3999658524990082 -0.19686533510684967
-0.22533491253852844 -0.11132243275642395 0.08436612784862518
-0.005761695560067892 -0.3501875400543213 -0.35584309697151184
0.15267905592918396 0.4023796021938324 -0.13058683276176453
0.4447456896305084 -0.10622164607048035 -0.060649577528238297
0.37754279375076294 0.4026621878147125 -0.2179338037967682
-0.23296360671520233 0.0013738013803958893 -0.35344138741493225
0.3128129541873932 -0.6402264833450317 0.1260182410478592
-0.5328033566474915 -0.08424221724271774 0.16551394760608673
-0.18805459141731262 0.17573527991771698 0.34894075989723206
0.5876067280769348 0.25854218006134033 0.13959579169750214
-0.022947214543819427 0.00410530436784029 0.05321759358048439
-0.03490080684423447 -0.33265939354896545 0.2867848575115204
0.4132561683654785 0.0014258106239140034 0.2402849942445755
0.41966843605041504 0.002167019760236144 0.043503038585186005
-0.006355923600494862 -0.4835910499095917 0.24061177670955658
-0.14312702417373657 0.36051511764526367 -0.4007408618927002
-0.02276921086013317 0.4010649025440216 -0.25911206007003784
-0.5163024663925171 0.1055944412946701 0.1150662750005722
-0.5849910974502563 0.20856156945228577 -0.1830865442752838
-0.39407259225845337 0.16424289345741272 -0.40574911236763
-0.32369112968444824 0.25194525718688965 0.34649285674095154
-0.04344278573989868 0.40204861760139465 0.22600562870502472
-0.0989498645067215 0.40040940046310425 -0.3072034418582916
0.02390659600496292 0.0006251232698559761 -0.12047292292118073
-0.1594555675983429 0.4018317759037018 0.20371024310588837
-0.11271023750305176 -0.3602100908756256 -0.2998398542404175
-0.5817314982414246 0.02564985305070877 -0.2699272930622101
0.4420238137245178 0.4006635248661041 -0.011531454510986805
0.07309478521347046 0.16247045993804932 0.4622538387775421
0.17790840566158295 0.39257609844207764 0.3459034562110901
0.39295390248298645 -0.39865967631340027 -0.018486618995666504
0.16477294266223907 0.46329158544540405 0.4468366503715515
0.4902638792991638 0.20975397527217865 0.3489166498184204
0.21641552448272705 0.401705801486969 0.20192766189575195
-0.17149855196475983 -0.4795530140399933 -0.13094015419483185
0.25029462575912476 -0.5266801714897156 -0.28299257159233093
-0.44020456075668335 -0.0993228480219841 0.05806942284107208
-0.2024262398481369 -0.06460317224264145 0.13343536853790283
-0.24491353332996368 -0.03168277442455292 -0.023233411833643913
-0.2872900068759918 0.07521432638168335 0.3476976752281189
0.19086842238903046 0.027742164209485054 -0.4019475281238556
0.21694110333919525 0.2646391987800598 0.4695482850074768
0.3908023536205292 -0.45954200625419617 -0.07455931603908539
0.32219845056533813 -0.625885546207428 -0.01625637151300907
0.003907038830220699 0.14225491881370544 0.3536754548549652
-0.5713616013526917 0.3709084093570709 -0.051721639931201935
0.39141517877578735 -0.5566111207008362 -0.04310527443885803
0.3868638575077057 -0.5111583471298218 0.028339030221104622
0.21098001301288605 -0.07249615341424942 0.3689754903316498
-0.3518410623073578 -0.0006008649943396449 -0.34817972779273987
-0.50897216796875 0.39940154552459717 0.32327839732170105
-0.19884005188941956 0.3991502821445465 -0.133043572306633
0.10161679983139038 -0.6215234398841858 0.02097267098724842
-0.45232918858528137 0.10680210590362549 -0.12115442007780075
-0.4859654903411865 0.3956190347671509 -0.2572486996650696
0.376583993434906 0.40180790424346924 0.3052178621292114
-0.24051041901111603 0.4023887813091278 0.25353142619132996
-0.43780216574668884 0.11184848845005035 -0.3681565225124359
-0.036509763449430466 0.20014743506908417 0.4078744053840637
0.11114057153463364 0.40023836493492126 0.20530609786510468
0.2044326364994049 0.003638891037553549 -0.12690436840057373
0.0416531078517437 0.05135554075241089 -0.39897891879081726
0.2137013077735901 0.36671748757362366 0.4684409201145172
-0.13408532738685608 -0.02265697531402111 0.2267930805683136
0.40487465262413025 -0.019023485481739044 -0.1801523119211197
0.13077428936958313 -0.6257308125495911 0.18206611275672913
0.2061896026134491 0.06420740485191345 0.345355749130249
-0.06193616986274719 0.003747740527614951 -0.04137323051691055
-0.5235058665275574 -0.08810733258724213 0.06743203103542328
0.16641341149806976 0.10930773615837097 -0.4014192521572113
0.43406832218170166 -0.23320290446281433 -0.1280752271413803
-0.41393837332725525 0.09376055002212524 -0.027838371694087982
-0.5105093121528625 0.09602753818035126 -0.2390737384557724
-0.3943266272544861 0.004008298274129629 0.158213809132576
0.5302822589874268 0.40170249342918396 -0.02374216914176941
0.3772455155849457 0.4038843512535095 0.1248786449432373
0.3731178641319275 0.004275983199477196 0.12677641212940216
0.33333882689476013 -0.5231158137321472 0.1415647566318512
0.18873609602451324 -0.0014858376234769821 0.31530171632766724
0.36669158935546875 0.33371809124946594 -0.40340352058410645
-0.3460533916950226 0.3906986117362976 -0.15531721711158752
0.1969936639070511 -0.4771292805671692 0.24981574714183807
0.31624162197113037 -0.034750234335660934 0.46214115619659424
0.5245171189308167 0.40181997418403625 -0.24936814606189728
0.4821797311306 0.40093955397605896 -0.29695460200309753
-0.2563035190105438 0.40185707807540894 0.22156746685504913
-0.31893956661224365 0.004039868712425232 0.1802084594964981
0.061833590269088745 0.31327882409095764 0.3459945619106293
-0.17436078190803528 -0.41072455048561096 -0.11698349565267563
-0.20442572236061096 0.0024837381206452847 -0.10540950298309326
0.16726543009281158 0.47953808307647705 0.41729840636253357
-0.5666389465332031 0.375799298286438 -0.2513893246650696
0.5740423798561096 0.011375010013580322 -0.10894564539194107
0.450605183839798 0.3994417190551758 -0.3920033276081085
-0.12434233725070953 -0.6225341558456421 -0.01596609503030777
0.3955036699771881 -0.3046545088291168 0.15161970257759094
0.22953009605407715 -0.00042408378794789314 0.46220633387565613
0.19703739881515503 -0.30573952198028564 0.3067307770252228
-0.3629506826400757 0.0035975580103695393 0.06178182736039162
-0.3934800326824188 0.07649807631969452 0.0987849086523056
-0.5374886393547058 -0.07114218920469284 0.33717963099479675
-0.4946901798248291 0.11695076525211334 -0.08023279905319214
0.576555073261261 0.013779559172689915 0.2917659878730774
-0.5752478241920471 -0.008225478231906891 0.06120013818144798
0.23944097757339478 0.003735667560249567 -0.01515923161059618
-0.14485162496566772 -0.6523757576942444 -0.09827175736427307
0.013982757925987244 0.2565478980541229 0.40300917625427246
0.5783804655075073 0.226349875330925 -0.3906165063381195
-0.28485751152038574 0.07860143482685089 -0.4030306935310364
0.530846357345581 0.007729426492005587 -0.386567085981369
0.21067453920841217 -0.6369055509567261 0.18909122049808502
-0.1452917456626892 -0.29426443576812744 -0.26985839009284973
0.18328537046909332 0.36990097165107727 0.3469869792461395
-0.5205128788948059 0.37028566002845764 -0.028395934030413628
-0.1795169562101364 -0.6377598643302917 -0.0744573101401329
-0.5184788703918457 0.3581008315086365 -0.07380714267492294
-0.5808386206626892 0.18435263633728027 -0.2660159468650818
-0.2413315773010254 -0.15687716007232666 -0.027384093031287193
-0.14230304956436157 0.3950948119163513 -0.3889985680580139
0.05823250859975815 -0.006166477687656879 0.46837204694747925
0.2738931477069855 0.000855710357427597 -0.33466649055480957
-0.5318419337272644 0.0019298624247312546 0.28804948925971985
0.31668633222579956 -0.3953450322151184 0.16449223458766937
0.37549903988838196 -0.028151806443929672 0.17629089951515198
-0.44646939635276794 0.0013085342943668365 0.034943073987960815
0.39546045660972595 0.2901366055011749 0.34979164600372314
-0.26232483983039856 0.002001797780394554 -0.08003135770559311
0.46496567130088806 0.05739494413137436 -0.4017075300216675
0.5374851226806641 0.05365049093961716 0.3450949490070343
0.019845418632030487 0.012296324595808983 0.4107740521430969
0.2493320107460022 0.2634825110435486 0.46960338950157166
0.1749647855758667 0.39238306879997253 0.34216171503067017
-0.03579678386449814 0.06544721871614456 -0.4016556739807129
-0.587910532951355 0.2685691714286804 -0.12969419360160828
-0.04617389664053917 -0.19092942774295807 -0.3394026458263397
0.5840933322906494 0.3318687379360199 0.06012331321835518
-0.5638990998268127 0.37914028763771057 0.14008089900016785
-0.13024519383907318 -0.6538373827934265 0.09251360595226288
0.24027489125728607 0.004181248135864735 0.245948925614357
-0.21841426193714142 0.20533441007137299 -0.4033496379852295
-0.5857838988304138 0.3351445496082306 0.05572185292840004
-0.07924995571374893 0.4014212191104889 -0.21919533610343933
0.1644408404827118 0.004037653096020222 0.08263610303401947
-0.004958709701895714 -0.06884535402059555 -0.36157727241516113
-0.011783100664615631 0.003275759983807802 0.2105206549167633
0.20686323940753937 0.40186750888824463 -0.2568261921405792
0.3082425892353058 -0.008410010486841202 -0.31026318669319153
-0.579374372959137 0.0610547736287117 -0.04998192936182022
0.4428940415382385 0.005804263986647129 0.28985029458999634
-0.20613107085227966 0.0234457328915596 -0.402042031288147
-0.07982143759727478 0.00461555877700448 0.3194318413734436
-0.571648359298706 0.3738080859184265 0.2646634578704834
0.3739136755466461 -0.21221253275871277 -0.24175775051116943
-0.04058444872498512 -0.6220621466636658 0.06081414967775345
0.25719356536865234 0.3113781213760376 -0.4018554389476776
-0.40770161151885986 -0.08442023396492004 -0.0174297783523798
0.2608124911785126 0.2956419587135315 0.46678677201271057
-0.3594525158405304 0.38119202852249146 -0.17528201639652252
0.31083589792251587 0.004360733088105917 -0.17516948282718658
0.3331032395362854 -0.47866830229759216 -0.20599934458732605
0.3008696436882019 0.0011141849681735039 -0.33556970953941345
0.577042818069458 0.2247859388589859 0.2891031503677368
0.019037846475839615 -0.6502811908721924 0.2291821837425232
-0.49207741022109985 0.12912055850028992 0.3462231159210205
-0.044028643518686295 0.40132245421409607 -0.27344661951065063
-0.4180232584476471 0.3108876943588257 -0.4051080048084259
-0.24775291979312897 0.0027197999879717827 -0.24716176092624664
0.2583123445510864 -0.22381728887557983 0.28052374720573425
-0.5820639729499817 0.055209267884492874 0.2669502794742584
-0.022606447339057922 -0.6275294423103333 0.1408940702676773
0.34468162059783936 -0.4429069757461548 0.12522052228450775
0.38923126459121704 0.0012985095381736755 -0.3648642599582672
-0.4440489411354065 0.001995328813791275 0.10682567954063416
-0.1327286660671234 -0.6288556456565857 0.009945889003574848
0.34669649600982666 0.2945624887943268 0.3455134332180023
0.5498480200767517 0.40047770738601685 -0.07420410215854645
-0.4987856447696686 0.40059134364128113 -0.31423091888427734
-0.06118842586874962 0.40076905488967896 0.2793923318386078
-0.5357253551483154 0.25205332040786743 0.3431369662284851
0.14542581140995026 0.005061861593276262 0.2726195454597473
0.4448480010032654 -0.30415990948677063 0.02022804133594036
-0.04355248808860779 -0.12041165679693222 0.2857652008533478
0.18401774764060974 0.14281657338142395 -0.3986915647983551
0.48171982169151306 0.3947025239467621 0.3378659188747406
-0.5686159729957581 0.16624638438224792 -0.3927305042743683
-0.5832036733627319 0.18705704808235168 0.17066018283367157
0.22950652241706848 0.0033666801173239946 -0.10893628746271133
0.02696416899561882 0.3565238118171692 0.45834869146347046
-0.5725831389427185 -0.011814802885055542 0.23021946847438812
0.1867675483226776 -0.3221149742603302 -0.36568430066108704
-0.3911546766757965 -0.00611532386392355 0.33696216344833374
-0.32055580615997314 0.005606904625892639 -0.05801929160952568
0.274703711271286 0.02128279209136963 0.3440178632736206
-0.16994227468967438 0.3222085237503052 0.3496476411819458
-0.5206943154335022 0.3332822620868683 -0.4053862392902374
0.2099909782409668 -0.4994949996471405 0.24043327569961548
0.3032122850418091 -0.14922237396240234 -0.31008976697921753
0.023400165140628815 0.025581058114767075 -0.4004873037338257
0.262024849653244 -0.2127261608839035 -0.3336049020290375
-0.5408536791801453 -0.08116912841796875 0.151133731007576
0.28690752387046814 0.0009575309231877327 0.3116513192653656
0.0437883585691452 -0.6306973099708557 0.20485521852970123
0.13627104461193085 0.08518882095813751 -0.4015655517578125
-0.4236573278903961 0.10311945527791977 -0.31459659337997437
-0.3300574719905853 0.31958916783332825 -0.40274640917778015
-0.27114295959472656 0.004050574265420437 -0.21638824045658112
-0.5051916837692261 0.1111118495464325 -0.054389968514442444
-0.21488280594348907 0.40019533038139343 0.2604236900806427
0.21691162884235382 0.40091371536254883 -0.030087454244494438
-0.5053821206092834 0.10943837463855743 -0.0008943852735683322
0.14658795297145844 -0.6241850256919861 0.18354107439517975
0.20404459536075592 0.4026181697845459 0.24284476041793823
0.38974374532699585 0.004070395603775978 0.022100768983364105
0.03513083606958389 0.2998928725719452 0.46646249294281006
0.13988980650901794 0.00454579945653677 -0.10256540775299072
0.5732161402702332 0.01176450401544571 0.27951768040657043
0.24303700029850006 -0.08788245916366577 0.33502545952796936
0.05262240767478943 0.40260812640190125 0.43862050771713257
0.033064067363739014 -0.6196335554122925 -0.1657387912273407
0.11296674609184265 -0.6477636098861694 -0.2982223629951477
0.029770169407129288 0.2620317339897156 0.36231955885887146
-0.10812117904424667 -0.6317406892776489 -0.15034832060337067
-0.13777685165405273 -0.6444142460823059 0.10695492476224899
0.18077129125595093 0.0035849481355398893 -0.16408073902130127
0.42313241958618164 -0.08756278455257416 -0.15603497624397278
-0.5785754323005676 0.3602750897407532 -0.006990503519773483
-0.3784128725528717 -0.052275825291872025 -0.1079815924167633
0.43411681056022644 -0.2666743993759155 -0.12622952461242676
0.5760971307754517 0.3946366012096405 -0.34153294563293457
0.1419941931962967 0.020656174048781395 -0.39938563108444214
