-0.5796633958816528 0.0071690622717142105 -0.21944251656532288
-0.2867625951766968 0.16735804080963135 0.3435639441013336
-0.29267415404319763 0.33799511194229126 -0.09803953021764755
0.12178564816713333 0.037557169795036316 -0.397103875875473
-0.5760594010353088 0.30653566122055054 0.14964905381202698
0.338571697473526 -0.29754674434661865 -0.25728440284729004
-0.28579849004745483 0.4013415277004242 0.26669490337371826
0.3935246169567108 -0.10688403993844986 0.15561789274215698
0.2256348878145218 -0.5323996543884277 0.2290271520614624
0.49451202154159546 0.0012876130640506744 -0.23274224996566772
-0.3041183054447174 0.3188786208629608 -0.39720419049263
0.22474871575832367 -0.2519250512123108 -0.3378748595714569
0.2070455402135849 -0.6215872764587402 0.1758371740579605
-0.06374455243349075 0.05423896387219429 -0.39921340346336365
-0.428128719329834 0.08477675169706345 0.3430945873260498
0.24414698779582977 0.3518867492675781 0.34265953302383423
0.4291893243789673 0.28641119599342346 -0.3948594033718109
-0.5001053810119629 0.09166206419467926 -0.07248803228139877
-0.3071083426475525 0.4052462875843048 -0.04906810075044632
-0.004854222759604454 0.0025697965174913406 -0.2182513326406479
0.02121073566377163 0.4018658399581909 0.005850563757121563
-0.5641453266143799 0.011510848999023438 -0.006612915545701981
-0.5765447616577148 0.06338360905647278 0.07544761896133423
-0.5770763754844666 0.3000246584415436 0.09950702637434006
0.19426171481609344 0.22856345772743225 0.34083062410354614
0.14319682121276855 -0.626585841178894 0.07982470840215683
0.5715076923370361 0.048401832580566406 -0.05807653069496155
0.5131040215492249 0.005517789162695408 -0.2705170512199402
0.11852005124092102 0.16782844066619873 0.4622648060321808
-0.2605462372303009 0.3999067544937134 -0.2556091547012329
0.2540757358074188 0.39979302883148193 -0.3456352949142456
0.4627758860588074 0.005384985823184252 0.3267487585544586
-0.03824174404144287 -0.1491839587688446 -0.3396199345588684
0.11161284893751144 0.39963746070861816 -0.1988377869129181
-0.359397292137146 0.0039019433315843344 -0.018734999001026154
-0.14685054123401642 -0.48436152935028076 -0.15676219761371613
-0.1726287305355072 -0.5987838506698608 -0.10087665170431137
-0.41213446855545044 -0.021838098764419556 0.3355581760406494
-0.11811798810958862 -0.4448268413543701 -0.21908210217952728
-0.13352560997009277 -0.5296638011932373 0.14139865338802338
-0.4783480763435364 0.3998878002166748 0.11333128809928894
0.037208713591098785 -0.304467111825943 -0.36452579498291016
-0.24629829823970795 -0.24253620207309723 0.012836410664021969
0.4551088511943817 0.08772754669189453 0.34121447801589966
-0.26089537143707275 -0.0011645583435893059 -0.1032218262553215
0.16258671879768372 0.2197151631116867 0.46260201930999756
0.0916801393032074 -0.17072269320487976 0.30953454971313477
0.02911396510899067 0.0007820902392268181 -0.19493860006332397
0.1282641738653183 0.40201887488365173 -0.2998709976673126
-0.276326984167099 0.1390056312084198 0.3454732596874237
0.11178755760192871 0.4230639338493347 0.44581401348114014
-0.03536863625049591 0.35852521657943726 0.3432595729827881
0.25168728828430176 -0.26988646388053894 -0.34501248598098755
-0.5455018281936646 0.3852238059043884 -0.2669774889945984
-0.47858133912086487 0.12276094406843185 -0.2284001111984253
-0.24351058900356293 -0.0008328385883942246 -0.08972674608230591
-0.17948108911514282 0.0025403443723917007 -0.36457329988479614
-0.20782910287380219 2.9238522984087467e-05 -0.07219363003969193
-0.24296338856220245 -0.03913576900959015 0.06564581394195557
0.11759030073881149 0.3297489583492279 -0.3970803916454315
0.049530815333127975 0.40071022510528564 -0.06569669395685196
-0.08880822360515594 0.001865590107627213 -0.03439222276210785
-0.5684250593185425 0.18786123394966125 0.3009190857410431
0.5859919786453247 0.3516823947429657 -0.2184135913848877
0.5018336176872253 0.40322601795196533 0.19038966298103333
0.4520920515060425 0.4003455340862274 -0.11994658410549164
0.12375955283641815 -0.5634157657623291 0.2551299035549164
0.2864548861980438 0.002977604977786541 0.15763352811336517
-0.17513255774974823 -0.5331152677536011 0.03598631173372269
-0.07390676438808441 -0.502734363079071 0.19415682554244995
0.08067227154970169 0.003325094934552908 0.14124108850955963
0.24056756496429443 0.0038604496512562037 -0.012213876470923424
-0.06475379317998886 -0.6464530825614929 -0.22030217945575714
-0.152846097946167 -0.057053253054618835 0.19248585402965546
0.29364681243896484 0.10265668481588364 0.4557454586029053
0.36336207389831543 -0.6512182950973511 -0.0036198620218783617
-0.465302973985672 0.05497313290834427 0.34835460782051086
-0.3591305613517761 0.006752209737896919 -0.16107682883739471
-0.3911243975162506 -0.04920518770813942 0.3245272636413574
-0.1379232555627823 -0.625331461429596 0.0003790666814893484
-0.011994000524282455 0.2666739523410797 0.4025084376335144
-0.36218464374542236 0.3983352780342102 0.32273009419441223
0.5906493067741394 0.21934638917446136 -0.39107125997543335
0.30150729417800903 0.010039027780294418 0.45700109004974365
-0.4386683404445648 0.11902657151222229 0.04030502960085869
-0.31235596537590027 0.0032496480271220207 0.09821873158216476
0.11344563215970993 -0.6226544976234436 -0.23604612052440643
-0.21141529083251953 0.39894843101501465 0.20862573385238647
0.43332594633102417 0.38677525520324707 -0.39378079771995544
0.5802174210548401 0.33696645498275757 0.04869532212615013
0.06420204788446426 -0.5686179995536804 0.2534979283809662
-0.30859270691871643 0.005807059817016125 0.2936052978038788
0.3851344585418701 0.003000434720888734 -0.13687284290790558
-0.4775983989238739 -0.029408438131213188 0.3505927324295044
0.26551494002342224 -0.6143204569816589 0.03262026235461235
0.17415516078472137 -0.0629943236708641 0.4505789577960968
-0.44547274708747864 -0.11478099972009659 -0.09667692333459854
-0.472133606672287 -0.07923450320959091 -0.3978516161441803
-0.38182809948921204 -0.02208678424358368 0.20068570971488953
-0.22873708605766296 0.4026000201702118 0.09078845381736755
-0.02618558146059513 0.39948245882987976 -0.3407379984855652
0.48432400822639465 0.0045031169429421425 0.22548170387744904
0.578400194644928 0.21188531816005707 -0.26546525955200195
-0.39435380697250366 0.06586574763059616 0.3286251425743103
-0.16759146749973297 -0.5253705978393555 0.06839534640312195
-0.037325091660022736 0.05388963595032692 -0.3988378942012787
-0.5759228467941284 0.2660351097583771 -0.1378183513879776
0.25903305411338806 -0.28868740797042847 0.28415971994400024
0.05971860885620117 0.40242648124694824 0.08041684329509735
0.5856247544288635 0.069919154047966 0.14212559163570404
-0.17363497614860535 0.19538621604442596 -0.39917826652526855
-0.43448859453201294 -0.08371168375015259 -0.32800713181495667
-0.5435138940811157 -0.08032762259244919 -0.17807789146900177
-0.5792330503463745 0.14335988461971283 -0.30594152212142944
0.019593555480241776 0.3998563885688782 0.22611384093761444
-0.05587427318096161 0.0005166038172319531 0.3004346489906311
0.24340717494487762 -0.5443374514579773 -0.28608477115631104
0.4656423330307007 0.2127109169960022 0.34342947602272034
0.31306228041648865 0.0007841382175683975 0.1636350154876709
-0.4355252683162689 0.22637638449668884 0.3427508771419525
-0.4033787250518799 0.0886225476861 0.0964505672454834
-0.06970702111721039 0.005530890077352524 0.1452111005783081
-0.016182586550712585 -0.6316450834274292 0.19871602952480316
0.3850478529930115 0.03273455426096916 -0.39632514119148254
-0.020566454157233238 0.00140035105869174 -0.0470309779047966
0.2079954296350479 -0.6214620471000671 0.07998370379209518
0.5734924674034119 0.013372575864195824 0.046848881989717484
-0.38105151057243347 0.32191476225852966 0.3459557294845581
0.06731346249580383 0.25326743721961975 0.3481440842151642
-0.5767525434494019 0.21420714259147644 -0.13339270651340485
0.1627618670463562 0.09885053336620331 0.34161409735679626
0.1098325178027153 -0.3807189464569092 0.2638421654701233
-0.20951955020427704 0.3384448289871216 -0.39966854453086853
-0.3179219961166382 0.3963661789894104 0.017794428393244743
-0.28901368379592896 0.40038809180259705 -0.21436141431331635
-0.5193076729774475 -0.09676431864500046 0.18531769514083862
0.4559261202812195 0.40337857604026794 0.25974586606025696
-0.0854717493057251 0.16799457371234894 0.34639060497283936
0.4354374408721924 0.40391644835472107 0.2097436785697937
0.16698049008846283 0.004143425263464451 -0.019962111487984657
0.32782137393951416 0.368051677942276 0.36639145016670227
-0.10374631732702255 -0.6219582557678223 -0.03703966364264488
-0.06938832253217697 -0.6381264925003052 -0.1832750141620636
0.2177322655916214 0.13188980519771576 0.45974352955818176
-0.2029535323381424 -0.0011621378362178802 0.09772474318742752
0.026412326842546463 0.023089423775672913 0.44040775299072266
-0.44079622626304626 -0.09802178293466568 -0.38523051142692566
0.2766614258289337 0.2306533306837082 0.34309452772140503
-0.42190423607826233 0.0033238916657865047 0.21414770185947418
-0.44700270891189575 0.06448765844106674 0.3458486795425415
0.08046375215053558 0.3996845483779907 0.3262259364128113
0.3963160216808319 0.3348725438117981 -0.39781391620635986
0.06828774511814117 -0.5506963133811951 0.25471189618110657
0.28537440299987793 -0.09993348270654678 0.2540929913520813
-0.5468921065330505 0.1343439221382141 0.3441143333911896
0.12708105146884918 -0.16577675938606262 0.3125053644180298
-0.5716304779052734 0.05441061034798622 -0.2038985788822174
-0.07810302078723907 0.1564905345439911 0.37537509202957153
-0.4571937322616577 0.09983789920806885 0.1178165078163147
0.334243506193161 0.4019756615161896 -0.04529999569058418
-0.19057895243167877 0.0012027770280838013 -0.06275095045566559
-0.2691187262535095 0.4020978510379791 0.2949330806732178
0.022562656551599503 -0.626984179019928 -0.021751102060079575
0.04539240896701813 0.06761277467012405 -0.4007497727870941
0.00326522346585989 0.002581991720944643 -0.061486754566431046
0.22613315284252167 0.40256467461586 -0.09108912199735641
-0.13732832670211792 -0.6590257883071899 -0.19504643976688385
0.07647924870252609 -0.40184712409973145 0.2586601972579956
0.5818610191345215 0.3544072210788727 -0.2073497772216797
-0.3873058259487152 -0.07401256263256073 0.32490792870521545
-0.36883434653282166 0.0062601156532764435 0.33584892749786377
0.5517817735671997 0.008250181563198566 0.025574125349521637
-0.5259129405021667 0.3931671679019928 0.15752588212490082
0.4102371633052826 0.39567992091178894 -0.3597436845302582
-0.31743401288986206 0.0017072390764951706 -0.0689338818192482
-0.4647778272628784 0.11811240762472153 0.2083359956741333
0.2535807490348816 -0.616827666759491 0.04319331422448158
-0.5661959648132324 0.164946049451828 -0.34109053015708923
-0.10585980117321014 0.0024421680718660355 -0.21547725796699524
-0.4161110818386078 0.101875439286232 -0.0874212384223938
-0.06648891419172287 0.39878225326538086 0.18393553793430328
0.24888615310192108 0.0793958529829979 -0.39856940507888794
-0.41397935152053833 -0.08912316709756851 0.3252652585506439
0.04433472827076912 -0.08091951906681061 0.316349595785141
0.2207539826631546 0.004210843704640865 -0.047949016094207764
-0.22914840281009674 0.0005459967069327831 -0.10830602049827576
-0.0076603638008236885 0.002114118542522192 0.12578044831752777
0.06489650160074234 -0.09462956339120865 0.33769115805625916
0.22471819818019867 0.21983523666858673 0.34412071108818054
-0.0720059871673584 0.001919092028401792 0.015426909551024437
0.01887701451778412 -0.640806257724762 -0.2965257465839386
0.20620568096637726 -0.22557438910007477 -0.352445513010025
0.5809431672096252 0.14226818084716797 -0.09201625734567642
-0.3665696680545807 -0.023261886090040207 -0.38047829270362854
-0.25907668471336365 0.004825024865567684 0.2268407791852951
0.22113417088985443 -0.6192248463630676 -0.18902206420898438
-0.5209463834762573 -0.08424481749534607 0.3355987071990967
-0.1945418417453766 0.39829468727111816 -0.29590681195259094
0.23687613010406494 0.19493253529071808 0.46052470803260803
-0.14738254249095917 -0.1506977528333664 0.19562898576259613
-0.38334134221076965 0.06757211685180664 0.006712314207106829
0.2742692828178406 -0.0649077296257019 0.4463905990123749
0.12632423639297485 -0.6191720366477966 -0.20723606646060944
0.10461365431547165 -0.5250014662742615 0.25523635745048523
-0.5743775963783264 0.05091097578406334 -0.15603430569171906
0.26116621494293213 0.40058737993240356 0.12005999684333801
-0.07918723672628403 -0.06546463072299957 0.2653146982192993
0.08321532607078552 -0.6200227737426758 -0.016203809529542923
0.37183862924575806 0.0030853806529194117 -0.09046367555856705
0.4056303799152374 -0.09917138516902924 -0.15851792693138123
0.20933635532855988 0.4012441039085388 -0.1841319054365158
-0.5755635499954224 0.12236367911100388 -0.1932215690612793
0.4543597400188446 0.0004502306692302227 -0.23513559997081757
-0.38434991240501404 -0.05240141227841377 -0.16679947078227997
-0.14413218200206757 -0.22176066040992737 -0.2715410590171814
0.23474091291427612 0.0034650613088160753 0.20550136268138885
0.22951945662498474 -0.085377037525177 0.4410935044288635
-0.4417511820793152 0.39954686164855957 0.1276904195547104
-0.5256850123405457 -0.006866666488349438 -0.1052161306142807
0.39019548892974854 -0.6171298027038574 -0.0873657613992691
-0.15437690913677216 0.0014906241558492184 -0.05365421250462532
0.27036625146865845 -0.2040669023990631 0.2618786096572876
-0.5625134110450745 0.024755869060754776 0.3264960050582886
0.317627489566803 0.002460387535393238 -0.23184834420681
0.4145797789096832 -0.36817044019699097 -0.13991516828536987
-0.16479578614234924 -0.4713667035102844 0.08704514801502228
-0.4969936013221741 0.3142813742160797 0.335568368434906
0.37700504064559937 0.0009219036437571049 -0.24531325697898865
0.02954915352165699 0.2744464874267578 0.34936219453811646
0.03501565009355545 -0.21139757335186005 -0.36454445123672485
-0.5153846144676208 0.2812265455722809 -0.4037725329399109
-0.17939890921115875 0.3988812267780304 -0.2181077003479004
-0.566409170627594 0.05621067062020302 -0.2545737028121948
0.5353638529777527 0.39921656250953674 -0.005468801595270634
0.030666392296552658 -0.09413070976734161 -0.35836344957351685
0.304517924785614 0.12628407776355743 -0.39845433831214905
0.38429296016693115 -0.24740388989448547 0.1659475564956665
-0.08221697062253952 -0.025024816393852234 -0.3114086389541626
-0.076687753200531 0.16156303882598877 -0.39973434805870056
0.22474004328250885 0.003974230494350195 0.06849964708089828
-0.4592536687850952 0.10525394976139069 -0.12551674246788025
-0.3658022880554199 0.06382988393306732 0.33936670422554016
0.3447933495044708 -0.6270210146903992 0.01943293958902359
0.1565908044576645 0.09873354434967041 0.46140235662460327
-0.5673482418060303 0.006092679221183062 0.2775210440158844
-0.5231996774673462 0.36694425344467163 -0.3957131803035736
-0.45221757888793945 -0.0013501611538231373 0.2701073884963989
-0.02674413099884987 0.4012596607208252 -0.007727599702775478
-0.3761821985244751 -0.0654580369591713 0.00650729751214385
-0.33729177713394165 0.3855001926422119 -0.39247339963912964
0.360506534576416 0.003367394907400012 0.2892325818538666
-0.0004955829354003072 0.4035762846469879 -0.19747503101825714
0.17618779838085175 -0.06819508969783783 -0.360476016998291
0.3505687713623047 -0.2570853531360626 0.1947048455476761
-0.08981267362833023 0.0010524792596697807 -0.016465988010168076
0.4162439703941345 0.3979008197784424 -0.2348167598247528
-0.33382242918014526 0.38672688603401184 -0.0003164103254675865
0.35762742161750793 0.0006325719878077507 -0.26622727513313293
0.1452726423740387 0.3528135120868683 -0.397691547870636
0.45931413769721985 0.39992064237594604 0.32145172357559204
0.44175103306770325 0.0024643209762871265 0.20415298640727997
0.2875259816646576 -0.6318061947822571 -0.19708994030952454
-0.03515775129199028 0.4002276062965393 0.18971878290176392
-0.08488484472036362 -0.4530981779098511 0.18298840522766113
-0.5756063461303711 0.14142325520515442 -0.05021846666932106
0.3341194987297058 0.08501440286636353 0.34199467301368713
-0.1707800328731537 0.002508867532014847 -0.09455934166908264
0.577552855014801 0.09699970483779907 0.09393496811389923
-0.024148955941200256 -0.6354637145996094 -0.28134632110595703
0.5867021083831787 0.3375698924064636 -0.10289023816585541
-0.5778157711029053 0.10904813557863235 -0.1706933230161667
-0.5242753028869629 0.0058296844363212585 0.25611376762390137
-0.4903787672519684 0.0316336564719677 -0.40052273869514465
0.023501232266426086 -0.657957136631012 0.23372450470924377
-0.029382172971963882 0.40137356519699097 -0.1978350579738617
0.054397739470005035 -0.04315832629799843 0.449345201253891
-0.5542894005775452 0.09195145219564438 0.05008723586797714
0.5705401301383972 0.37417882680892944 -0.11973883956670761
0.017713243141770363 -0.03981585428118706 0.35963353514671326
0.313274621963501 0.401540607213974 0.09143291413784027
-0.3560752272605896 0.40053361654281616 0.28917455673217773
-0.1972886025905609 -0.26597049832344055 0.1275205761194229
-0.5689741969108582 0.15061675012111664 0.04421550780534744
-0.3434547781944275 0.003194834105670452 0.08885687589645386
-0.40486371517181396 -0.09861035645008087 0.1629723459482193
-0.12099470943212509 0.4025455117225647 0.13902753591537476
-0.5737702250480652 0.27321386337280273 0.19306281208992004
0.2165699303150177 0.15327350795269012 0.3404693901538849
-0.36428210139274597 0.3876042068004608 -0.3929089605808258
0.563032329082489 0.15288996696472168 0.34047430753707886
-0.22255809605121613 0.18008503317832947 0.3443828821182251
0.4099608063697815 0.060769420117139816 -0.3971373736858368
0.5745224952697754 0.07103947550058365 -0.3936404585838318
-0.16753077507019043 -0.3926527500152588 0.08552097529172897
0.3052215576171875 -0.00034986063838005066 0.21548977494239807
0.4353039264678955 0.4047739803791046 0.19873124361038208
0.11616732180118561 -0.16485784947872162 0.31186819076538086
-0.548180341720581 0.10071025043725967 -0.0547708198428154
-0.2268456667661667 -0.06065552309155464 0.02932242676615715
-0.24391213059425354 0.4029325246810913 -0.12134132534265518
-0.14206214249134064 -0.44849616289138794 0.12143160402774811
0.0905197262763977 0.19607798755168915 0.4608178436756134
0.10975854098796844 -0.6227849125862122 -0.06883279979228973
0.4033125936985016 0.019209211692214012 0.3400408923625946
-0.4808218777179718 0.0015725153498351574 -0.4063777029514313
0.5769051909446716 0.34571048617362976 -0.2801245152950287
0.4804365634918213 0.0027149308007210493 -0.1393451690673828
-0.39371970295906067 0.03292728587985039 0.33872804045677185
0.2111615091562271 0.26588326692581177 -0.39724454283714294
0.41451480984687805 0.11489718407392502 0.3419763147830963
0.43511518836021423 -0.2671651840209961 -0.06898022443056107
-0.08795786648988724 -0.44978275895118713 -0.24494680762290955
-0.22188948094844818 0.40017038583755493 -0.25117602944374084
-0.43780797719955444 -0.09091697633266449 -0.3337496817111969
0.434039443731308 -0.15562063455581665 -0.1564367711544037
0.20486654341220856 0.4713403284549713 0.40803417563438416
0.46447455883026123 0.3949184715747833 0.2843968868255615
-0.46510249376296997 0.1534678190946579 0.3438014090061188
0.24884918332099915 0.3359384834766388 0.34401965141296387
0.3900443911552429 -0.3873738646507263 0.07562979310750961
0.2761622369289398 0.1650073081254959 -0.39881187677383423
0.08328656107187271 -0.3986015319824219 0.26967954635620117
-0.49241727590560913 0.005592324770987034 0.31402936577796936
0.14781740307807922 -0.6497045159339905 0.24926285445690155
0.08622027188539505 0.38926225900650024 0.3407309055328369
-0.5713716745376587 0.1255686730146408 -0.35018330812454224
-0.20650756359100342 -0.33657968044281006 -0.1426665186882019
0.30391615629196167 0.3999885022640228 0.302652508020401
0.25697532296180725 0.003155553713440895 0.11533381789922714
-0.575386643409729 0.3043224513530731 0.17490844428539276
0.04097116366028786 0.394438773393631 0.33615970611572266
0.25866904854774475 0.0008907145820558071 -0.29876673221588135
0.392819881439209 -0.14064665138721466 -0.24036169052124023
0.17367501556873322 -0.15314899384975433 0.3042825162410736
-0.08088213205337524 0.035152651369571686 0.34638339281082153
-0.1446968913078308 0.0012492146342992783 -0.274061381816864
0.023630939424037933 0.3242526352405548 0.4527971148490906
0.3812907338142395 -0.37587055563926697 0.13045838475227356
0.44635263085365295 0.12891024351119995 0.34712284803390503
0.13209442794322968 -0.07079556584358215 0.31973397731781006
-0.5347248911857605 0.07539495825767517 -0.39457881450653076
-0.4955815374851227 0.12550176680088043 -0.28497815132141113
-0.4427589178085327 0.3513191044330597 0.01898943819105625
0.5567431449890137 0.3946576416492462 0.062186349183321
-0.41236892342567444 0.0018601275514811277 0.2624683082103729
0.24192951619625092 0.403491348028183 -0.15404418110847473
0.14219683408737183 -0.06735756248235703 0.3476524353027344
0.4425290822982788 -0.1765879988670349 0.004639409016817808
-0.18694047629833221 -0.5393661856651306 -0.0358145534992218
-0.05102097988128662 -0.3098461925983429 -0.33891305327415466
-0.06867506355047226 -0.6192398071289062 -0.04459508880972862
0.12599462270736694 -0.6412308812141418 0.25405949354171753
-0.17085134983062744 -0.0010906376410275698 0.10556229203939438
0.36798185110092163 0.400107741355896 -0.3358583152294159
-0.04262376204133034 0.0051945894956588745 0.16763630509376526
0.03601190075278282 -0.6292142868041992 -0.18107745051383972
0.2963607609272003 0.2604595720767975 -0.39602145552635193
0.03753901645541191 -0.626444935798645 -0.044302746653556824
-0.03819882497191429 0.002855372615158558 -0.0016773468814790249
0.24416379630565643 0.004246903583407402 -0.05494528263807297
0.5836735963821411 0.32834911346435547 0.3150041699409485
-0.1448589265346527 -0.5744921565055847 -0.17874868214130402
-0.45447593927383423 0.09936201572418213 0.16052591800689697
-0.051993876695632935 0.4005751311779022 0.2696239650249481
-0.4169662594795227 -0.0799049511551857 0.05561031028628349
0.23578250408172607 0.4030865728855133 0.45962655544281006
-0.5710033774375916 0.36543187499046326 -0.3798912465572357
0.5756872892379761 0.39254292845726013 0.13736076653003693
0.004562510177493095 0.004037790931761265 0.004002249799668789
-0.20811805129051208 0.002201266586780548 -0.07536061853170395
0.2812807857990265 -0.10467088222503662 -0.3258688747882843
-0.5756096243858337 -0.005806995555758476 0.04315946623682976
-0.4241696298122406 0.37652158737182617 0.03717419505119324
-0.3449975550174713 0.37983959913253784 0.04053626209497452
0.029465163126587868 0.10276491940021515 0.39878299832344055
0.5190687775611877 0.403616726398468 -0.22745050489902496
0.527176022529602 0.07981163263320923 -0.39587658643722534
0.20296290516853333 0.39851611852645874 0.08102645725011826
-0.35642868280410767 -0.02916119247674942 -0.013039713725447655
-0.1640038788318634 -0.597802996635437 0.07217112183570862
0.38758739829063416 -0.17701756954193115 -0.23060853779315948
0.4376268982887268 0.39722582697868347 -0.3121556341648102
0.17360514402389526 0.40058842301368713 0.15368527173995972
-0.5646411776542664 0.06858144700527191 0.011845877394080162
0.1808767467737198 0.06599455326795578 -0.39903193712234497
-0.039807237684726715 -0.630973756313324 -0.2780240774154663
0.5680519342422485 0.06363122910261154 -0.39040040969848633
-0.3979129493236542 0.4046076536178589 0.05904390662908554
-0.004064998589456081 0.0017995453672483563 -0.10096342116594315
0.34398603439331055 -0.5012361407279968 -0.19473029673099518
-0.2257639318704605 -0.3032831847667694 0.04367664456367493
0.440132200717926 -0.08336139470338821 -0.03803659975528717
0.0238865464925766 0.003443662077188492 -0.2020670622587204
-0.35304322838783264 -0.027683157473802567 -0.051791686564683914
-0.5793102979660034 0.010674969293177128 0.07678782939910889
0.3822016417980194 -0.5155880451202393 -0.032799649983644485
0.32401126623153687 0.39898133277893066 0.18710865080356598
-0.17023596167564392 -0.6546965837478638 -0.02049165777862072
-0.5056911706924438 0.39728328585624695 -0.19445092976093292
-0.12290395051240921 -0.47838419675827026 -0.20317046344280243
-0.24599777162075043 -0.26521265506744385 -0.06903707981109619
-0.26494792103767395 0.3854981064796448 -0.059548504650592804
-0.3811621069908142 0.40184086561203003 -0.24889248609542847
0.25634777545928955 0.058982960879802704 -0.39922022819519043
0.49196791648864746 0.40346211194992065 0.2249986231327057
-0.5735118985176086 0.010124586522579193 -0.13972964882850647
-0.05654517188668251 0.4025207757949829 -0.2022555023431778
0.27385058999061584 -0.624391496181488 -0.18948908150196075
-0.03467343747615814 -0.6286419034004211 -0.2090909630060196
0.3821541965007782 -0.36763817071914673 0.1336061656475067
-0.4998709261417389 0.24303264915943146 -0.39762189984321594
0.20148661732673645 -0.00018899282440543175 0.3204883635044098
-0.09162352979183197 0.3471926748752594 -0.39560437202453613
0.05866365507245064 0.0019709737971425056 -0.2906879782676697
-0.443763792514801 0.3967125415802002 -0.28938743472099304
0.2556861937046051 -0.09003028273582458 -0.3302198648452759
0.3604287803173065 0.08450132608413696 0.3429103493690491
0.06761045008897781 0.40167367458343506 0.14040303230285645
0.3799537420272827 -0.48277661204338074 0.05534373223781586
0.1982753872871399 0.40064477920532227 -0.3220273554325104
0.2997164726257324 0.30309751629829407 0.4529120922088623
-0.456349641084671 0.11604912579059601 -0.043193988502025604
-0.2042493224143982 -0.07681483030319214 -0.19913509488105774
0.22283700108528137 0.4026168882846832 0.3138907849788666
-0.49310746788978577 -0.09435014426708221 -0.1467224508523941
0.5173180103302002 0.0027696704491972923 0.1439826935529709
-0.4046892523765564 -0.00048490031622350216 -0.3218265473842621
-0.4903033375740051 0.39276784658432007 -0.14432500302791595
0.09576374292373657 -0.21150518953800201 0.3083436191082001
0.0971970409154892 0.2076529562473297 0.34261348843574524
-0.04318484663963318 -0.4945427179336548 -0.2644384801387787
0.2025599181652069 -0.6218588948249817 -0.09624134749174118
0.3891119062900543 0.002583662047982216 -0.1960587501525879
-0.2199200689792633 0.3995647430419922 0.05246926471590996
0.36185455322265625 -0.18727165460586548 -0.25765976309776306
0.46222376823425293 0.4002833068370819 -0.35091882944107056
0.3945915699005127 -0.11021744459867477 -0.20054341852664948
-0.5095831751823425 -0.10762330889701843 0.2748033106327057
-0.01614321395754814 0.004993661306798458 0.09461037814617157
0.0029189176857471466 -0.43345770239830017 -0.30538055300712585
0.5714656710624695 0.0066744741052389145 -0.25967711210250854
-0.018327446654438972 0.40223267674446106 -0.041384387761354446
0.4630676209926605 0.402320921421051 -0.027354830875992775
0.5899688005447388 0.08411379903554916 -0.20446017384529114
0.5780099034309387 0.14725689589977264 -0.050054725259542465
0.40219733119010925 0.28564926981925964 0.3432588279247284
0.4079085886478424 0.102248914539814 -0.39835286140441895
-0.3795587122440338 0.055071327835321426 0.3394943177700043
0.023640058934688568 0.027143288403749466 0.44535332918167114
0.5839364528656006 0.1633630096912384 0.16399335861206055
-0.13584013283252716 -0.4011225700378418 0.12064072489738464
0.20499129593372345 0.0010417138691991568 -0.33250483870506287
-0.24914513528347015 0.39775142073631287 -0.09741510450839996
-0.5581863522529602 0.002068132162094116 0.11516424268484116
0.21874600648880005 0.45690715312957764 0.44141316413879395
0.027849048376083374 -0.004107482731342316 0.3428329825401306
-0.007856114767491817 0.1766461730003357 0.3628981411457062
0.3834173083305359 -0.390097051858902 -0.0665624588727951
0.1366310864686966 0.40150168538093567 0.2788359224796295
0.23976054787635803 -0.6207035779953003 -0.05845019593834877
-0.298162043094635 0.247551828622818 -0.40258893370628357
0.384996235370636 -0.4195243716239929 0.07708214223384857
-0.13384787738323212 0.4011964201927185 -0.20731665194034576
0.5920977592468262 0.3628537356853485 -0.033580247312784195
-0.16871431469917297 0.0006449008360505104 0.17748557031154633
0.3134388029575348 0.10390117019414902 0.34217309951782227
-0.45377317070961 0.1238335445523262 -0.10793432593345642
-0.22460103034973145 -0.21526062488555908 -0.14381705224514008
0.27485570311546326 -0.014822659082710743 -0.30980727076530457
0.3172755539417267 -0.5681720972061157 0.1617163121700287
0.18881769478321075 -0.07872454822063446 0.3756851851940155
0.43201857805252075 0.0019162602256983519 -0.10977965593338013
0.2498975694179535 -0.6403880715370178 0.21018290519714355
0.023649785667657852 -0.6457796096801758 -0.2740353047847748
-0.5328677892684937 -0.09066306799650192 -0.15528710186481476
-0.5290995240211487 0.3751160204410553 -0.39556655287742615
0.45502516627311707 0.0009455578401684761 -0.26718515157699585
0.028985289856791496 0.4012048840522766 -0.36875107884407043
0.03828902170062065 -0.47123605012893677 -0.3122198283672333
-0.3820207417011261 0.030416840687394142 -0.32226091623306274
-0.3900449872016907 0.18922150135040283 0.34216099977493286
0.5746576189994812 0.20807519555091858 0.31234586238861084
-0.1338798850774765 0.0014277745503932238 -0.06072768196463585
-0.10850298404693604 -0.624127209186554 0.05081683397293091
-0.46937909722328186 0.4011247754096985 0.307250440120697
-0.3512640595436096 0.2913110554218292 -0.40040603280067444
-0.4213275611400604 0.40176182985305786 -0.2053673267364502
-0.3837859630584717 -0.004088163375854492 0.10184164345264435
0.30817198753356934 -0.4336537718772888 0.1761031597852707
0.33363261818885803 -0.016012798994779587 0.2115505337715149
0.3195386528968811 0.10238055884838104 0.3425881862640381
0.13764753937721252 -0.6176145672798157 -0.0360020250082016
-0.037020161747932434 -0.3837539851665497 -0.3045463562011719
-0.07856348901987076 -0.4495958089828491 -0.2484164983034134
-0.03056679293513298 -0.49548521637916565 0.22213879227638245
-0.011349364183843136 0.3959830701351166 0.328034371137619
0.16278773546218872 -0.6220269203186035 0.04833083599805832
0.1456151157617569 -0.46890005469322205 0.25038155913352966
0.1449945867061615 0.26550984382629395 -0.3987964689731598
-0.19789764285087585 -0.04759923741221428 0.12999925017356873
-0.5379067063331604 -0.0062511879950761795 -0.38427355885505676
0.08367433398962021 -0.622622549533844 -0.24757395684719086
-0.29863235354423523 0.002038366859778762 0.11265671998262405
0.3913711607456207 -0.014092273078858852 0.144486203789711
-0.21166875958442688 0.01709488406777382 -0.39325830340385437
0.0035467816051095724 -0.6190398931503296 -0.051556576043367386
0.1738380640745163 0.4022170603275299 -0.07321266084909439
-0.12868817150592804 -0.35773730278015137 0.20363163948059082
-0.22377033531665802 -0.18870387971401215 -0.1006430983543396
-0.10788790136575699 0.2815539538860321 -0.39546868205070496
0.12108922004699707 0.2431035041809082 0.4607558250427246
-0.16502249240875244 -0.0030607320368289948 -0.22549942135810852
0.05482370778918266 0.002071177586913109 0.10925669223070145
-0.20912185311317444 -0.371012806892395 0.014448648318648338
0.26282888650894165 0.17357465624809265 0.4579772353172302
0.0061873700469732285 -0.08665799349546432 0.29720091819763184
0.30030736327171326 0.24210816621780396 0.34363120794296265
-0.17295295000076294 -0.32688426971435547 -0.22519756853580475
-0.0422559417784214 -0.6143079400062561 0.20996922254562378
0.5456872582435608 0.40096497535705566 0.20685212314128876
0.36389216780662537 0.3806142508983612 -0.3943212926387787
-0.24639512598514557 0.0006190771237015724 -0.19056661427021027
-0.17757408320903778 -0.1652517020702362 0.1593545377254486
0.26377570629119873 0.21119238436222076 0.46127134561538696
-0.5382887125015259 0.3962281346321106 -0.0825776532292366
0.5591200590133667 0.4004177749156952 0.09815072268247604
-0.14367155730724335 -0.36786091327667236 0.19720008969306946
-0.0978148952126503 0.22027482092380524 -0.39939239621162415
0.4947281777858734 0.00398796983063221 0.30718570947647095
0.5826743841171265 0.2991061806678772 -0.22829985618591309
0.1691710203886032 -0.6195326447486877 -0.13603653013706207
0.07494385540485382 -0.5568558573722839 -0.31487882137298584
0.16228905320167542 0.12954081594944 0.4621703028678894
-0.00956978090107441 -0.6181817650794983 0.1324988454580307
0.1272159367799759 0.2537982761859894 0.3453613817691803
-0.4466172754764557 -0.001019799616187811 0.08821917325258255
-0.34989917278289795 0.4054277241230011 -0.1413145661354065
-0.07698402553796768 0.39928409457206726 -0.3688989579677582
-0.5749293565750122 0.03561324253678322 0.3001541793346405
0.30409127473831177 0.12028919160366058 0.4574110507965088
-0.5522662997245789 0.2864445745944977 0.3424922525882721
0.09640689939260483 0.39514943957328796 0.45843449234962463
-0.4119402766227722 0.09669315069913864 -0.03731629624962807
-0.25382429361343384 0.0015246504917740822 -0.25992849469184875
-0.32704928517341614 0.0068349819630384445 0.01808226853609085
0.38276106119155884 0.00235396483913064 0.05324430391192436
0.05222237482666969 -0.6547914147377014 -0.29507148265838623
-0.17810994386672974 -0.6398814916610718 -0.006509389728307724
-0.13777253031730652 0.0009863683953881264 0.058228909969329834
-0.25682705640792847 0.3922416567802429 -0.3856836259365082
0.48955872654914856 0.3664708733558655 -0.39995279908180237
0.1297353357076645 0.31361472606658936 0.46042758226394653
-0.5844926238059998 0.25556108355522156 -0.2954697906970978
0.019536320120096207 -0.11534668505191803 0.306257426738739
0.03113718144595623 0.003681514412164688 0.00016366044292226434
-0.055150095373392105 0.0009809387847781181 -0.04124528169631958
0.2080097496509552 -0.6464648246765137 -0.27299368381500244
-0.12504775822162628 -0.21101823449134827 0.21917596459388733
0.5688796639442444 0.14029759168624878 -0.1979883760213852
0.24750970304012299 0.4705894887447357 0.37780067324638367
0.14272017776966095 0.3985273838043213 0.13298866152763367
-0.5706409215927124 0.002105318009853363 -0.09501974284648895
-0.06922423839569092 -0.6262816786766052 0.07728103548288345
-0.3475695252418518 0.40123075246810913 0.02743351273238659
-0.09496589750051498 -0.6290512681007385 -0.07429901510477066
-0.42788225412368774 0.08496054261922836 0.23122669756412506
-0.19817951321601868 0.33729103207588196 -0.3988342583179474
0.5725401639938354 0.3961007297039032 -0.14564149081707
-0.5701453685760498 0.036386728286743164 0.24527370929718018
0.18067215383052826 -0.6255544424057007 -0.16641129553318024
0.41289737820625305 -0.3722550570964813 -0.17926132678985596
0.39536723494529724 -0.42356735467910767 -0.05949094891548157
-0.16912083327770233 0.40140658617019653 -0.09599444270133972
-0.13792820274829865 -0.24629773199558258 -0.29317399859428406
0.3973904550075531 0.002438711002469063 0.05787256732583046
-0.31237760186195374 0.40085121989250183 -0.2531379759311676
0.5925442576408386 0.31075310707092285 0.15604421496391296
0.25084787607192993 -0.6270323991775513 -0.1850656419992447
0.2031181901693344 0.4007047712802887 -0.2472228705883026
-0.07691025733947754 -0.0020659882575273514 0.0025572653394192457
0.2714105546474457 -0.38244763016700745 0.2214079201221466
0.07128605991601944 0.004629452712833881 0.06201200187206268
0.5444344282150269 0.37044477462768555 -0.396324098110199
-0.29405462741851807 0.11618257313966751 -0.3987007141113281
0.3696386218070984 -0.5260831117630005 -0.1492943912744522
0.29904574155807495 -0.20372654497623444 0.2455136477947235
0.08133924752473831 0.0018151989206671715 -0.19501368701457977
0.004664423875510693 0.2502412796020508 0.3632005751132965
0.1942766010761261 -0.6415171027183533 0.2158830314874649
0.028456412255764008 -0.381486177444458 0.2810249626636505
0.20766472816467285 0.004943154752254486 0.10112225264310837
-0.38853874802589417 0.3653803765773773 0.03051585704088211
-0.15236859023571014 0.3170218765735626 -0.39832523465156555
-0.09924836456775665 0.0014529656618833542 -0.09936372935771942
-0.5203595757484436 0.0036775870248675346 0.1790950745344162
-0.22440986335277557 -0.35904401540756226 -0.12207651138305664
0.44400784373283386 0.001867183018475771 -0.3763177692890167
-0.272352933883667 0.1831367164850235 -0.4019186496734619
-0.5781256556510925 0.04619331657886505 -0.22036348283290863
0.23856334388256073 -0.5216506719589233 -0.275090754032135
0.30717799067497253 -0.6222278475761414 0.1658032089471817
0.5875768661499023 0.3793337643146515 0.19067364931106567
-0.5015798211097717 0.4013948142528534 -0.20601464807987213
-0.24141532182693481 -0.15113329887390137 0.0233275406062603
0.4287024438381195 0.4022446572780609 0.00547997560352087
-0.15819896757602692 -0.41456151008605957 0.07704204320907593
-0.045404981821775436 -0.6312832236289978 0.15092305839061737
-0.5728006958961487 -0.03442728891968727 0.26726606488227844
-0.4737500548362732 0.0017291766125708818 -0.38198739290237427
-0.23858846724033356 -0.27669501304626465 0.06855397671461105
-0.17060166597366333 0.1526125967502594 -0.39992818236351013
0.20711666345596313 0.410553514957428 0.34745216369628906
-0.5616974830627441 -0.006352832540869713 0.2104966640472412
0.4089152216911316 0.010060233995318413 0.33541616797447205
-0.48118314146995544 0.4005012512207031 0.00390648003667593
0.503075361251831 0.39961984753608704 -0.32633116841316223
-0.14982908964157104 0.4001956284046173 0.21938222646713257
0.5264750719070435 0.4024195075035095 -0.22396832704544067
0.586672842502594 0.21904979646205902 -0.033534131944179535
-0.3403477966785431 0.13657714426517487 0.34297364950180054
0.13717348873615265 0.01075783371925354 0.4598144292831421
-0.3696787357330322 0.027999211102724075 -0.12983338534832
0.3769373595714569 -0.6015111207962036 0.08277532458305359
0.28009817004203796 -0.37818393111228943 0.2318628579378128
0.5661258101463318 0.16274268925189972 0.3244906961917877
0.3483339548110962 -0.48149120807647705 0.12669605016708374
0.5205448269844055 0.13748861849308014 -0.3980458080768585
0.27159106731414795 -0.0016828477382659912 -0.3499704897403717
-0.5706534385681152 0.36147573590278625 -0.38274651765823364
0.5878450870513916 0.37985682487487793 0.30432969331741333
-0.3220815062522888 0.0006817979738116264 -0.2513909637928009
0.5373998880386353 0.3968890309333801 0.022199807688593864
0.1758417785167694 -0.04922107979655266 0.45625001192092896
-0.20423342287540436 -0.1327761560678482 0.13643154501914978
-0.1262003630399704 -0.5158267617225647 0.15248799324035645
0.23851509392261505 -0.5713627934455872 0.22422251105308533
0.13592112064361572 -0.6168437004089355 0.2178494781255722
0.4377460777759552 0.3090556263923645 0.34352725744247437
0.17089396715164185 -0.6216202974319458 -0.08336137235164642
0.2465483695268631 0.3933869004249573 0.340767502784729
0.010384614579379559 -0.6182567477226257 0.1358414888381958
0.10128705948591232 -0.2835876941680908 0.3097684979438782
-0.06342790275812149 -0.6202215552330017 -0.04491709545254707
-0.12375940382480621 -0.6291851997375488 0.02251463569700718
-0.09883487969636917 0.002141229808330536 0.107098788022995
0.07842659950256348 0.24743035435676575 -0.3977755904197693
-0.23608464002609253 -0.30764955282211304 0.017500869929790497
0.3822105824947357 0.003223877400159836 -0.06933179497718811
-0.5734253525733948 0.011587469838559628 -0.3802112638950348
-0.05338312312960625 -0.24211809039115906 -0.3285186290740967
0.3439396023750305 0.40321657061576843 0.2276991456747055
-0.035679277032613754 0.4011082947254181 -0.31425943970680237
0.5654661059379578 0.14816336333751678 0.2722403407096863
0.03623761981725693 0.31148985028266907 0.4556700885295868
0.008409375324845314 0.002057619160041213 0.02619744837284088
-0.1934191882610321 0.0014962516725063324 -0.3233794867992401
0.38860175013542175 -0.4807544946670532 -0.09012216329574585
0.14195390045642853 -0.06440092623233795 0.4433263838291168
0.3146442472934723 0.042184166610240936 0.36182326078414917
-0.3555222153663635 -0.025297731161117554 0.24672356247901917
-0.12710900604724884 -0.2947831451892853 0.22084392607212067
0.2783418595790863 0.4003390371799469 0.19162505865097046
-0.07804983109235764 0.4015601873397827 0.13472074270248413
0.054165083914995193 -0.6039067506790161 -0.3074749708175659
-0.1978723108768463 0.0009270571172237396 -0.20310279726982117
-0.37773996591567993 0.02824796736240387 0.29177260398864746
0.30567261576652527 0.12415403127670288 0.44955581426620483
0.5684406161308289 0.007970307022333145 -0.26563599705696106
-0.1943873018026352 -0.29516521096229553 -0.20030495524406433
0.263639360666275 0.0032203635200858116 -0.14542372524738312
0.014545745216310024 0.003129042685031891 0.04812660440802574
-0.12928639352321625 0.20060591399669647 0.34638747572898865
-0.2177397906780243 -0.25376394391059875 0.12068456411361694
0.2318532019853592 0.004110246896743774 -0.051794372498989105
0.42301779985427856 -0.32845407724380493 -0.17428606748580933
0.053652770817279816 0.36768922209739685 0.45194149017333984
-0.10621269792318344 -0.09055455774068832 0.2348690927028656
0.3893094062805176 -0.498102068901062 -0.023557614535093307
0.3641398847103119 -0.16524028778076172 0.19054433703422546
0.44578930735588074 0.17315173149108887 0.34296825528144836
0.30567681789398193 -0.5441098213195801 0.1792791336774826
-0.4222055673599243 0.03703892230987549 0.343246728181839
0.5413929224014282 0.3967260420322418 0.018672145903110504
0.14148731529712677 -0.6221082210540771 0.011306162923574448
0.08963058143854141 -0.6250982880592346 -0.22431330382823944
-0.07649289071559906 -0.6486257314682007 0.16257989406585693
0.014792012982070446 0.38819587230682373 0.33993422985076904
0.05900980904698372 -0.4821798801422119 -0.3098720610141754
-0.09089341759681702 -0.08691204339265823 0.24782298505306244
-0.496311217546463 0.12310963124036789 -0.067512646317482
-0.3896840214729309 0.09483423084020615 0.18829046189785004
0.4866597652435303 0.4021252989768982 -0.1838442087173462
0.13215044140815735 -0.031460266560316086 0.31166431307792664
-0.581478476524353 0.12803247570991516 -0.270826518535614
-0.5869316458702087 0.005535772070288658 -0.0061973687261343
0.28393563628196716 0.0417666994035244 -0.39768359065055847
0.5045127272605896 0.11068641394376755 -0.3971365690231323
0.08215485513210297 0.401050865650177 -0.1477290391921997
-0.12167563289403915 -0.2696809768676758 0.239211305975914
0.02719065733253956 0.16952408850193024 0.3472227156162262
0.1554451435804367 0.059350281953811646 0.4584343731403351
-0.315809428691864 0.27373039722442627 0.34550940990448
-0.07779386639595032 -0.4314201772212982 0.1990232914686203
0.2903408408164978 0.223419189453125 -0.3964620530605316
0.38774266839027405 -0.5218302607536316 -0.06332923471927643
-0.2779209017753601 0.4017375111579895 0.09115897864103317
0.2102481573820114 0.0029977322556078434 0.15693144500255585
-0.1536932736635208 0.3371705114841461 -0.3969326913356781
0.11166977137327194 0.4003772735595703 -0.23645921051502228
-0.5674518346786499 0.10599672049283981 0.33600127696990967
0.4029305577278137 -0.00035648560151457787 0.1420859694480896
0.5763661861419678 0.14936092495918274 0.17540332674980164
0.1567167192697525 0.0030560633167624474 -0.20322076976299286
0.08515610545873642 0.002256819512695074 -0.05419157072901726
0.37549033761024475 -0.15912945568561554 -0.2520495653152466
0.307107150554657 -0.3895634710788727 0.16623882949352264
0.4497653841972351 -0.21792927384376526 -0.0697416365146637
0.3281691074371338 0.2304479330778122 -0.39654168486595154
0.09339282661676407 0.0031961591448634863 0.11924685537815094
0.031185545027256012 0.4002392292022705 0.2104547917842865
0.5026008486747742 0.00345343304798007 -0.17824435234069824
-0.5302009582519531 0.057967450469732285 0.34401190280914307
-0.5573106408119202 0.16352418065071106 0.33626970648765564
0.06622328609228134 -0.4426632523536682 0.25075528025627136
0.3633144497871399 -0.31051167845726013 -0.25048911571502686
0.1842663735151291 -0.6228922605514526 -0.0477929450571537
-0.09640057384967804 0.1369422823190689 0.3416694700717926
-0.12478400021791458 0.0033721858635544777 -0.3024466931819916
-0.5694772005081177 -0.013066433370113373 -0.010637477040290833
-0.39437273144721985 0.07125620543956757 -0.398289293050766
0.029586629942059517 -0.631661057472229 0.20409955084323883
-0.5756351351737976 0.010765351355075836 0.2923513650894165
0.4910569190979004 0.37082237005233765 0.3463045656681061
-0.12179405987262726 0.3803742527961731 -0.3976592719554901
0.2897610664367676 -0.48125678300857544 -0.23969559371471405
-0.18811702728271484 -0.39138200879096985 0.04735598340630531
-0.14188843965530396 -0.3829931616783142 -0.2036716789007187
0.061404336243867874 -0.6240851283073425 -0.308796763420105
0.06093984097242355 0.0020039230585098267 0.05576873943209648
-0.35855838656425476 0.19843079149723053 0.34383928775787354
0.4715416729450226 0.402951180934906 -0.12600290775299072
0.350399374961853 0.1690709888935089 0.34175601601600647
-0.5662017464637756 -0.013447383418679237 -0.0659169927239418
0.14040014147758484 -0.6204192638397217 -0.19944824278354645
-0.3861452043056488 0.14029040932655334 0.3447015881538391
0.0313989594578743 -0.6267198324203491 0.03276204690337181
0.5883919596672058 0.18968889117240906 0.17800253629684448
-0.1256704181432724 0.0025207512080669403 -0.245054230093956
0.39045995473861694 -0.4406568706035614 -0.07482942938804626
0.34756502509117126 -0.6428768634796143 -0.015252522192895412
6.258666689973325e-05 0.001511641894467175 -0.2719639539718628
0.5917035937309265 0.1973791867494583 -0.04375765472650528
0.19527567923069 -0.6164690852165222 -0.011244773864746094
-0.4107295870780945 -0.00538126053288579 0.33851340413093567
0.006311825942248106 0.002023897133767605 -0.2824335992336273
0.3827064633369446 0.4011651277542114 -0.1404351145029068
-0.48591551184654236 -0.09868954122066498 -0.2725426256656647
0.566787600517273 0.009106536395847797 -0.09241649508476257
0.0970401018857956 0.06658652424812317 -0.3978024125099182
0.3928488790988922 0.4024541676044464 -0.01680251955986023
0.5878639221191406 0.05312346667051315 0.1118389442563057
-0.03302101418375969 -0.10663828998804092 -0.3396648168563843
-0.4894898235797882 0.3877637982368469 -0.059965960681438446
0.21511229872703552 -0.6493405699729919 -0.26616141200065613
0.10580522567033768 0.4467308521270752 0.3571814298629761
0.06345052272081375 -0.3799436092376709 -0.33130764961242676
0.27473515272140503 0.46309894323349 0.3946932256221771
0.09392029047012329 -0.6276811957359314 -0.2622765600681305
-0.08738695085048676 -0.3246743679046631 0.2504981458187103
-0.42536547780036926 0.042595647275447845 -0.40009698271751404
0.10406884551048279 -0.648515522480011 0.24721626937389374
-0.03496819734573364 0.002536049112677574 -0.3587265908718109
0.44504496455192566 -0.1753229945898056 0.025626488029956818
0.3297046720981598 0.34198442101478577 0.40624162554740906
-0.5638431906700134 -0.04568153992295265 -0.03292723000049591
0.2366609424352646 0.0032631056383252144 -0.06499052047729492
0.2658202648162842 0.325122594833374 0.4605743885040283
-0.4001418948173523 -0.08504094928503036 -0.3140944242477417
-0.3746316432952881 0.027537044137716293 0.04506317153573036
0.14530056715011597 -0.0900813639163971 0.4082074761390686
-0.10260769724845886 -0.6258396506309509 -0.09077814966440201
-0.08891706168651581 0.0020998590625822544 -0.05958196148276329
-0.04107307270169258 0.02918533980846405 0.3434251844882965
-0.5776418447494507 0.01976999267935753 0.07177825272083282
-0.5637019276618958 0.0591888502240181 0.26663732528686523
0.13417690992355347 0.09369426965713501 0.4610042870044708
-0.5672512650489807 -0.019163383170962334 -0.07122709602117538
-0.23306848108768463 -0.1595044732093811 0.07451876997947693
-0.5275818705558777 0.31849855184555054 -0.39831212162971497
0.3639705777168274 -0.279236763715744 -0.23609398305416107
0.589838981628418 0.12297739088535309 0.21363604068756104
-0.5784236192703247 0.22996759414672852 -0.23164978623390198
-0.41017359495162964 -0.08026658743619919 -0.10952936112880707
-0.28169506788253784 0.16167761385440826 -0.39910951256752014
