-0.1243022158741951 -0.516726016998291 -0.2021423727273941
-0.5680097937583923 0.07239168137311935 0.18394538760185242
0.32453832030296326 0.00031223148107528687 0.15220004320144653
0.4514243006706238 0.33064591884613037 -0.4031791687011719
-0.48223358392715454 -0.016937946900725365 -0.4013855755329132
0.05930207669734955 -0.38922592997550964 0.27024877071380615
0.3168155252933502 0.08873438090085983 0.4465525150299072
-0.5725756883621216 0.06677594780921936 0.22026412189006805
0.35429951548576355 -0.3253961205482483 -0.2598366141319275
-0.39108046889305115 0.38438332080841064 0.036951616406440735
-0.3909311294555664 0.0818241685628891 -0.374229371547699
-0.44821786880493164 5.1847659051418304e-05 -0.13521808385849
0.16902947425842285 -0.04099392890930176 0.31876692175865173
0.26586636900901794 0.4017694592475891 -0.27985304594039917
0.393615186214447 0.40106210112571716 -0.04681592434644699
0.027584213763475418 -0.6317988038063049 0.24832971394062042
0.3982316851615906 0.40258467197418213 -0.1235063299536705
-0.21141977608203888 0.4002743065357208 0.3030106723308563
-0.2938821315765381 0.0016959728673100471 -0.10276854783296585
-0.5753915905952454 0.34306803345680237 0.13265696167945862
0.273332804441452 -0.6226499676704407 -0.1204657033085823
-0.35670584440231323 0.1258145421743393 -0.4035792052745819
-0.1775781363248825 5.3633470088243484e-05 -0.05236806720495224
0.023598121479153633 0.19069167971611023 0.4058800935745239
0.368083119392395 -0.4925864040851593 -0.13963192701339722
0.2090599089860916 0.0017142449505627155 0.2351795881986618
-0.4238867163658142 0.10031067579984665 -0.08601894229650497
-0.19896861910820007 0.36729666590690613 0.3410675525665283
0.024146826937794685 -0.42061495780944824 -0.3081822693347931
0.3967791795730591 -0.6095249652862549 -0.05086297169327736
0.14315128326416016 -0.07336011528968811 0.34928297996520996
0.15887823700904846 0.40145668387413025 -0.3279414474964142
-0.12687918543815613 -0.5170683264732361 -0.20459769666194916
0.10385195910930634 -0.6089454889297485 -0.3212037980556488
0.29022684693336487 -0.6461787819862366 0.13944582641124725
-0.42454808950424194 -0.10221192985773087 0.29321563243865967
-0.36817729473114014 -2.312101423740387e-05 -0.2671048045158386
-0.48094093799591064 0.342621773481369 0.011357144452631474
-0.3714088797569275 -0.017632557079195976 0.20709721744060516
0.22858896851539612 0.04657465219497681 0.46273866295814514
-0.10659726709127426 0.3429018557071686 0.343755304813385
-0.13239973783493042 -0.07900527864694595 -0.2726410925388336
-0.08248358964920044 -0.000217498280107975 0.26229390501976013
-0.5774731040000916 0.025745535269379616 0.28183087706565857
0.312328577041626 0.029140327125787735 0.36296895146369934
0.2738652527332306 -0.48585981130599976 0.20696386694908142
-0.10815756767988205 -0.6393020749092102 0.155429869890213
-0.14755567908287048 -0.5075581073760986 0.10678096860647202
-0.34978213906288147 -0.0005876701325178146 0.07885951548814774
0.25855886936187744 -0.08404862880706787 0.33185338973999023
0.031268514692783356 0.27027428150177 -0.39834457635879517
0.14101898670196533 -0.6319385766983032 0.21428032219409943
-0.37185806035995483 0.2892281413078308 0.34530210494995117
0.11066048592329025 -0.6196262240409851 -0.25926104187965393
0.024666951969265938 0.37878262996673584 0.34345537424087524
-0.5194175243377686 0.3943638205528259 -0.008400732651352882
-0.1628369241952896 -0.6533018350601196 0.060863275080919266
0.06974714249372482 -0.5474901795387268 -0.3193337321281433
0.36754274368286133 -0.5908029079437256 0.09414151310920715
-0.08886038511991501 0.001761886291205883 -0.049390438944101334
0.02510937862098217 -0.5587705373764038 -0.3081403970718384
0.26572251319885254 0.004418911412358284 0.3336666524410248
0.4297492802143097 -0.0006745830178260803 -0.11576666682958603
-0.09543551504611969 -0.6417667269706726 -0.18347467482089996
-0.17126941680908203 -0.09563588351011276 0.18361738324165344
-0.5395341515541077 -0.08282481133937836 -0.38633570075035095
-0.4367043673992157 -0.005096901673823595 -0.03979828581213951
0.2889559268951416 -0.6236120462417603 0.013371371664106846
-0.2391778528690338 -0.3141508400440216 0.0318429097533226
0.4128875732421875 -0.05141008645296097 -0.17697326838970184
0.005586314480751753 -0.0004920400679111481 -0.06637721508741379
-0.5215523838996887 0.09312601387500763 0.2356504201889038
0.45527383685112 0.0030235713347792625 -0.2887915074825287
-0.5819092988967896 0.1728779673576355 0.006302766036242247
0.14245030283927917 0.0012209601700305939 -0.005950898863375187
0.4508257806301117 -0.3219335079193115 -0.024983396753668785
0.2066405862569809 0.0017526308074593544 -0.0616581104695797
0.5762361288070679 0.1816386878490448 0.3306451439857483
-0.005478904116898775 -0.623288094997406 -0.2295210212469101
0.22317901253700256 -0.18573381006717682 0.2936750650405884
0.5397080183029175 0.4011971056461334 0.10505269467830658
-0.1031479462981224 -0.6344101428985596 -0.14770562946796417
-0.2378482073545456 -0.29454219341278076 -0.09623228758573532
0.1570131927728653 0.39146965742111206 0.4563371539115906
0.576086163520813 0.014326480217278004 0.3092810809612274
0.14564518630504608 -0.5656896233558655 -0.3187931776046753
-0.4543584883213043 -0.10659320652484894 -0.2550094425678253
0.10600467771291733 0.3982941210269928 0.2620886564254761
-0.3207361102104187 0.007852527312934399 -0.3916095495223999
0.29155319929122925 0.0028386861085891724 0.02347082458436489
0.01096196100115776 0.4013388156890869 -0.05486464500427246
0.30826693773269653 0.40334102511405945 -0.11593088507652283
0.23579637706279755 0.39968544244766235 0.24362336099147797
-0.2432759702205658 0.3858400285243988 -0.3969678282737732
0.30939772725105286 -0.6272899508476257 -0.1353602111339569
0.0283544659614563 0.06952046602964401 0.4541802406311035
-0.5012136697769165 0.3996245861053467 0.10153035819530487
0.46097487211227417 0.35389071702957153 -0.40391284227371216
-0.12695468962192535 -0.4130788743495941 0.14983445405960083
0.3211846351623535 0.003487061709165573 0.13652628660202026
-0.24211901426315308 0.32195696234703064 0.34352993965148926
-0.5800729393959045 0.21333065629005432 0.20495182275772095
-0.23660250008106232 -0.13671201467514038 0.03576026111841202
-0.1637130081653595 -0.4363279640674591 0.09425080567598343
0.4473353922367096 -0.1654425859451294 -0.04230695590376854
-0.3818829357624054 0.06330051273107529 -0.15609349310398102
0.3527594208717346 -0.6205514073371887 -0.18290117383003235
0.47765013575553894 0.0004474273882806301 -0.06949342042207718
-0.33476489782333374 0.01665409281849861 -0.40089350938796997
-0.3752646744251251 -0.06108839437365532 -0.21217994391918182
0.2383512705564499 0.0014396971091628075 0.24138180911540985
0.03492414951324463 -0.5708145499229431 0.2498253583908081
-0.5777422785758972 -0.007149417418986559 0.33450233936309814
0.37703371047973633 0.00024919677525758743 0.16504384577274323
-0.47384828329086304 0.400879830121994 -0.26847749948501587
-0.0405336394906044 -0.062613345682621 -0.3370727300643921
-0.05563712492585182 -2.2484688088297844e-05 -0.022071009501814842
-0.5461795926094055 -0.07866928726434708 -0.21897995471954346
-0.019388586282730103 -0.2541636526584625 0.2912006974220276
-0.34562915563583374 0.37686610221862793 0.013159849680960178
0.02139626070857048 0.041868556290864944 0.3999585211277008
0.1554061472415924 0.3243720829486847 0.34106317162513733
0.22210322320461273 0.30463942885398865 -0.40273985266685486
0.15697646141052246 0.12425211817026138 0.4655018150806427
-0.23364000022411346 -0.20186494290828705 -0.09317651391029358
0.5719621777534485 0.009104963392019272 -0.19877217710018158
-0.5783126950263977 0.08724094182252884 -0.0478806234896183
0.4556058645248413 0.2029893696308136 -0.39988449215888977
-0.5071241855621338 0.09811703860759735 0.1016162857413292
0.33751633763313293 0.16496333479881287 0.40062686800956726
0.12862512469291687 -0.0008340086787939072 -0.2612937390804291
0.32310110330581665 -0.06282670795917511 0.43732503056526184
0.17271170020103455 -0.07877330482006073 0.3123125433921814
-0.15330255031585693 -0.6258148550987244 -0.16612669825553894
-0.5460250377655029 -0.07426074892282486 0.08194590359926224
0.5475682616233826 0.004656956531107426 -0.3588385283946991
0.25499871373176575 -0.4983961284160614 -0.27405858039855957
0.2777836322784424 -0.6375434398651123 0.13153167068958282
0.11736083030700684 0.16440677642822266 0.4635392725467682
0.44920220971107483 -0.24770763516426086 -0.06444582343101501
-0.5826646685600281 0.2175777554512024 -0.2630046010017395
0.2640858590602875 -0.6388580799102783 0.16777871549129486
0.18853701651096344 0.0016396157443523407 0.10347600281238556
-0.12528423964977264 -0.1682043820619583 -0.28762364387512207
0.19920313358306885 -0.02557462267577648 0.46194198727607727
-0.015961792320013046 0.18515723943710327 -0.4001706540584564
-0.543282151222229 -0.07530379295349121 -0.18718238174915314
0.11778071522712708 -0.2016545981168747 -0.3727787733078003
-0.1028677225112915 -0.4466066062450409 -0.22342698276042938
-0.2447727620601654 0.4033007025718689 -0.28321823477745056
0.16374193131923676 -0.10671216249465942 -0.36583778262138367
-0.27089923620224 0.03162875398993492 0.3431417644023895
0.06593449413776398 -0.4253707826137543 0.25801515579223633
0.11841931939125061 0.2752177119255066 -0.40178370475769043
0.1404278725385666 -0.011118664406239986 0.4639645516872406
0.17683812975883484 0.25541722774505615 0.34428873658180237
0.2800270915031433 0.16024357080459595 0.46384134888648987
0.25845199823379517 0.002177853137254715 0.1384286731481552
-0.3767150938510895 0.06507375836372375 -0.20208212733268738
-0.044848427176475525 0.0008714473806321621 -0.24103620648384094
0.22783908247947693 0.001585157006047666 0.017424194142222404
0.30370673537254333 -0.6216514706611633 -0.12701883912086487
0.40813374519348145 0.1519920527935028 -0.401897668838501
-0.5705476403236389 0.06744983047246933 -0.16527020931243896
0.38253211975097656 -0.382416695356369 0.09090724587440491
0.11696379631757736 -0.6203547120094299 0.15867356956005096
0.582821786403656 0.21611784398555756 -0.3393498361110687
-0.585380494594574 0.1401752084493637 -0.10337544977664948
0.13958224654197693 0.416696161031723 0.45390477776527405
-0.5421142578125 0.009784672409296036 0.30403268337249756
-0.4263843297958374 0.0030024689622223377 0.27346259355545044
-0.2507408559322357 0.34077584743499756 -0.398830384016037
-0.5799489617347717 0.18273216485977173 -0.3112194538116455
0.5816980600357056 0.37500834465026855 0.2550799548625946
0.33130910992622375 -0.5571420192718506 -0.21382923424243927
-0.35830169916152954 0.40123045444488525 -0.30571144819259644
-0.5543638467788696 0.3844548165798187 -0.19728392362594604
-0.10877988487482071 -0.6242256164550781 0.010079634375870228
-0.4879619777202606 -0.1036958321928978 0.138865128159523
0.31189829111099243 -0.34901320934295654 0.24497833847999573
0.4539249837398529 -0.025209909304976463 -0.01332343090325594
0.029776187613606453 -0.48877885937690735 0.25328510999679565
0.5600777864456177 0.39971616864204407 -0.28315243124961853
-0.43178147077560425 0.0009627521503716707 -0.07074391841888428
-0.5822916030883789 0.2787172496318817 0.1524852067232132
0.15281739830970764 -0.06557093560695648 0.4459218680858612
0.5612366795539856 0.033531565219163895 -0.39969006180763245
0.5668141841888428 0.015536817722022533 -0.39335429668426514
-0.15463390946388245 -0.25190794467926025 -0.2558395564556122
-0.46107637882232666 -0.0004199701361358166 0.04039949178695679
0.2859218120574951 -0.4419383108615875 0.1987989991903305
0.05761975795030594 -0.38300397992134094 0.29045888781547546
0.15512636303901672 -0.6200375556945801 0.11564894765615463
0.21448133885860443 0.18513312935829163 0.3449779748916626
-0.563587486743927 0.37491294741630554 0.26564139127731323
0.27359476685523987 -0.6246216893196106 -0.12820133566856384
0.012041366659104824 -0.00041723763570189476 -0.24504242837429047
0.39635658264160156 -0.4497910141944885 -0.004249127581715584
-0.08049943298101425 -0.0013621887192130089 -0.28285980224609375
-0.3951697051525116 0.39819321036338806 0.08719626814126968
0.3486608862876892 -0.42728549242019653 -0.178691104054451
0.5238456726074219 0.019990229979157448 0.33955156803131104
-0.13719312846660614 -0.5005831122398376 0.13847309350967407
-0.039003822952508926 -0.6212663650512695 -0.2059810608625412
-0.2439422458410263 -0.02198108471930027 -0.07227139174938202
0.3304886817932129 0.4019796848297119 0.1033596321940422
0.2425442785024643 0.41459983587265015 0.4457228183746338
-0.25640740990638733 -0.0002391049056313932 -0.04662870243191719
0.22507956624031067 0.0023772846907377243 -0.13910430669784546
-0.5517694354057312 -0.07541224360466003 0.25416597723960876
0.31435054540634155 0.0031277183443307877 0.06232105940580368
-0.5439931154251099 0.004691498354077339 -0.0860673189163208
0.35315853357315063 0.1252669245004654 0.34448280930519104
-0.040110763162374496 -0.2629848122596741 0.2866891920566559
-0.10313869267702103 0.4014464318752289 0.01935344934463501
0.3020287752151489 -0.6224609613418579 0.009637623094022274
-0.4692375659942627 -0.10866702347993851 -0.285230427980423
0.30313530564308167 -0.07354342192411423 0.4243427813053131
-0.18709328770637512 -0.3635711967945099 -0.20346954464912415
-0.10876038670539856 0.0842558741569519 0.34358280897140503
0.07877244055271149 -0.4669027030467987 -0.317383348941803
0.18995283544063568 0.0003266468411311507 -0.254776269197464
-0.5827824473381042 0.17193560302257538 0.0596705824136734
0.3847407400608063 -0.41393977403640747 -0.10876212269067764
-0.3580334782600403 0.41300588846206665 -0.1081082820892334
0.1641022115945816 0.0013813604600727558 -0.37761205434799194
-0.12299742549657822 0.0009730737656354904 0.004426949191838503
0.045769356191158295 -0.14435406029224396 0.3089747130870819
-0.04367033764719963 -0.20197559893131256 0.28530046343803406
0.3948463797569275 0.0025372253730893135 -0.1312790811061859
0.19966523349285126 -0.6198146939277649 0.1390824019908905
0.23451638221740723 -0.0023589003831148148 0.3196188807487488
-0.5732792019844055 -0.03376025706529617 -0.16896411776542664
0.09296812117099762 -0.6211134791374207 0.008544753305613995
-0.5775707960128784 0.296344131231308 -0.10118576884269714
0.1290033459663391 -0.6230979561805725 -0.24738115072250366
0.06077621877193451 0.08613245189189911 0.343198299407959
-0.48294010758399963 0.11138404160737991 0.24647070467472076
-0.1994612216949463 0.4017429053783417 -0.06583786010742188
0.12141895294189453 -0.580450713634491 0.2616707682609558
0.11296650767326355 -0.12470919638872147 -0.37289106845855713
0.5827177166938782 0.19188062846660614 -0.31856170296669006
-0.5809522271156311 0.2877361476421356 0.28533270955085754
-0.029967937618494034 -0.0011516851373016834 -0.3649447560310364
-0.5704209804534912 0.36573106050491333 -0.1596805304288864
0.4134770333766937 0.09964928776025772 -0.3996794819831848
0.1700374037027359 -0.6217057108879089 -0.1341070830821991
-0.5424623489379883 0.0006123585626482964 -0.32676252722740173
0.21491609513759613 -0.26138997077941895 -0.3523407578468323
-0.08132187277078629 0.0012160814367234707 0.282767653465271
-0.3646170496940613 0.007664324715733528 -0.17457398772239685
-0.23513491451740265 -0.04088597372174263 -0.08643744140863419
0.08734917640686035 -0.2227529138326645 -0.3735842704772949
-0.008318294771015644 -0.6184030175209045 0.11215940862894058
-0.39289164543151855 0.3372010886669159 -0.40140554308891296
0.3895849585533142 -0.0034228558652102947 -0.20472599565982819
-0.02871098183095455 0.19251561164855957 -0.4009687900543213
-0.3751462996006012 0.3987673223018646 0.17446871101856232
-0.058465078473091125 0.39758625626564026 -0.38765233755111694
0.39657121896743774 0.29150134325027466 0.3488810956478119
0.38993483781814575 0.4026241600513458 -0.10357728600502014
-0.4441818594932556 0.10870960354804993 0.05168734863400459
-0.38628241419792175 0.3756085932254791 -0.19373780488967896
-0.005548315588384867 0.39852485060691833 0.3127411901950836
-0.32465261220932007 0.1551101803779602 0.3427077829837799
-0.43609046936035156 0.0017322204075753689 0.32014793157577515
-0.1833052784204483 0.2680826783180237 -0.4012409448623657
0.42933133244514465 0.3683115243911743 0.34546270966529846
-0.17158634960651398 -0.605879008769989 0.07424221932888031
-0.5734217166900635 -0.012428312562406063 -0.2957265079021454
-0.030265050008893013 0.40181809663772583 -0.3419227600097656
0.4247475266456604 -0.00026588793843984604 0.11490147560834885
0.36527219414711 0.2749597132205963 0.3427719175815582
-0.169679194688797 -0.3857648968696594 0.09355456382036209
-0.545897364616394 -0.0778355821967125 0.28228792548179626
0.2384316623210907 0.46561264991760254 0.37472304701805115
0.29161298274993896 0.08791876584291458 0.34601908922195435
0.3884592056274414 -0.5499295592308044 0.044154517352581024
0.20775675773620605 -2.6601366698741913e-05 -0.27676212787628174
-0.3385942280292511 0.014459299854934216 0.3399813771247864
0.4943189322948456 0.18169091641902924 -0.4000849723815918
0.30956754088401794 0.0022477498278021812 -0.23029619455337524
0.3176560699939728 0.3972223401069641 0.43255844712257385
-0.40925028920173645 -0.09367959201335907 -0.22277911007404327
0.05405847728252411 0.0013907244428992271 -0.2855747938156128
0.4437880218029022 -0.37062424421310425 -0.04320216923952103
0.4422386586666107 -0.12554703652858734 0.053845230489969254
0.01642383448779583 -0.0007368166698142886 -0.11895030736923218
-0.3507891297340393 0.03907878324389458 0.33534374833106995
-0.09337728470563889 0.40133026242256165 -0.33833497762680054
-0.025836627930402756 0.400332510471344 -0.05467144772410393
0.09554705768823624 -0.036844491958618164 0.46144741773605347
0.26549071073532104 0.46479201316833496 0.4342789947986603
0.007604221813380718 0.03307762369513512 0.3458321690559387
0.27329570055007935 0.4028686285018921 -0.10038266330957413
0.23682381212711334 -0.6203150749206543 0.22571580111980438
0.03239280357956886 0.20907971262931824 0.45062026381492615
0.4455116391181946 0.4019647538661957 -0.1708376258611679
0.0884600505232811 0.40255123376846313 -0.07325378805398941
0.43900564312934875 -0.2778797447681427 0.05906979739665985
-0.010409215465188026 -0.6230455636978149 0.052605487406253815
0.516999363899231 0.2968173325061798 -0.40125182271003723
-0.16264750063419342 0.39997413754463196 0.3133567273616791
-0.4063687026500702 0.3639509379863739 -0.40222597122192383
0.45264193415641785 0.4023444652557373 -0.13091081380844116
-0.2940042018890381 0.2539570927619934 -0.400924950838089
-0.5770500302314758 0.33718642592430115 0.12035704404115677
0.09174927324056625 0.3990597128868103 0.29846662282943726
-0.5753670930862427 0.22414544224739075 0.1378760188817978
-0.13534994423389435 0.0010630195029079914 -0.007582192309200764
-0.30889639258384705 0.40467798709869385 -0.04961716756224632
0.23860691487789154 -0.6198321580886841 0.16802242398262024
0.21594743430614471 -0.2698448896408081 -0.34636038541793823
-0.5062323808670044 0.03676518797874451 0.347419410943985
-0.01868717558681965 -0.6303035616874695 0.23186536133289337
0.3903380334377289 -0.5082374811172485 -0.07995377480983734
-0.3255736529827118 0.3511827290058136 -0.16624021530151367
-0.1390845626592636 0.4002046287059784 -0.14474782347679138
-0.05651010572910309 -0.6279195547103882 -0.1979716718196869
-0.05537484958767891 0.16213950514793396 -0.4021976590156555
-0.2934964597225189 0.18572553992271423 0.34246522188186646
-0.4167473316192627 0.000919693149626255 -0.40009889006614685
0.03961539641022682 -0.39759770035743713 -0.3143043518066406
-0.38078737258911133 0.07283977419137955 -0.14575038850307465
-0.08601079881191254 -0.14301936328411102 0.26282379031181335
0.0411849319934845 0.34173187613487244 -0.39818185567855835
-0.14251172542572021 -0.6628273129463196 -0.1539972871541977
-0.1272583305835724 -0.6638829112052917 -0.18322476744651794
-0.33358246088027954 0.40290942788124084 -0.3509283661842346
0.4509141147136688 -0.17992831766605377 -0.006214359775185585
-0.3527880012989044 -0.0008833075407892466 -0.16466154158115387
0.3944714069366455 -0.3644466996192932 -0.21470390260219574
-0.38111934065818787 0.4013151526451111 0.24085819721221924
0.5391144156455994 0.00788492988795042 -0.013527742587029934
0.21284514665603638 -0.6242397427558899 -0.16406041383743286
0.4040813148021698 -0.00024364423006772995 0.06889841705560684
-0.16193725168704987 0.00020786092500202358 -0.120108462870121
-0.040977053344249725 -0.48254528641700745 0.2255605161190033
0.426114559173584 0.40084096789360046 0.25795891880989075
0.2625258266925812 0.001939601730555296 -0.2669903337955475
0.26954999566078186 0.39951661229133606 0.34808674454689026
-0.10268907248973846 -0.010628769174218178 0.24788525700569153
0.0680813267827034 -0.0011412574676796794 -0.36513248085975647
0.34808674454689026 -0.1875055432319641 0.21326951682567596
0.3631213903427124 0.12557217478752136 -0.4004237651824951
0.03985561802983284 0.25995934009552 -0.399717777967453
0.02336936816573143 0.16444577276706696 0.39376044273376465
0.29519060254096985 0.3915725648403168 -0.39198097586631775
-0.5465622544288635 0.09675870090723038 0.1405118703842163
-0.392159104347229 -0.07720666378736496 -0.08858117461204529
-0.0772111788392067 0.400689035654068 0.22632065415382385
0.5813713073730469 0.3934224843978882 0.11047488451004028
0.24203838407993317 -0.21075314283370972 -0.3406714200973511
0.46315905451774597 0.34799471497535706 0.3488170802593231
0.39466795325279236 -0.4850959777832031 -0.057039640843868256
0.3258993327617645 -0.34484994411468506 0.23691995441913605
0.5089041590690613 0.08813446015119553 -0.401099294424057
0.3344208598136902 0.3904796838760376 -0.39743661880493164
0.43323999643325806 0.39893895387649536 0.2536197006702423
-0.023659517988562584 -0.6249200701713562 -0.2190379798412323
0.3431352376937866 -0.651818573474884 -0.1396605670452118
0.11936145275831223 -0.06912137567996979 -0.3709595203399658
-0.14602650701999664 -0.4344983398914337 0.12049457430839539
0.4740903377532959 0.016054565086960793 -0.395300954580307
-0.22860468924045563 -0.0018485896289348602 0.06179260462522507
-0.2373630255460739 -0.20590469241142273 0.02203858457505703
0.5840531587600708 0.19819381833076477 -0.3122870922088623
-0.48462817072868347 0.39284059405326843 -0.15025542676448822
-0.5722755193710327 0.0025649804156273603 -0.36139920353889465
0.11318061500787735 -0.31912216544151306 -0.3742281198501587
-0.053554218262434006 0.15355439484119415 -0.40402162075042725
-0.25117653608322144 0.3965890109539032 -0.17535606026649475
-0.15379363298416138 0.27393007278442383 -0.40088120102882385
0.3224639892578125 -0.06100443750619888 0.3341614305973053
0.5888828039169312 0.32886531949043274 0.051576923578977585
-0.3635648787021637 -0.003961482550948858 0.07385145872831345
-0.10700931400060654 -0.4480243921279907 -0.23375269770622253
0.3367770314216614 0.4011552631855011 0.26825013756752014
-0.4661227762699127 0.4078514873981476 -0.09747474640607834
-0.5763232111930847 0.31760916113853455 -0.1354142129421234
-0.23396556079387665 0.38845083117485046 -0.39750322699546814
-0.366902619600296 0.011020438745617867 -0.3990103602409363
-0.33460041880607605 0.3655417859554291 -0.18507519364356995
-0.32078349590301514 0.4004134237766266 0.08501230180263519
0.3216018080711365 -0.48498964309692383 -0.22023902833461761
0.5809267163276672 0.39613625407218933 0.12696917355060577
0.49727699160575867 0.1643255203962326 0.345852255821228
-0.31141984462738037 0.3811822533607483 -0.004806833807379007
-0.0017023971304297447 -0.00018843170255422592 -0.1371995210647583
0.13465911149978638 0.0008698715828359127 0.179871067404747
0.3762573003768921 0.39843279123306274 0.3088882565498352
0.21988943219184875 0.4004754424095154 -0.24829860031604767
-0.5079556703567505 0.40057098865509033 0.21494601666927338
-0.5769588351249695 0.06744062900543213 -0.34820500016212463
0.46157169342041016 0.38904500007629395 0.34231242537498474
-0.17334207892417908 0.060430966317653656 0.34207233786582947
0.19304898381233215 0.472826212644577 0.419939249753952
-0.5357286930084229 -0.07801569253206253 0.3115592896938324
-0.14609384536743164 -0.5265382528305054 0.12471725046634674
0.4513240456581116 -0.30120569467544556 0.002902531996369362
0.5675655007362366 0.288557231426239 0.34781768918037415
-0.36537033319473267 0.06358641386032104 0.29915469884872437
-0.478013813495636 0.10597605258226395 -0.036343347281217575
-0.027282802388072014 -0.31890755891799927 0.2892634868621826
0.1327875256538391 0.09624049067497253 -0.40200841426849365
0.16732390224933624 -0.03030257299542427 0.32657504081726074
-0.5773817300796509 0.358084112405777 -0.2720441520214081
0.291574090719223 -0.3156890869140625 0.26296356320381165
0.1797521561384201 -0.35372817516326904 -0.36476409435272217
0.061399560421705246 -0.23026558756828308 0.314056396484375
0.2709914445877075 0.4002363681793213 0.05330699309706688
-0.428116112947464 0.39872315526008606 0.19407005608081818
-0.40596675872802734 0.36353155970573425 -0.17718149721622467
-0.22133544087409973 -0.2683827877044678 -0.13876919448375702
0.17619478702545166 0.022057417780160904 0.3414800465106964
-0.18044927716255188 -0.0011184669565409422 0.14154228568077087
-0.380889892578125 0.07163147628307343 0.3392551839351654
-0.18029892444610596 -0.3791251480579376 0.1323324292898178
0.37103188037872314 -0.003518533892929554 0.18513917922973633
0.5855499505996704 0.19923749566078186 -0.3401619493961334
-0.5252754092216492 -0.07782404124736786 0.3307940363883972
0.06475997716188431 -0.09142932295799255 0.3156670928001404
0.040743425488471985 0.3846909701824188 0.37355655431747437
-0.4039256274700165 0.3940703272819519 -0.3983462154865265
-0.03959235921502113 0.3983354866504669 0.2668282687664032
-0.15215007960796356 0.4011785089969635 -0.15776292979717255
-0.16174618899822235 -0.38264214992523193 0.11493971943855286
0.17373956739902496 0.0018377061933279037 0.2569047808647156
0.4141797721385956 0.3017367720603943 -0.4022998809814453
0.5539087057113647 0.27256280183792114 -0.397203266620636
-0.25100335478782654 0.396415114402771 -0.09640643000602722
-0.37065646052360535 0.1516302525997162 0.34195759892463684
0.1028330996632576 -0.4535307288169861 0.2630369961261749
-0.18898992240428925 -0.42032304406166077 -0.012384096160531044
-0.16950923204421997 -0.23948466777801514 0.18391315639019012
0.44645941257476807 -0.35934048891067505 -0.020373094826936722
0.5315256118774414 0.3867589235305786 -0.39151766896247864
0.15284475684165955 -0.052082378417253494 0.3200646936893463
0.22163480520248413 -0.2382439821958542 -0.3497689962387085
0.23085159063339233 -0.6084617972373962 -0.286445289850235
0.07573364675045013 0.0005460579413920641 -0.040640152990818024
-0.23826493322849274 0.16271187365055084 0.3434835374355316
-0.36539119482040405 -0.0005792293231934309 0.22273656725883484
-0.5805259346961975 0.24349981546401978 -0.29975444078445435
-0.3751083016395569 -0.0632096454501152 0.1686231940984726
-0.5750333666801453 0.023599812760949135 0.15555830299854279
-0.34453916549682617 0.36398857831954956 0.037292513996362686
-0.052282802760601044 -1.5337951481342316e-05 -0.02761397883296013
0.048571281135082245 -7.722037844359875e-05 -0.15357929468154907
-0.13446219265460968 -0.0010055284947156906 -0.2609882950782776
0.02580239251255989 -0.0011287201195955276 0.38557326793670654
-0.5781849026679993 0.014768730849027634 -0.102768674492836
-0.324850469827652 0.13469740748405457 -0.40381911396980286
0.22813303768634796 -0.6226702928543091 0.11971753090620041
-0.1832466423511505 0.3139455020427704 0.34220314025878906
0.5880306363105774 0.3079077899456024 -0.09897216409444809
0.10780564695596695 0.24783927202224731 0.34285858273506165
0.28319868445396423 0.0025300001725554466 -0.09344945847988129
-0.4177027940750122 0.3990931212902069 0.1040373295545578
0.30787965655326843 0.002551055047661066 0.12797248363494873
0.516006350517273 0.002579393796622753 -0.13303035497665405
-0.36136865615844727 0.4067629873752594 -0.14681118726730347
-0.16970151662826538 -0.000744387973099947 -0.29864418506622314
-0.06281901150941849 -0.6216657757759094 -0.04170973598957062
0.22498300671577454 -0.00041727442294359207 0.14434194564819336
0.10085748136043549 -0.47180643677711487 -0.3166049122810364
0.045787300914525986 0.3887307941913605 0.3557701110839844
-0.22819365561008453 -0.002705874852836132 0.08826681971549988
0.0057007670402526855 0.2533531188964844 -0.3999937176704407
0.5687183141708374 0.39658230543136597 -0.07279863953590393
0.4344998896121979 -0.37143853306770325 0.0470103956758976
-0.5880911350250244 0.28156578540802 -0.14146722853183746
0.3855196237564087 -0.6204848289489746 -0.10884541273117065
-0.4430147111415863 -0.10523707419633865 -0.217503622174263
-0.06299129128456116 -0.5811192393302917 0.20834338665008545
0.0688360407948494 0.0002452760236337781 -0.26271775364875793
-0.36550742387771606 0.015249454416334629 -0.3618091344833374
-0.085418701171875 -0.634463906288147 0.1353743076324463
0.326987624168396 -0.3786744177341461 0.21067048609256744
-0.29909634590148926 0.00034413672983646393 0.2444506287574768
0.25115373730659485 0.4679049551486969 0.376329630613327
0.021052177995443344 0.13356326520442963 -0.4024941027164459
-0.22108685970306396 -0.2076694518327713 -0.13789741694927216
0.3417666554450989 0.009031016379594803 0.33972951769828796
-0.12832011282444 0.3978213667869568 0.17628587782382965
0.1774032562971115 -0.6221202611923218 0.20020879805088043
-0.5450783371925354 -0.07722878456115723 0.028981374576687813
0.3682807981967926 -0.04329095408320427 -0.2509441375732422
-0.0010629030875861645 -0.08395238220691681 -0.3578284978866577
0.3724539875984192 0.40222012996673584 0.13366267085075378
-0.48306041955947876 0.38701602816581726 0.3387485444545746
-0.5033881068229675 0.37266847491264343 -0.1474415808916092
-0.17976218461990356 -0.4813483655452728 0.03726398944854736
-0.2918494641780853 0.3160848915576935 0.3425496220588684
-0.22048883140087128 -0.0007241428829729557 -0.21140974760055542
0.006683488376438618 0.40063753724098206 0.22629952430725098
-0.12315259128808975 0.2515542507171631 0.35686445236206055
0.26650217175483704 0.35303977131843567 -0.4014855623245239
0.19537246227264404 0.08642268180847168 0.3445677161216736
-0.005479310639202595 0.2822154462337494 0.39686745405197144
0.2305096834897995 0.22069071233272552 -0.40268343687057495
0.04682985693216324 0.39899176359176636 0.26026904582977295
-0.5766331553459167 0.10752534121274948 -0.1421719789505005
-0.24075591564178467 0.00014603673480451107 -0.17967046797275543
-0.08296823501586914 -0.627768337726593 -0.12980884313583374
0.49490928649902344 0.3996720314025879 0.13336044549942017
-0.28133442997932434 0.3664301633834839 -0.11536066234111786
0.32831183075904846 -0.6265091896057129 -0.041058335453271866
-0.5807996392250061 0.19748800992965698 0.06389021128416061
0.3775455355644226 -0.3960389494895935 -0.12641853094100952
-0.019619930535554886 -0.5154388546943665 0.2380628138780594
-0.08095205575227737 -0.03027254343032837 -0.32215550541877747
-0.5708997845649719 0.059875160455703735 0.043365541845560074
0.21096296608448029 0.16464941203594208 0.46564385294914246
-0.24345706403255463 0.3967120051383972 -0.10192647576332092
-0.018540531396865845 -0.34350326657295227 0.2905306816101074
-0.27864858508110046 0.19378426671028137 0.34171706438064575
0.3900631368160248 -0.655132532119751 -0.05279916524887085
-0.4353359341621399 0.20049910247325897 -0.4032060503959656
0.3562811017036438 0.0014593517407774925 0.1417543739080429
-0.579095721244812 0.2750096321105957 0.10877227783203125
-0.5674229264259338 -0.000617222161963582 -0.0659857839345932
-0.2785213589668274 0.3115665316581726 -0.40067046880722046
-0.2957451343536377 0.25217166543006897 -0.4015182852745056
0.020361555740237236 0.0011087534949183464 -0.24702925980091095
0.018576649948954582 2.3354776203632355e-05 -0.1352221816778183
-0.37650883197784424 0.1361112743616104 0.34121227264404297
0.28102362155914307 0.020750317722558975 0.34285569190979004
0.013135986402630806 0.18494990468025208 0.40756967663764954
0.1698366105556488 0.39875975251197815 0.16518239676952362
-0.04838918149471283 0.00024405703879892826 0.18311940133571625
0.15290318429470062 -0.6284911632537842 -0.26175448298454285
0.19906479120254517 0.17733938992023468 -0.4018956422805786
0.2362682819366455 0.16906875371932983 0.4638311564922333
-0.5718637108802795 -0.0389476977288723 -0.10160009562969208
0.2776187062263489 -0.3616237938404083 0.266813725233078
0.06515141576528549 0.39107823371887207 0.36907410621643066
0.2608424723148346 -0.0584389865398407 0.28322485089302063
0.572950541973114 0.01594747230410576 -0.3845544159412384
0.09598138928413391 0.0010442398488521576 -0.23941253125667572
0.21341395378112793 -0.278246134519577 0.3014148771762848
-0.014255352318286896 -0.622621476650238 0.1700405776500702
-0.17966896295547485 -0.5741328597068787 -0.0860997885465622
0.13031607866287231 -0.6216868162155151 0.03367752581834793
-0.021399598568677902 -0.6312167644500732 0.22965291142463684
0.036333512514829636 -0.3614579439163208 0.3085305988788605
-0.3984842002391815 0.0935702845454216 -0.24828240275382996
-0.02669082209467888 0.3982333242893219 0.22720946371555328
0.2246229350566864 0.0015304251573979855 -0.21662786602973938
0.3094721734523773 0.1354415863752365 0.3476673364639282
-0.38623079657554626 -0.07160799950361252 -0.13993795216083527
0.40159475803375244 -0.13264481723308563 0.148191899061203
-0.08688753098249435 0.3143017590045929 0.3458293676376343
-0.5427398085594177 0.07402320951223373 -0.18994277715682983
-0.14760515093803406 -0.6545882225036621 0.0506160743534565
-0.29573437571525574 0.384287565946579 -0.10962404310703278
-0.15943054854869843 -0.48434609174728394 0.10263541340827942
0.04773811623454094 0.011699461378157139 0.46057459712028503
0.12348152697086334 -0.6232055425643921 0.20369787514209747
0.13242855668067932 -0.6289597749710083 -0.3172507882118225
0.5874888300895691 0.27237993478775024 -0.13911433517932892
-0.5850953459739685 0.16821010410785675 -0.3570472002029419
-0.4446934163570404 0.05113683268427849 -0.4051347076892853
0.0361926332116127 0.40231987833976746 -0.16823866963386536
-0.4999121427536011 0.0030966736376285553 0.24667687714099884
-0.2405732423067093 -0.10096056759357452 -0.04155518114566803
-0.3451204299926758 -0.0034724464640021324 -0.15772390365600586
-0.5125846862792969 0.1002754271030426 0.16346487402915955
0.22049124538898468 0.0018059988506138325 -0.283067524433136
0.42428356409072876 0.006702855229377747 -0.3838411271572113
-0.439881831407547 -0.06257648020982742 -0.4021315574645996
-0.10026201605796814 0.00011932034976780415 -0.05373856797814369
-0.4217401146888733 0.06418183445930481 -0.40171295404434204
0.17535574734210968 -0.003247157670557499 0.32806020975112915
0.2209644615650177 0.0019223378039896488 -0.2796620726585388
0.26450490951538086 -0.6252415776252747 -0.1577596813440323
-0.4291258752346039 0.41491881012916565 -0.12024042010307312
0.5832818746566772 0.349971204996109 0.18388469517230988
-0.2385181039571762 -0.10116500407457352 0.010326161049306393
0.059794507920742035 0.2429225742816925 0.4647770822048187
0.02682422287762165 0.00011288560926914215 -0.3453128933906555
0.25160932540893555 0.3693079352378845 -0.3989282548427582
0.20472808182239532 0.4625079333782196 0.3678770065307617
-0.2904445230960846 0.0016007679514586926 0.21539998054504395
-0.10410900413990021 0.001168243121355772 -0.09754274785518646
-0.5787355899810791 0.10137476027011871 -0.3174991011619568
0.2109622359275818 0.0008189184591174126 -0.35476112365722656
0.29052212834358215 0.002934420946985483 -0.3463077247142792
-0.5803111791610718 0.3316645920276642 0.10028877854347229
0.26483353972435 -0.11569526046514511 -0.32930266857147217
0.523606538772583 0.005381752271205187 -0.1616147756576538
-0.3017154335975647 0.0008708294481039047 0.13678030669689178
-0.17391525208950043 -0.10894432663917542 0.180463507771492
-0.25119373202323914 0.39805057644844055 0.01868126541376114
-0.5821388959884644 0.21936680376529694 -0.21550321578979492
-0.47626587748527527 0.00031409086659550667 -0.2542338967323303
0.23905065655708313 -0.623369574546814 -0.15685144066810608
-0.029802564531564713 -0.27731454372406006 -0.34685906767845154
-0.5025240778923035 0.09987788647413254 -0.1152387410402298
-0.032749488949775696 -0.5177881121635437 0.23072324693202972
0.3899714946746826 0.0025235069915652275 0.06328904628753662
0.17039738595485687 -0.6216726303100586 -0.10536129772663116
0.032948046922683716 0.22976423799991608 0.4539322555065155
0.22870121896266937 0.06661602109670639 0.4649839997291565
-0.2636415660381317 0.4007177948951721 0.2981300950050354
0.5869404077529907 0.15021951496601105 -0.17747998237609863
0.4640417993068695 0.40028703212738037 -0.22609609365463257
-0.576216995716095 0.20421557128429413 0.15944704413414001
-0.47336408495903015 0.004077475517988205 0.2119765281677246
-0.4566347599029541 0.24828985333442688 0.34515616297721863
-0.5167062878608704 0.3531341552734375 -0.06821657717227936
0.5786178708076477 0.39458388090133667 0.20099438726902008
0.2511943280696869 0.14985696971416473 0.4631178081035614
0.3816233277320862 -0.13270708918571472 -0.23361524939537048
-0.25179898738861084 0.40040144324302673 0.1019303947687149
-0.09061343967914581 0.2871130406856537 0.34101927280426025
0.35125505924224854 0.21467560529708862 -0.4003830552101135
0.4276784658432007 0.001336510293185711 0.01581851951777935
-0.3159186542034149 0.004719618242233992 0.2983231246471405
-0.1832629293203354 -0.3315337896347046 -0.2105451375246048
-0.040891777724027634 0.0007976274937391281 -0.11010360717773438
0.06541930884122849 -0.1275164633989334 -0.3700687885284424
0.4483144283294678 0.10393037647008896 -0.4005109965801239
-0.1658720076084137 -0.3786287307739258 -0.2134094089269638
0.3769085705280304 -0.5802261829376221 0.07713990658521652
-0.4320482611656189 0.40220698714256287 -0.3305385708808899
0.35920533537864685 0.0029640626162290573 0.02489931508898735
0.06770548969507217 0.3069601058959961 0.3430028557777405
-0.16549475491046906 0.3984258770942688 0.2663270831108093
0.24743501842021942 -0.628535807132721 -0.21210822463035583
-0.08498945087194443 0.0011861834209412336 0.15649688243865967
-0.5829183459281921 0.17873163521289825 0.024642053991556168
-0.09111381322145462 0.3989483118057251 0.01413443312048912
0.3948827087879181 -0.3876022696495056 -0.10461617261171341
-0.2342345118522644 -0.17805598676204681 0.05574876815080643
0.46101486682891846 0.001060769078321755 -0.05359289422631264
0.22058045864105225 0.39963477849960327 0.13174615800380707
0.4430260956287384 -0.1827184408903122 -0.08961008489131927
0.5814216136932373 0.15674106776714325 -0.30670610070228577
-0.4004144072532654 -0.003825289197266102 0.03267715126276016
-0.10573190450668335 -0.11250598728656769 0.2489631474018097
0.17978210747241974 0.0015376880764961243 -0.11782734841108322
0.3823395073413849 -0.650632917881012 -0.08743736892938614
-0.21016980707645416 0.00765778124332428 -0.38995009660720825
0.30872678756713867 0.38189196586608887 0.41725799441337585
-0.07911291718482971 0.1388719528913498 0.3442481458187103
0.1979849487543106 0.0022493423894047737 -0.0018336824141442776
0.021629376336932182 -0.5707878470420837 0.2502524256706238
-0.58090740442276 0.2772810757160187 -0.07377610355615616
-0.16728335618972778 0.38700050115585327 0.34242603182792664
-0.00029859348433092237 -0.621456503868103 -0.13291798532009125
0.09618616849184036 -0.6227259039878845 -0.06719323992729187
0.4443218410015106 -0.3216152787208557 0.04291650280356407
-0.24283254146575928 0.0010341857559978962 -0.11260063201189041
-0.0042199743911623955 -0.44701167941093445 -0.2953304946422577
-0.5443244576454163 0.3905886113643646 -0.024926267564296722
-0.37410950660705566 0.0357731394469738 -0.3967011868953705
0.12312597781419754 0.4025347828865051 -0.07874158024787903
-0.5696635246276855 0.36306166648864746 -0.38464874029159546
0.25364428758621216 0.17500248551368713 -0.4026762843132019
0.30487415194511414 0.413297176361084 0.44445061683654785
0.010240480303764343 -0.0024265446700155735 0.31871357560157776
0.5877036452293396 0.278455913066864 -0.10940132290124893
0.5341788530349731 0.005178350023925304 -0.14578455686569214
-0.3225822150707245 0.30716240406036377 -0.40340539813041687
0.37578827142715454 -0.621845543384552 0.07541429996490479
0.33280864357948303 -0.6335082650184631 0.0626811534166336
0.39516156911849976 0.0018991939723491669 0.15691885352134705
-0.5820224285125732 -0.013324590399861336 0.29988542199134827
-0.42751699686050415 0.0013372907415032387 -0.03633081167936325
-0.5656585097312927 -0.050991255789995193 -0.2742435336112976
0.21219012141227722 0.001402912545017898 0.029053213074803352
-0.575229287147522 0.013105361722409725 0.2799127995967865
-0.3032679855823517 0.36127743124961853 -0.020724548026919365
0.21682868897914886 -0.405348002910614 -0.2933599650859833
-0.012105854228138924 0.06107236072421074 0.34662580490112305
-0.4522618055343628 -0.001023569144308567 -0.33158206939697266
-0.21649444103240967 0.20458638668060303 -0.4014641344547272
-0.47953832149505615 0.39809858798980713 0.04205458611249924
-0.37689343094825745 0.3978319466114044 0.15537288784980774
0.5852321982383728 0.3122331500053406 0.12601803243160248
0.35455185174942017 -0.3577534258365631 0.2102242261171341
-0.03028835728764534 -0.6210296750068665 0.10467799007892609
-0.02741413190960884 -0.38032522797584534 0.2531741261482239
-0.3679221272468567 0.3988128900527954 0.27573445439338684
0.04528496786952019 -0.6192709803581238 0.15160726010799408
0.0991283506155014 0.400072306394577 -0.17642918229103088
-0.4220440983772278 0.10035163164138794 -0.15502604842185974
-0.2249758541584015 -0.2914896011352539 -0.1166609600186348
-0.4040067791938782 -0.08840127289295197 -0.005441271234303713
0.5536172986030579 0.4026792049407959 -0.20979979634284973
0.3308994174003601 -0.6266446709632874 -0.0657179206609726
0.08116449415683746 -0.5811888575553894 -0.3203415274620056
-0.5744317173957825 0.04212503880262375 0.33181488513946533
0.4342455565929413 0.0011865971609950066 0.1506732851266861
-0.33226683735847473 0.12381237000226974 -0.40424489974975586
0.383762925863266 -0.47389644384384155 -0.1100233644247055
0.21837444603443146 0.2818548381328583 0.4640529751777649
-0.38846728205680847 0.3474102318286896 -0.20661665499210358
-0.07814058661460876 -0.6221877336502075 -0.11883798241615295
-0.12448840588331223 0.3976987600326538 0.18122000992298126
-0.13717100024223328 -0.6466434597969055 -0.1889307200908661
-0.2119806408882141 0.09437567740678787 -0.3987032175064087
0.35637709498405457 -0.36771106719970703 -0.2547643482685089
0.03523770719766617 0.04232355207204819 -0.39809557795524597
-0.43360939621925354 0.4059942066669464 -0.017894310876727104
0.3156164288520813 -0.25116047263145447 -0.3008800446987152
0.05124757066369057 0.4006962478160858 0.1619405895471573
-0.4813188910484314 0.17182263731956482 0.342941552400589
-0.18528373539447784 -0.0011373087763786316 -0.2474604696035385
0.39372560381889343 -0.5691021680831909 -0.016850663349032402
-0.5791093707084656 0.02571321465075016 0.22026187181472778
-0.5726844072341919 0.36076539754867554 -0.25528398156166077
0.4183022081851959 0.07437317818403244 0.3474039137363434
0.17609210312366486 -0.578069269657135 0.24754738807678223
0.3347129225730896 0.15595033764839172 -0.4039219915866852
0.19971810281276703 -0.40209275484085083 0.24440248310565948
-0.07178805023431778 0.0010186638683080673 -0.15574049949645996
0.11353027820587158 -0.000847136601805687 0.052847929298877716
0.22215043008327484 0.40208354592323303 -0.2741711735725403
-0.14272165298461914 -0.21368491649627686 0.2147669792175293
0.1019570454955101 0.11362940818071365 0.4646815359592438
-0.206313356757164 -0.22460246086120605 0.12160438299179077
0.3458414673805237 0.002145751379430294 -0.3667293190956116
-0.4601987898349762 0.05341876298189163 0.3477932810783386
0.02775169536471367 0.34551718831062317 -0.40316009521484375
-0.04624355956912041 0.002566872164607048 0.1911027431488037
0.27918359637260437 -0.6409965753555298 0.1619812250137329
0.585016667842865 0.16823028028011322 -0.2780245840549469
0.03603210300207138 -0.34599339962005615 -0.3675898611545563
-0.008399918675422668 -0.6228989362716675 -0.2959257662296295
-0.4853878617286682 -0.10564861446619034 -0.3123607635498047
-0.5818668007850647 0.3169298470020294 0.14230306446552277
-0.14357967674732208 0.3966437876224518 0.254887193441391
0.1320255994796753 0.39482325315475464 0.4631411135196686
0.10331020504236221 0.0006941105239093304 -0.24324961006641388
0.39876502752304077 -0.38618189096450806 -0.08890651911497116
-0.13332661986351013 -0.3876683712005615 -0.21388226747512817
0.11688058078289032 0.2211822122335434 0.34542974829673767
-0.04713389649987221 -0.3547706604003906 0.2797276973724365
0.24095992743968964 -0.5155078172683716 -0.28208231925964355
0.47444507479667664 0.001964195631444454 0.002624763874337077
0.30357521772384644 0.3914768397808075 -0.39689818024635315
0.1021028608083725 0.3977828919887543 0.2525823712348938
0.5599035024642944 0.2888392210006714 -0.3986254632472992
0.2177833616733551 0.08555557578802109 0.46513473987579346
-0.20849789679050446 -0.05364163964986801 -0.1825682669878006
-0.5561008453369141 0.38503363728523254 -0.2309008240699768
0.4449000656604767 0.0005610405933111906 -0.0438983254134655
-0.582248866558075 0.1410532295703888 0.04583485424518585
-0.13647526502609253 -0.3470888137817383 -0.2740914821624756
-0.3926140367984772 0.3200611472129822 0.3463524878025055
0.05566633120179176 0.3848731517791748 0.459005743265152
-0.185136079788208 -0.6211274266242981 -0.020453935489058495
0.10534875839948654 0.0018650684505701065 0.2012275755405426
-0.5022992491722107 -0.06988710165023804 -0.4025857746601105
0.3848886787891388 -0.4911065697669983 0.05669992044568062
0.2214972972869873 0.40004977583885193 -0.2905217409133911
-0.3277224898338318 0.4062500596046448 -0.03282330930233002
-0.2146657109260559 -0.1313260942697525 0.11597072333097458
-0.12289279699325562 -0.3162879943847656 -0.28830137848854065
0.31578636169433594 -0.0007583349943161011 0.3342132568359375
0.025560490787029266 0.3747123181819916 0.4141506850719452
0.5848504304885864 0.017377877607941628 0.2645238935947418
0.4985068738460541 0.0006030658259987831 -0.2896568477153778
0.37258094549179077 -0.41141432523727417 -0.14416101574897766
-0.4404364228248596 0.38496944308280945 0.014564549550414085
-0.5786439180374146 0.006210772320628166 0.0071771531365811825
-0.5763840675354004 0.3126627206802368 0.2835262417793274
0.02819424867630005 -0.21423843502998352 -0.3673836290836334
-0.21674960851669312 0.4012933075428009 -0.019412731751799583
-0.23600304126739502 0.27228090167045593 -0.3998701572418213
0.3785156011581421 0.001928991754539311 -0.072250597178936
-0.1176864504814148 0.2681264579296112 0.3447516858577728
0.07655846327543259 -0.6480852365493774 -0.31321385502815247
-0.09772252291440964 0.0009948955848813057 -0.15838582813739777
0.5876465439796448 0.08216433972120285 -0.30903246998786926
-0.2748188078403473 0.40107887983322144 0.0619673989713192
0.10528460144996643 0.460847407579422 0.3670800030231476
-0.34902331233024597 0.1631232351064682 -0.40746891498565674
0.38999390602111816 -0.3782016932964325 -0.1742975115776062
0.4316846430301666 -0.0018624409567564726 -0.15312252938747406
-0.11735223233699799 -0.053694162517786026 0.24174930155277252
-0.3736938536167145 0.058999091386795044 0.17154887318611145
-0.39996495842933655 0.0943441316485405 -0.399684876203537
-0.3554219603538513 -0.0005323645891621709 -0.17724838852882385
0.059044696390628815 -0.6224488019943237 -0.01636892929673195
0.35602104663848877 -0.6518320441246033 0.09731610864400864
-0.4163128435611725 0.3976218104362488 0.14880655705928802
0.44229835271835327 -0.01751127652823925 -0.06590596586465836
-0.5814400911331177 0.33258265256881714 0.1815260499715805
0.11070310324430466 0.0011424999684095383 -0.2318481206893921
