0.5927272439002991 0.2936268746852875 -0.25867509841918945
0.36152300238609314 0.009527910500764847 0.08476684242486954
0.2682911455631256 -0.00901320856064558 -0.011705689132213593
-0.03980345278978348 -0.0032044509425759315 0.07434098422527313
0.1950450986623764 -0.39812275767326355 0.2645905017852783
0.2096138894557953 -0.009845012798905373 -0.19309723377227783
0.5843323469161987 0.27381834387779236 -0.3766638934612274
0.25308099389076233 -0.012614618055522442 0.1639431118965149
0.11652649939060211 0.3942517340183258 -0.33145982027053833
0.28932446241378784 -0.4099675416946411 0.20566080510616302
-0.5608165860176086 0.009790914133191109 -0.042493242770433426
-0.38301271200180054 0.2940311133861542 -0.3903202712535858
-0.40872904658317566 0.3137354552745819 0.34622910618782043
-0.29158926010131836 0.3759653866291046 -0.06750471144914627
-0.5715932250022888 0.15655498206615448 0.33318400382995605
-0.17403548955917358 -0.0029363008216023445 -0.02301071211695671
0.06837543100118637 0.33156242966651917 0.4612096846103668
-0.05725863575935364 0.391373872756958 -0.11674570292234421
-0.3725738525390625 0.030864553526043892 -0.2753687798976898
-0.36230039596557617 0.3892887532711029 0.2690953314304352
0.11586086452007294 0.3814377188682556 -0.3917188048362732
-0.08852074295282364 0.012537735514342785 -0.051419489085674286
0.3322659432888031 -0.5579308867454529 -0.21438290178775787
0.07658859342336655 -0.39705127477645874 -0.3343479633331299
-0.05231991410255432 -0.6371690630912781 -0.1298772394657135
-0.04587087035179138 0.39611226320266724 -0.2519511580467224
0.19588667154312134 0.0929143875837326 0.3446912169456482
-0.5518700480461121 0.14131960272789001 -0.4124891459941864
0.04066867008805275 -0.45465895533561707 -0.31459617614746094
-0.5811067223548889 0.036968477070331573 0.21615400910377502
-0.002525557763874531 -0.3284120261669159 0.2897990047931671
0.3724548816680908 0.40504440665245056 -0.3305002748966217
-0.4369466304779053 0.4125295579433441 0.17858275771141052
-0.391929030418396 0.37925535440444946 0.01665421947836876
-0.025342583656311035 0.32995590567588806 0.34126943349838257
0.04577970877289772 0.3989030718803406 -0.35942745208740234
-0.4187453091144562 0.3186854124069214 -0.41455620527267456
0.053825486451387405 -0.3114616274833679 -0.3770952820777893
-0.4139643609523773 -0.009940939955413342 0.19794106483459473
0.15648634731769562 -0.0016420138999819756 0.11862288415431976
0.4717402756214142 0.007471912540495396 -0.0470869243144989
-0.2284645289182663 -0.2997417747974396 -0.1407943069934845
-0.21747912466526031 -0.002858220599591732 -0.2429455816745758
0.3517342805862427 -0.006272280588746071 -0.2671729326248169
0.022926731035113335 -0.6282705664634705 0.08177682012319565
0.059658169746398926 -0.6612708568572998 0.24598561227321625
0.3256928324699402 -0.4876277446746826 -0.20288202166557312
-0.220987007021904 -0.21882812678813934 -0.18608613312244415
-0.5228976607322693 -0.06386198848485947 0.34550103545188904
0.39673641324043274 -0.4757092297077179 -0.09138007462024689
-0.5697592496871948 -0.005868902429938316 -0.18888597190380096
-0.38433000445365906 -0.055194031447172165 -0.2016175091266632
-0.49098649621009827 0.011729192920029163 0.26507917046546936
0.3311043679714203 0.4091295003890991 0.23639525473117828
0.32090526819229126 -0.008451401256024837 0.1130431592464447
-0.08818215876817703 0.389085978269577 -0.29999926686286926
0.5087878108024597 0.41321900486946106 -0.10388544946908951
0.11579935997724533 0.4134771525859833 0.45590606331825256
0.5810038447380066 0.23165032267570496 -0.38873109221458435
-0.5710684061050415 0.18784086406230927 -0.26507827639579773
0.269558846950531 0.388160765171051 -0.18119975924491882
0.5613069534301758 0.009583994746208191 -0.15438055992126465
0.17773565649986267 0.0057763042859733105 0.038619980216026306
-0.3727804124355316 0.39126309752464294 0.19977997243404388
0.20061427354812622 0.012613735161721706 0.17892564833164215
0.4407309591770172 0.39704129099845886 0.17949000000953674
0.06900298595428467 -0.000156629947014153 -0.360338419675827
0.360093355178833 -0.28997284173965454 0.18359039723873138
0.13422836363315582 -0.008405938744544983 -0.07089405506849289
-0.3635956048965454 0.39091184735298157 -0.11126250773668289
-0.01111606415361166 -0.40207844972610474 0.2480441927909851
0.5778689384460449 0.27141836285591125 0.20653431117534637
-0.5343072414398193 0.0010281684808433056 -0.04486963152885437
-0.5145746469497681 0.1864180862903595 0.3508925437927246
0.272763729095459 0.0032303286716341972 -0.08453011512756348
0.4493201673030853 0.40657761693000793 -0.1743083894252777
-0.06302818655967712 -0.633848249912262 0.04913272708654404
-0.11744567006826401 -0.6461310982704163 0.1234871968626976
-0.5375226736068726 0.11222062259912491 0.3363599479198456
-0.5610437989234924 -0.06330417096614838 0.07033492624759674
0.29374992847442627 -0.005678599234670401 -0.38301214575767517
0.5659731030464172 0.07973038405179977 0.05634373798966408
0.39662468433380127 -0.1326054483652115 0.15090297162532806
-0.49697694182395935 0.010914270766079426 -0.26597630977630615
-0.14194361865520477 -0.6103861331939697 -0.1043441966176033
-0.2066795378923416 -0.3335515856742859 -0.1420060247182846
-0.06888636201620102 0.013320719823241234 -0.39048251509666443
-0.0028980697970837355 -0.008313643746078014 -0.12259568274021149
-0.3937065303325653 -0.06359901279211044 0.33377018570899963
-0.16437336802482605 -0.5360544919967651 0.08441729843616486
0.016690894961357117 -0.004275052342563868 -0.038004398345947266
0.005148408934473991 -0.6140881776809692 0.08969168365001678
-0.4324452877044678 -0.11244436353445053 -0.12490499764680862
0.16364698112010956 0.39032015204429626 0.14405617117881775
0.44103196263313293 -0.04364903271198273 -0.08391010761260986
-0.1512257158756256 -0.6259335875511169 0.06986261904239655
0.5366750955581665 0.3060038089752197 -0.41546252369880676
-0.051535025238990784 0.0013905534287914634 -0.16458848118782043
-0.46328866481781006 0.394674688577652 -0.17434652149677277
-0.07025954127311707 -0.6130826473236084 0.06730060279369354
0.066145159304142 -0.6100783944129944 -0.31497979164123535
0.5715034604072571 0.3042036294937134 0.15099181234836578
-0.5736469030380249 0.05439417436718941 -0.26999127864837646
0.19750216603279114 -0.37549033761024475 0.2590582072734833
0.25433817505836487 0.4044701159000397 -0.15630972385406494
-0.12644605338573456 -0.12409072369337082 0.23579300940036774
-0.2868853807449341 0.004026531241834164 -0.4055962860584259
0.057626426219940186 -0.6120789051055908 0.050218090415000916
-0.09795188158750534 0.0015608608955517411 -0.3131348192691803
0.29893332719802856 0.24191267788410187 0.3360375463962555
-0.19414839148521423 0.008682542480528355 -0.39953893423080444
-0.04959677532315254 -0.6152060031890869 0.018116187304258347
-0.4136062264442444 0.03317153453826904 0.35337594151496887
-0.0894211009144783 0.1477995365858078 -0.3928471803665161
-0.006871144752949476 0.0070237936452031136 0.029213732108473778
0.3147538900375366 -0.05362757667899132 0.4537537693977356
0.43294402956962585 0.2708483338356018 0.3487236797809601
-0.11220727115869522 0.16244566440582275 -0.3987841308116913
0.2988379895687103 -0.07367891073226929 0.4367303252220154
0.4484441578388214 0.4102340340614319 0.28642410039901733
-0.5394079685211182 0.4010050892829895 0.1844550222158432
0.5558092594146729 0.2456202358007431 0.3511863350868225
0.27884718775749207 -0.4958231747150421 0.19096708297729492
0.26274582743644714 0.0026464606635272503 -0.1270005851984024
0.08712871372699738 -0.346682071685791 -0.3606797456741333
0.1933647245168686 -0.19217722117900848 0.3009466826915741
-0.14538943767547607 -0.6610412001609802 0.010362920351326466
-0.3687084913253784 0.2535548806190491 -0.39737385511398315
-0.5275266766548157 0.3969787359237671 -0.29333722591400146
-0.12934833765029907 -0.4652576744556427 -0.18348301947116852
0.030075032263994217 -0.6147998571395874 -0.21827027201652527
-0.18150819838047028 -0.5181369185447693 0.015892086550593376
-0.3497451841831207 -0.007796889636665583 -0.3423888683319092
0.13495466113090515 -0.6565355658531189 0.24489451944828033
0.2360653430223465 -0.14270155131816864 -0.3373815417289734
0.3058001399040222 0.3442874252796173 -0.38787373900413513
-0.024016475304961205 0.012175546027719975 -0.0321684405207634
0.21184343099594116 0.26757559180259705 0.4562837481498718
0.3840407133102417 -0.5743743777275085 -0.12508831918239594
-0.5495728850364685 0.08229704946279526 -0.14399737119674683
-0.37346431612968445 0.3913895785808563 0.18592578172683716
-0.36635053157806396 0.021669849753379822 0.3509032130241394
0.19642774760723114 -0.05573606118559837 0.2945185899734497
-0.0990700051188469 -0.4293432831764221 -0.23170843720436096
0.3149622082710266 -0.5888411402702332 -0.2143034040927887
0.4559004604816437 0.4110504388809204 -0.07497936487197876
0.041468314826488495 0.3836025595664978 0.4194064140319824
0.220808207988739 -0.5052642226219177 -0.3066406548023224
0.42509257793426514 -0.09757125377655029 0.1087547242641449
-0.20858532190322876 0.003883767407387495 -0.28457337617874146
-0.2156417965888977 -0.3753562271595001 0.018366437405347824
0.18041130900382996 0.33646345138549805 -0.41186901926994324
-0.19738705456256866 -0.018815938383340836 -0.18486103415489197
0.28247153759002686 -0.38626882433891296 0.23646853864192963
0.3286992609500885 -0.6218776702880859 0.08725602179765701
0.5134614109992981 0.15916498005390167 0.3492903411388397
-0.39062702655792236 0.36102935671806335 -0.19050951302051544
0.5658673644065857 0.4000524878501892 0.29198676347732544
0.23904462158679962 0.3996374309062958 0.2691147029399872
0.2694149613380432 0.27356448769569397 -0.3927648961544037
-0.5129521489143372 0.3577260375022888 -0.002140267752110958
0.027868978679180145 0.40744349360466003 0.406576007604599
-0.5812836289405823 0.05664032697677612 0.087663933634758
-0.5767563581466675 0.1701163649559021 -0.27169129252433777
-0.035058073699474335 -0.5741415619850159 -0.270092248916626
-0.4004068672657013 0.3546362519264221 0.3510705232620239
-0.07383992522954941 0.3087692856788635 -0.4089509844779968
-0.3360216021537781 0.37863025069236755 0.3494561016559601
0.37292608618736267 -0.20585498213768005 0.15991607308387756
0.333633691072464 -0.6026012897491455 0.1218985766172409
-0.1663580685853958 -0.4699138104915619 0.06565520167350769
-0.11239562928676605 -0.6288458108901978 -0.09704426676034927
0.09210418164730072 0.4132327437400818 0.20334623754024506
0.15621599555015564 0.3879340887069702 0.01960725337266922
0.06491894274950027 0.0007517962367273867 0.04561352729797363
0.15012872219085693 0.00888729840517044 0.3098315894603729
0.5064100623130798 0.01612803339958191 -0.15691465139389038
0.17955492436885834 -0.3847058415412903 -0.3620259165763855
0.036328259855508804 -0.6302145719528198 0.25388991832733154
0.36405450105667114 -0.15326900780200958 -0.2664717137813568
0.5808727741241455 0.2394438087940216 0.10657921433448792
0.27250078320503235 0.17382191121578217 0.4718969464302063
-0.36602064967155457 -0.04327394813299179 0.0860123261809349
0.2399972379207611 -0.6317474246025085 -0.04823262244462967
0.25747841596603394 0.34923070669174194 0.3401022255420685
0.5511568784713745 0.38715633749961853 -0.10411380231380463
0.3411058485507965 -0.19124698638916016 0.20409385859966278
0.16879694163799286 0.012244193814694881 -0.17708860337734222
-0.49817875027656555 0.10482235252857208 0.32906031608581543
0.1620776504278183 -0.6333924531936646 -0.1946576088666916
-0.22577296197414398 0.4072616696357727 -0.3881630301475525
0.5747858881950378 0.08286672830581665 0.006637866608798504
0.37741509079933167 -0.6040554642677307 0.06403534859418869
0.42523860931396484 0.002561321249231696 -0.32423943281173706
0.380413293838501 -0.09753778576850891 -0.2319178581237793
0.32424163818359375 -0.10512429475784302 -0.2967156767845154
0.157029926776886 0.2149326056241989 0.35695332288742065
0.5874369740486145 0.33537039160728455 -0.39146867394447327
-0.3956407308578491 0.08683666586875916 0.05248967558145523
0.2982061803340912 -0.391641229391098 0.17874281108379364
0.03786930814385414 0.19766934216022491 0.3777846395969391
0.1291581392288208 -0.6344906091690063 0.1071382462978363
-0.3247741162776947 0.37211307883262634 -0.4044024348258972
-0.5096509456634521 0.34658360481262207 -0.14508384466171265
0.3959716558456421 -0.5839622020721436 -0.07485350221395493
0.034830763936042786 -0.6085251569747925 -0.29620665311813354
-0.57773756980896 0.2678178548812866 -0.0012573874555528164
0.4327479898929596 -0.04708551988005638 -0.15979088842868805
0.30583655834198 0.292194664478302 0.3489360213279724
-0.020471416413784027 0.22482185065746307 0.4143282473087311
-0.23402364552021027 -0.33601850271224976 -0.07290780544281006
-0.20350489020347595 0.011643696576356888 -0.2993161976337433
-0.05657952278852463 -0.13497520983219147 0.3002154529094696
-0.04453817009925842 0.2845078706741333 0.37102946639060974
-0.5046792030334473 0.11026600003242493 -0.3487251102924347
0.5843203067779541 0.08998201787471771 0.34307897090911865
-0.1773303747177124 -0.010798606090247631 0.13361576199531555
-0.22498959302902222 0.3941696286201477 -0.04265528917312622
0.26851165294647217 0.2332996428012848 -0.3950462341308594
0.5324863791465759 0.2937743067741394 -0.3940819501876831
0.24154554307460785 0.36826083064079285 0.46109670400619507
0.15958938002586365 0.39700424671173096 0.15051738917827606
-0.5344741940498352 -0.009947868064045906 -0.1198561042547226
0.19610194861888885 -0.4981757700443268 -0.31469666957855225
-0.5138220191001892 -0.09719086438417435 0.14612436294555664
0.37529438734054565 0.0044945902191102505 0.3137093484401703
-0.1487453281879425 0.040516290813684464 0.3431977927684784
-0.0918976292014122 -0.628710925579071 0.01040736772119999
-0.2964329719543457 0.39795830845832825 0.14804498851299286
-0.3778129518032074 0.36519211530685425 0.02331528626382351
-0.225632444024086 -0.0016024790238589048 0.353636771440506
0.2536074221134186 -0.08458729088306427 0.31433746218681335
-0.27602359652519226 0.04432215541601181 -0.3910802900791168
0.33300045132637024 0.023521725088357925 0.34798574447631836
-0.08597251027822495 -0.6313003897666931 -0.1394008845090866
-0.29121020436286926 -0.0047874366864562035 0.05208947882056236
-0.18473145365715027 -0.3169003129005432 -0.21859276294708252
-0.39563196897506714 0.0022315180394798517 -0.009699627757072449
0.049403607845306396 0.03792138025164604 0.34835419058799744
-0.5908163785934448 0.27139800786972046 -0.20385302603244781
-0.42665740847587585 0.015369494445621967 -0.1702742576599121
0.46834346652030945 0.01456854585558176 0.00956596527248621
-0.49144068360328674 0.10130785405635834 0.1419079452753067
0.36957207322120667 0.39110860228538513 -0.0857229083776474
0.020662179216742516 0.012355167418718338 -0.07758983224630356
0.058284711092710495 -0.468454509973526 0.2679608464241028
-0.5584667921066284 -0.0013035677839070559 0.11872854083776474
-0.37240728735923767 0.40662822127342224 -0.34866517782211304
-0.5881832242012024 0.021886806935071945 -0.2758283317089081
0.02326665073633194 -0.6227895021438599 0.18685226142406464
0.3212204575538635 0.4077308773994446 -0.35495954751968384
0.15600810945034027 0.3865979313850403 -0.2813718914985657
-0.37719494104385376 0.3813636898994446 0.3511640727519989
0.1204320415854454 -0.6123608350753784 -0.07607418298721313
-0.04947809875011444 -0.009045671671628952 -0.28709450364112854
0.09216529130935669 0.3651997148990631 -0.3876170217990875
-0.42488420009613037 0.11525280773639679 -0.09176084399223328
0.3816322982311249 -0.4978344738483429 -0.06790527701377869
0.06548979133367538 -0.37838590145111084 -0.3294473886489868
-0.1566448211669922 -0.15605992078781128 0.18392632901668549
-0.16615623235702515 0.259895920753479 0.343463659286499
0.02005683444440365 0.4068971276283264 -0.14134833216667175
0.0753512755036354 -0.20546215772628784 0.3225521445274353
0.2229890525341034 0.24856974184513092 0.45684877038002014
0.5870136618614197 0.2755085825920105 0.09185348451137543
0.2851053476333618 -0.0011315151350572705 -0.3609819710254669
-0.3010246455669403 -0.012071465142071247 0.0997500792145729
-0.3545573949813843 0.2569405138492584 -0.3978753983974457
0.5266798138618469 0.14684335887432098 -0.40080350637435913
0.18946589529514313 0.23054353892803192 0.4792630672454834
-0.40995514392852783 0.20874132215976715 -0.414514422416687
-0.5864101648330688 0.3305521011352539 -0.2534443736076355
-0.14681018888950348 -0.12023808062076569 -0.26128053665161133
0.44811540842056274 -0.17119200527668 -0.05313759297132492
0.13681358098983765 0.3824123442173004 0.3334430456161499
0.24739554524421692 -0.16160330176353455 0.27158021926879883
0.522422730922699 0.015335836447775364 -0.29618504643440247
-0.56228107213974 0.06277287751436234 -0.3571506440639496
0.4462798237800598 -0.02512650191783905 -0.09854348748922348
0.26354897022247314 -0.5761546492576599 0.19116909801959991
0.03602220490574837 -0.06288456171751022 0.30101221799850464
0.5103256106376648 0.399803102016449 -0.35319066047668457
0.5598817467689514 0.12614144384860992 -0.38826724886894226
0.09860429912805557 -0.6623530387878418 0.2598664164543152
-0.4544909596443176 0.33797961473464966 0.3463888466358185
0.2577892541885376 0.08566877990961075 0.45828139781951904
-0.36045780777931213 0.003515609074383974 0.10502452403306961
-0.3666166365146637 0.386717289686203 0.051395632326602936
0.03177165612578392 -0.3816068470478058 0.2975355088710785
0.33074405789375305 -0.009320545941591263 0.17595688998699188
0.4460550546646118 -0.12438243627548218 0.03558976575732231
0.3105923533439636 0.015004242770373821 0.1896091252565384
-0.4647800028324127 0.11314546316862106 -0.11083278805017471
-0.13431471586227417 -0.46778807044029236 -0.21310986578464508
0.36604753136634827 -0.6002421975135803 0.10806696116924286
0.5892388820648193 0.2798579931259155 0.07144280523061752
0.3617057800292969 -0.2465558499097824 0.18070067465305328
-0.07464607059955597 -0.06402193009853363 0.26612839102745056
0.023374434560537338 0.4110250174999237 0.3283144533634186
0.13563047349452972 0.15815147757530212 -0.4060487747192383
-0.441752552986145 0.4042269289493561 0.1675744503736496
0.34071803092956543 0.3380761444568634 0.3326096534729004
0.4541531801223755 -0.012703007087111473 -0.08580562472343445
-0.13945439457893372 -0.6144784688949585 -0.04582029581069946
0.12319839000701904 -0.626640260219574 0.2610357403755188
0.04146745055913925 -0.6112918257713318 -0.183896005153656
-0.28482601046562195 0.17254208028316498 0.34342673420906067
-0.010161368176341057 0.07667958736419678 -0.3968849778175354
-0.04230322688817978 -0.05367046967148781 -0.33578428626060486
-0.4250403344631195 0.08430153131484985 -0.39671987295150757
0.3459215760231018 0.03173116594552994 -0.4114786684513092
0.2834751307964325 0.07863659411668777 -0.3874794542789459
-0.3721804916858673 0.055242687463760376 0.08393391221761703
-0.25803157687187195 0.3153289258480072 0.33426782488822937
0.05311207100749016 0.40275073051452637 -0.2227124720811844
-0.5767115950584412 -0.026998111978173256 0.17174190282821655
-0.26252713799476624 -0.005833457224071026 0.20811106264591217
-0.17766669392585754 0.4087067246437073 -0.24819648265838623
0.5702230334281921 0.29277509450912476 0.11442077159881592
0.040819548070430756 -0.009106220677495003 -0.31841662526130676
-0.036806534975767136 -0.6307908296585083 -0.055740345269441605
-0.29304927587509155 0.334286630153656 -0.38889437913894653
-0.150198832154274 -0.025624152272939682 0.1852409988641739
0.5726747512817383 0.31842365860939026 -0.015198681503534317
-0.31456509232521057 -9.218789637088776e-05 0.16102109849452972
0.4404739737510681 -0.38157910108566284 0.013233108446002007
-0.5537615418434143 -0.07475124299526215 0.17581996321678162
0.5864608883857727 0.3870243728160858 0.009490903466939926
0.16229891777038574 0.4038209319114685 0.4632703959941864
0.23421816527843475 0.3865213990211487 -0.06777995824813843
0.113604836165905 0.3537277579307556 0.3512444496154785
-0.15581387281417847 0.1865060180425644 0.3425108790397644
0.5674037933349609 0.2060346156358719 -0.383711040019989
0.5820058584213257 0.3958224356174469 0.158839613199234
0.011914449743926525 -0.6336519122123718 0.20091696083545685
-0.535882830619812 0.08927462249994278 0.05759252980351448
-0.23651202023029327 0.40858784317970276 0.25399088859558105
-0.34127408266067505 0.39794793725013733 -0.39358091354370117
-0.09167309105396271 0.25667741894721985 0.3954383134841919
0.06323175132274628 -0.6290245056152344 0.1273634433746338
0.32042744755744934 -0.28190067410469055 -0.2907942533493042
0.11947017908096313 0.4096527397632599 0.15061034262180328
-0.45258596539497375 -0.09117767959833145 -0.11484797298908234
-0.5189648270606995 -0.0873686745762825 0.3110301196575165
0.026324432343244553 -0.3368125259876251 -0.35097581148147583
-0.11249180138111115 0.01674935221672058 -0.3028068542480469
-0.31597572565078735 0.3932405114173889 0.1006012037396431
0.04184511676430702 -0.0002940181875601411 -0.08122298121452332
-0.01321765873581171 -0.6319385766983032 0.16764670610427856
0.18276989459991455 -0.007176120299845934 -0.15728244185447693
-0.5537937879562378 0.010399583727121353 0.14883098006248474
-0.13509057462215424 -0.6000190377235413 0.14328138530254364
0.30062222480773926 0.4033445417881012 -0.28443506360054016
0.11100402474403381 0.38951483368873596 0.05626709759235382
0.35791975259780884 -0.19823619723320007 -0.2792314887046814
-0.08559834957122803 0.38911595940589905 -0.1679406613111496
0.24307946860790253 -0.6249377727508545 -0.03822746500372887
-0.3292068541049957 0.2008843719959259 -0.38926202058792114
-0.24419473111629486 -0.27145901322364807 0.010188102722167969
-0.4862019121646881 0.3900811970233917 0.005727606825530529
0.3461170196533203 -0.1868668496608734 0.20710046589374542
0.5288229584693909 0.12843582034111023 -0.40451231598854065
0.026484478265047073 0.01450190506875515 0.3480483591556549
-0.39264315366744995 0.06644724309444427 0.34666499495506287
-0.1870763897895813 -0.23304973542690277 -0.227084681391716
0.06788844615221024 -0.625060498714447 -0.03216247633099556
0.026448901742696762 -0.3149171471595764 -0.35972481966018677
0.07047312706708908 0.04750879108905792 0.4718153476715088
0.35518646240234375 -0.4713689684867859 0.1251782774925232
0.0012530232779681683 0.1658497303724289 0.35080692172050476
0.44365113973617554 0.40032821893692017 0.20517385005950928
0.4306246340274811 -0.25115689635276794 -0.11386413127183914
-0.4375860393047333 0.3928976058959961 -0.31819644570350647
0.3214361369609833 -0.11956200748682022 -0.3002159297466278
0.4584749639034271 0.011583512648940086 -0.03481905907392502
-0.20497238636016846 -0.33091720938682556 -0.1635112166404724
0.20670105516910553 -0.09764792025089264 0.3534065783023834
0.25801974534988403 -0.1794319599866867 -0.34805357456207275
-0.5249741077423096 0.3891681432723999 -0.05824242904782295
-0.29633867740631104 0.349578857421875 -0.13880504667758942
0.3803994655609131 -0.36517733335494995 0.16612811386585236
-0.037583157420158386 0.1390836387872696 0.35213106870651245
-0.22834989428520203 -0.08665472269058228 -0.06535886973142624
0.34329715371131897 -0.4379556179046631 0.1428157240152359
0.2561611533164978 -0.63648921251297 0.20303308963775635
-0.07123718410730362 -0.6255860328674316 -0.1005057543516159
0.3444889783859253 -0.012474697083234787 -0.14832735061645508
0.43427062034606934 -0.28608864545822144 -0.12183811515569687
-0.49929627776145935 0.11847101897001266 0.04939805343747139
0.25443777441978455 0.015045888721942902 -0.2828390896320343
-0.5733861923217773 -0.0067896535620093346 0.01991182565689087
0.1563810259103775 0.005261290818452835 -0.017105087637901306
-0.5575171113014221 0.37386226654052734 -0.14454565942287445
0.11956819146871567 0.2578654885292053 -0.3909060060977936
0.3885025084018707 0.3951469361782074 0.2673356235027313
-0.0032281060703098774 -0.6487183570861816 0.20221343636512756
0.23346926271915436 0.3074782192707062 -0.39588120579719543
0.4320322871208191 -0.3732689321041107 -0.11021813750267029
0.5854207277297974 0.1647704839706421 -0.2587181031703949
-0.21959882974624634 -0.34937170147895813 -0.12767481803894043
-0.4071851670742035 -0.07943708449602127 -0.21845635771751404
-0.4325326383113861 0.013130204752087593 -0.2972683012485504
0.17718605697155 0.04280955716967583 0.46636056900024414
-0.5335178375244141 -0.07975243031978607 -0.28756627440452576
-0.25078463554382324 0.12846854329109192 0.3427956998348236
0.25179022550582886 0.022623509168624878 0.33445242047309875
0.3288322985172272 -0.010511724278330803 -0.04747292399406433
0.4638819992542267 -0.004272542428225279 -0.05657069757580757
-0.14625483751296997 -0.3504731059074402 0.17984536290168762
0.33368703722953796 -0.04676869511604309 0.3620196282863617
-0.06440267711877823 -0.27743983268737793 -0.3452720642089844
-0.2277258038520813 -0.019466903060674667 0.019509367644786835
0.29036322236061096 -0.011547280475497246 0.18648937344551086
-0.1306321769952774 -0.023880545049905777 -0.29749536514282227
0.014355368912220001 -0.5110589861869812 0.23868808150291443
-0.15975311398506165 0.40372076630592346 0.3151475787162781
0.41400405764579773 -0.344764769077301 0.1102118268609047
0.5142693519592285 -0.00207011541351676 -0.034835681319236755
0.41730114817619324 -0.044693779200315475 0.13033367693424225
0.13874191045761108 0.0497443713247776 0.45951417088508606
-0.36381155252456665 0.0051689050160348415 0.2242099940776825
0.30083751678466797 -0.21667197346687317 -0.3196210265159607
0.47604069113731384 -0.008317414671182632 -0.17454613745212555
-0.16027191281318665 -0.4335358142852783 -0.14757667481899261
-0.5346311330795288 -0.09295082837343216 -0.24742767214775085
0.10049372911453247 -0.007912779226899147 -0.3283781409263611
0.501158595085144 -0.0084573645144701 0.30937743186950684
0.13003788888454437 0.3502498269081116 0.35369575023651123
0.29331129789352417 -0.6311725378036499 -0.11071904748678207
-0.07975272834300995 0.03140713647007942 0.3450644612312317
-0.31034839153289795 0.014622574672102928 0.036540303379297256
0.16514596343040466 -0.012617688626050949 -0.2913370728492737
0.3879026770591736 -0.5478613972663879 0.039131224155426025
-0.0201300997287035 0.30571022629737854 0.3376924395561218
-0.1716851145029068 0.402071088552475 0.3279920518398285
-0.288698673248291 0.014232596382498741 -0.05908120051026344
0.19852980971336365 0.38716551661491394 -0.06252080202102661
-0.20129023492336273 0.14841407537460327 0.34237977862358093
-0.3145872950553894 -0.01116807758808136 -0.15727820992469788
0.5418055653572083 0.031166959553956985 0.3344452381134033
-0.19865453243255615 -0.006675819866359234 -0.29906708002090454
0.12395022809505463 -0.6306007504463196 -0.27527257800102234
-0.11127457767724991 -0.054776277393102646 0.23754827678203583
-0.5462381839752197 0.2319275438785553 0.33880898356437683
0.3014807403087616 -0.05672071501612663 0.4522937834262848
0.3971516191959381 0.3861958682537079 0.30944815278053284
0.3208179175853729 0.18766039609909058 0.3505513370037079
-0.08221703767776489 -0.2197946459054947 0.2780291736125946
-0.5706536769866943 0.012755174189805984 0.040158700197935104
0.09367186576128006 0.474280446767807 0.4102799594402313
0.26763492822647095 -0.44520309567451477 0.20104928314685822
0.35602277517318726 -0.008364018052816391 0.25672319531440735
0.41037651896476746 0.0026058219373226166 -0.20520058274269104
-0.34549078345298767 0.19271841645240784 0.3375016748905182
-0.22800898551940918 -0.34574905037879944 -0.07957623898983002
-0.4419424533843994 0.39645621180534363 0.24601086974143982
-0.54677414894104 0.3930858373641968 -0.3885036110877991
0.21174126863479614 0.005412887781858444 -0.0857546478509903
-0.5849874019622803 0.29285475611686707 -0.32486727833747864
0.5770260691642761 0.024888919666409492 0.20546181499958038
0.17470349371433258 0.44379740953445435 0.3656594753265381
0.4278624951839447 -0.013029518537223339 -0.09027976542711258
-0.5309696793556213 0.400794118642807 0.31984812021255493
0.29496684670448303 -0.013515631668269634 0.20867136120796204
-0.39728885889053345 0.39484262466430664 -0.3629934787750244
0.5464460253715515 0.40653184056282043 0.1033850908279419
0.07128667831420898 -0.6345086097717285 -0.18977844715118408
0.2592911720275879 0.4071061611175537 0.25721871852874756
-0.16409695148468018 -0.3744751214981079 0.16181181371212006
0.17001892626285553 -0.6254774928092957 0.11399749666452408
0.18136674165725708 0.40599483251571655 -0.2438676506280899
0.16514138877391815 -0.621703028678894 0.17687739431858063
-0.2813285291194916 0.3907875716686249 -0.33057621121406555
0.012738855555653572 0.011921179480850697 -0.2592819035053253
0.591111421585083 0.24676986038684845 0.03892575204372406
0.24824340641498566 -0.0063634649850428104 -0.2197243720293045
-0.36585497856140137 0.09457943588495255 -0.40351948142051697
0.5686402320861816 0.09986945241689682 0.17409487068653107
0.311524897813797 0.013757127337157726 0.4480805993080139
0.08746980875730515 0.415385365486145 0.35066479444503784
0.2693627178668976 0.07117083668708801 0.35290759801864624
-0.3119378089904785 0.2928134500980377 0.344236820936203
0.5756786465644836 0.2264118641614914 0.06475508958101273
-0.4214398264884949 0.38830238580703735 0.11146750301122665
-0.1059044599533081 0.0017246128991246223 -0.30156388878822327
0.08868638426065445 0.34965279698371887 -0.40933895111083984
0.18834379315376282 0.39694198966026306 -0.07077656686306
0.34756237268447876 -0.6113428473472595 -0.03386281430721283
0.48324525356292725 0.39077815413475037 -0.01057056337594986
0.17112477123737335 -0.004683507140725851 0.24266588687896729
0.03594007343053818 -0.026267118752002716 0.46159231662750244
0.560995876789093 -0.008900763466954231 -0.281150221824646
0.5862168073654175 0.10390614718198776 -0.21897903084754944
0.5804995894432068 0.3979058265686035 0.1859370917081833
-0.44410985708236694 -0.11489777266979218 0.34518131613731384
-0.128885880112648 -0.6661275625228882 -0.12890909612178802
-0.511044442653656 0.11578940600156784 0.3220089375972748
-0.052805282175540924 -0.37538230419158936 -0.32195159792900085
0.3693368434906006 0.38776546716690063 0.07537124305963516
0.15348362922668457 -0.6366446018218994 0.09933150559663773
0.3118889331817627 -0.00970512069761753 -0.14181189239025116
-0.2871505320072174 0.36260682344436646 -0.06427569687366486
-0.5518765449523926 0.09664423763751984 -0.34267550706863403
-0.09424944221973419 -0.6399155855178833 0.1370762437582016
0.323518842458725 -0.005523134954273701 -0.047892529517412186
0.14316408336162567 0.3181258738040924 0.3374497592449188
-0.40650635957717896 0.012407783418893814 0.25781509280204773
-0.1353837102651596 0.36547717452049255 0.3366047739982605
0.25008419156074524 0.19950640201568604 0.45130079984664917
0.4003666043281555 -0.01207836251705885 -0.11641678959131241
0.11555032432079315 0.008205384947359562 -0.028806356713175774
-0.02880829945206642 -0.36697471141815186 -0.30506759881973267
-0.016282958909869194 -0.6423566341400146 0.19482363760471344
-0.5885925889015198 0.2393481582403183 0.13939343392848969
0.351311594247818 0.400762677192688 -0.07101252675056458
0.4435071349143982 -0.06919088959693909 -0.0868709534406662
-0.4216751158237457 -0.1015038788318634 0.02455194853246212
0.3414205014705658 -0.6414217352867126 -0.14339546859264374
-0.23822620511054993 -0.19424480199813843 -0.030866654589772224
0.00391922565177083 -0.4907987713813782 0.24712391197681427
0.3999706506729126 -0.0009208583505824208 -0.08928092569112778
-0.4760867655277252 0.4004957377910614 0.2916324734687805
0.2936283349990845 -0.6338766813278198 -0.20031018555164337
-0.5934102535247803 0.17243829369544983 0.2714115381240845
-0.24389134347438812 -0.12141118943691254 0.03629528731107712
0.5015813112258911 0.23207531869411469 0.34086257219314575
-0.42591163516044617 0.17745430767536163 -0.3888435959815979
-0.5748758912086487 0.07053738832473755 0.015885571017861366
0.5705740451812744 0.07895650714635849 -0.022686760872602463
-0.10156076401472092 0.16882358491420746 0.4054167568683624
-0.1657295972108841 -0.2430863380432129 0.1822069138288498
-0.127317413687706 0.3883025646209717 0.18497058749198914
0.0556613989174366 0.3880664110183716 -0.12596258521080017
-0.571021318435669 0.27343082427978516 -0.03600141033530235
0.5668560862541199 0.31502172350883484 0.33170267939567566
-0.03575877472758293 0.41074585914611816 -0.11887891590595245
-0.5623083710670471 0.039460066705942154 0.29619747400283813
0.45188337564468384 -0.16996297240257263 0.02974933199584484
-0.4163883924484253 0.38856005668640137 0.0899328663945198
0.22890804708003998 -0.6283633708953857 -0.24436332285404205
0.15003854036331177 -0.40690040588378906 0.2629191279411316
-0.5617849230766296 0.031653013080358505 -0.13684044778347015
-0.5327636003494263 0.09989481419324875 0.29415416717529297
0.35205331444740295 -0.4877094626426697 0.12012368440628052
0.14524447917938232 0.3928864002227783 -0.38182657957077026
0.5192223191261292 0.014160375110805035 0.13887982070446014
0.17115309834480286 -0.36936721205711365 -0.3638708293437958
-0.4994061589241028 0.014330157078802586 0.3089703917503357
-0.551266610622406 0.0670471265912056 0.19248349964618683
-0.4951924979686737 0.11857882887125015 0.2529732286930084
-0.40786731243133545 0.0921897143125534 0.10115015506744385
0.19840164482593536 -0.6205492615699768 0.1807212084531784
-0.162260502576828 -0.0027682355139404535 -0.13208194077014923
0.5742869973182678 0.13089144229888916 -0.20462928712368011
-0.27012795209884644 0.33993491530418396 -0.4028327465057373
-0.1176813393831253 -0.6551682949066162 0.13296307623386383
0.3858892321586609 0.22174759209156036 -0.4135608673095703
-0.16757747530937195 0.4087715446949005 0.24909856915473938
0.2775154709815979 -0.016031211242079735 0.27096766233444214
-0.3131508529186249 0.3926670253276825 -0.09439493715763092
0.3161291480064392 0.22167359292507172 -0.4007141888141632
-0.5257155895233154 -0.003579824697226286 0.34497711062431335
-0.08860810846090317 -0.31745949387550354 0.2608765959739685
-0.4620353579521179 -0.002000224543735385 -0.28605592250823975
0.40418460965156555 -0.006199896335601807 0.13996581733226776
-0.5136781930923462 0.3997853100299835 -0.21354882419109344
0.18249408900737762 0.3933461010456085 0.45706820487976074
0.12060671299695969 0.40107229351997375 0.07256048172712326
-0.562224268913269 -0.05619645118713379 0.002991738962009549
-0.02709738165140152 -0.6344428062438965 -0.07107798755168915
-0.5384169220924377 -0.008171160705387592 -0.27318283915519714
0.38663461804389954 0.40721550583839417 0.16032059490680695
-0.009396647103130817 0.4046921133995056 -0.3733088970184326
-0.11723729968070984 -0.0625220239162445 -0.3148154616355896
0.01261200476437807 -0.6416069269180298 0.24963882565498352
0.43822377920150757 -0.3240233063697815 -0.047746747732162476
0.258037805557251 0.4570281505584717 0.3691735565662384
0.4252094626426697 0.4008193612098694 0.13313014805316925
0.10253368318080902 0.27395370602607727 0.34136879444122314
0.34985435009002686 -0.483473539352417 0.11186148226261139
0.3554380238056183 -0.12288326025009155 0.20822660624980927
0.38067641854286194 0.4029456675052643 -0.12108762562274933
0.31393668055534363 -0.33939406275749207 0.24268652498722076
-0.12104080617427826 0.012822217307984829 -0.23991042375564575
0.4769766926765442 0.41114434599876404 -0.3936782479286194
-0.3653177320957184 -0.03413386642932892 -0.17576253414154053
-0.4045904874801636 0.09325099736452103 -0.07037503272294998
0.5665194392204285 0.04316451773047447 -0.25001397728919983
0.16172730922698975 0.010280226357281208 -0.1328955441713333
0.16280893981456757 -0.51420658826828 0.2516617774963379
-0.33085906505584717 -0.013791827484965324 -0.10068456828594208
-0.5491991639137268 -0.0035569160245358944 0.190587118268013
-0.2303054928779602 -0.1958460509777069 0.05565312132239342
0.033959537744522095 0.01584669016301632 -0.20472842454910278
-0.37942004203796387 -0.06404074281454086 -0.2685126066207886
0.5310631990432739 0.2767757177352905 -0.3895013630390167
0.3924717903137207 0.2885729670524597 -0.4082752466201782
0.2157229781150818 0.4075166583061218 -0.29589560627937317
0.18113751709461212 -0.6185823082923889 -0.25443628430366516
0.14478881657123566 0.38507428765296936 0.3357658088207245
0.19790808856487274 0.36272531747817993 0.4523070752620697
-0.41760292649269104 0.40134498476982117 0.053513865917921066
0.5696289539337158 0.17887507379055023 0.2908475697040558
0.13977977633476257 0.46338292956352234 0.39205071330070496
-0.2201586812734604 0.387650728225708 0.2322898954153061
-0.586645781993866 -0.010793669149279594 -0.18696929514408112
-0.29798683524131775 0.2377987802028656 0.33883655071258545
-0.22432281076908112 -0.16258540749549866 -0.09336855262517929
0.3338186740875244 0.009719881229102612 0.2841978371143341
0.3389487862586975 -0.4177500605583191 0.12820769846439362
-0.11930366605520248 -0.5097024440765381 0.14401954412460327
0.3772635757923126 -0.007029324769973755 0.16116513311862946
-0.3780970871448517 0.030038882046937943 0.18600277602672577
0.15383341908454895 -0.15168710052967072 -0.3556373417377472
-0.4015776515007019 0.09099631756544113 -0.3821975290775299
0.5661355257034302 0.06472183018922806 -0.06552473455667496
-0.3585372269153595 0.12284605205059052 -0.3967586159706116
-0.5710285902023315 0.0996818020939827 -0.3364030122756958
0.39039355516433716 0.032091621309518814 -0.3990533649921417
0.35166168212890625 0.4066181778907776 0.29107072949409485
0.2093406766653061 0.3398166298866272 0.45702093839645386
0.0665656328201294 0.14756616950035095 0.3421376943588257
0.5510644912719727 0.35749736428260803 0.3392016589641571
-0.07873381674289703 0.00837260577827692 0.010189497843384743
0.2819521129131317 0.02055010199546814 0.34985530376434326
-0.1532929390668869 0.10846433788537979 0.34087568521499634
-0.1566522717475891 -0.6435456871986389 0.07569476962089539
0.19713802635669708 -0.23937202990055084 0.2925216257572174
-0.21415771543979645 -0.008025878109037876 0.07102320343255997
0.11817045509815216 0.47384244203567505 0.3979162275791168
0.24643200635910034 0.07597721368074417 0.34269261360168457
-0.45397987961769104 -0.09617862105369568 -0.3893604874610901
-0.4954727590084076 0.12257473170757294 -0.06425797194242477
0.351498007774353 0.015868673101067543 0.10910557955503464
-0.5734449625015259 0.18492688238620758 0.22157441079616547
0.31909191608428955 -0.125246062874794 -0.30117765069007874
-0.38018545508384705 -0.007174989208579063 -0.24185992777347565
0.23190829157829285 -0.043301645666360855 0.2915879189968109
-0.5836766362190247 0.21717330813407898 -0.12000735104084015
-0.5418545603752136 -0.07129281014204025 -0.07139112055301666
0.30707570910453796 -0.007583763916045427 -0.3464728593826294
-0.2596193552017212 -0.007365552708506584 0.15362609922885895
-0.1775045245885849 0.4064829349517822 0.1456211656332016
-0.5339131355285645 0.39206060767173767 -0.06972799450159073
0.23910580575466156 -0.6208208203315735 -0.19260679185390472
0.52290940284729 0.39761272072792053 -0.09659707546234131
0.5180286765098572 0.0008300498593598604 -0.2857306897640228
0.03336114436388016 -0.007442787755280733 0.4561181366443634
0.32820287346839905 -0.5247357487678528 0.1478743553161621
-0.2023923397064209 0.00043631609878502786 -0.2390618771314621
0.08548130095005035 -0.5497254729270935 0.25753679871559143
-0.15443043410778046 -0.3644575774669647 -0.2665485441684723
-0.38260212540626526 0.008223343640565872 0.15888574719429016
0.0927400067448616 0.012888527475297451 -0.3746640384197235
-0.5816988348960876 0.36686617136001587 -0.06523896753787994
0.2556213438510895 0.004407194443047047 0.12079544365406036
0.02715805545449257 0.0564730279147625 0.4288709759712219
0.5769761800765991 0.3927580416202545 0.07356897741556168
0.018294908106327057 0.16976799070835114 0.3515583276748657
0.38261374831199646 0.009765401482582092 0.000741967698559165
0.24390752613544464 -0.08950148522853851 0.31761351227760315
0.37942996621131897 0.00787686463445425 -0.11126578599214554
0.127113938331604 -0.6344169974327087 -0.10818437486886978
-0.18775959312915802 -0.4236912131309509 -0.03462706878781319
0.367045521736145 0.4123085141181946 0.3169068396091461
-0.5382795333862305 -0.008237811736762524 -0.4068951904773712
-0.05249917879700661 -0.6313802003860474 0.07921432703733444
0.15167750418186188 -0.3889857828617096 -0.36047714948654175
-0.21988290548324585 0.06946677714586258 -0.41343334317207336
0.06661210209131241 -0.04386497661471367 0.4515857696533203
-0.11940301209688187 0.40341833233833313 -0.18832050263881683
-0.5908492803573608 0.32753172516822815 -0.26312190294265747
-0.25300437211990356 -0.19978678226470947 -0.04347680136561394
0.024804754182696342 -0.44204527139663696 0.24752968549728394
0.32270073890686035 -0.6293332576751709 0.03858659788966179
0.12007860839366913 0.010641942732036114 -0.015060263685882092
0.29223644733428955 0.39643603563308716 0.2784089148044586
0.3069761097431183 -0.6115177869796753 -0.12894760072231293
0.3180575668811798 0.1542680412530899 0.3509751558303833
-0.08090972155332565 -0.39281705021858215 -0.2715277075767517
-0.40899166464805603 -0.0815761461853981 -0.2900463938713074
-0.5558468103408813 -0.08222317695617676 0.059567175805568695
-0.005924103315919638 0.12538790702819824 0.3581676185131073
-0.307742714881897 -0.002987045794725418 0.26085734367370605
-0.4756328761577606 0.4057604670524597 -0.2944444417953491
-0.20186513662338257 -0.48177284002304077 -0.031580615788698196
0.25792884826660156 0.26374393701553345 0.4757905900478363
0.4011974334716797 -0.3325369358062744 0.15386992692947388
0.13016219437122345 -0.34325075149536133 -0.3827434778213501
-0.39377859234809875 0.0710856169462204 0.32073548436164856
0.3151634633541107 0.38817527890205383 0.14025166630744934
-0.05996417626738548 -0.6403693556785583 0.1718185991048813
0.14571379125118256 -0.6310819983482361 -0.21416650712490082
-0.39171314239501953 0.07358379662036896 -0.3596702218055725
-0.5144123435020447 -0.1106845885515213 0.1391417384147644
0.5720054507255554 0.37415099143981934 -0.09466170519590378
-0.03347904980182648 0.15393348038196564 -0.40958520770072937
0.01468749064952135 -0.6362974047660828 -0.11812854558229446
-0.19266125559806824 0.014414813369512558 -0.2227763682603836
-0.07130991667509079 -0.6461433172225952 -0.19518303871154785
0.432600200176239 0.004876822233200073 0.2897873818874359
-0.5416593551635742 0.38841575384140015 -0.15177099406719208
0.09408456087112427 -0.6162459254264832 0.2722240686416626
-0.241434246301651 0.21469567716121674 -0.39701005816459656
0.07188508659601212 0.16041281819343567 -0.41097864508628845
0.13029412925243378 -0.6378806829452515 -0.11972487717866898
-0.25968822836875916 0.07623177021741867 -0.3954189121723175
0.3820688724517822 -0.4210662841796875 -0.09128382056951523
0.18317152559757233 0.15229959785938263 0.4627145826816559
0.5609632730484009 0.40021687746047974 -0.09131801873445511
-0.5893427729606628 0.039613936096429825 0.20991578698158264
-0.5455365777015686 0.07795611023902893 0.002944864798337221
-0.4683947265148163 0.3841949701309204 -0.11763747781515121
0.5840945243835449 0.17737171053886414 -0.21066050231456757
-0.2017281949520111 0.01048102043569088 0.1856788545846939
-0.3943388760089874 0.37602338194847107 -0.20580938458442688
0.30737361311912537 0.008731286972761154 0.04869486019015312
-0.5764192938804626 0.29669225215911865 -0.4121732711791992
0.365320086479187 0.17699015140533447 0.3370019197463989
-0.5908936262130737 0.3415207266807556 -0.30484864115715027
0.29400622844696045 0.41198819875717163 0.45629918575286865
0.2657299041748047 -0.358079731464386 0.27317577600479126
0.5768799781799316 0.3151736855506897 0.3313819468021393
-0.049012985080480576 0.40672996640205383 -0.3190602958202362
0.1569245457649231 -0.004214993212372065 0.1600145548582077
0.5889310836791992 0.1220346987247467 -0.04998628422617912
-0.18813489377498627 -0.01170832384377718 -0.18434637784957886
-0.4993031322956085 0.39570820331573486 0.10045717656612396
0.3647041320800781 -0.6538048386573792 -0.11304668337106705
0.2267981916666031 -0.613852322101593 0.14737583696842194
0.5749630331993103 0.3919055461883545 -0.24590231478214264
0.033176057040691376 -0.14472728967666626 0.30266833305358887
-0.1005626767873764 -0.13617286086082458 0.25067803263664246
0.3458658456802368 0.011735889129340649 0.2705233693122864
-0.16314324736595154 0.1222718209028244 -0.4042204022407532
-0.5065876841545105 0.1216183602809906 -0.031235557049512863
0.13762028515338898 0.0023328890092670918 0.30791619420051575
0.04904935136437416 0.40822848677635193 -0.23659782111644745
0.31222257018089294 -0.645687997341156 -0.14311940968036652
-0.12723706662654877 0.3871530294418335 0.09651955217123032
-0.42392194271087646 0.11098513752222061 0.21536703407764435
-0.37861841917037964 -0.004538373555988073 0.23908601701259613
-0.05096244439482689 0.15172961354255676 0.3540036082267761
0.36600440740585327 -0.5266212821006775 0.06264039129018784
-0.188518226146698 0.3917587399482727 -0.0031833844259381294
0.22147248685359955 -0.04995888099074364 -0.350052148103714
-0.16651670634746552 -0.17975737154483795 0.1809701919555664
-0.2086631804704666 -0.04777669906616211 -0.184362530708313
-0.3469049036502838 0.4091048836708069 0.12061385065317154
-0.03737051039934158 -0.6221582293510437 0.07145056128501892
0.013399356976151466 -0.6277313828468323 -0.18567146360874176
-0.5004190802574158 0.10244491696357727 0.1641862541437149
-0.578715980052948 0.11645570397377014 -0.3971378803253174
0.5820228457450867 0.3906639814376831 0.04690331593155861
-0.38282448053359985 -0.08059589564800262 -0.1359623521566391
-0.1394270360469818 -0.585466206073761 0.10451627522706985
0.06945881247520447 0.39681652188301086 -0.030202852562069893
0.18659551441669464 -0.6287631392478943 -0.21078719198703766
-0.11827503889799118 -0.6499548554420471 -0.14573825895786285
-0.3621213734149933 -0.016310017555952072 -0.3855292499065399
-0.3953065276145935 0.07031752914190292 -0.21165692806243896
0.3455492854118347 -0.33012616634368896 0.22407977283000946
0.3883301019668579 0.23428930342197418 -0.4148082435131073
-0.01274208165705204 0.0063564409501850605 -0.28450077772140503
0.32421281933784485 -0.3540594279766083 0.228509321808815
0.5802660584449768 0.3404775857925415 0.3389938473701477
-0.25720900297164917 -0.007421869784593582 0.021412841975688934
-0.18739111721515656 0.0032054916955530643 0.06050663813948631
0.09252426773309708 -0.6146799325942993 0.08331932872533798
-0.40067970752716064 0.2327958345413208 -0.39021629095077515
0.10685762763023376 -0.3815082013607025 -0.37403589487075806
0.01725124381482601 0.12045785039663315 0.43463554978370667
-0.07084900885820389 -0.005531975068151951 0.3428373634815216
-0.3282758891582489 0.11819714307785034 -0.41099122166633606
-0.4082813262939453 0.4164244830608368 -0.028333202004432678
-0.13831570744514465 -0.25791531801223755 0.2150747925043106
0.5851084589958191 0.04088791087269783 0.2352379858493805
0.5141206979751587 0.0058575281873345375 -0.40174466371536255
0.14347176253795624 -0.43112123012542725 -0.3140091598033905
0.23358435928821564 0.4077415466308594 -0.37868398427963257
0.23745951056480408 -0.584434986114502 0.23388123512268066
0.13352058827877045 0.10195831954479218 -0.3972133696079254
0.2859244644641876 -0.0025632346514612436 -0.2141299843788147
0.27681824564933777 0.389085054397583 0.3438740670681
0.38499388098716736 -0.006287774071097374 -0.005670539103448391
-0.2100229263305664 -0.3610200583934784 -0.1271512359380722
-0.1904325634241104 -0.3850509822368622 0.03298969566822052
-0.417121022939682 -0.0026038475334644318 -0.3926756680011749
-0.5908096432685852 -0.00772502738982439 -0.04676393046975136
0.26721516251564026 -0.0021424342412501574 -0.16137507557868958
-0.5844495296478271 0.10118230432271957 0.2614936828613281
-0.1857231706380844 -0.23024308681488037 -0.2323557436466217
0.5660484433174133 0.07816924899816513 -0.24980664253234863
-0.191978320479393 -0.04984848201274872 0.160743847489357
