-0.5644719004631042 0.057833947241306305 -0.13012385368347168
0.2244676798582077 0.3613035976886749 -0.4001639485359192
-0.11976797133684158 0.0005361307412385941 -0.004410626366734505
0.12764963507652283 -0.6187664270401001 0.09487362205982208
-0.32136040925979614 0.21230481564998627 0.3446389138698578
0.19732801616191864 -0.6210294961929321 -0.23932163417339325
-0.5758654475212097 0.29293760657310486 0.21559615433216095
0.000596330501139164 0.003150413278490305 -0.0677235946059227
0.3002844452857971 0.4016788601875305 0.20757213234901428
0.5155043601989746 0.0035939188674092293 -0.28994303941726685
-0.36740225553512573 0.22647741436958313 0.34552037715911865
-0.22482667863368988 -0.0008843126706779003 -0.08821891248226166
0.1452879160642624 0.0043904585763812065 -0.253408819437027
0.2818327844142914 0.3999134600162506 0.08411965519189835
-0.5712695121765137 0.35788917541503906 -0.09220916032791138
0.07097386568784714 -0.37324753403663635 -0.35683152079582214
0.2930191457271576 -0.010440504178404808 0.46440058946609497
-0.4258413314819336 0.17006367444992065 -0.4020884037017822
-0.3588653802871704 0.3909124433994293 0.3417736291885376
-0.5122879147529602 0.3963426649570465 -0.11311179399490356
-0.19955959916114807 -0.034155070781707764 -0.20905417203903198
0.29455557465553284 -0.6256477236747742 -0.1753266453742981
0.5833998322486877 0.0873197540640831 -0.2484600841999054
-0.5711379051208496 0.1030576154589653 -0.3941299617290497
-0.3671172261238098 0.00324695254676044 -0.2531200051307678
0.03313034027814865 -0.359167218208313 0.30179858207702637
-0.3813072144985199 -0.000548085430637002 -0.3916482925415039
-0.295648455619812 0.0008846559794619679 0.2457127571105957
-0.25528451800346375 0.39843061566352844 -0.06638763844966888
0.2745184004306793 0.0027415696531534195 0.20625707507133484
0.030996553599834442 0.1834876835346222 0.34689122438430786
-0.07756869494915009 -0.6227332353591919 -0.0036603882908821106
-0.3319959342479706 0.024549830704927444 -0.3993324637413025
0.13164260983467102 0.0023787219543009996 -0.041822563856840134
0.5685961246490479 0.008924447000026703 0.22803156077861786
0.575762927532196 0.19991323351860046 0.26505860686302185
0.35100501775741577 -0.21785807609558105 -0.2695283591747284
0.1513751894235611 0.1673654019832611 0.33972856402397156
-0.23322182893753052 -0.17548221349716187 -0.09465844184160233
0.025055238977074623 0.37468305230140686 0.3912460505962372
0.19019803404808044 0.02848801575601101 -0.40374457836151123
-0.0723591074347496 0.16528213024139404 -0.40335243940353394
-0.22698569297790527 -0.11339706927537918 -0.12645764648914337
0.4599207043647766 0.4014902412891388 -0.06793713569641113
0.08355529606342316 0.4592567980289459 0.42007866501808167
-0.11172918230295181 0.045372672379016876 -0.40030810236930847
0.14398369193077087 -0.004888176918029785 0.3065049946308136
0.162888765335083 0.2597617208957672 -0.40043970942497253
0.5769710540771484 0.34149354696273804 0.11433476954698563
0.14991238713264465 0.07457070797681808 0.4661068618297577
0.31934475898742676 0.23530073463916779 0.3428649306297302
0.33692747354507446 -0.6254481673240662 -0.07943647354841232
0.28328460454940796 0.0022031478583812714 -0.06799475848674774
-0.06946641951799393 0.40114402770996094 -0.1909211426973343
0.01350479107350111 -0.6197333931922913 -0.017470307648181915
0.4325125515460968 -0.2357737272977829 0.048303332179784775
0.3481194078922272 -0.6210166811943054 -0.053065817803144455
-0.09751235693693161 -0.3943483233451843 -0.24597764015197754
-0.16042591631412506 -0.6516757011413574 0.06454400718212128
-0.040360547602176666 -0.25129270553588867 -0.34393778443336487
0.01847141608595848 -0.6155650019645691 0.17954932153224945
0.1913120150566101 -0.04949092119932175 0.31715255975723267
0.3194337487220764 -0.6243610978126526 -0.13241182267665863
0.12591135501861572 0.3786003291606903 -0.39809226989746094
-0.06803660839796066 -0.6466778516769409 0.17443014681339264
-0.5800721645355225 0.11753112077713013 -0.09852270781993866
-0.38346806168556213 0.2941990792751312 -0.40216976404190063
0.3686301112174988 0.4008769989013672 -0.08380670100450516
0.580172598361969 0.21540799736976624 -0.062434978783130646
0.05427934229373932 -0.38724976778030396 0.2641909122467041
-0.24749118089675903 0.00034467875957489014 0.2905123829841614
0.00896785780787468 0.003406013362109661 -0.09114839136600494
0.13445760309696198 -0.6185294389724731 -0.12867698073387146
0.2610754370689392 0.06797812879085541 -0.4000537395477295
-0.027675297111272812 0.002200016751885414 -0.3159884810447693
0.018885567784309387 0.2898915112018585 -0.4001993238925934
-0.4856058359146118 0.1154041662812233 -0.028922908008098602
0.582398533821106 0.10109958797693253 -0.1217389777302742
0.19147619605064392 0.0004628780297935009 -0.075173020362854
0.2341681718826294 -0.40794092416763306 -0.28874605894088745
-0.21057254076004028 0.40030238032341003 0.1658296138048172
0.06744249910116196 0.00011769123375415802 -0.2867223024368286
-0.5122032165527344 0.3979566991329193 0.039539702236652374
-0.569797933101654 0.0697590708732605 0.09392327815294266
0.26412394642829895 0.37070873379707336 -0.4003502130508423
-0.571121335029602 -0.0260739978402853 0.29459986090660095
-0.45774146914482117 0.10417348146438599 0.2544751465320587
0.5827726721763611 0.2513306438922882 0.11623130738735199
-0.4052203893661499 0.22684963047504425 -0.4044627547264099
0.3451995849609375 0.3373088240623474 -0.4020119905471802
-0.2496487945318222 0.01053883321583271 0.3408091962337494
-0.4919205904006958 -0.10595498234033585 0.23369872570037842
-0.3389711081981659 0.38104256987571716 -0.16933877766132355
-0.380525678396225 0.40586015582084656 0.00217572133988142
-0.5301258563995361 0.30622491240501404 0.3446410894393921
-0.01923372782766819 -0.3833196461200714 0.2457079440355301
-0.04994102939963341 0.30545130372047424 -0.400276243686676
0.0212087519466877 0.38329625129699707 -0.3977658748626709
-0.5745339393615723 -0.033409569412469864 -0.2439597100019455
0.02936072275042534 0.12108982354402542 0.463563472032547
0.09271913766860962 0.002631876617670059 0.07094937562942505
-0.39458176493644714 0.08611582219600677 0.31059685349464417
0.2431102693080902 0.1527232676744461 -0.40072137117385864
-0.06852047145366669 -0.6187440156936646 -0.1183001771569252
0.3274569511413574 -0.21796710789203644 0.22227934002876282
0.05129525437951088 0.19780530035495758 0.46475622057914734
-0.12071001529693604 -0.08752977102994919 0.23386941850185394
-0.2294495701789856 0.3982102572917938 -0.16079814732074738
-0.4842933118343353 0.40152305364608765 -0.37296292185783386
0.18301402032375336 -0.03278936445713043 0.46190115809440613
0.5766362547874451 0.01514813955873251 0.11000006645917892
-0.021720239892601967 0.0006129029206931591 -0.21369431912899017
-0.36220744252204895 0.005605332553386688 0.2054935097694397
0.5628047585487366 0.23992110788822174 -0.3958277404308319
-0.5750473737716675 0.10071858763694763 0.10890746861696243
-0.1205046996474266 0.0028541600331664085 -0.14111948013305664
0.2048390507698059 -0.3791997730731964 -0.3268547058105469
-0.5139907002449036 -0.09619604051113129 -0.02924231067299843
-0.3706291913986206 -0.0009884471073746681 -0.19294671714305878
0.29394349455833435 0.004284960217773914 -0.09070149064064026
-0.42689040303230286 -0.00015930645167827606 0.12819023430347443
0.5521897077560425 0.01281915046274662 0.3350130617618561
0.16066180169582367 -0.6200110912322998 -0.030249278992414474
-0.49168744683265686 0.0015486208721995354 -0.35150185227394104
-0.36695125699043274 -0.024059420451521873 -0.09236917644739151
0.061861999332904816 -0.581390917301178 0.2552569806575775
-0.1999295949935913 0.17145396769046783 0.34158873558044434
-0.053761400282382965 0.40031898021698 0.28286200761795044
0.5705013275146484 0.3963110148906708 -0.25619831681251526
0.1286589801311493 0.4016183614730835 -0.24277867376804352
-0.47100529074668884 -0.05363474041223526 0.35031813383102417
-0.4504431486129761 0.01107834279537201 -0.39013364911079407
-0.22167807817459106 -0.157284215092659 0.08192955702543259
-0.578943133354187 0.14245837926864624 0.1173621416091919
0.26312872767448425 0.16280344128608704 0.3409992456436157
-0.1625119149684906 -0.05772726982831955 0.18902751803398132
-0.23671817779541016 0.40069347620010376 0.09465388208627701
-0.20694409310817719 -0.0015832632780075073 0.19083267450332642
0.23980307579040527 0.39929142594337463 0.04691267013549805
0.1572151780128479 0.0007488662376999855 0.16311201453208923
-0.0806027203798294 -0.6179908514022827 0.10346481204032898
-0.47051119804382324 0.29364413022994995 0.3469217121601105
0.23707900941371918 0.4017549455165863 -0.26699110865592957
-0.39417803287506104 0.08977111428976059 0.19186805188655853
-0.5814245939254761 0.3340611159801483 0.20414121448993683
-0.14344236254692078 -0.2078125923871994 -0.26813095808029175
-0.5783749222755432 0.013409947976469994 -0.3276083171367645
-0.09472119808197021 0.36843472719192505 0.3407910168170929
-0.5170170068740845 0.2787227928638458 -0.4014056921005249
0.17294129729270935 0.1601363718509674 0.33982568979263306
-0.4312192499637604 0.2919618487358093 0.3482345640659332
0.30488112568855286 0.32567763328552246 0.4566074311733246
0.0050109196454286575 -0.6144447922706604 0.15156759321689606
-0.30272766947746277 0.2528446912765503 0.34441083669662476
-0.2768453359603882 0.3996472656726837 0.0506545752286911
0.020433500409126282 0.2751826047897339 0.3956725299358368
-0.2600862979888916 0.3593375086784363 0.3460838198661804
-0.12676645815372467 0.013087518513202667 0.3365790545940399
0.3166934847831726 -0.1622994989156723 0.23987464606761932
0.02963433414697647 0.3856486976146698 0.43238359689712524
-0.3679710030555725 -0.043751683086156845 -0.11600609868764877
0.4344422221183777 0.0030781393870711327 0.10917558521032333
0.35446834564208984 -0.43248918652534485 0.11074304580688477
-0.4944002628326416 0.3608323633670807 -0.12918250262737274
-0.03741580620408058 -0.6183668375015259 -0.06384584307670593
0.47458526492118835 0.3275595009326935 0.3417159914970398
0.029762018471956253 0.020133277401328087 0.4612913131713867
-0.23956763744354248 -0.2396973967552185 0.01932479999959469
-0.12429290264844894 0.22844664752483368 -0.40290963649749756
0.04407573491334915 -0.4375053942203522 0.252998411655426
0.140534445643425 -0.6175591945648193 0.1705344021320343
-0.2702198922634125 0.39350104331970215 -0.05826994776725769
0.32875898480415344 -0.046367231756448746 0.35847237706184387
-0.30468738079071045 0.40421223640441895 0.19074921309947968
0.20065952837467194 0.034856099635362625 0.4640348255634308
-0.10860095173120499 0.4007090628147125 0.17970196902751923
0.14666113257408142 -0.6388596892356873 -0.27447137236595154
0.07694023102521896 0.12657420337200165 -0.4028300642967224
-0.2943795621395111 0.1543852984905243 -0.40362226963043213
0.2587861120700836 -0.6172834038734436 -0.12129554897546768
0.11340145766735077 -0.045443095266819 0.4615504741668701
0.2655622959136963 0.0013017542660236359 -0.08215337991714478
0.44072189927101135 -0.35735583305358887 -0.05795983597636223
-0.0291767455637455 -0.4071347415447235 0.22804154455661774
0.15477196872234344 0.29904094338417053 0.34163323044776917
0.28919774293899536 0.22586219012737274 0.46524882316589355
-0.07708007097244263 0.4011375308036804 -0.22847801446914673
-0.43151092529296875 -0.09680383652448654 -0.16470523178577423
0.18749402463436127 0.0007563536055386066 0.13142108917236328
0.3936845362186432 -0.4740041196346283 -0.03353740647435188
0.580491840839386 0.09028302878141403 0.01187564805150032
0.30250826478004456 0.39971116185188293 -0.2817404270172119
0.5811717510223389 0.16079829633235931 -0.2351648062467575
0.30048131942749023 -0.0031200903467833996 0.24058879911899567
-0.3260347843170166 0.39674797654151917 0.034216638654470444
0.10494202375411987 -0.03679567947983742 0.318171888589859
-0.5590841770172119 0.38088759779930115 0.30831870436668396
0.42965444922447205 0.0010758433490991592 -0.009454787708818913
-0.36749228835105896 -0.03141924738883972 0.17501913011074066
-0.5759535431861877 0.003626849502325058 -0.3715759813785553
-0.05999729782342911 0.0008103605359792709 -0.0688544437289238
-0.5775008797645569 0.2938481569290161 -0.2724747061729431
-0.24216584861278534 -0.22782105207443237 -0.006185407284647226
0.38215991854667664 -0.2433626651763916 -0.22957578301429749
0.3351747691631317 0.2811869978904724 0.35107776522636414
-0.2962675392627716 0.39216235280036926 -0.10822556912899017
-0.3854389190673828 0.0442546010017395 -0.3999205231666565
0.16803671419620514 -0.6188507676124573 -0.13128697872161865
0.043805137276649475 0.0016998173668980598 0.2148212343454361
-0.3747522234916687 -0.03460751101374626 -0.01411997526884079
-0.5781006217002869 0.3317162096500397 -0.06838304549455643
-0.40779584646224976 0.09125544130802155 -0.15231499075889587
-0.3728514611721039 0.052030883729457855 0.05307523161172867
-0.1747043877840042 -0.5897718667984009 0.06760012358427048
-0.022780826315283775 0.4001292288303375 0.25617289543151855
-0.3725554645061493 -0.0497533455491066 -0.03759369999170303
-0.022661644965410233 -0.6180259585380554 -0.18455596268177032
0.28670430183410645 0.400395929813385 0.09163423627614975
0.07196399569511414 0.40029093623161316 -0.2796293795108795
0.23831087350845337 0.010573802515864372 0.3409663736820221
0.21916921436786652 -0.6197229027748108 -0.1549389362335205
0.3970157504081726 0.291335791349411 0.34264665842056274
0.038963090628385544 0.4015665650367737 -0.029371807351708412
0.11311095952987671 0.09562864899635315 -0.40186411142349243
-0.30052152276039124 0.0010464226361364126 0.0034950627014040947
0.05402824282646179 0.28780674934387207 -0.4001429080963135
0.5780213475227356 0.15589973330497742 -0.24661174416542053
0.31703418493270874 0.3038392961025238 -0.4017958641052246
-0.18950006365776062 -0.5083922147750854 -0.010941307991743088
-0.566638708114624 0.07194774597883224 -0.3076460659503937
-0.04191149026155472 0.0017787537071853876 -0.20246504247188568
0.340251088142395 -0.6259548664093018 -0.03698918968439102
0.5086719989776611 0.16043655574321747 0.3409562110900879
0.5209046006202698 0.002859195228666067 0.23335644602775574
-0.13148966431617737 -0.6349023580551147 -0.19101150333881378
-0.3295963704586029 0.002980138175189495 -0.319545716047287
-0.5765132308006287 0.33181148767471313 -0.10011488199234009
0.04461438208818436 -0.6332181692123413 -0.2656821608543396
0.1502126306295395 -0.6217240691184998 -0.11101017147302628
0.17798922955989838 0.3977680802345276 0.11556430160999298
0.16765151917934418 0.26266682147979736 0.46713677048683167
0.5817081928253174 0.10578562319278717 0.16859659552574158
-0.3619171977043152 0.3652704060077667 0.04286102205514908
0.5373903512954712 0.38903477787971497 0.3349398970603943
0.5777208209037781 0.14979596436023712 0.22165827453136444
0.10395058244466782 0.46707209944725037 0.4148036539554596
-0.44685396552085876 0.003806578926742077 -0.25039932131767273
-0.2464359700679779 0.4024297893047333 0.11806418001651764
0.3023585081100464 -0.619849443435669 0.03748580440878868
0.3732454776763916 0.0023250794038176537 0.007632493507117033
0.36423081159591675 0.0021977978758513927 0.14748793840408325
-0.40355241298675537 0.3718827962875366 0.025503408163785934
0.4107968211174011 0.001747582107782364 -0.21170051395893097
0.0374298095703125 0.2685447037220001 0.46442270278930664
0.3583049178123474 0.003360083093866706 -0.3531932234764099
0.16895677149295807 0.0034965178929269314 -0.3186333179473877
0.15034332871437073 -0.03674493357539177 0.4625435769557953
-0.5165427327156067 0.11081156134605408 -0.27315986156463623
0.2642431855201721 0.0019853580743074417 -0.3290613293647766
-0.25262346863746643 0.0028124116361141205 -0.13227298855781555
0.22711609303951263 -0.14922916889190674 -0.34850338101387024
-0.23042120039463043 -0.15288574993610382 -0.12631969153881073
0.1535625159740448 -0.4607316553592682 0.2538708448410034
0.36276695132255554 0.014135779812932014 -0.39757946133613586
0.44059228897094727 -0.25132665038108826 0.017935600131750107
-0.5672227144241333 0.3783721625804901 0.2675846219062805
-0.4945794641971588 0.3996109664440155 0.17773659527301788
-0.02208220772445202 0.4010695219039917 -0.0713234543800354
0.13969016075134277 -0.6183269619941711 -0.11109118163585663
0.25350725650787354 -0.5297591090202332 0.213031604886055
0.255672425031662 -0.6182331442832947 -0.05563763529062271
0.22367525100708008 0.0020105456933379173 0.18143516778945923
0.4947449266910553 0.002529992489144206 -0.01365925744175911
-0.21947498619556427 -0.3082368075847626 0.09896450489759445
-0.29937905073165894 0.34789738059043884 -0.02918899431824684
-0.24075983464717865 -0.2529619634151459 -0.056385621428489685
0.3373730480670929 -0.6253313422203064 0.12338601797819138
0.22974832355976105 -0.49192753434181213 0.22546479105949402
-0.13489912450313568 -0.1143084391951561 -0.27643799781799316
0.21783632040023804 0.3127587139606476 0.3450240194797516
-0.09225652366876602 0.0007814951241016388 0.23145590722560883
-0.22274227440357208 0.20324991643428802 0.3437565863132477
0.3106842637062073 -0.6173728704452515 0.038590479642152786
-0.06643866002559662 -0.5322360992431641 -0.26641401648521423
-0.2708393931388855 -0.000376368872821331 -0.024211332201957703
0.03750515356659889 -0.18823735415935516 -0.3666747510433197
0.3205748200416565 -0.4430234730243683 0.15784132480621338
0.5791613459587097 0.1685282289981842 0.10108332335948944
-0.4926915168762207 0.39624640345573425 -0.1275234967470169
0.41278618574142456 -0.34392598271369934 0.10965020209550858
0.09511380642652512 0.3943662643432617 -0.39188531041145325
0.06324087828397751 -0.6201477646827698 -0.054794952273368835
0.07195118814706802 0.003685145638883114 -0.03651053458452225
-0.18692646920681 0.0026220823638141155 -0.08018898218870163
0.44369053840637207 -0.11192052066326141 -0.04298030957579613
0.07816754281520844 0.08811044692993164 0.46782800555229187
-0.023083891719579697 -0.49343469738960266 0.23415595293045044
0.1180589571595192 -0.40105104446411133 0.2617957890033722
-0.03557370603084564 -0.6225121021270752 -0.13477888703346252
0.1110374853014946 0.05935100466012955 0.46650370955467224
0.18662680685520172 0.002431659959256649 0.07117123156785965
-0.2823128402233124 0.403114914894104 0.1624746322631836
0.08746996521949768 0.06777267903089523 0.4659614562988281
0.049621839076280594 -0.3694033622741699 0.3019867241382599
-0.29610222578048706 0.0013745230389758945 -0.20827721059322357
-0.47268036007881165 0.001524088904261589 -0.1220245212316513
0.025888044387102127 -0.04833618178963661 0.3618946671485901
0.30229124426841736 0.0008933106437325478 -0.2557579278945923
0.16956005990505219 0.40110212564468384 -0.3139927387237549
-0.581312358379364 0.10537929832935333 -0.3546188473701477
0.08533929288387299 0.24463589489459991 0.4641430974006653
-0.4504760503768921 0.10817626863718033 0.09171169251203537
0.39618828892707825 -0.3597167730331421 0.14178799092769623
-0.4006252586841583 -0.08240622282028198 0.32924675941467285
0.16923530399799347 -0.6200618743896484 -0.2310858964920044
0.28324881196022034 0.21428601443767548 0.3418648838996887
-0.19926758110523224 0.024791967123746872 0.34094348549842834
-0.29952749609947205 0.3684501647949219 -0.40220096707344055
-0.09874887019395828 0.0012232041917741299 0.20830808579921722
0.23863695561885834 -0.42846888303756714 0.22518160939216614
-0.507836103439331 0.40070652961730957 0.2167879343032837
0.4065259099006653 0.1577443927526474 0.34060803055763245
-0.5746799111366272 0.07449623197317123 0.1735978126525879
0.2954200506210327 0.39360910654067993 0.32146522402763367
0.4453164339065552 0.004850070457905531 -0.38059094548225403
-0.4366491138935089 0.13124600052833557 -0.4013296365737915
-0.11192594468593597 -0.6337794661521912 -0.22133959829807281
-0.38032838702201843 -0.04075783118605614 -0.02548447623848915
-0.5364255309104919 0.39091673493385315 -0.20860521495342255
-0.5198383927345276 0.006652361713349819 -0.29003390669822693
0.5808367729187012 0.16001756489276886 -0.3417492210865021
0.16840560734272003 0.0001604226417839527 0.20542976260185242
-0.5715740919113159 0.07521603256464005 -0.11190202087163925
-0.47867080569267273 0.40980586409568787 -0.08553837984800339
-0.5810636878013611 0.1800454556941986 0.19304905831813812
0.010244506411254406 -0.3604455888271332 -0.3626939356327057
-0.14331182837486267 -0.40999048948287964 -0.17873021960258484
0.13245324790477753 0.0018149581737816334 0.21043607592582703
-0.41491204500198364 -0.022565770894289017 0.34375184774398804
-0.5132066011428833 0.09377321600914001 0.03704683482646942
-0.4564473032951355 -0.10212774574756622 0.0936044380068779
-0.5777760744094849 0.2404944747686386 -0.1889825016260147
0.3923340141773224 0.0007036400493234396 0.09398934990167618
-0.455888032913208 0.40804627537727356 -0.12385386228561401
-0.15014030039310455 -0.11006287485361099 0.20201866328716278
-0.1425255686044693 0.14524540305137634 -0.4028049111366272
0.5808365345001221 0.3138572871685028 -0.34319961071014404
0.17259474098682404 -0.24523364007472992 0.3045767843723297
0.37227195501327515 -0.1724727600812912 -0.24591128528118134
0.5454230308532715 0.26328012347221375 -0.402491956949234
0.41521233320236206 -0.18344709277153015 0.11013740301132202
-0.13840992748737335 0.40061694383621216 0.07575786113739014
0.1282050907611847 0.39566758275032043 -0.3900328576564789
-0.5579982399940491 0.07300347089767456 0.3299478590488434
0.0714210495352745 0.23064833879470825 -0.40406280755996704
-0.4068753719329834 0.3383481502532959 0.3491000235080719
0.39213424921035767 -0.27361226081848145 -0.21778689324855804
0.2886817753314972 0.4000539183616638 0.12749916315078735
0.30373501777648926 -0.07580582797527313 0.4278465509414673
0.15432092547416687 -0.6188234090805054 0.252817839384079
0.3368408679962158 -7.07460567355156e-05 0.09153592586517334
-0.14069108664989471 -0.1602621078491211 -0.27359381318092346
-0.5733464360237122 0.06432248651981354 0.19929349422454834
0.2320871651172638 -0.6184245944023132 -0.034441668540239334
-0.39155834913253784 0.18598337471485138 0.34464213252067566
-0.5832694172859192 0.16215381026268005 0.29577767848968506
0.13575130701065063 -0.6175473928451538 0.17715878784656525
-0.4046788215637207 0.4014933109283447 0.06469487398862839
-0.5847833156585693 0.18264809250831604 0.3015383183956146
-0.42217788100242615 0.0928264632821083 0.28263989090919495
-0.15965183079242706 -0.3511528968811035 0.19460470974445343
0.5800607204437256 0.14200538396835327 0.057430073618888855
-0.10629762709140778 0.0037672696635127068 0.31703636050224304
0.04135703667998314 0.000711674802005291 0.16996581852436066
0.5057438611984253 0.3982933759689331 0.24621053040027618
-0.4726993441581726 0.03869453817605972 0.3519839644432068
-0.10829221457242966 0.003398262895643711 0.03931262716650963
0.022857315838336945 0.10209394246339798 0.40936800837516785
-0.24073803424835205 0.37811279296875 -0.3998154401779175
-0.18604840338230133 -0.3171371817588806 -0.2140887975692749
0.4298301637172699 0.39955252408981323 0.07767703384160995
0.3870716691017151 -0.492816686630249 0.029727991670370102
0.3522290885448456 -0.0005608290666714311 -0.2632133662700653
-0.11620798707008362 -0.11412166804075241 -0.29969322681427
-0.2687153220176697 0.28565818071365356 0.3440598249435425
0.34950634837150574 0.40163394808769226 -0.0026505333371460438
-0.32362064719200134 0.3994063436985016 -0.34849655628204346
-0.5702467560768127 0.014676617458462715 -0.2028881460428238
-0.4948541522026062 0.3496413826942444 -0.13182097673416138
0.508931577205658 0.4002612233161926 -0.10225709527730942
-0.22675961256027222 0.40177130699157715 -0.08549559861421585
-0.07582399249076843 0.0008343665394932032 -0.25338730216026306
-0.5399487614631653 -0.0002957233227789402 -0.3942686915397644
-0.44191595911979675 -0.09988639503717422 0.013411491177976131
0.3486381471157074 0.0018000048585236073 -0.2920715808868408
0.15988852083683014 0.40074071288108826 0.28591734170913696
0.058016885071992874 0.2644471228122711 0.34571462869644165
0.24968752264976501 0.4008193612098694 -0.08408199995756149
-0.1000991091132164 -0.08242186158895493 0.24882033467292786
0.32408207654953003 -0.4046403467655182 -0.21725672483444214
0.13201653957366943 0.47195354104042053 0.3926182985305786
-0.3712756335735321 0.09783531725406647 0.34363073110580444
0.2831847667694092 0.0022037425078451633 -0.16927656531333923
0.26245802640914917 0.000775463879108429 0.051119837909936905
-0.2725292444229126 0.3663816750049591 -0.0868140459060669
0.15952959656715393 -0.5677244663238525 -0.31403112411499023
0.00391664681956172 -0.4357815384864807 -0.303019642829895
0.3868120014667511 -0.5541472434997559 0.001015079440549016
-0.12410318851470947 0.40016990900039673 -0.05236741900444031
0.13071757555007935 0.3220597505569458 -0.3990747630596161
0.0038860642816871405 0.003654143773019314 0.1890978217124939
0.24407781660556793 0.3574146628379822 0.4643612802028656
0.06040463596582413 0.03460462763905525 0.3420335650444031
-0.5747132897377014 -0.013161953538656235 0.2378602921962738
0.5737899541854858 0.010662054643034935 -0.18441832065582275
0.08735376596450806 0.1690962165594101 -0.40201646089553833
-0.05009995400905609 -0.6207355260848999 0.14858520030975342
0.20979124307632446 0.1405104100704193 0.3433990180492401
-0.366436243057251 0.39727428555488586 0.33232367038726807
0.045869700610637665 0.30338791012763977 0.45839041471481323
-0.524959146976471 0.02458001673221588 0.34706783294677734
-0.4049782454967499 -0.011762656271457672 0.342966228723526
-0.13175521790981293 -0.18473045527935028 0.2214096486568451
0.19445118308067322 0.006982430815696716 -0.3796737790107727
0.08721723407506943 0.0037935785949230194 -0.10012619942426682
-0.45871636271476746 0.003275474300608039 -0.26041316986083984
-0.44365477561950684 0.40058600902557373 -0.3668140470981598
0.16518868505954742 -0.47576913237571716 0.24953128397464752
-0.060128167271614075 0.03778263181447983 0.34276777505874634
-0.22662067413330078 0.3997359871864319 -0.017117798328399658
0.42229169607162476 -0.06242998316884041 0.0842391699552536
0.09637054055929184 -0.31438103318214417 0.3141305148601532
-0.025944164022803307 0.00046598073095083237 0.052217546850442886
-0.03485523536801338 0.34630006551742554 0.3439209461212158
-0.5134803652763367 0.2271484136581421 0.345806360244751
-0.23976433277130127 -0.1568353772163391 -0.009387753903865814
-0.376975417137146 -3.078486770391464e-05 -0.025816429406404495
0.5745064616203308 0.38014018535614014 0.09971325844526291
-0.038765799254179 0.00331682525575161 0.13180185854434967
-0.5773005485534668 0.040923528373241425 0.2439906895160675
0.21757002174854279 -0.6191007494926453 -0.10816267132759094
0.5739635229110718 0.019484149292111397 -0.11586862057447433
-0.579910159111023 0.18636967241764069 -0.32591867446899414
0.49704447388648987 0.39922836422920227 0.07971015572547913
0.5638466477394104 0.30943119525909424 -0.39684075117111206
-0.4666774868965149 -0.10335688292980194 0.3359397053718567
0.08241316676139832 0.40069177746772766 0.1027766764163971
-0.37033653259277344 0.01114579476416111 0.10317603498697281
0.26367390155792236 -0.3819994628429413 -0.2903079092502594
0.3927546441555023 0.10175592452287674 -0.40119248628616333
0.576690137386322 0.20009061694145203 -0.3864964544773102
-0.07884733378887177 0.2858838737010956 0.34735971689224243
-0.21082261204719543 0.0036311279982328415 -0.1551968902349472
0.1349128782749176 -0.6213114261627197 0.21474939584732056
0.17055967450141907 -0.155559703707695 0.30364054441452026
-0.21905989944934845 0.39885425567626953 0.3112342953681946
0.410826176404953 0.3986925184726715 0.32683053612709045
-0.23951850831508636 0.001278452342376113 -0.10443928092718124
-0.3802390396595001 0.4182720184326172 -0.0793735459446907
-0.3075280487537384 0.29245898127555847 0.3436022996902466
-0.06739692389965057 -0.31626617908477783 0.26934316754341125
0.073619045317173 -0.6298745274543762 0.210846945643425
0.34514299035072327 0.03273745998740196 -0.4024905264377594
-0.4780805706977844 0.0022774068638682365 -0.015440377406775951
0.08383136987686157 0.00349610298871994 -0.11121775209903717
0.4240349531173706 -0.09513970464468002 -0.14931808412075043
-0.3823143243789673 0.07404344528913498 0.19556695222854614
0.05075521394610405 -0.6195960640907288 -0.19785219430923462
0.5797970294952393 0.08880755305290222 0.2381463646888733
-0.5823434591293335 0.1940966099500656 0.2092956304550171
-0.22375042736530304 -0.347638875246048 -0.1371142566204071
0.1617397964000702 -0.006966188084334135 0.3071206510066986
0.06535695493221283 -0.2983778417110443 -0.3740366995334625
0.13643701374530792 -0.3823550343513489 0.2884272038936615
0.2571686804294586 -0.31474748253822327 -0.3328636586666107
0.42438390851020813 -0.25424084067344666 -0.14779353141784668
0.25611910223960876 0.1877671480178833 0.4652009904384613
0.028220240026712418 0.0032737236469984055 0.17992718517780304
0.3004513382911682 0.001474606804549694 0.09116222709417343
0.23581941425800323 0.0030963721219450235 -0.1926993578672409
0.08615721017122269 0.4521678388118744 0.38723501563072205
0.14297331869602203 -4.822574555873871e-05 0.2855454683303833
0.3574468791484833 -0.058395616710186005 -0.2611599266529083
0.07577643543481827 -0.6222447752952576 -0.02780095860362053
-0.5490196347236633 -0.0014516259543597698 -0.39019423723220825
-0.5751272439956665 -0.0011381497606635094 0.1733854115009308
-0.3616674244403839 0.19054216146469116 -0.40394750237464905
0.2520331144332886 0.2548675537109375 -0.40093180537223816
-0.34556058049201965 0.30481991171836853 -0.4018547832965851
0.5733214616775513 0.3829386234283447 0.3349950313568115
0.23897485435009003 -0.6492671370506287 -0.269234299659729
-0.1931709349155426 -0.27701252698898315 -0.20414549112319946
0.028477508574724197 0.20455628633499146 0.35172727704048157
-0.4013731777667999 0.4027215242385864 0.2994016408920288
0.29641231894493103 0.0016840090975165367 0.04843801259994507
0.20361316204071045 0.05917821824550629 0.46438711881637573
0.36138808727264404 0.05305930972099304 0.3425871729850769
0.16724823415279388 0.0028476067818701267 -0.013308712281286716
0.3368382751941681 -0.40803229808807373 0.13412584364414215
0.14642663300037384 0.0004919469356536865 -0.186131089925766
-0.102358877658844 -0.15747544169425964 0.2486930787563324
-0.1998051553964615 0.010818381793797016 -0.39534223079681396
0.1774173378944397 0.09403499960899353 0.46459105610847473
0.10843102633953094 -0.0011332333087921143 0.2602517604827881
-0.5054462552070618 0.3491532504558563 -0.13743805885314941
-0.09350861608982086 0.39188289642333984 -0.3895105719566345
-0.46716761589050293 0.3968539834022522 0.023304451256990433
-0.12897753715515137 0.012698313221335411 0.33660614490509033
0.4467792809009552 -0.2933880686759949 -0.03595663979649544
-0.38058042526245117 0.38819432258605957 -0.17777197062969208
-0.05631003528833389 0.17412126064300537 -0.40332233905792236
-0.052669934928417206 0.002555051352828741 -0.05389373376965523
0.16502463817596436 0.4005648195743561 0.12194857001304626
0.004826480522751808 0.0032441741786897182 -0.25107911229133606
0.44626790285110474 -0.16916273534297943 0.01305328868329525
0.5432016849517822 0.005022832658141851 -0.30931922793388367
-0.1684039831161499 0.39944034814834595 -0.009820003993809223
0.3252221643924713 -0.6279056668281555 -0.12807036936283112
-0.3540108799934387 0.1383305937051773 -0.4033380448818207
0.30847325921058655 0.0018843216821551323 -0.020733412355184555
-0.1990889459848404 0.3867138922214508 0.34077203273773193
-0.23455093801021576 -0.28452253341674805 0.044886715710163116
-0.582870364189148 0.1803981214761734 -0.01934228464961052
0.28412964940071106 0.42790114879608154 0.45220059156417847
0.08034159243106842 -0.20505216717720032 0.31100332736968994
-0.5674940347671509 0.3640112578868866 -0.37893301248550415
0.5805010795593262 0.3571315109729767 0.2805713415145874
0.11573343724012375 -0.5390045642852783 -0.3207928240299225
-0.02756875939667225 0.003824598155915737 -0.22902050614356995
0.3357292413711548 -0.6235271692276001 0.01593460515141487
0.37356311082839966 0.0035128737799823284 -0.03873911872506142
-0.24945268034934998 -0.0032954923808574677 0.014116263017058372
-0.21162140369415283 -0.2166837900876999 0.10928625613451004
0.3500903248786926 -0.12764768302440643 0.2051893025636673
-0.24052420258522034 0.3962536156177521 -0.15597054362297058
0.09945407509803772 0.4620603621006012 0.36925002932548523
0.14596863090991974 0.002739316551014781 -0.061402637511491776
0.17488673329353333 -0.07976751029491425 0.3580026924610138
-0.03630557283759117 0.11091068387031555 -0.40278691053390503
-0.3750898241996765 0.21755047142505646 0.34503987431526184
0.5807165503501892 0.1535266935825348 -0.11156035959720612
-0.16337570548057556 0.40268802642822266 0.1083076149225235
-0.4403896927833557 -0.09861485660076141 -0.12201202660799026
-0.3734172582626343 -0.06074078381061554 0.24721118807792664
-0.3190474212169647 0.33431580662727356 -0.40194639563560486
-0.3922501802444458 0.39674556255340576 0.07204980403184891
-0.131826713681221 0.0008048973977565765 -0.33925294876098633
-0.5765954852104187 0.20374645292758942 -0.14387211203575134
-0.22536888718605042 0.32895076274871826 0.3433704674243927
-0.0730658769607544 -0.2585151195526123 -0.320416122674942
0.09071557223796844 -0.15311571955680847 -0.3756396174430847
0.5817248225212097 0.20394621789455414 -0.34121230244636536
-0.3225429952144623 0.3846384882926941 0.3409803509712219
-0.5140739679336548 0.14720553159713745 0.3456862270832062
-0.09597340226173401 -0.617885410785675 -0.1383298933506012
-0.2605065703392029 0.3729196786880493 -0.4027394950389862
0.1973869651556015 0.4013177752494812 -0.07715748995542526
-0.5824171900749207 0.1831687092781067 0.28605538606643677
0.2382839173078537 0.09171112626791 0.34551531076431274
-0.44549626111984253 0.053275689482688904 -0.4027221202850342
-0.3524797260761261 0.4009508490562439 -0.351121723651886
0.31181395053863525 0.4009381830692291 0.04769756644964218
-0.3721880614757538 0.06142504885792732 0.21571330726146698
-0.22877444326877594 0.05226543918251991 -0.4016806185245514
0.22507695853710175 0.000364840030670166 -0.05926185101270676
-0.23361916840076447 0.40039873123168945 0.046358685940504074
0.09722206741571426 0.3924567401409149 0.4627981185913086
0.05463222414255142 0.38501226902008057 0.46495816111564636
-0.21327291429042816 -0.35834991931915283 -0.161993145942688
0.4002631604671478 0.40195226669311523 -0.1841960847377777
-0.5351545214653015 -0.08374293893575668 0.051250800490379333
0.023650087416172028 0.003405406139791012 0.20104771852493286
-0.18909940123558044 0.0026010293513536453 -0.038411349058151245
-0.22902588546276093 0.00033970060758292675 -0.020554933696985245
0.1923285722732544 -0.6187402606010437 -0.010005351155996323
0.5252394080162048 0.3818432688713074 -0.39762288331985474
0.5295074582099915 0.4009757339954376 0.12127683311700821
-0.0035420325584709644 0.344674676656723 -0.4001769423484802
0.5702956318855286 0.39449620246887207 0.1906774789094925
0.34757450222969055 -0.20962020754814148 0.2066103219985962
0.08792369812726974 -0.08747974783182144 0.31956884264945984
0.13593117892742157 -0.5990694165229797 -0.3170100748538971
-0.4732970893383026 0.39531996846199036 0.3321498930454254
-0.26795756816864014 0.0006269104778766632 -0.05497674271464348
-0.04060506075620651 -0.628322422504425 -0.22871267795562744
0.2891504466533661 -0.6162038445472717 -0.002915365854278207
-0.32574930787086487 0.4005211591720581 -0.2852780818939209
0.16520699858665466 0.009099910967051983 -0.3953191637992859
-0.325740247964859 -0.003132898360490799 -0.13891081511974335
-0.49070215225219727 0.11200916767120361 -0.3576611280441284
0.18255841732025146 0.19813668727874756 0.4669577181339264
0.11013825237751007 0.47005289793014526 0.3977756202220917
-0.5421125888824463 0.39074453711509705 0.21676623821258545
-0.4885021448135376 0.286670982837677 0.3450740575790405
-0.5769603252410889 0.13061223924160004 -0.029312171041965485
0.3180852234363556 0.40243932604789734 0.1459418088197708
-0.5680021643638611 0.01807728409767151 -0.391482412815094
0.5822120308876038 0.08345115184783936 -0.31384867429733276
0.1748550683259964 0.002752686617895961 -0.19330796599388123
-0.20174343883991241 0.40028879046440125 -0.19967161118984222
0.2840579152107239 0.004155214875936508 -0.2454100400209427
-0.21332094073295593 -0.2532389461994171 0.11077819764614105
0.1814463883638382 -0.5439534783363342 -0.30990928411483765
0.21764984726905823 -0.3251035809516907 0.29153886437416077
-0.18055175244808197 -0.5542012453079224 -0.10412486642599106
0.39478662610054016 -0.00026718247681856155 0.1772986501455307
0.037137314677238464 -0.04383247718214989 -0.3686186373233795
-0.0927916169166565 -0.036719609051942825 0.25975197553634644
0.5806311964988708 0.337695837020874 -0.1346845030784607
-0.37121397256851196 0.4110206067562103 -0.14445409178733826
-0.10004076361656189 0.0036957617849111557 0.033320002257823944
-0.5723053812980652 0.008244572207331657 -0.13414740562438965
0.09299717843532562 0.10977496206760406 0.4683992266654968
-0.4833543300628662 0.4011579155921936 0.2870316505432129
-0.08409921079874039 -0.5438210368156433 0.19290389120578766
-0.5764054656028748 -0.017898809164762497 0.15880131721496582
0.08973509818315506 -0.04381145164370537 0.3189387619495392
0.2750473618507385 0.003007466671988368 0.04830460622906685
-0.30194520950317383 0.2540086805820465 -0.40251222252845764
-0.5756471753120422 -0.007619128562510014 0.281558096408844
-0.569400429725647 -0.013797855004668236 -0.29484137892723083
0.5742347240447998 0.011676080524921417 -0.15393611788749695
0.12534038722515106 0.42413824796676636 0.3567133843898773
0.3096027076244354 -0.22614239156246185 -0.3030487596988678
0.41462427377700806 0.19724081456661224 -0.4013370871543884
0.05782634764909744 0.32278674840927124 0.342723548412323
-0.3743860423564911 0.394864946603775 -0.2106250673532486
-0.389541894197464 -0.07514970004558563 0.20311468839645386
-0.5634769797325134 0.0756109207868576 0.20633269846439362
-0.4736213684082031 0.41198569536209106 -0.09074563533067703
-0.5813256502151489 0.19394202530384064 0.26823875308036804
-0.5766357183456421 0.094751738011837 -0.1978275179862976
0.06923841685056686 0.00527714379131794 0.16588987410068512
-0.1787625551223755 -0.5538581609725952 -0.09581305086612701
0.07241644710302353 0.3336239755153656 -0.4001483917236328
-0.09465115517377853 -0.620071530342102 -0.03743213415145874
0.46527761220932007 0.4019833505153656 -0.10037936270236969
0.20773188769817352 -0.6427488923072815 0.22179368138313293
0.22834549844264984 0.00330328568816185 0.07920850068330765
0.42336809635162354 -0.3800750970840454 -0.005562426522374153
-0.45128583908081055 0.30970126390457153 0.3445211946964264
0.2846754491329193 -0.617065966129303 -0.03719542548060417
-0.45152655243873596 0.09891510754823685 -0.40279078483581543
0.040795400738716125 -0.22944088280200958 0.30553415417671204
-0.048097703605890274 0.002555904909968376 0.2619282305240631
-0.5119988918304443 -0.09598079323768616 -0.39250072836875916
-0.5174368619918823 0.000801247893832624 0.28075283765792847
0.11949827522039413 -0.00030131079256534576 -0.02429886721074581
0.025888681411743164 0.11945880204439163 0.46195462346076965
0.08219790458679199 -0.13371506333351135 0.31592857837677
-0.46308308839797974 0.11410962045192719 0.10328193008899689
-0.12640012800693512 0.004656409844756126 -0.3868834674358368
-0.34128767251968384 0.0035882028751075268 -0.2124824821949005
-0.14318838715553284 0.4000996947288513 -0.04973398149013519
-0.13149599730968475 0.05500571057200432 -0.4010851979255676
0.5224092602729797 0.16775363683700562 -0.39829543232917786
-0.10301726311445236 -0.6154786348342896 -0.05529218167066574
-0.06476878374814987 0.371809720993042 -0.3999873995780945
0.3882830739021301 -0.41815099120140076 -0.049068301916122437
0.40691596269607544 -0.07653342187404633 -0.18854917585849762
-0.3570457100868225 0.3229803144931793 -0.40127846598625183
0.29317495226860046 -0.62745201587677 0.11882820725440979
-0.33092325925827026 0.0003438617568463087 0.1359034925699234
-0.26890257000923157 0.39683327078819275 -0.16139164566993713
0.4405074715614319 0.39497724175453186 -0.3902897834777832
-0.5400130748748779 0.10156317800283432 0.21471591293811798
-0.18977847695350647 -0.4401717185974121 -0.04237191006541252
-0.2011287957429886 -0.15779756009578705 0.14006449282169342
0.21274828910827637 0.39970189332962036 0.22066311538219452
-0.14834754168987274 -0.18316195905208588 0.20408964157104492
0.5789490938186646 0.06666447967290878 -0.08103049546480179
-0.31257787346839905 0.33483701944351196 0.34487032890319824
-0.170975461602211 -0.0025328458286821842 0.1884584128856659
0.08435504138469696 0.31878459453582764 -0.3990026116371155
-0.379471093416214 0.05963461846113205 0.028137732297182083
-0.24222154915332794 -0.0010725799947977066 -0.005095317494124174
-0.08740969002246857 0.3883877396583557 0.33834749460220337
0.5389465093612671 0.40216967463493347 -0.1954096108675003
0.19344684481620789 0.003558920696377754 0.030936874449253082
0.04448476433753967 -0.41099992394447327 0.25375425815582275
0.5838679671287537 0.24162697792053223 0.13708437979221344
-0.5800402760505676 0.2353322058916092 0.06693734973669052
-0.09701809287071228 0.004835230298340321 0.16974908113479614
-0.2947160601615906 0.39777782559394836 -0.22517670691013336
0.2704569101333618 -0.6268396973609924 -0.20961160957813263
-0.5770437717437744 0.015131913125514984 -0.02909473329782486
-0.3165924847126007 0.3973773419857025 0.0841882973909378
-0.569301426410675 0.3623965382575989 0.25503262877464294
0.5791423320770264 0.2509346306324005 0.0026902868412435055
0.22478628158569336 -0.6219955086708069 -0.24440211057662964
0.01147575955837965 -0.48806121945381165 -0.30356070399284363
-0.025586143136024475 -0.2982495129108429 -0.3492731750011444
0.13994473218917847 0.4663320779800415 0.4408320188522339
0.4386417269706726 0.3984901010990143 -0.2641870081424713
0.34261614084243774 -0.6540873050689697 0.06897193193435669
0.09351888298988342 0.11984528601169586 0.34537971019744873
-0.07444675266742706 0.1626826375722885 -0.4039371907711029
0.05413474142551422 0.0014860134106129408 0.1617392897605896
-0.12171927094459534 0.22002831101417542 0.34739938378334045
0.2960520088672638 0.004138228949159384 -0.10915251076221466
0.29035839438438416 0.00023159384727478027 0.2090005874633789
-0.5239049196243286 0.000527143245562911 -0.398000031709671
0.34262004494667053 0.08553094416856766 0.342408686876297
0.17183135449886322 0.08255234360694885 0.4668053090572357
0.5812288522720337 0.24949800968170166 0.30312004685401917
0.20335541665554047 0.003498881123960018 -0.06797805428504944
0.2528655230998993 -0.0814552754163742 0.41381344199180603
0.21951839327812195 -0.6427305340766907 0.21736247837543488
0.5763814449310303 0.39691221714019775 -0.18485170602798462
0.09746439009904861 0.4011494517326355 0.21919284760951996
0.3009093403816223 0.002505107317119837 -0.06867936998605728
0.17274560034275055 0.0035230566281825304 -0.2947932779788971
-0.4142388701438904 0.040071357041597366 0.3477492034435272
-0.12457598000764847 -0.28224319219589233 0.2297714799642563
0.028894180431962013 -0.5162615776062012 -0.3079291880130768
-0.37628376483917236 0.3987865447998047 -0.2946525812149048
0.16059038043022156 -0.24190400540828705 -0.369204580783844
0.383267879486084 -0.5180095434188843 0.028457682579755783
0.3659400939941406 -0.30507808923721313 0.1934126317501068
-0.25202053785324097 0.0007069892017170787 -0.16787588596343994
-0.5092216730117798 -0.10008079558610916 0.1423056423664093
0.1555825024843216 0.08474908769130707 -0.4014148414134979
-0.5769619941711426 0.19365055859088898 0.12459422647953033
-0.28337350487709045 0.29588744044303894 -0.40093258023262024
-0.15630418062210083 -0.1944989562034607 0.19343627989292145
0.16648532450199127 0.19415606558322906 0.33964091539382935
0.5817172527313232 0.04338610917329788 0.0037389725912362337
-0.40401405096054077 -0.08086581528186798 0.3240799605846405
-0.5631281137466431 -0.04620673879981041 -0.09491138905286789
0.19485023617744446 0.3991782069206238 0.08218579739332199
0.5758446455001831 0.03053911030292511 0.24668382108211517
0.3469059467315674 -0.37577441334724426 -0.24384081363677979
0.4028185307979584 0.2806749939918518 0.34319356083869934
0.17758230865001678 0.4650009572505951 0.440961092710495
-0.4416148066520691 0.11002945899963379 -0.3197229504585266
0.33778220415115356 0.40106645226478577 -0.052433356642723083
0.4034479856491089 -0.3857073187828064 -0.0013582331594079733
0.08597172051668167 0.0029516229405999184 0.18652603030204773
-0.5460702776908875 -0.07325505465269089 0.0008960827253758907
0.37628173828125 -0.3322441875934601 0.17014087736606598
-0.22354047000408173 0.30210673809051514 0.3439231216907501
-0.5763255953788757 0.30763691663742065 -0.12656603753566742
-0.4506467580795288 0.35383784770965576 -0.40006136894226074
-0.5123923420906067 0.03541169688105583 0.3451062738895416
-0.3217974603176117 0.21090994775295258 -0.40482819080352783
0.24252723157405853 -0.6227201819419861 -0.20233674347400665
0.5148513317108154 0.40061211585998535 0.15098726749420166
0.5808285474777222 0.2541552484035492 -0.15462841093540192
0.17908108234405518 -0.61881422996521 0.030864378437399864
-0.5470868945121765 -0.0740121603012085 0.1268422156572342
0.1960901916027069 0.437071830034256 0.4511469900608063
0.16330786049365997 0.00022384151816368103 -0.14136996865272522
0.27848178148269653 -0.23720037937164307 -0.32542896270751953
0.5799071788787842 0.16779927909374237 -0.08427870273590088
0.3381012976169586 0.002620532177388668 -0.06955362856388092
-0.4214358627796173 0.007441869005560875 0.3496563732624054
-0.5079219341278076 0.3948993384838104 -0.02004484087228775
-0.19146420061588287 0.0005997810512781143 -0.07705577462911606
0.5225544571876526 0.0021052067168056965 -0.13883492350578308
-0.5009328722953796 -0.10284774005413055 -0.07339373975992203
-0.22086139023303986 0.40020501613616943 -0.33881035447120667
0.17503680288791656 0.001028548926115036 0.15920205414295197
-0.4869358241558075 0.4019296169281006 0.07425704598426819
0.5812702178955078 0.10772065073251724 -0.24752140045166016
-0.19678546488285065 0.39929521083831787 -0.17751261591911316
0.09468782693147659 0.31069377064704895 -0.39994513988494873
-0.22885307669639587 0.002967209555208683 -0.1209382563829422
0.5805258750915527 0.07368774712085724 -0.14862561225891113
0.4182545244693756 0.0004919520579278469 -0.044550392776727676
-0.14759430289268494 0.019766611978411674 0.34000515937805176
-0.2054925411939621 0.4014366865158081 0.0659681037068367
0.22148644924163818 0.0023994389921426773 0.14863282442092896
-0.18646401166915894 0.36050036549568176 0.34252163767814636
0.06461124867200851 0.11035080254077911 0.3436852693557739
0.5810471177101135 0.13034756481647491 -0.23472324013710022
0.28775617480278015 -0.24731133878231049 -0.31993722915649414
0.10231132805347443 -0.24644996225833893 -0.37404724955558777
-0.4341089129447937 0.15684141218662262 -0.400773286819458
-0.5330279469490051 0.07945509254932404 -0.16162364184856415
0.5733087658882141 0.011364536359906197 -0.21605516970157623
0.13462817668914795 0.003928870894014835 -0.2952234148979187
0.002718008356168866 0.0033887922763824463 0.17699934542179108
0.2226891964673996 0.4013086259365082 0.2729847729206085
-0.17512229084968567 0.29828640818595886 -0.40114399790763855
-0.04914095997810364 -0.6215724349021912 0.21710717678070068
-0.4764048457145691 0.003448505187407136 0.041144680231809616
0.2622193992137909 -0.6206793189048767 0.08354146033525467
0.07163731008768082 0.12181513756513596 -0.4033600986003876
0.30655544996261597 -0.03306502848863602 0.368705689907074
0.5772152543067932 0.37912827730178833 -0.003093044739216566
-0.06192060932517052 -0.42510342597961426 0.2116003781557083
0.26128292083740234 -0.6178955435752869 -0.047278035432100296
0.14770011603832245 -0.6167573928833008 0.2568378150463104
