0.20070940256118774 -0.6535838842391968 -0.2707407772541046
0.5824922323226929 0.11695192009210587 0.10667318105697632
0.2309761941432953 -0.5420963168144226 -0.28325971961021423
-0.14248259365558624 -0.38480037450790405 -0.20007595419883728
0.2740156650543213 0.0018237950280308723 0.0469677560031414
0.4304967522621155 0.4031211733818054 -0.2939736545085907
0.4296695590019226 -0.1642698049545288 0.08508273959159851
0.288046658039093 0.4668309986591339 0.3732747733592987
-0.4779236316680908 0.3848842680454254 0.02074815332889557
0.03808439150452614 -0.4074113667011261 -0.31090354919433594
-0.5750269293785095 -0.005516803823411465 -0.05889483168721199
0.58048015832901 0.12652717530727386 0.21059179306030273
-0.5799766778945923 0.3023809492588043 -0.04881555214524269
-0.14148446917533875 -0.5734631419181824 0.11912330240011215
-0.4704914391040802 -0.10584692656993866 -0.3165789246559143
-0.5150466561317444 0.0007284199818968773 0.24863989651203156
-0.15381312370300293 -0.0018863850273191929 0.16169504821300507
0.30978721380233765 0.40229183435440063 -0.2711224853992462
-0.06361035257577896 -0.012219242751598358 0.27312061190605164
0.11285597831010818 -0.6369532346725464 -0.31104305386543274
-0.07502321153879166 0.002180250361561775 -0.15733541548252106
-0.44768744707107544 0.0033363038673996925 -0.3701026439666748
0.04610786959528923 -0.3771195709705353 0.30157458782196045
0.1062813475728035 0.0011497288942337036 0.06956387311220169
0.39040133357048035 0.1000376045703888 0.3420838415622711
0.1174224391579628 0.4030192792415619 -0.3589783012866974
0.4374772906303406 0.0011313129216432571 0.007879568263888359
0.19590066373348236 0.17104987800121307 0.46666401624679565
-0.2378370612859726 -0.041900306940078735 -0.08102448284626007
0.21570496261119843 0.003540108911693096 -0.21237412095069885
-0.43498748540878296 0.4034973680973053 0.06962913274765015
0.32954660058021545 -0.3036156892776489 0.23292501270771027
-0.4339030086994171 -0.10168999433517456 -0.19490668177604675
-0.10421422868967056 -0.3778628706932068 -0.2772315740585327
0.04033423215150833 0.405077189207077 0.36939868330955505
-0.1754833459854126 0.40166574716567993 -0.024272935464978218
0.08372227102518082 -0.0497145801782608 0.32283610105514526
0.059237901121377945 -0.6397061944007874 -0.272197961807251
-0.3727879226207733 0.05691580846905708 -0.02150552347302437
0.09925162047147751 0.07354630529880524 0.34463655948638916
0.2259550541639328 4.132091999053955e-05 0.3322839140892029
0.19838187098503113 0.005653851665556431 -0.38981470465660095
-0.5021427869796753 0.39968815445899963 -0.24743568897247314
-0.5183176398277283 0.021193401888012886 0.34820228815078735
0.38173314929008484 -0.2965400516986847 -0.22957278788089752
-0.4307747781276703 0.40051600337028503 0.2532809376716614
-0.4457833766937256 0.09904259443283081 0.34304362535476685
-0.40528419613838196 0.09972129762172699 0.34081414341926575
-0.1209101527929306 0.40291649103164673 -0.25951045751571655
0.20917372405529022 0.20754854381084442 -0.399992972612381
-0.19654519855976105 0.05645766109228134 -0.39883971214294434
-0.10591171681880951 0.3987260162830353 -0.3892700672149658
-0.2677469551563263 0.3788643777370453 -0.07985354214906693
-0.2723204791545868 0.002412918023765087 0.21442943811416626
0.5490072965621948 0.4008808732032776 0.31675174832344055
0.5783621668815613 0.322393536567688 -0.3921760320663452
0.1986543834209442 -0.64835524559021 -0.288841187953949
0.5745086669921875 0.3862941861152649 0.25011855363845825
-0.01774844154715538 0.0023006638512015343 0.00028263404965400696
0.17414557933807373 -0.3209478557109833 0.30947184562683105
-0.2137896567583084 0.40154194831848145 -0.021023303270339966
0.03004184551537037 0.37519335746765137 0.37612149119377136
0.26020848751068115 -0.6191924810409546 0.12236593663692474
-0.07285121828317642 -0.6213482618331909 -0.09525816887617111
-0.3032958209514618 0.0021517639979720116 -0.1267646998167038
-0.48274490237236023 0.365944504737854 -0.01200865302234888
0.1648639738559723 0.407330185174942 0.4556885361671448
0.33435049653053284 -0.6300380825996399 -0.000601633102633059
-0.4736100435256958 0.040863264352083206 0.35345953702926636
-0.578531801700592 0.045539408922195435 -0.2949981391429901
0.13861094415187836 -0.177398681640625 -0.3698543906211853
-0.3562481701374054 0.08315213769674301 -0.39947789907455444
-0.5056968927383423 0.0003451085649430752 -0.023286504670977592
0.12850812077522278 -0.6035316586494446 -0.3109488785266876
-0.5664902925491333 0.3732321858406067 0.24755142629146576
0.058695416897535324 -0.6280608177185059 -0.2122686803340912
-0.15458044409751892 -0.6570572853088379 -0.12157098948955536
-0.5616123080253601 -0.05306607857346535 -0.31606483459472656
-0.3872600197792053 -0.0029356107115745544 -0.22512935101985931
0.19505873322486877 -0.4166660010814667 0.2453804761171341
0.5549790263175964 0.17236530780792236 -0.3982667922973633
-0.5467008352279663 0.3938997685909271 -0.01734282076358795
-0.17110317945480347 0.4022093117237091 -0.33955100178718567
-0.12757015228271484 0.2317029982805252 0.34628090262413025
-0.18279825150966644 -0.23745273053646088 -0.21796922385692596
-0.1403687298297882 0.00176303181797266 -0.12159837782382965
0.4404846131801605 -9.203050285577774e-05 0.18040794134140015
-0.39610400795936584 0.07857522368431091 -0.29400336742401123
0.07616987824440002 0.08241400122642517 0.4659298062324524
-0.3941785395145416 0.39819708466529846 0.07134850323200226
-0.0305368360131979 0.0013533164747059345 -0.26290151476860046
-0.08750303089618683 -0.6192297339439392 -0.23885731399059296
0.4435533881187439 -0.2225755900144577 0.0034185212571173906
0.12899057567119598 -0.4009963870048523 0.26441192626953125
0.03332635387778282 -0.05116616562008858 0.355464369058609
0.02577606588602066 -0.43721234798431396 0.2515595853328705
0.463288277387619 0.05295603722333908 0.3412764370441437
0.1459457129240036 0.0022690733894705772 -0.26949724555015564
0.10777242481708527 -0.24932701885700226 -0.3698057532310486
-0.10096906125545502 0.0018703574314713478 -0.3039774000644684
0.16730013489723206 0.0022763749584555626 0.0755816176533699
-0.5514944791793823 -0.008361154235899448 0.34764111042022705
-0.5435662269592285 0.39189255237579346 0.29671138525009155
-0.5502020716667175 0.09335573762655258 -0.3491065502166748
-0.27236542105674744 0.0036920770071446896 -0.23434916138648987
0.43402907252311707 -0.3771401345729828 -0.0009952076943591237
0.23342500627040863 -0.0016621127724647522 0.2726079821586609
-0.08235327899456024 -0.6232497692108154 -0.02216726914048195
-0.1123330295085907 0.07690466195344925 -0.40054449439048767
0.12960544228553772 0.40135008096694946 0.16351935267448425
0.29587993025779724 0.4144255518913269 0.4507428705692291
-0.4885137975215912 0.07514423877000809 0.34349626302719116
-0.14720594882965088 0.00244793388992548 -0.08354929834604263
-0.14330679178237915 0.400673508644104 0.028655782341957092
0.34185990691185 -0.6366031169891357 -0.0670618861913681
0.3815874457359314 0.001965971663594246 0.08868612349033356
0.04297454655170441 0.40049511194229126 -0.3730017840862274
-0.5495386123657227 0.09778183698654175 0.33831584453582764
-0.349071204662323 0.08793063461780548 -0.4002705216407776
0.5812726616859436 0.20192398130893707 -0.13102979958057404
0.29162198305130005 0.01608967036008835 0.46368929743766785
0.5697942972183228 0.18946793675422668 0.3391798138618469
0.5783751010894775 0.034899648278951645 0.2902336120605469
-0.16902846097946167 -0.5266613960266113 0.06964307278394699
0.35118576884269714 0.0007870905101299286 0.06515530496835709
0.13835664093494415 0.0013150237500667572 0.25160589814186096
0.21847392618656158 -0.10984025150537491 0.29570338129997253
-0.48409029841423035 -0.05087224021553993 -0.3952334523200989
-0.34388992190361023 -0.0005401312373578548 -0.3197852671146393
0.3781392276287079 0.05477755516767502 -0.40028825402259827
0.2871530055999756 0.0012618429027497768 0.21754631400108337
-0.4731867015361786 -0.03958131745457649 0.3588273227214813
0.3817637264728546 -0.5219464302062988 0.050243135541677475
-0.1832410842180252 0.0021636225283145905 -0.06377970427274704
-0.4657588601112366 0.40130800008773804 0.22523783147335052
0.3459891676902771 -0.6340624094009399 0.010531207546591759
0.10642104595899582 0.0011561792343854904 0.08824455738067627
-0.010828401893377304 0.15460224449634552 0.3481510877609253
0.26622840762138367 -0.6284711360931396 -0.18373215198516846
-0.4296565651893616 0.0866536870598793 0.3389609158039093
0.2762783467769623 0.26907217502593994 -0.4012300372123718
0.44134214520454407 0.001545935869216919 -0.043761562556028366
0.37469345331192017 -0.6536576747894287 -0.12114910781383514
-0.40764617919921875 0.05996806174516678 0.34250542521476746
0.24927136301994324 0.4027460515499115 0.2516520321369171
-0.30469223856925964 0.3587220013141632 -0.1656036078929901
-0.23129869997501373 0.023185279220342636 0.34429800510406494
-0.0828796848654747 0.12714019417762756 -0.4012802243232727
0.19943767786026 -0.255815327167511 0.30091556906700134
-0.02749350666999817 -0.009103457443416119 -0.3449085056781769
0.016585754230618477 -0.38503164052963257 0.28032633662223816
0.2790917754173279 -0.08257698267698288 0.4115737974643707
0.3728649318218231 -0.10257911682128906 -0.24084705114364624
-0.0618542805314064 0.40164098143577576 0.1184515729546547
0.31204286217689514 0.3778589367866516 0.45402640104293823
0.5810384750366211 0.2399119883775711 -0.1598929613828659
0.5754115581512451 0.39051011204719543 0.11088190227746964
0.5817038416862488 0.264649361371994 0.14214684069156647
-0.31663021445274353 0.3727450966835022 -0.0031452192924916744
-0.14421223104000092 0.18059271574020386 0.34583452343940735
-0.017232798039913177 -0.6323739290237427 0.18644466996192932
-0.5806645750999451 0.16201506555080414 0.2983686625957489
0.1764417141675949 -0.007886282168328762 0.4646773934364319
0.1969146728515625 0.0023826591204851866 -0.2372574657201767
0.5827334523200989 0.08249934017658234 -0.3204803466796875
0.20170137286186218 -0.24102431535720825 -0.355634868144989
0.3656258285045624 0.003595604095607996 -0.12747444212436676
-0.11808064579963684 -0.6584597229957581 0.1329042911529541
0.24168294668197632 -0.05956573784351349 0.324575811624527
0.3036135137081146 0.13835585117340088 0.3429405093193054
-0.5277846455574036 0.26271677017211914 -0.40014129877090454
0.036916349083185196 -0.415230929851532 -0.31216371059417725
-0.38994064927101135 0.005900977179408073 -0.0066184126771986485
-0.15166927874088287 -0.0049442145973443985 0.16969351470470428
-0.22575992345809937 -0.1441277712583542 -0.15245121717453003
-0.5806695818901062 0.14079676568508148 0.04684543237090111
0.49190911650657654 0.40123966336250305 0.2295735776424408
-0.06910760700702667 0.4006110429763794 0.15900744497776031
0.2365274280309677 0.04391055554151535 -0.39795824885368347
0.39269059896469116 0.0484248548746109 -0.4005807936191559
-0.2752450704574585 0.4013170599937439 0.24267831444740295
0.3293190896511078 -0.6329147815704346 -0.097585529088974
0.2684950530529022 -0.5159635543823242 -0.2614918649196625
0.04797884449362755 -0.6276549100875854 0.2508644759654999
0.1898069828748703 0.0031214640475809574 -0.2256859987974167
0.3761473596096039 -0.5295544862747192 0.06913457065820694
0.09106943011283875 0.43381911516189575 0.36102771759033203
-0.43672975897789 0.2680535316467285 -0.400488942861557
0.17079278826713562 -0.6218858957290649 -0.20390570163726807
0.023482779040932655 -0.001065216027200222 0.3855084180831909
-0.1959429681301117 -0.35381680727005005 -0.19842061400413513
0.5794662833213806 0.2395211011171341 0.32027748227119446
0.07789125293493271 0.0027342350222170353 -0.3387201130390167
-0.2388993799686432 -0.20341072976589203 -0.022595977410674095
0.16700296103954315 -0.08896436542272568 0.3166022300720215
0.39660921692848206 0.1525707095861435 0.3429834544658661
0.2571629583835602 0.0506473183631897 -0.3985390067100525
-0.2962477505207062 0.3167870342731476 -0.40041831135749817
0.28124117851257324 0.37893104553222656 0.465614378452301
-0.5746113061904907 0.07191537320613861 -0.1125485822558403
-0.20775774121284485 0.3380875289440155 -0.3977609872817993
-0.10862939059734344 -0.0752454549074173 -0.30096006393432617
0.5511581301689148 0.00795681495219469 0.08022618293762207
-0.3548259735107422 0.0005154493264853954 -0.12801699340343475
0.025496061891317368 0.27865612506866455 0.4191395342350006
0.3319733738899231 -0.0010947566479444504 0.25927072763442993
-0.17319002747535706 -0.04562075436115265 0.18087507784366608
-0.5741086006164551 0.36488717794418335 0.12342026084661484
-0.28719109296798706 0.09037122875452042 -0.39913317561149597
-0.16835525631904602 -0.5265213251113892 0.06825397908687592
0.4344533383846283 0.0009579639881849289 -0.045742083340883255
0.008344513364136219 0.0012138793244957924 0.07075183838605881
0.3196401298046112 0.0026530863251537085 -0.22557787597179413
-0.5295513272285461 -0.08999717980623245 -0.36899515986442566
-0.5429914593696594 0.39560824632644653 -0.19266967475414276
0.277041494846344 -0.6246713399887085 0.03813233599066734
0.5817169547080994 0.1450747549533844 -0.3598325550556183
0.2552952468395233 0.40179967880249023 0.23313194513320923
-0.48944759368896484 -0.0006775590591132641 -0.05617323890328407
-0.18857188522815704 0.3068859577178955 0.34451088309288025
-0.5685465335845947 -0.05158369988203049 -0.2174583524465561
-0.5047799348831177 0.11446316540241241 -0.17296282947063446
0.13887988030910492 0.40366289019584656 -0.1516086608171463
0.08370067924261093 -0.4815141558647156 -0.3158927857875824
0.4081629514694214 -0.2774234414100647 -0.17899112403392792
-0.5745213627815247 -0.013500841334462166 -0.2868228852748871
-0.09498843550682068 0.4024459719657898 -0.3313494622707367
0.35353508591651917 0.0039861467666924 -0.04743759706616402
-0.14454229176044464 0.0019191651372238994 -0.017363732680678368
0.43859055638313293 0.06876382231712341 -0.40114253759384155
0.22859510779380798 -0.5684934258460999 -0.2863036096096039
0.5665713548660278 0.3559620678424835 -0.40016940236091614
-0.5760929584503174 0.2924620509147644 0.33573460578918457
-0.007688658311963081 -0.6308620572090149 -0.2073858678340912
0.2802356779575348 0.0032641540747135878 -0.028510794043540955
0.21491898596286774 -0.627470076084137 -0.2248215675354004
0.04679262265563011 0.4027158319950104 -0.004684222396463156
0.07174371927976608 0.0020009223371744156 0.26357749104499817
0.24495910108089447 -0.6084806323051453 -0.27547183632850647
0.10890699923038483 0.4008406400680542 0.08590664714574814
-0.08741283416748047 0.002152996137738228 0.17347010970115662
-0.05411878973245621 -0.3215928077697754 0.2774816155433655
-0.07629875093698502 0.26681116223335266 -0.40092089772224426
0.17578279972076416 0.39918428659439087 0.19410471618175507
0.3463675081729889 -0.06941183656454086 0.21873591840267181
-0.5811941623687744 0.28773945569992065 0.18610067665576935
-0.02033926546573639 0.4015638530254364 0.16227906942367554
0.3388632535934448 -0.6370847225189209 -0.06022706627845764
0.3162940442562103 0.28866758942604065 0.40822428464889526
0.3760563135147095 -0.5996930599212646 -0.11577266454696655
0.44648706912994385 -0.018379464745521545 -0.06567079573869705
-0.5545006990432739 -0.07226702570915222 -0.3009580969810486
0.1879008561372757 -0.6252372860908508 0.06543730199337006
0.3318156599998474 -0.001436875551007688 -0.23772290349006653
-0.09233377873897552 0.16768594086170197 -0.4014916718006134
-0.3715837895870209 0.01320168748497963 0.3391247093677521
-0.19080530107021332 0.001515422947704792 -0.015324095264077187
0.3125901222229004 0.3538142144680023 0.4389510154724121
0.1478710174560547 0.46139392256736755 0.44804897904396057
0.23472140729427338 0.21003121137619019 0.4664185643196106
0.3456324636936188 -0.1444479525089264 0.21676738560199738
-0.45313432812690735 0.0028295638039708138 0.25456562638282776
-0.577393114566803 0.09061738848686218 0.2673725187778473
-0.4936695694923401 0.11543028056621552 -0.08150720596313477
-0.48384228348731995 0.10956420004367828 0.2024867981672287
-0.1852751523256302 -0.6314788460731506 -0.03429846093058586
-0.3580258786678314 0.012168505229055882 -0.3021869659423828
-0.359778493642807 0.010654686018824577 0.11150451749563217
-0.3380734622478485 0.402288019657135 -0.11974886804819107
0.5701792240142822 0.17221815884113312 0.3349531590938568
0.33113688230514526 -0.003912437707185745 0.2544107139110565
0.1727491170167923 -0.02339465171098709 0.3179669976234436
0.30398833751678467 0.06566327065229416 0.4584534168243408
0.5667482018470764 0.39420732855796814 0.08852019906044006
-0.18236517906188965 -0.09490708261728287 -0.21855217218399048
-0.3698090612888336 0.05275728553533554 0.1255163848400116
0.12762637436389923 0.30467817187309265 0.4640209376811981
0.21248690783977509 -0.607702910900116 -0.29103192687034607
0.5805533528327942 0.12281503528356552 0.03321326896548271
0.4636806845664978 0.3398284316062927 -0.4023844599723816
-0.5766428709030151 0.010357397608458996 -0.11503755301237106
-0.47235819697380066 0.2915714979171753 0.34536466002464294
0.3747677505016327 0.2759552001953125 0.34177446365356445
0.3730165362358093 0.013169637881219387 -0.3958330452442169
0.4592359960079193 0.4029492139816284 -0.068026103079319
0.582248866558075 0.11826106160879135 -0.05259311944246292
-0.23829299211502075 -0.08132628351449966 -0.07736775279045105
0.5479033589363098 0.0038748732767999172 -0.2996121942996979
0.39196255803108215 0.0015943348407745361 0.10975088179111481
-0.1002969890832901 0.0023556523956358433 -0.10054123401641846
0.3255816102027893 0.40318813920021057 -0.30158817768096924
0.38896095752716064 -0.511574923992157 -0.036576010286808014
0.22928056120872498 0.0026179139968007803 -0.051142580807209015
0.12201985716819763 -0.621280312538147 -0.2466076910495758
-0.5819992423057556 0.23118695616722107 -0.33867311477661133
0.41133999824523926 -0.1829027384519577 0.12814739346504211
-0.579371452331543 0.2525099813938141 0.03648906573653221
0.3556303083896637 -0.6547297835350037 -0.06419411301612854
-0.03397996351122856 0.39938461780548096 0.2929464280605316
0.5376946926116943 0.0024241264909505844 -0.33332738280296326
-0.032611388713121414 -0.3872860372066498 0.23583252727985382
0.26439163088798523 0.40257349610328674 0.26411905884742737
-0.06785233318805695 0.40327325463294983 -0.23638209700584412
-0.07249227911233902 -0.43535298109054565 -0.2564866542816162
0.1945246458053589 0.004987876862287521 -0.38662436604499817
-0.544640839099884 0.08527789264917374 0.07654581218957901
-0.03796839341521263 -0.5042328238487244 0.22325310111045837
0.370449036359787 -0.17979635298252106 -0.2452450692653656
0.009423322975635529 -0.47570258378982544 0.2440345138311386
-0.5790908336639404 0.12427365034818649 0.33608537912368774
0.5808447599411011 0.06615616381168365 -0.2789912521839142
0.17635606229305267 0.002894539386034012 -0.2690638601779938
0.5735968947410583 0.39386069774627686 -0.2772112488746643
0.013977493159472942 -0.6257996559143066 0.12135298550128937
0.4073832631111145 -0.13040384650230408 0.13334228098392487
-0.49086523056030273 0.107398621737957 0.2462937980890274
-0.31031346321105957 0.40267056226730347 -0.23552538454532623
0.4188210964202881 -0.3756423890590668 -0.14484287798404694
-0.31129664182662964 0.3966626524925232 0.29672566056251526
-0.17212074995040894 -0.19611907005310059 0.1811075359582901
-0.23065492510795593 -0.02281574159860611 -0.11862249672412872
0.2484319508075714 0.002119683660566807 -0.2599765658378601
0.4847494065761566 0.31199219822883606 -0.401843786239624
0.5703113675117493 0.009579360485076904 -0.14311811327934265
0.2828810513019562 0.16684281826019287 -0.40004435181617737
-0.041975121945142746 0.03173612058162689 0.3446345925331116
-0.5817419290542603 0.1728973239660263 -0.1329839676618576
0.029782375320792198 0.07181932777166367 0.4564303755760193
0.5771517753601074 0.10763661563396454 -0.13949981331825256
0.3204563856124878 -0.08616749197244644 0.33444496989250183
-0.017948588356375694 -0.6267502903938293 0.17802338302135468
-0.03952000290155411 -0.467110276222229 0.22281593084335327
0.46722280979156494 0.08533701300621033 0.34180450439453125
0.12856580317020416 0.33695194125175476 0.4641963243484497
0.26477184891700745 -0.08910730481147766 0.35951951146125793
-0.10755554586648941 0.39781418442726135 0.26227012276649475
0.439642071723938 -0.21283374726772308 0.04587147384881973
-0.2729918360710144 -0.0006438661366701126 -0.285725474357605
0.022087739780545235 0.29035279154777527 0.4166102111339569
0.14248375594615936 -0.021382875740528107 0.4661746919155121
-0.07523050159215927 -0.007538964040577412 0.26120105385780334
0.2509670555591583 -0.007750131189823151 0.3189080059528351
-0.36773577332496643 0.054083023220300674 -0.06160958111286163
0.5590667128562927 0.400520384311676 -0.22070497274398804
-0.469844788312912 0.17649126052856445 0.34331196546554565
0.08496611565351486 0.23114097118377686 0.34550049901008606
0.2973264753818512 -0.47814127802848816 0.18709595501422882
-0.4490981996059418 0.001650604885071516 -0.12492609024047852
-0.131456196308136 -0.0032864967361092567 -0.2699427306652069
0.06040652096271515 -0.08244387805461884 0.3168158531188965
0.1316387802362442 0.003286209888756275 -0.07049094885587692
0.4507826864719391 0.39856836199760437 0.31393754482269287
-0.10854616016149521 -0.18893247842788696 -0.306255966424942
-0.27943187952041626 0.3480115830898285 -0.39950090646743774
0.20863395929336548 0.11185906827449799 -0.39917442202568054
0.17285695672035217 0.0026870155707001686 -0.3053134083747864
0.5772390365600586 0.08514627814292908 -0.0791054293513298
0.045745208859443665 -0.6256049275398254 -0.252681165933609
-0.523626446723938 0.0005736243911087513 0.08048883825540543
0.5066273212432861 0.40347015857696533 -0.126302570104599
-0.22659827768802643 -0.15207001566886902 -0.1102752760052681
0.1652623414993286 -0.642403781414032 -0.27282580733299255
-0.5796809196472168 0.3337521553039551 0.15921397507190704
0.5711986422538757 0.3910531997680664 0.27302318811416626
-0.08468565344810486 0.306074857711792 -0.40048953890800476
0.2369423508644104 0.0037932265549898148 -0.1829598844051361
-0.36151212453842163 -0.01991886831820011 -0.3369903564453125
-0.3969101011753082 0.08231595903635025 -0.15786559879779816
0.13584169745445251 0.2575414478778839 -0.4000641405582428
-0.19504505395889282 0.17009052634239197 -0.40184321999549866
0.021835438907146454 0.2059924453496933 0.4243781566619873
-0.45347970724105835 0.3935752809047699 -0.017982548102736473
-0.08971556276082993 -0.008715284988284111 -0.3097061812877655
0.2908337414264679 -0.22117853164672852 -0.3148224353790283
0.0001391720725223422 -0.6493456959724426 -0.27222320437431335
-0.44683417677879333 0.39854612946510315 0.022808892652392387
0.20992504060268402 0.0009802374988794327 -0.05387738719582558
0.16174718737602234 -0.6555468440055847 -0.29566603899002075
0.5809404850006104 0.030312195420265198 -0.01292609516531229
0.009159084409475327 -0.002317131031304598 0.3223419189453125
0.35108044743537903 -0.4529973864555359 -0.17004957795143127
-0.2118844985961914 0.3954548239707947 -0.3956778347492218
-0.5783455967903137 0.021918276324868202 0.0039454554207623005
-0.0779973566532135 -0.5109153389930725 -0.24885325133800507
-0.122373066842556 0.40165746212005615 0.11798202991485596
-0.4922279119491577 0.09356483817100525 -0.40066415071487427
0.018314357846975327 -0.6263757944107056 -0.24476785957813263
0.22733159363269806 0.3987474739551544 -0.38643670082092285
0.06897180527448654 -0.4216301143169403 -0.31668972969055176
-0.11616049706935883 -0.3871955871582031 -0.23213785886764526
0.2596321105957031 0.39501312375068665 -0.39322909712791443
0.40533730387687683 -0.27285292744636536 0.136499285697937
0.3138437867164612 0.01034538634121418 -0.3908440172672272
-0.2757256329059601 0.004463864490389824 0.3301003575325012
-0.374243825674057 0.05446581542491913 -0.10081946849822998
0.13732928037643433 0.40337255597114563 -0.10354801267385483
0.3150109350681305 0.10926160961389542 0.3455018103122711
-0.4947190582752228 0.03763682767748833 0.35052382946014404
0.5763835906982422 0.38303497433662415 0.017828892916440964
-0.3779447674751282 -0.04527286812663078 0.1342381089925766
0.3779524266719818 -0.11104140430688858 -0.23023781180381775
0.06673571467399597 0.19348856806755066 -0.4002664387226105
0.17703941464424133 0.0008340282365679741 0.1598442643880844
0.4235400855541229 -0.0180138498544693 0.10187791287899017
0.3309410810470581 -0.37385404109954834 0.2175714075565338
-0.5619699358940125 -0.057371947914361954 0.16263771057128906
-0.5811539888381958 0.1857851892709732 -0.32760584354400635
-0.15097372233867645 0.0014013801701366901 -0.330520898103714
-0.5126828551292419 0.001018286682665348 -0.22186626493930817
0.47979649901390076 0.015526502393186092 -0.3961160182952881
-0.09968392550945282 -0.439400851726532 -0.23288412392139435
-0.048760026693344116 -0.5986019968986511 0.21497441828250885
-0.4954856038093567 -0.10445381700992584 0.22184063494205475
-0.10311321914196014 -0.6478657722473145 0.1309032440185547
0.12096081674098969 0.46995484828948975 0.43982914090156555
0.5787280797958374 0.15661568939685822 0.31902632117271423
-0.5740668773651123 0.012503676116466522 0.22461462020874023
-0.16144494712352753 -0.3782942593097687 0.14740484952926636
-0.35276710987091064 0.00021937675774097443 0.0865841954946518
0.2960793673992157 0.03392477333545685 0.34475404024124146
-0.2951372563838959 0.39919304847717285 -0.05866742506623268
0.23080874979496002 -0.6328489184379578 -0.28207674622535706
-0.4092751741409302 0.40578287839889526 -0.15487419068813324
-0.49863260984420776 -0.09779955446720123 -0.11566779017448425
0.05611507594585419 0.1434449553489685 -0.4001052677631378
0.4190893769264221 0.002723049372434616 -0.24907954037189484
0.034776441752910614 0.0013539191568270326 0.017535733059048653
0.2519594132900238 0.19334463775157928 0.46478134393692017
-0.5611703991889954 -0.0007975343614816666 -0.18535982072353363
-0.4572613835334778 0.0036251312121748924 0.26094284653663635
0.004836888052523136 -0.6223812699317932 0.16133488714694977
-0.5712116956710815 0.3662976026535034 0.240542933344841
0.25276094675064087 0.22366787493228912 -0.4001825749874115
0.2572285234928131 -0.6284099221229553 -0.206641286611557
-0.5801786184310913 0.13056854903697968 -0.016267310827970505
-0.4138003885746002 0.40891334414482117 -0.15701818466186523
0.27766910195350647 -0.03214301913976669 0.33255526423454285
-0.4567663073539734 0.10885851830244064 0.3446143567562103
-0.3551652729511261 0.004405149258673191 0.24151715636253357
0.24534572660923004 0.35296425223350525 -0.4007641077041626
-0.060872968286275864 0.2087095081806183 -0.4027685225009918
-0.5672537684440613 0.002112800721079111 -0.30369096994400024
0.046616967767477036 0.08686839044094086 0.34764498472213745
0.1469200998544693 -0.07267630100250244 -0.36707571148872375
-0.5270984768867493 0.391783207654953 -0.1479324847459793
-0.21804790198802948 0.0003813323564827442 0.0984356701374054
0.15027733147144318 -0.6283692717552185 0.1113709956407547
0.026186907663941383 -0.6207347512245178 0.24463267624378204
0.44157177209854126 0.0001983046531677246 0.04820831120014191
-0.21482710540294647 0.1274673193693161 -0.4005827009677887
0.050844043493270874 -0.23089461028575897 0.31026628613471985
-0.15964016318321228 0.0028136353939771652 -0.0747060775756836
0.25793397426605225 -0.39618030190467834 0.21486954391002655
0.037651143968105316 -0.06959077715873718 -0.3697684109210968
-0.14553415775299072 0.001062534749507904 -0.2602410316467285
-0.11807256937026978 -0.6402562260627747 -0.14569038152694702
-0.12667354941368103 -0.0842985287308693 -0.27902793884277344
0.48684078454971313 0.0011561305727809668 0.06856633722782135
0.4632042348384857 0.3106856942176819 0.3441754877567291
0.4061000943183899 -0.13930654525756836 -0.1908915638923645
0.07025857269763947 0.0004999064840376377 -0.07659142464399338
-0.12063228338956833 0.3233003318309784 0.3444986641407013
0.39048001170158386 -0.15964049100875854 0.16226990520954132
0.24295321106910706 -0.0031171543523669243 0.25771111249923706
0.5820783972740173 0.20885518193244934 -0.35611864924430847
-0.019617505371570587 -0.033009547740221024 0.291577011346817
0.29695019125938416 0.4020111858844757 0.2110898643732071
0.39472293853759766 -0.3818667232990265 -0.09153815358877182
0.14978383481502533 -0.6350452303886414 -0.27185124158859253
0.02637467533349991 0.06217976287007332 0.39218541979789734
0.2552996277809143 0.0020437221974134445 -0.1047666072845459
-0.26991403102874756 0.004971677903085947 0.331556111574173
0.19877956807613373 0.0016338629648089409 -0.00651759747415781
0.039939433336257935 -0.054797690361738205 -0.3653831481933594
-0.4472007751464844 3.926549106836319e-05 0.10772239416837692
0.26082879304885864 0.4169791638851166 0.3576180040836334
-0.5552809834480286 0.0013751520309597254 0.05584145337343216
-0.04670735448598862 -0.6268297433853149 -0.048524852842092514
0.055593714118003845 0.4031086564064026 -0.14430207014083862
-0.03658870607614517 0.4016781151294708 -0.0809725895524025
-0.10274779796600342 -0.4564324915409088 -0.23476429283618927
0.10896371304988861 -0.00466848025098443 0.3116486370563507
-0.19548551738262177 0.4009186625480652 -0.3649965822696686
0.33648380637168884 0.10177451372146606 0.4077751338481903
0.38083022832870483 -0.15541736781597137 0.17512591183185577
-0.07585963606834412 -0.6211315393447876 -0.08426819741725922
0.3072831332683563 0.2947104871273041 0.3518551290035248
0.5829728245735168 0.24431869387626648 -0.22643563151359558
-0.3847733736038208 0.0721469298005104 0.20304876565933228
0.008718385361135006 0.0017871437594294548 -0.05258242040872574
0.10299760103225708 0.13619272410869598 0.4654614329338074
0.03900608792901039 0.002337370067834854 -0.3524370789527893
0.0861910805106163 0.005589077714830637 -0.37761592864990234
0.13450366258621216 -0.6011732220649719 -0.31278425455093384
-0.1312708705663681 -0.5201155543327332 -0.19233152270317078
0.10092724859714508 -0.22181956470012665 -0.3732852041721344
0.03204716369509697 0.11907020956277847 0.4592551290988922
0.4243452548980713 -0.21966151893138885 -0.14154298603534698
-0.07555247098207474 0.0023678671568632126 -0.27339404821395874
-0.299216091632843 0.29614022374153137 -0.4000989496707916
0.19548441469669342 -0.6316505074501038 -0.29446765780448914
-0.40849336981773376 0.4005919098854065 0.18360209465026855
0.11202575266361237 0.28852352499961853 -0.3999314308166504
-0.5308879613876343 0.0018046186305582523 0.00816841796040535
0.5815020203590393 0.058724671602249146 -0.010629389435052872
0.29573920369148254 0.003437824547290802 -0.0668463259935379
0.08388257026672363 -0.47235047817230225 -0.31670308113098145
0.5539934039115906 0.40363943576812744 -0.1520647555589676
0.053599245846271515 0.173460453748703 0.46194085478782654
0.017104918137192726 -0.24024978280067444 -0.35903456807136536
-0.10311228036880493 0.002472524531185627 -0.023897062987089157
-0.43390098214149475 0.0003180708736181259 -0.17073571681976318
0.4729370176792145 3.791647031903267e-05 0.10662638396024704
-0.04522135108709335 0.4019712209701538 0.28613120317459106
0.06033787131309509 0.40267235040664673 -0.1286131739616394
0.438741534948349 0.10958544909954071 0.3456500172615051
0.20210175216197968 0.08491427451372147 0.464210569858551
0.034573182463645935 -0.6245579719543457 0.10887396335601807
-0.4233425557613373 0.050531309098005295 -0.39905214309692383
0.3370986878871918 -0.0022946023382246494 0.22502951323986053
-0.4830551743507385 -0.00021163467317819595 0.06912128627300262
0.1603022664785385 -0.5096146464347839 0.2505826950073242
0.2672019302845001 -0.19176647067070007 -0.32941773533821106
0.2669326663017273 0.0009215450845658779 0.4655030071735382
-0.2412179857492447 -0.05638626590371132 -0.027751615270972252
0.24588707089424133 -0.5622578263282776 -0.2765386402606964
0.4224252700805664 -0.08727104961872101 0.10657568275928497
0.18136699497699738 -0.6238465905189514 -0.051009099930524826
0.0024040695279836655 -0.6227697730064392 0.1516498327255249
-0.23566792905330658 -0.07719948887825012 0.008097835816442966
0.2530592679977417 -0.3866274356842041 -0.28130146861076355
0.38346990942955017 -0.37043455243110657 -0.21375876665115356
0.3570682406425476 -0.5699795484542847 0.11500182002782822
0.003608869854360819 0.002894153818488121 -0.32054829597473145
0.07945678383111954 0.389947772026062 0.3381582498550415
-0.4818304777145386 0.4008880853652954 0.17857292294502258
0.3449944257736206 -0.5266664028167725 -0.1817820817232132
0.4782962501049042 0.09159017354249954 0.34089770913124084
-0.5736803412437439 -0.0004543643444776535 0.08155661076307297
-0.5779879093170166 0.0234135203063488 -0.376126766204834
-0.01300524827092886 0.000545143149793148 0.11641440540552139
-0.5613592863082886 0.22091098129749298 0.34257742762565613
-0.1963656097650528 -0.38653066754341125 0.03640371561050415
-0.291612446308136 0.0007528960704803467 0.16450104117393494
-0.06692533940076828 0.0018507828935980797 -0.05092083662748337
-0.2371748685836792 -0.28772783279418945 0.011030614376068115
0.5807837247848511 0.24741756916046143 0.049505770206451416
-0.5379779934883118 0.09218959510326385 0.2523520290851593
-0.1392737329006195 -0.6426715850830078 0.004083071369677782
-0.21093299984931946 0.0021121022291481495 0.25824007391929626
0.3559781312942505 -0.6250808238983154 0.11718685179948807
0.23041805624961853 -0.5749279856681824 0.23198367655277252
-0.08332084864377975 -0.5924251079559326 0.1897275149822235
0.5771532654762268 0.07867277413606644 0.19830480217933655
0.010205710306763649 0.34780001640319824 -0.400072306394577
-0.256693959236145 0.09016542881727219 -0.3988514542579651
0.04548743739724159 -0.07755030691623688 0.33504170179367065
0.4451386034488678 -0.20406471192836761 0.00796500500291586
-0.42214882373809814 0.41345784068107605 -0.11181750893592834
0.37460610270500183 0.003034507855772972 -0.08363375812768936
0.38448596000671387 0.003372553735971451 -0.05652625486254692
0.07427703589200974 -0.07073666155338287 0.321161150932312
0.2073487639427185 0.24177663028240204 0.46596309542655945
0.041758567094802856 -0.6230801343917847 0.14866182208061218
0.5784307718276978 0.2817646265029907 -0.00852882582694292
0.38204848766326904 -0.48377010226249695 0.04737212881445885
0.04133554920554161 0.40102946758270264 0.14053373038768768
0.3575691282749176 -0.37390172481536865 0.16444073617458344
0.031047169119119644 -0.5363991260528564 -0.30327579379081726
-0.3697870671749115 0.016293972730636597 0.060304541140794754
0.44308024644851685 -0.0636933371424675 0.022837204858660698
0.03193087503314018 0.22464600205421448 0.3514488935470581
-0.5821831822395325 0.167801633477211 -0.22343158721923828
0.09836248308420181 0.32688573002815247 0.34245094656944275
0.5793973207473755 0.2959746718406677 0.28885045647621155
-0.4620060920715332 0.11601067334413528 0.31967705488204956
-0.1682358831167221 -0.37139323353767395 0.17282457649707794
-0.47809815406799316 0.4010443687438965 0.29480645060539246
0.5561617612838745 0.011645855382084846 0.3351686894893646
-0.24123652279376984 0.2704751193523407 0.344716340303421
0.2871639132499695 0.45748868584632874 0.4426872134208679
0.5811538696289062 0.2026207447052002 -0.2634136378765106
-0.011117519810795784 0.003071294166147709 -0.3493863642215729
-0.130860835313797 -0.6282070279121399 0.038543105125427246
0.3385801315307617 -0.6503201127052307 0.1260276883840561
-0.19242236018180847 -0.2921713590621948 -0.20321530103683472
0.02930738963186741 0.33111730217933655 0.46033310890197754
0.4224293529987335 0.07033784687519073 0.3420524001121521
0.5809614658355713 0.16541606187820435 -0.33393383026123047
-0.2906204164028168 0.09206691384315491 -0.398781418800354
0.04319489002227783 -0.6270350217819214 -0.16467872262001038
0.5812784433364868 0.22141246497631073 0.07508311420679092
-0.18108633160591125 -0.0013662995770573616 0.10763615369796753
0.014427835121750832 0.31464487314224243 -0.39975807070732117
-0.20339633524417877 -0.19249175488948822 0.13444796204566956
0.0406266525387764 -0.6275551319122314 -0.21341441571712494
-0.10148438066244125 -0.5199215412139893 -0.23058545589447021
0.43607378005981445 -0.11684665828943253 -0.10762184113264084
0.5827752947807312 0.3175866901874542 0.08341369777917862
0.3085595369338989 -0.6382762789726257 -0.22042550146579742
0.19054250419139862 0.003311903215944767 -0.09928812086582184
0.10512972623109818 -0.30151525139808655 0.3157474994659424
-0.13642531633377075 -0.633058488368988 -0.018201343715190887
-0.07122836261987686 -0.6241474151611328 -0.13816918432712555
-0.3508128523826599 0.12180332839488983 -0.4004213809967041
0.2716977596282959 0.4039793014526367 -0.2321252077817917
0.32434019446372986 0.40373295545578003 0.08699985593557358
-0.4214475452899933 0.2966758608818054 -0.40004950761795044
0.22038915753364563 0.39591383934020996 0.32377198338508606
-0.4683067798614502 0.0027657821774482727 0.07272746413946152
0.11552248150110245 0.000339750200510025 -0.15298409759998322
-0.5808827877044678 0.30622419714927673 -0.018704958260059357
0.05844730883836746 0.0003001708537340164 -0.0023301513865590096
0.28512513637542725 0.0036234171129763126 -0.12984074652194977
0.1718430072069168 0.07838040590286255 0.4668731987476349
-0.13599415123462677 -0.6302393674850464 -0.003633791347965598
-0.5766009092330933 0.03555988520383835 -0.21822942793369293
0.1903122514486313 0.14743871986865997 0.3410833477973938
-0.40056535601615906 0.08143747597932816 0.2586423456668854
0.19989171624183655 -0.3419199585914612 -0.3550730049610138
0.13473381102085114 -0.08142326772212982 0.3206082284450531
-0.10171320289373398 -0.42449751496315 -0.23313795030117035
0.25218892097473145 0.23071786761283875 0.343828022480011
0.19944676756858826 0.4012235105037689 0.1610337495803833
-0.3692389130592346 0.01822366565465927 0.3404772877693176
-0.3146210312843323 0.004179192706942558 -0.23617078363895416
0.2753797769546509 -0.6215627789497375 0.10112734138965607
0.4317711293697357 -0.3751446306705475 -0.012134648859500885
0.5797910690307617 0.016671061515808105 -0.03787790238857269
-0.2249496430158615 -0.2908099889755249 -0.14895302057266235
0.3283994793891907 0.40344586968421936 -0.2041105329990387
0.567877471446991 0.009963052347302437 0.05279621109366417
0.2436961531639099 -0.5789101719856262 -0.27874046564102173
0.04239945486187935 -0.6274423599243164 -0.06894594430923462
-0.44844821095466614 0.09626136720180511 -0.40173617005348206
-0.15422092378139496 0.0025581037625670433 -0.1423538625240326
-0.4140539765357971 -0.08771005272865295 0.2284012883901596
-0.08468171209096909 0.09586965292692184 0.34496191143989563
-0.3468228280544281 0.40262794494628906 0.19941166043281555
0.5790668725967407 0.16832202672958374 0.1651393622159958
-0.1525125950574875 -0.1506814956665039 0.20437714457511902
0.5273138284683228 0.40443408489227295 -0.3050452768802643
-0.26812607049942017 0.3874826729297638 -0.0613979771733284
0.44439324736595154 -0.32905882596969604 -0.062379222363233566
0.05786038190126419 -0.6576499938964844 -0.2989409267902374
-0.5775590538978577 0.023079680278897285 -0.14721304178237915
0.30643710494041443 0.4634205102920532 0.4276885986328125
-0.15004539489746094 -0.378425657749176 -0.2294120341539383
-0.16948698461055756 -0.4987984001636505 0.07142014801502228
-0.5802618861198425 0.29672396183013916 -0.20268569886684418
-0.5789246559143066 0.16231118142604828 -0.3836231827735901
-0.37090522050857544 -0.02206704020500183 0.33597779273986816
-0.5541370511054993 0.07688765227794647 -0.29971078038215637
0.39868664741516113 0.4022480845451355 0.15389882028102875
0.1484949290752411 -0.6468081474304199 0.24405339360237122
-0.056965891271829605 -0.6248902082443237 -0.1270522177219391
0.3266749978065491 -0.07229135185480118 0.42510494589805603
-0.546614408493042 0.08794054388999939 -0.07828278094530106
0.33996155858039856 -0.2697197198867798 0.22294604778289795
0.05094091594219208 -0.09260082244873047 0.32578814029693604
0.188508540391922 0.40323343873023987 -0.32561013102531433
0.055178169161081314 0.0001274067908525467 -0.07881492376327515
-0.4524892270565033 0.3365806043148041 -0.3991280794143677
-0.3756251335144043 0.13084466755390167 -0.4003663957118988
-0.5571210384368896 0.007162041496485472 -0.3953147232532501
-0.44947493076324463 0.2974652349948883 0.3452070951461792
0.3636869192123413 -0.6244423985481262 -0.14484679698944092
0.05062480643391609 -0.20926113426685333 -0.3680846393108368
-0.3111901879310608 0.3834599256515503 -0.020852280780673027
0.5777325630187988 0.12784241139888763 0.0031293134670704603
0.036962419748306274 0.4035506844520569 -0.25854891538619995
-0.26709893345832825 0.4011027216911316 -0.19121451675891876
-0.3562408983707428 -0.0003026137128472328 0.004774742294102907
-0.23195306956768036 -0.11341739445924759 -0.09397175908088684
0.07804890722036362 0.40118855237960815 0.24970003962516785
-0.35116907954216003 0.02144523523747921 -0.3982495069503784
0.2673177719116211 0.0029538245871663094 -0.08423971384763718
-0.1962628960609436 -0.325388640165329 0.14277073740959167
-0.09639886021614075 0.0005718558095395565 0.057767994701862335
0.33325162529945374 -0.45382240414619446 -0.19573141634464264
-0.5328366160392761 -0.084723562002182 0.13678334653377533
0.25523480772972107 -0.014869075268507004 0.3174196481704712
0.3436698317527771 0.40333524346351624 -0.20294669270515442
-0.5616950988769531 0.06281943619251251 -0.15179726481437683
0.35619089007377625 0.003926872741430998 -0.11162468045949936
-0.03646668419241905 -0.23995190858840942 -0.344681054353714
-0.5540688037872314 0.3856036961078644 0.06788269430398941
0.5807378888130188 0.1509249359369278 -0.22742943465709686
0.5684840679168701 0.006833367981016636 -0.21876971423625946
0.35834386944770813 -0.023796474561095238 -0.24982048571109772
0.2438027560710907 0.002392278052866459 -0.31671684980392456
0.17753735184669495 -0.6316412687301636 0.20105019211769104
0.14307951927185059 0.09379295259714127 0.46701452136039734
-0.44775480031967163 0.40390458703041077 0.07896856963634491
0.16268469393253326 0.47277337312698364 0.4128127992153168
-0.17789199948310852 0.3926423490047455 -0.393955260515213
0.26143577694892883 -0.6264124512672424 0.09027406573295593
0.5198843479156494 0.0625915676355362 -0.4006531536579132
0.5793069005012512 0.3654288053512573 -0.03232264891266823
0.024086054414510727 -0.049556437879800797 0.40153488516807556
-0.18203601241111755 -0.4999537467956543 -0.03758469596505165
-0.13789884746074677 -0.028831254690885544 0.2234853208065033
0.5688809156417847 0.28184282779693604 0.3400712013244629
0.06205924227833748 0.001932108891196549 0.23493847250938416
-0.5093433856964111 0.3925492465496063 -0.15021590888500214
-0.32832491397857666 0.0806179866194725 -0.3993614912033081
-0.3900820314884186 0.048341378569602966 -0.39857006072998047
0.1890793889760971 0.29237186908721924 0.34549957513809204
0.2614152729511261 0.0037403255701065063 -0.05114268884062767
0.11159627884626389 -0.6280315518379211 -0.23523440957069397
0.5644024014472961 0.3464197516441345 0.3404262065887451
-0.1485901176929474 -0.1700601428747177 0.21011793613433838
-0.5210669636726379 0.0009818505495786667 0.1914440542459488
-0.5788189172744751 0.21495436131954193 0.20048122107982635
0.1568397879600525 -0.6219238042831421 -0.2645605504512787
-0.5208662748336792 0.1051945611834526 0.3288346529006958
-0.05314493179321289 -0.48723432421684265 0.21451181173324585
0.14502479135990143 -0.33566102385520935 0.3119204044342041
0.014447661116719246 0.0003534024581313133 -0.012119149789214134
0.5759636163711548 0.14796262979507446 0.2330167591571808
-0.29752811789512634 0.09995519369840622 0.3442823588848114
0.25498589873313904 -0.2460203766822815 0.2787620723247528
-0.3718838691711426 -0.004759045783430338 0.33666834235191345
0.2801837623119354 0.1545819491147995 0.46603623032569885
0.22319693863391876 0.002719038398936391 0.008525258861482143
0.13505356013774872 0.000921562546864152 0.2245403677225113
-0.06080908328294754 -0.37964802980422974 -0.2845202088356018
-0.5814331769943237 0.12866291403770447 -0.06010245159268379
0.06441662460565567 -0.6197349429130554 0.13411295413970947
0.38278356194496155 -0.5805650353431702 -0.08961644023656845
-0.45425698161125183 -0.10427142679691315 -0.25429028272628784
0.5677757859230042 0.39481526613235474 0.09523067623376846
-0.18530359864234924 -0.5084607005119324 -0.023534659296274185
0.3066297173500061 0.3544396162033081 -0.40275222063064575
0.31389859318733215 -0.07238214462995529 0.4326745569705963
0.19269350171089172 0.16259326040744781 0.46621081233024597
-0.2238510698080063 0.4024648368358612 -0.37109795212745667
-0.09116281569004059 -0.031209055334329605 0.25202256441116333
-0.5846759676933289 0.028117671608924866 -0.1895393580198288
0.5726956725120544 0.38805100321769714 0.1707838773727417
0.17383074760437012 0.0018676470499485731 -0.35611894726753235
-0.2126414030790329 0.27621936798095703 -0.3992789387702942
0.33435168862342834 -0.0016687058378010988 -0.27270981669425964
0.23216372728347778 -0.6244329810142517 -0.17561687529087067
0.27253174781799316 -0.6254779696464539 0.08691363036632538
0.38606172800064087 0.3700322210788727 0.3421485424041748
0.16282448172569275 0.4033544063568115 -0.33056044578552246
0.48508068919181824 0.002917545847594738 0.26674434542655945
-0.3606628179550171 0.03973449394106865 0.3411436676979065
0.2933727502822876 0.19619187712669373 -0.39931511878967285
0.39143943786621094 0.0015222355723381042 -0.13717365264892578
-0.37180447578430176 -0.052053000777959824 0.15812136232852936
-0.48143139481544495 0.39546871185302734 0.006334193050861359
-0.3189154267311096 0.09248639643192291 0.34562617540359497
-0.47321251034736633 0.39362290501594543 -0.17310327291488647
0.46755126118659973 0.001301173702813685 -0.06865018606185913
0.1174425557255745 -0.2732464373111725 -0.371264785528183
0.012881746515631676 0.40174928307533264 0.10438572615385056
0.05362974479794502 -0.22957418859004974 -0.36610177159309387
0.06764862686395645 0.4035312235355377 -0.2994975447654724
0.35463079810142517 -0.001293702982366085 -0.26963499188423157
-0.5351121425628662 -0.0814555212855339 -0.2692713439464569
-0.16757497191429138 0.3998963534832001 0.32645174860954285
0.11270978301763535 0.39615148305892944 0.4577098786830902
0.17975620925426483 0.4026907682418823 -0.064238041639328
-0.22852493822574615 -0.30282437801361084 0.056694395840168
0.027085570618510246 0.40376147627830505 -0.24030490219593048
0.22033298015594482 -0.4144296646118164 0.2338017225265503
0.4283837676048279 -0.06521381437778473 0.08694855868816376
0.34730014204978943 -0.0032838531769812107 -0.24854318797588348
0.09343529492616653 -0.625079870223999 -0.13684019446372986
0.3052383065223694 0.22232243418693542 0.4562321603298187
-0.3740089237689972 0.013683518394827843 -0.39565882086753845
0.16081303358078003 0.41921988129615784 0.44819167256355286
-0.5613022446632385 0.37835434079170227 -0.011614544317126274
0.0797995775938034 -0.16143806278705597 -0.3721059560775757
-0.038540758192539215 -0.27101853489875793 0.28580528497695923
-0.13269184529781342 -0.5303541421890259 0.14100192487239838
-0.18028497695922852 0.031842850148677826 0.34563571214675903
0.10899940133094788 -0.38105595111846924 0.29741835594177246
-0.15576735138893127 0.3993786871433258 0.17353077232837677
-0.01940026693046093 -0.6284539699554443 0.17775841057300568
0.09957738220691681 0.0034650578163564205 -0.3308126628398895
-0.570483386516571 0.3743051290512085 0.2759910821914673
-0.3192305862903595 0.0025579044595360756 0.14035603404045105
0.17204353213310242 0.3890828788280487 0.33945876359939575
0.331887423992157 0.4023861885070801 0.0694061815738678
0.22841762006282806 -0.6229297518730164 -0.07203404605388641
0.15468600392341614 0.002178286202251911 0.2680453062057495
-0.49400466680526733 0.39975112676620483 0.09296482056379318
-0.3786897659301758 0.060748014599084854 0.11512753367424011
-0.569256603717804 -0.051412906497716904 0.29807958006858826
