-0.21114563941955566 0.1441662460565567 0.342510461807251
0.39316824078559875 -0.02238176390528679 -0.21185263991355896
-0.015414507128298283 -0.038616031408309937 0.29401925206184387
-0.01859145238995552 -0.37561309337615967 0.2850991487503052
0.13816259801387787 0.28183120489120483 0.34850016236305237
-0.4897983968257904 0.10882885754108429 0.3456628918647766
0.1288444846868515 -0.003395375795662403 0.3167645037174225
0.28451505303382874 0.35257187485694885 0.4669507145881653
-0.5455977320671082 0.3817228078842163 -0.10643861442804337
0.1992686539888382 -0.6195880770683289 0.10254976898431778
-0.027431556954979897 -0.5836867690086365 0.22669467329978943
-0.31998154520988464 0.4048124849796295 -0.154753640294075
0.07424242794513702 0.40206778049468994 0.3256549537181854
-0.20168842375278473 0.40436556935310364 -0.05823501944541931
0.07804788649082184 -0.13247990608215332 -0.3698451817035675
-0.02656848356127739 0.0015356764197349548 -0.36580851674079895
-0.16257497668266296 -0.05345190316438675 0.18383802473545074
-0.2283095121383667 -0.2644400894641876 0.06660305708646774
0.11189134418964386 -0.6205466985702515 0.048566415905952454
0.1691741794347763 -0.6234967112541199 -0.15758125483989716
-0.0009699692018330097 -0.241592139005661 -0.3581307828426361
-0.36581742763519287 0.007611687760800123 0.025123396888375282
0.40542593598365784 0.39297786355018616 0.3452781140804291
0.08424672484397888 0.0019338633865118027 0.2519775331020355
0.05649535357952118 -0.0009904587641358376 0.3076518476009369
-0.51479572057724 0.3983338475227356 0.10471873730421066
0.2926937937736511 -0.5936627388000488 -0.24193254113197327
-0.14081677794456482 0.0003692670725286007 -0.013185633346438408
-0.5719507932662964 0.0037861112505197525 -0.023630239069461823
0.3104317784309387 0.35413360595703125 0.4607257544994354
0.060912370681762695 -0.030215781182050705 0.32171937823295593
0.5732053518295288 0.3982023596763611 0.1346501260995865
0.5776714086532593 0.24815964698791504 -0.06826067715883255
-0.3446028530597687 0.4001592695713043 0.09829964488744736
0.0944688469171524 -0.6306929588317871 -0.3153243660926819
0.05397136136889458 0.11884793639183044 -0.40198788046836853
-0.010242044925689697 -0.6502039432525635 0.20788918435573578
0.22664503753185272 -0.20010195672512054 0.29634588956832886
-0.006631341762840748 -0.6407496929168701 -0.29112014174461365
0.12919484078884125 -0.6214707493782043 -0.2175270915031433
-0.3833106756210327 -0.05828987434506416 0.055766358971595764
0.02896750532090664 0.1741255223751068 0.44237929582595825
-0.04142029955983162 -0.11818934231996536 0.2846197187900543
-0.14805909991264343 -0.24397853016853333 -0.27019527554512024
-0.4053826332092285 -0.08476291596889496 -0.08030829578638077
0.24263246357440948 0.3380794823169708 -0.4006158411502838
-0.4217747151851654 0.008247900754213333 -0.3812103867530823
-0.574482262134552 -0.0042779515497386456 0.07628189772367477
0.22691698372364044 0.00010280124843120575 0.3322698771953583
-0.5822151899337769 0.1872854232788086 -0.2716575562953949
-0.5415109992027283 0.06644637137651443 0.33981314301490784
-0.4673253297805786 0.002807111945003271 -0.2703060805797577
-0.1793365478515625 0.4041963815689087 -0.20234812796115875
0.05921797454357147 0.40402573347091675 -0.03630657121539116
-0.5492720603942871 -0.07197300344705582 0.22610032558441162
0.4171864092350006 0.40337038040161133 -0.035790957510471344
-0.1627717912197113 -0.3159380853176117 -0.25630977749824524
-0.572047770023346 0.010988425463438034 -0.11685656011104584
0.039346057921648026 0.002849763724952936 -0.3169412314891815
-0.1950870305299759 -0.18734577298164368 0.1446458250284195
-0.453060507774353 -0.09979027509689331 0.15353883802890778
0.3282269835472107 0.10926378518342972 -0.39993706345558167
-0.5784688591957092 0.029254324734210968 -0.279091477394104
-0.17770059406757355 -0.5097314715385437 0.01234675757586956
0.38409194350242615 -0.3133784234523773 0.17643816769123077
-0.2791839838027954 0.00034019816666841507 0.050390392541885376
0.08042312413454056 -0.6222948431968689 0.12051325291395187
-0.42426371574401855 -0.09288360178470612 0.18548382818698883
0.22731991112232208 -0.6281799674034119 -0.23362725973129272
0.2521216869354248 -0.6257630586624146 -0.17644363641738892
0.517632782459259 0.40282997488975525 0.22070689499378204
0.08912885934114456 -0.6257274746894836 -0.26666900515556335
-0.2846600115299225 0.3935020864009857 -0.07274549454450607
-0.17364779114723206 0.40165644884109497 0.3082907199859619
-0.017011312767863274 -0.6198050379753113 -0.18387512862682343
-0.5484854578971863 -0.07547026872634888 -0.07803262770175934
0.03838423267006874 -0.018246542662382126 -0.36461350321769714
-0.5347675681114197 0.015070537105202675 -0.3994547724723816
0.019481608644127846 0.4046070873737335 -0.13034088909626007
-0.23886482417583466 -0.0654960349202156 0.02779284305870533
-0.050545960664749146 -0.6239708662033081 -0.02154986932873726
0.20495827496051788 0.0027397589292377234 -0.20566608011722565
0.2260744273662567 -0.6230711936950684 -0.03052750788629055
-0.5440718531608582 0.07209672033786774 -0.22899708151817322
0.08887338638305664 -0.31096315383911133 0.3168379068374634
0.581175684928894 0.38398411870002747 0.2559974193572998
0.12514354288578033 -0.6318022012710571 -0.2729892134666443
-0.36127790808677673 0.30865612626075745 -0.3996011018753052
0.08739563077688217 -0.22383557260036469 -0.36804166436195374
0.17999884486198425 0.005760530941188335 0.2366963028907776
0.2557809054851532 0.40109506249427795 0.3469454348087311
0.147894948720932 -0.6213260293006897 -0.03775907680392265
0.12186913192272186 0.001559603027999401 0.26919907331466675
0.5424893498420715 0.4016641080379486 0.10182187706232071
-0.5795639157295227 0.1069343239068985 0.005933202803134918
0.3819790482521057 -0.5532701015472412 -0.1036132201552391
-0.15692175924777985 -0.00019896356388926506 0.1469290405511856
-0.58161461353302 0.013258071616292 -0.07430338859558105
-0.30890095233917236 0.4018649160861969 0.0253275316208601
0.3099013864994049 0.32913851737976074 0.3649694323539734
0.39489755034446716 0.4003685712814331 0.009604493156075478
0.34783631563186646 -0.6175546050071716 -0.17627884447574615
0.3407913148403168 0.4042690694332123 -0.13164488971233368
0.04023439437150955 -0.3597906827926636 -0.36184245347976685
0.3270214796066284 0.0637955516576767 0.4599777162075043
0.29599231481552124 0.0029280702583491802 -0.3515487611293793
0.3674811124801636 -0.06049021705985069 -0.2509297728538513
0.11240870505571365 -0.6239738464355469 0.14477646350860596
0.1866152286529541 -0.0014330912381410599 0.3128449320793152
0.25746414065361023 -0.04876627027988434 0.464199960231781
-0.22362929582595825 0.3988512456417084 -0.38682249188423157
0.10723971575498581 0.4007212817668915 0.34675732254981995
0.14292772114276886 0.17037108540534973 -0.3990490734577179
-0.2395363301038742 -0.16805559396743774 0.005681153386831284
-0.16434089839458466 -0.3463847041130066 -0.251161128282547
-0.5219482779502869 0.4007624387741089 -0.09665139764547348
0.5763161182403564 0.39468976855278015 0.018527664244174957
-0.2833336889743805 0.001067564357072115 -0.32920417189598083
0.009520876221358776 0.25119665265083313 0.36381015181541443
0.31570467352867126 -0.002317664446309209 -0.2755310833454132
-0.04688386991620064 -0.0021443860605359077 -0.34668684005737305
-0.37056657671928406 -0.01467062346637249 0.18317005038261414
0.22636966407299042 -0.04165277257561684 0.2998526692390442
-0.009336506947875023 -0.0005668355152010918 0.2955397665500641
0.33796390891075134 0.12240134179592133 0.3497964143753052
0.4497162401676178 0.402776300907135 -0.020764905959367752
0.3704974949359894 -0.22516244649887085 -0.24722665548324585
0.4495656490325928 0.3874037265777588 0.34319862723350525
0.3596820533275604 -0.05629805848002434 0.21482177078723907
0.4404338598251343 0.05181100592017174 -0.3976505994796753
0.3332834541797638 -0.2888915538787842 -0.28487804532051086
-0.5489553809165955 0.09983215481042862 -0.23745742440223694
-0.2627097964286804 0.40631482005119324 0.28173497319221497
-0.028305115178227425 -0.6228721141815186 0.10805000364780426
-0.23660528659820557 -0.07801643013954163 0.04019664227962494
-0.2522634267807007 0.32958436012268066 0.3441706895828247
0.12777307629585266 -0.01721980981528759 0.46966245770454407
-0.30249717831611633 0.0020578184630721807 0.1119958907365799
0.1725262552499771 0.38382673263549805 -0.3959035575389862
-0.12933127582073212 -0.6247795820236206 -0.008960802108049393
0.43616458773612976 0.1818472146987915 -0.4036843180656433
-0.39526599645614624 0.40348395705223083 0.10528171807527542
-0.05662480741739273 -0.23457717895507812 -0.33758416771888733
0.03477289527654648 0.39169639348983765 0.43714749813079834
0.5890411138534546 0.3693700432777405 -0.31138211488723755
0.33217155933380127 0.40400373935699463 -0.05632368475198746
0.37008923292160034 0.0031027644872665405 -0.16830773651599884
0.03268200904130936 0.0005114423111081123 -0.2516583502292633
-0.14650605618953705 -0.3777446746826172 -0.22897368669509888
0.38083377480506897 0.0026888451538980007 0.0036013685166835785
0.15438584983348846 0.05431364104151726 0.3469880521297455
-0.3809562027454376 0.003204026259481907 -0.26869913935661316
0.2963758707046509 -0.6222847104072571 -0.04056258127093315
-0.22722792625427246 -0.22769170999526978 -0.15257345139980316
-0.07383397966623306 0.0016367933712899685 0.042104240506887436
-0.5780958533287048 0.0023669451475143433 0.21966923773288727
-0.3691598176956177 -0.010354110971093178 0.15457873046398163
0.161276713013649 -0.2284683883190155 -0.3679753839969635
-0.4641866683959961 -0.026764504611492157 0.35334065556526184
-0.5658558011054993 0.001792054157704115 -0.008405957370996475
-0.4504525363445282 -0.00385787570849061 0.3519144654273987
0.355999618768692 -0.46780022978782654 -0.16637049615383148
0.07508041709661484 0.20653241872787476 0.3500404953956604
-0.4558638632297516 0.003786555491387844 0.21897993981838226
-0.22878652811050415 -0.36516526341438293 -0.11745740473270416
0.13269631564617157 0.19112499058246613 -0.3984876573085785
-0.22865714132785797 -0.201241135597229 0.05682221055030823
0.12927089631557465 0.36054670810699463 -0.39896196126937866
-0.09518357366323471 -0.08292746543884277 0.25178325176239014
-0.4145151376724243 0.13229648768901825 -0.3971703350543976
0.44306883215904236 0.05615469813346863 0.3484388589859009
0.2398286759853363 0.40092089772224426 0.35153523087501526
0.08320562541484833 -0.061237651854753494 -0.36972934007644653
0.21928158402442932 0.0021986912470310926 -0.2437485158443451
0.4493851065635681 0.12401172518730164 -0.4004898965358734
0.0729057565331459 -0.6431597471237183 0.2479257583618164
0.18525294959545135 0.0029033664613962173 0.016364185139536858
-0.5823041796684265 0.280129611492157 -0.0796288400888443
-0.29662880301475525 0.40250739455223083 -0.15559011697769165
-0.49696406722068787 -0.1041959896683693 -0.05788491666316986
-0.5887904167175293 0.15509715676307678 0.1479150950908661
0.5771437883377075 0.39456823468208313 -0.12095265090465546
0.31315940618515015 -0.47376716136932373 0.17311210930347443
-0.49224451184272766 -0.10548432171344757 0.16246068477630615
-0.1988091915845871 -0.15637332201004028 0.14098048210144043
-0.21957756578922272 -0.3379237651824951 0.1015506312251091
0.05486661568284035 -0.5169246196746826 -0.31355059146881104
-0.11074815690517426 -0.46135810017585754 -0.2196822464466095
0.3748099207878113 -0.47586339712142944 0.06742709875106812
0.038940709084272385 0.0232930239289999 0.4630588889122009
-0.4021957516670227 0.009848273359239101 -0.39378634095191956
-0.503629207611084 0.3650737702846527 -0.023857835680246353
0.5212999582290649 0.0009735217317938805 0.2801026403903961
0.16820165514945984 0.0014049690216779709 -0.23777347803115845
0.402536004781723 -0.28723281621932983 0.1433943212032318
0.3015863299369812 0.07326393574476242 0.3476993441581726
0.5796751379966736 0.07788906991481781 0.20016087591648102
0.13976946473121643 0.0017969978507608175 -0.2706333100795746
0.3624623119831085 -0.5593018531799316 0.10359673202037811
0.04520247504115105 0.001943240873515606 0.19883619248867035
-0.03258918598294258 0.0009249257855117321 0.17112095654010773
0.17956896126270294 0.0035087978467345238 -0.35059821605682373
-0.3696628212928772 0.4009056091308594 -0.2058556228876114
-0.5629678964614868 0.09129880368709564 -0.22268889844417572
-0.29521456360816956 0.3970724642276764 -0.1283479630947113
-0.2817372679710388 0.3866684138774872 -0.1066320538520813
0.42714211344718933 -0.10933009535074234 -0.1415034532546997
-0.24351297318935394 -0.006635038182139397 -0.06092030182480812
0.2139769047498703 -0.4144045114517212 -0.2933500111103058
0.01734445057809353 0.0009533184347674251 -0.2064601182937622
0.13241468369960785 -0.622936487197876 -0.06731021404266357
-0.4448587894439697 0.0034595532342791557 0.05591992288827896
-0.52339768409729 0.10332322865724564 -0.3658539056777954
0.03057282045483589 0.3369947671890259 0.44046294689178467
-0.19560012221336365 0.40448930859565735 -0.2626980245113373
-0.45926472544670105 0.4031790494918823 -0.012271912768483162
-0.16492556035518646 -0.004211749881505966 0.19240806996822357
0.20908117294311523 0.2938969135284424 0.4691728353500366
0.16309534013271332 0.2977885901927948 0.3471643924713135
0.11735926568508148 0.4733186662197113 0.39233431220054626
0.0884413868188858 -0.2698391079902649 -0.3694354295730591
0.4388139843940735 -0.3189212381839752 -0.1060015857219696
0.33765897154808044 0.40474191308021545 -0.07145402580499649
-0.5837718844413757 0.28169843554496765 -0.3301200270652771
-0.40574783086776733 -0.08565934002399445 0.06790844351053238
0.05008010193705559 -0.07054124027490616 0.34293898940086365
-0.449680358171463 0.11543521285057068 -0.3626651167869568
-0.5539067983627319 -0.05355232581496239 0.3388163149356842
0.12226424366235733 -0.6313304305076599 -0.2732311487197876
-0.5812700390815735 0.357318252325058 -0.19126352667808533
0.39162158966064453 -0.5239629149436951 0.00947771780192852
-0.06223076581954956 0.40379035472869873 -0.09846971929073334
-0.16607175767421722 -0.649116575717926 -0.10791673511266708
-0.05353787913918495 0.40199077129364014 -0.3733065724372864
0.583798348903656 0.2189307063817978 -0.3894166350364685
0.34164878726005554 0.4040692150592804 -0.16525804996490479
-0.18707719445228577 0.308908075094223 0.34729498624801636
0.2419041246175766 -0.42971500754356384 0.23077882826328278
0.07432730495929718 0.4232783913612366 0.3874287009239197
-0.22022663056850433 0.005003652535378933 0.3231360912322998
-0.020016886293888092 -0.06887642294168472 -0.3509880006313324
-0.4821757972240448 0.021847430616617203 -0.40028277039527893
-0.1567784547805786 0.21018381416797638 -0.3997134566307068
-0.001310145715251565 -0.2915585935115814 -0.36151179671287537
0.2030234932899475 0.002633793745189905 -0.23987044394016266
-0.0871831402182579 0.002790156751871109 0.11682836711406708
0.5793482661247253 0.010102055966854095 -0.0797152891755104
0.08800145983695984 -0.3705902099609375 -0.3641577661037445
0.19470781087875366 -0.47959277033805847 -0.30404067039489746
-0.24179628491401672 -0.20414991676807404 -0.015582951717078686
-0.36162668466567993 0.4007771611213684 0.05059024691581726
0.3565022945404053 -0.3475627601146698 0.20602202415466309
0.5849864482879639 0.16657933592796326 -0.08843233436346054
0.0055023073218762875 -0.621054470539093 0.08679219335317612
-0.48364245891571045 0.006800131872296333 0.3586856722831726
0.11770541965961456 0.2483038306236267 0.3497476577758789
0.44905635714530945 -0.001255036098882556 0.1586390882730484
0.44823434948921204 -0.08644019812345505 -0.044530268758535385
-0.5791602730751038 0.35283687710762024 -0.3177964687347412
0.16057591140270233 0.4007038474082947 0.45709165930747986
0.19824948906898499 -0.6310504078865051 -0.25349053740501404
0.3216862976551056 -0.023232698440551758 0.33239319920539856
0.15355649590492249 0.0003258092328906059 0.24404478073120117
0.04104771092534065 -0.05315970629453659 0.32007741928100586
-0.5128930807113647 0.0034695309586822987 0.26558831334114075
-0.20565930008888245 -0.21952269971370697 0.12664346396923065
0.27570268511772156 -0.23405323922634125 -0.32841193675994873
-0.11771257221698761 0.0022318162955343723 0.019606279209256172
0.3503088057041168 0.2328927367925644 -0.3991941511631012
-0.5032405853271484 0.36349695920944214 -0.0845823884010315
-0.5608035922050476 -0.0033953310921788216 0.20660816133022308
-0.3109580874443054 0.34629276394844055 0.3465638756752014
0.5012034177780151 0.05892397463321686 0.3470146954059601
-0.4460384249687195 0.0030601914040744305 -0.1278688907623291
0.13084080815315247 -0.6269897222518921 -0.1974972039461136
-0.42479410767555237 0.3655514419078827 0.3473401963710785
-0.5304901003837585 0.40200915932655334 0.1716681867837906
-0.3766973614692688 0.07335054874420166 -0.3948670029640198
-0.5785093307495117 0.3354450762271881 0.21246850490570068
0.35389649868011475 0.0019820621237158775 0.09077169746160507
0.0760633647441864 0.0668315663933754 0.3477630317211151
-0.24225406348705292 -0.3218332827091217 -0.05563100054860115
-0.35573235154151917 0.41131940484046936 -0.05048637464642525
0.04574655741453171 0.40108099579811096 0.18028880655765533
-0.5040736198425293 0.36699679493904114 0.3458477556705475
0.3256688714027405 0.001115919672884047 0.3032393455505371
0.42331430315971375 0.03281988576054573 -0.3976466655731201
0.11596579104661942 -0.5729138851165771 -0.3175070583820343
-0.20145456492900848 -0.19448710978031158 0.129985511302948
-0.5728939175605774 0.10675526410341263 -0.3944264054298401
-0.23028753697872162 -0.0023088371381163597 -0.0577385351061821
-0.3243448734283447 0.3944438695907593 -0.03785742446780205
-0.5781309604644775 0.018860580399632454 0.2010708451271057
0.09303271770477295 -0.623091459274292 -0.01659739576280117
-0.1580476015806198 0.40032297372817993 0.012107094749808311
-0.2587290108203888 0.0001989835873246193 0.04503306746482849
0.2045360803604126 0.23539984226226807 0.3466355800628662
-0.22992298007011414 -0.20572447776794434 -0.14728547632694244
0.48757198452949524 0.25185632705688477 0.3496801555156708
-0.5783674120903015 0.03960312902927399 0.33116477727890015
0.29189929366111755 0.2933863699436188 -0.40172407031059265
-0.24030786752700806 0.40594482421875 0.09949207305908203
0.38146334886550903 -0.0030714115127921104 -0.20565347373485565
0.2582714557647705 0.46975716948509216 0.38018175959587097
0.3296143114566803 -0.6348552703857422 0.09060389548540115
0.13177147507667542 -0.058118145912885666 0.32426080107688904
0.13543108105659485 0.4045129418373108 -0.1638416200876236
0.08226771652698517 0.4051784574985504 0.2704031467437744
0.04475102201104164 -0.3784520924091339 -0.34301409125328064
0.3048214912414551 0.4039034843444824 -0.025134162977337837
0.3468029797077179 -0.650034487247467 0.1036296933889389
0.49392834305763245 0.18394871056079865 -0.4013541340827942
0.21759214997291565 0.0935359001159668 0.46996134519577026
0.1709393709897995 0.39990413188934326 0.1935778558254242
0.10963024944067001 0.11312338709831238 -0.3982332646846771
0.5801070928573608 0.30786165595054626 -0.2850511074066162
-0.5852397084236145 0.16951431334018707 -0.131578266620636
0.5816776752471924 0.10151588171720505 0.2826368510723114
0.42813754081726074 0.0005258210003376007 -0.28225788474082947
-0.4494105279445648 0.41967612504959106 -0.0964900553226471
0.29268354177474976 -0.5950697660446167 0.1911942958831787
-0.5758568048477173 0.0033041490241885185 -0.11715860664844513
-0.35890018939971924 0.0036316171754151583 -0.3115572929382324
0.3052751421928406 0.18478727340698242 0.34708768129348755
0.23397737741470337 0.0009859316051006317 0.00783789437264204
-0.042130086570978165 0.006089668720960617 0.31921738386154175
-0.34880000352859497 0.38356471061706543 -0.1756124198436737
-0.3613254427909851 0.40420693159103394 -0.3638579547405243
-0.4293823838233948 0.1005169153213501 -0.06786780804395676
-0.5027895569801331 0.040231361985206604 0.35029762983322144
0.1238923892378807 -0.6237913966178894 0.0006166738457977772
0.31991636753082275 -0.6299084424972534 -0.12957492470741272
-0.41293030977249146 0.004563815891742706 -0.29287639260292053
0.20395149290561676 -0.3237236440181732 0.30510392785072327
-0.22265316545963287 -0.14152319729328156 0.08347039669752121
-0.13724814355373383 0.4016595482826233 0.2567460834980011
0.5833081007003784 0.18674512207508087 0.1780189871788025
0.3916643559932709 0.0017006481066346169 0.065618135035038
0.5126059651374817 0.4009951055049896 -0.23106500506401062
-0.4834775924682617 0.40201523900032043 0.04151414707303047
0.03723205253481865 -0.32613685727119446 -0.3663491904735565
0.4442249536514282 -0.23359820246696472 0.028673186898231506
-0.41359972953796387 0.40464654564857483 0.13816644251346588
-0.34055250883102417 0.41754820942878723 -0.07979542762041092
-0.5805803537368774 0.10765901207923889 0.22081460058689117
0.5568357706069946 0.36806514859199524 -0.39799031615257263
0.04578891023993492 0.26146993041038513 0.4654214680194855
0.4120166003704071 0.0847160741686821 -0.39948976039886475
0.33338573575019836 0.4044957160949707 -0.11139186471700668
0.30330023169517517 -0.46385347843170166 0.18550553917884827
0.47124332189559937 0.40162554383277893 0.14575889706611633
0.3036287724971771 0.0034539131447672844 -0.3386359214782715
0.2454453557729721 -0.5928946137428284 -0.28003737330436707
-0.2992379665374756 0.39675599336624146 -0.19526025652885437
-0.03339114785194397 -0.6235764026641846 -0.0654870793223381
-0.41545039415359497 -0.08678771555423737 0.2407599687576294
-0.24294453859329224 -0.2555452287197113 -0.06431035697460175
0.2288643717765808 0.00147533870767802 0.24147172272205353
0.34079718589782715 0.4021837115287781 -0.30431604385375977
-0.5096446871757507 0.36956560611724854 -0.02156776934862137
-0.3033304810523987 0.0020752393174916506 0.08452045917510986
-0.3372003436088562 0.0002891477197408676 -0.2456599622964859
0.24271509051322937 -0.3669350743293762 0.28099068999290466
-0.17855902016162872 0.40469518303871155 -0.061030786484479904
0.011079950258135796 -0.623171865940094 -0.06471240520477295
-0.5089325308799744 -0.08733244240283966 0.33214232325553894
0.500093400478363 0.0013304408639669418 0.04557572677731514
-0.2838062345981598 0.36048880219459534 -0.04976944252848625
-0.04067905619740486 -0.08683189004659653 -0.3439486622810364
0.5783939361572266 0.007217608392238617 -0.27220094203948975
0.5836673974990845 0.3362692594528198 -0.3904063403606415
-0.45151981711387634 0.4112248122692108 -0.1423051804304123
0.26954078674316406 0.1251891851425171 0.4678919315338135
-0.27983739972114563 0.40858808159828186 0.1551908403635025
-0.33596858382225037 0.36291447281837463 0.34582293033599854
0.2469463050365448 -0.5175814032554626 -0.282583624124527
-0.16789297759532928 0.0015088077634572983 -0.3187370300292969
-0.0957755371928215 0.3087139427661896 0.3454446494579315
0.2305513322353363 0.11848190426826477 0.34800389409065247
-0.16881386935710907 0.39787259697914124 0.19494760036468506
0.28244853019714355 0.002922840416431427 0.031225183978676796
-0.49504998326301575 0.07510189712047577 -0.4007853865623474
0.5005955100059509 0.002786989090964198 -0.3458297848701477
-0.43141552805900574 0.4033839702606201 -0.37454158067703247
0.2533556818962097 0.10296323150396347 0.3478592336177826
-0.5821163058280945 0.3338736891746521 0.04623531550168991
-0.35753297805786133 0.40319761633872986 -0.24664150178432465
0.16800622642040253 -0.6225587725639343 0.0607442669570446
0.4512389004230499 -0.035356663167476654 -0.047853343188762665
-0.53452068567276 -0.08431091159582138 0.11836344003677368
-0.5265087485313416 0.3927139937877655 -0.395168274641037
-0.1278396099805832 0.3046376705169678 -0.3990423083305359
0.13709710538387299 0.35903891921043396 0.34560728073120117
0.3450297713279724 -0.6282908320426941 -0.05986807122826576
-0.5494680404663086 0.10106628388166428 -0.05123414471745491
0.2641250789165497 -0.0451107993721962 0.32721424102783203
0.3281362056732178 -0.6458949446678162 -0.1863129884004593
0.3975728750228882 -0.3914468586444855 -0.041251040995121
-0.41036808490753174 -0.09712593257427216 -0.22314833104610443
0.12000446021556854 0.40363365411758423 -0.2073330283164978
0.25086745619773865 0.08931887894868851 0.46217238903045654
-0.5655658841133118 0.07846588641405106 0.17104579508304596
-0.008067271672189236 -0.3930825889110565 0.23563432693481445
0.2786613404750824 0.2302204668521881 0.3499665856361389
-0.24301281571388245 -0.0010883482173085213 -0.060814887285232544
0.20569103956222534 0.0012328510638326406 0.10982777178287506
-0.5824763774871826 0.1005435362458229 0.2600451111793518
0.5451894998550415 0.0012093381956219673 -0.2027815580368042
-0.3657896816730499 0.0395730584859848 0.12515726685523987
0.3571440279483795 -0.17189107835292816 0.2119717001914978
0.19477728009223938 -0.0012050876393914223 0.33019712567329407
-0.38995325565338135 0.0034951544366776943 -0.007886822335422039
-0.1676039844751358 -0.6504353880882263 -0.03103485144674778
0.15771323442459106 0.001673094811849296 0.3367919623851776
-0.045631293207407 0.4043720066547394 -0.11952730268239975
0.5875767469406128 0.14241686463356018 -0.04445170238614082
-0.5467134118080139 -0.0015766224823892117 -0.39215147495269775
0.11852956563234329 -0.40106451511383057 0.26159942150115967
-0.10783061385154724 0.001573421061038971 0.22145505249500275
0.38242244720458984 -0.4403074383735657 0.027116207405924797
0.2373773157596588 0.22687481343746185 0.4602692723274231
0.30495357513427734 0.002793615683913231 -0.2584581673145294
0.2325381338596344 0.00193584687076509 -0.016077296808362007
0.5861794352531433 0.27273738384246826 0.05499602109193802
0.5830950140953064 0.22390449047088623 -0.04463657736778259
-0.41932162642478943 0.09797629714012146 -0.11533991992473602
-0.585950493812561 0.19346995651721954 0.24715770781040192
-0.40093371272087097 0.15606941282749176 -0.39759474992752075
-0.05875984579324722 -0.6245052218437195 -0.09520848095417023
-0.23555339872837067 -0.08551998436450958 0.058319661766290665
0.5219245553016663 0.40280842781066895 0.08631397038698196
0.12709498405456543 -0.6362887024879456 0.22572052478790283
0.3909877836704254 -0.39922064542770386 -0.037761613726615906
-0.020147740840911865 -0.6241062879562378 -0.14949637651443481
0.03298761323094368 0.26715540885925293 0.4595469534397125
0.28703638911247253 0.002226275857537985 0.03458862006664276
0.147951140999794 -0.07474402338266373 0.3938286602497101
-0.02762826904654503 0.0010724627645686269 -0.36284253001213074
-0.5837808847427368 0.14988845586776733 -0.22154180705547333
0.2678292989730835 0.0023914442863315344 -0.05025934427976608
0.35157081484794617 -0.6410850882530212 0.019450664520263672
-0.33439135551452637 0.3951501250267029 -0.1088033989071846
-0.44773146510124207 0.049465544521808624 0.3465929329395294
0.1787702441215515 -0.36305180191993713 -0.3641754686832428
-0.4722757041454315 0.21766285598278046 -0.3989967107772827
0.020677320659160614 0.40539076924324036 0.18447236716747284
-0.291757732629776 0.376503586769104 -0.05777209997177124
0.2657192349433899 -0.37355494499206543 0.2596958875656128
-0.22365668416023254 -0.3629157543182373 0.07513370364904404
-0.4200165569782257 0.1958513855934143 -0.39878395199775696
-0.09478030353784561 0.0004917834885418415 -0.15870697796344757
-0.2218751311302185 -0.32918021082878113 0.09236136823892593
0.3318885564804077 0.4026128947734833 0.2885838449001312
0.22438189387321472 -0.6209517121315002 0.14164160192012787
0.10491453856229782 0.13295580446720123 0.3476894199848175
-0.11387810111045837 -0.5626060962677002 0.15736770629882812
0.1586461365222931 -0.6222336888313293 0.10905852913856506
-0.1210312768816948 -8.394941687583923e-06 0.12722952663898468
0.3042903542518616 0.0026138853281736374 0.008534646593034267
0.06386658549308777 -0.09975417703390121 -0.3684917688369751
0.1655403971672058 -0.16126157343387604 -0.3681018054485321
-0.09040852636098862 -0.31352970004081726 -0.316392183303833
-0.5812750458717346 0.060743317008018494 -0.06711848080158234
0.27941906452178955 -0.6238501667976379 -0.0026602691505104303
0.23074790835380554 -0.08706482499837875 0.3673025965690613
0.33915358781814575 0.0026469919830560684 -0.33001115918159485
0.25371021032333374 0.40456220507621765 -0.13355998694896698
-0.4415474236011505 0.3905639946460724 -0.20310059189796448
0.10290653258562088 -0.5916371941566467 -0.3165009617805481
-0.13964703679084778 0.11142171919345856 -0.39712366461753845
0.3307307958602905 0.25130656361579895 0.34313908219337463
0.13503988087177277 0.0014697480946779251 -0.30375754833221436
-0.054738178849220276 0.0014648614451289177 0.14876042306423187
-0.22007884085178375 -0.2607016861438751 0.0956495925784111
-0.23835717141628265 -0.3145740330219269 -0.09810349345207214
0.4330425560474396 0.0016917898319661617 -0.36938974261283875
0.3398762345314026 0.07066312432289124 0.4197344481945038
0.3839677572250366 -0.6297444701194763 0.009824264794588089
-0.577587902545929 0.11770360171794891 -0.2541865110397339
-0.18638703227043152 -0.05929504334926605 -0.23431700468063354
-0.049975376576185226 -0.5610548257827759 0.2111460119485855
-0.35156622529029846 0.020950159057974815 -0.08451417833566666
-0.15213443338871002 0.002433763351291418 0.034703467041254044
0.014827940613031387 -0.2573785185813904 0.3009643852710724
0.4327850043773651 0.2011924535036087 0.34865957498550415
-0.5122833847999573 -0.04842054471373558 0.3473573327064514
0.3418740928173065 -0.6324570775032043 -0.03446982428431511
0.43947336077690125 -0.16822752356529236 0.06118359789252281
-0.5759508609771729 0.27500951290130615 -0.19363367557525635
0.04134228825569153 0.4020191431045532 0.33980897068977356
-0.017697643488645554 -0.5080475807189941 0.23566797375679016
-0.5761927962303162 0.004534516949206591 0.20176497101783752
0.5615387558937073 0.4019849896430969 -0.3080151379108429
0.5362195372581482 0.39879488945007324 0.30586689710617065
0.4234173595905304 -0.08719641715288162 0.09625143557786942
0.2355498969554901 0.0025084801018238068 0.08960598707199097
0.22566434741020203 0.0016335379332304 0.046385012567043304
0.4488641023635864 -0.061748456209897995 -0.01569574512541294
-0.36458471417427063 0.3599605858325958 0.017201606184244156
0.5710861086845398 0.009400824084877968 -0.10023246705532074
-0.3907510042190552 0.03637571632862091 -0.3962744176387787
-0.43804070353507996 0.3634958267211914 -0.399373859167099
-0.19993752241134644 0.34306785464286804 0.34630486369132996
0.1628304123878479 0.00036782072857022285 0.22122715413570404
0.5740954279899597 0.03839068114757538 0.33958524465560913
0.41465121507644653 0.0037280861288309097 0.28347247838974
-0.05480365827679634 0.0014734058640897274 0.16277407109737396
0.22297121584415436 0.2523641884326935 0.46876972913742065
0.16819733381271362 0.4051673710346222 0.016517028212547302
-0.23848769068717957 0.4048779010772705 -0.2620904743671417
0.07925412803888321 0.3426916003227234 -0.3985021114349365
0.21918810904026031 0.004064429551362991 -0.007161384914070368
0.10434701293706894 -0.34372106194496155 -0.3696373999118805
-0.5389052629470825 -0.08212503045797348 0.15002883970737457
0.39188092947006226 -0.47461438179016113 -0.052108846604824066
-0.21526919305324554 0.40491122007369995 -0.13908185064792633
0.4236924648284912 -0.2310057282447815 -0.13811346888542175
0.014719774946570396 0.0018083929317072034 -0.023674078285694122
0.3652292788028717 0.405563622713089 0.17797575891017914
0.43618839979171753 -0.08238059282302856 0.05957888066768646
-0.5047119855880737 -0.09586004167795181 0.11163106560707092
-0.140705406665802 0.001473742420785129 0.016661547124385834
0.30924633145332336 0.3245905041694641 0.35453563928604126
0.20845666527748108 0.28896859288215637 0.35008376836776733
-0.41710370779037476 0.00371293886564672 -0.06754792481660843
-0.01640825718641281 -0.6222369074821472 -0.0365971103310585
0.01805572211742401 -0.6214067339897156 0.030340740457177162
0.07042810320854187 -0.43955036997795105 -0.3142930567264557
0.3970014750957489 0.4036359190940857 -0.1301967054605484
-0.0020058751106262207 -0.6223546862602234 0.0992916002869606
-0.1888986974954605 -0.07348678261041641 -0.22682423889636993
-0.37287071347236633 0.03512517735362053 0.08817832916975021
-0.47352826595306396 0.1135246679186821 -0.29531267285346985
0.18879292905330658 -0.6224387288093567 -0.13924439251422882
0.38711950182914734 -0.31584516167640686 0.1654139757156372
0.38392528891563416 -0.3190546929836273 -0.23053057491779327
-0.022248903289437294 0.4052310883998871 0.23016542196273804
-0.06621269136667252 0.0017329463735222816 0.01639396883547306
-0.3768805265426636 0.05647439509630203 -0.14864806830883026
0.49087822437286377 0.1932576447725296 0.34881460666656494
-0.577516496181488 0.0408543199300766 0.1612587720155716
0.3772088885307312 0.0040953150019049644 -0.3737504184246063
0.08245039731264114 -0.6229466795921326 -0.11257174611091614
0.581247866153717 0.01480343472212553 0.10825810581445694
0.3026753067970276 -0.0797295793890953 0.2556767165660858
0.17951880395412445 0.17682090401649475 0.4611808657646179
-0.01698216423392296 -0.6228339076042175 -0.176201730966568
0.001574265188537538 -0.6350764632225037 0.19788900017738342
0.19879359006881714 -0.42538416385650635 0.2470332682132721
0.07420489937067032 0.4042455554008484 0.02379652112722397
0.08031684905290604 -0.6225221753120422 -0.007424467708915472
0.27943113446235657 0.0002293749712407589 0.24246998131275177
-0.5790760517120361 0.2192726582288742 -0.3202497661113739
-0.16451792418956757 0.3302900493144989 0.34548431634902954
0.183811753988266 0.04247140511870384 0.3477073013782501
-0.38521748781204224 -0.058565907180309296 0.17739765346050262
-0.40912872552871704 0.005588717758655548 -0.09386812150478363
0.16816075146198273 -0.6517354249954224 -0.2962879240512848
-0.565950870513916 -0.009249554947018623 0.3373579680919647
0.21291767060756683 -0.12117069214582443 0.2993171215057373
-0.3781125545501709 0.0029215430840849876 0.012302959337830544
-0.5688014626502991 -0.03690730780363083 -0.03536871448159218
0.4649520218372345 0.0037379199638962746 0.2880191206932068
-0.30420738458633423 0.41123536229133606 0.17527908086776733
0.017458464950323105 0.314554899930954 0.36819061636924744
0.37687844038009644 0.0028089089319109917 0.0913277417421341
0.05495642498135567 -0.0027014873921871185 0.3201657235622406
-0.38662174344062805 0.06692320108413696 -0.10874819755554199
-0.16760291159152985 0.02373635396361351 0.3400014638900757
0.010607986710965633 -0.4289332628250122 0.2387140840291977
-0.3970794975757599 -0.07795821130275726 -0.20382896065711975
0.1082070916891098 -0.17983373999595642 0.3157402575016022
-0.045876991003751755 -0.6430944204330444 0.2019035816192627
-0.4377085864543915 0.39178159832954407 0.34177225828170776
0.3039325177669525 0.002449403051286936 -0.08454499393701553
0.3674503266811371 0.0020196326076984406 -0.015441551804542542
0.10185261070728302 -0.6248472929000854 -0.20529183745384216
0.49115198850631714 0.18651893734931946 -0.40240731835365295
0.5711920857429504 0.2143774777650833 -0.392823725938797
0.5703584551811218 0.3966149389743805 0.29104334115982056
0.07331401109695435 0.10863807052373886 0.46669989824295044
0.4488747715950012 -0.36393532156944275 -0.01061239279806614
-0.10819614678621292 0.20048408210277557 0.3739806115627289
0.034438036382198334 0.001430685631930828 -0.04442041367292404
-0.058291662484407425 -0.6225727796554565 -0.12906529009342194
0.36094197630882263 0.4041977822780609 0.1873127520084381
-0.1333237588405609 -0.0177651084959507 0.21788951754570007
-0.3228985071182251 0.40588125586509705 -0.2618515193462372
-0.3731365501880646 -0.0443236343562603 -0.13276180624961853
0.44158709049224854 0.18085992336273193 0.3476666510105133
-0.5278804302215576 -0.0843466967344284 0.11645753681659698
-0.36823007464408875 0.3997006118297577 -0.13950799405574799
-0.4139728844165802 0.4044165015220642 0.0640837550163269
0.19062024354934692 -0.6523041725158691 0.23090912401676178
0.26437947154045105 0.0032437629997730255 -0.09529168903827667
-0.37118902802467346 -0.02252531610429287 0.1479487270116806
-0.1858266294002533 -0.38336777687072754 -0.049837950617074966
0.28043028712272644 0.13818590342998505 0.3493674397468567
0.15628807246685028 -0.36942481994628906 0.3025294840335846
-0.3606516122817993 0.1057499498128891 -0.3967497944831848
0.07350124418735504 0.1979997605085373 0.35119861364364624
0.2644939422607422 0.3687286972999573 0.4673495590686798
0.5844451189041138 0.3288753628730774 0.14173729717731476
0.03717494383454323 0.4034321904182434 0.2993842661380768
0.27277421951293945 0.002429601736366749 -0.19540287554264069
-0.07159946113824844 -0.005229446571320295 -0.3229857385158539
-0.4840140640735626 0.10935879498720169 0.08267949521541595
0.0013656863011419773 0.010128039866685867 0.3421214520931244
0.030253861099481583 0.0018184937071055174 0.2696512043476105
0.43716996908187866 0.0001458795741200447 -0.14344751834869385
0.4330572187900543 0.40443477034568787 -0.0909436047077179
0.08761557191610336 -0.6238102912902832 -0.05309627950191498
0.2333505004644394 0.31201988458633423 0.4688555896282196
0.45123082399368286 0.010396262630820274 0.33821937441825867
0.46281591057777405 0.0004494413733482361 0.2590174973011017
-0.09332991391420364 -0.1043156087398529 0.252973347902298
-0.267228901386261 0.003109521232545376 -0.2173534780740738
-0.18627622723579407 -0.33738309144973755 0.15612217783927917
0.024584276601672173 0.002950538881123066 -0.1727183759212494
0.034159447997808456 0.40010344982147217 0.34870943427085876
0.43005481362342834 -0.3723338544368744 0.0631491020321846
0.004604904912412167 -0.620418906211853 -0.18310634791851044
0.32125765085220337 0.4039350748062134 0.16600987315177917
-0.4941616952419281 0.36927151679992676 -0.13686147332191467
0.1263560950756073 0.0012923789909109473 0.1714387983083725
-0.09096945822238922 -0.393301397562027 0.18449757993221283
0.11305760592222214 0.0022797072306275368 -0.22237485647201538
0.35121211409568787 -0.3129439651966095 -0.2683773934841156
-0.3980158567428589 -0.07903021574020386 -0.0768105685710907
0.4068782925605774 -0.0003134128637611866 -0.0626017302274704
-0.1595003455877304 -0.0026740110479295254 0.19896218180656433
0.583331823348999 0.06084979698061943 0.03271649405360222
0.18332353234291077 0.40489399433135986 -0.10948480665683746
-0.46478304266929626 0.05896536260843277 -0.39989709854125977
-0.2761950194835663 0.3254466652870178 0.34590765833854675
0.2748033404350281 -0.05728509649634361 -0.3292054831981659
-0.49224746227264404 0.3594686985015869 -0.013154366984963417
0.27874282002449036 0.055054809898138046 -0.39789628982543945
-0.5513742566108704 -0.07484527677297592 -0.3597109615802765
0.42924490571022034 0.40352845191955566 0.23802801966667175
-0.4452309012413025 0.3993004262447357 -0.28738507628440857
0.31799790263175964 0.1613304167985916 0.34963610768318176
0.21411187946796417 -0.4542103707790375 -0.3008098006248474
0.17576804757118225 -0.6193620562553406 0.17119191586971283
0.1046234667301178 -0.6083346605300903 -0.3196997046470642
-0.45407411456108093 -0.0035835905000567436 -0.24211877584457397
-0.5736926794052124 0.05111441761255264 0.07361094653606415
0.32860398292541504 0.0038596130907535553 -0.21797573566436768
-0.13673384487628937 -0.29033422470092773 -0.2839876711368561
-0.11660139262676239 0.0015113912522792816 -0.2562248706817627
0.3336796760559082 0.010916009545326233 0.37580493092536926
-0.5807743072509766 0.08291037380695343 0.32825085520744324
-0.047373633831739426 -0.48263877630233765 -0.2760457992553711
0.4344795346260071 0.0038142548874020576 0.26912418007850647
0.3983716070652008 -0.3851088285446167 -0.07352616637945175
-0.559184193611145 0.3869572877883911 -0.36936497688293457
-0.28719666600227356 0.3793008625507355 -0.06751621514558792
-0.10554097592830658 0.40415796637535095 0.020122980698943138
0.5825668573379517 0.05792121961712837 0.013326013460755348
0.5848066210746765 0.11910556256771088 0.008907407522201538
0.4840838313102722 0.3487972617149353 -0.4022887349128723
0.3361673057079315 -0.6314296722412109 -0.07446103543043137
-0.5470684170722961 0.027161307632923126 -0.4016028940677643
0.007902447134256363 0.13827674090862274 -0.3987939655780792
-0.5405013561248779 -0.07851147651672363 0.07261538505554199
-0.5670785903930664 0.010584398172795773 -0.39184221625328064
-0.57610023021698 -0.0041456278413534164 0.28220075368881226
0.03816453740000725 -0.5229973196983337 -0.31102630496025085
0.0862855613231659 0.40268591046333313 -0.3517340421676636
-0.17366479337215424 -0.5959744453430176 0.051236774772405624
0.5833128094673157 0.39126667380332947 0.3347621262073517
0.08005895465612411 0.27119889855384827 0.4596044421195984
0.40060773491859436 4.406273365020752e-05 0.057873792946338654
-0.24022921919822693 -0.09199342876672745 0.021205008029937744
0.31186553835868835 0.2609773874282837 0.43888774514198303
0.038438137620687485 -0.6214389801025391 -0.017066605389118195
0.30748674273490906 0.40174371004104614 -0.3348095118999481
0.11415959894657135 0.004233670420944691 -0.36648598313331604
0.581751823425293 0.08899804949760437 -0.015463418327271938
0.38210564851760864 0.4016648232936859 -0.21277771890163422
0.19828790426254272 0.40306538343429565 -0.3105015456676483
0.09015006572008133 -0.6327931880950928 0.209687277674675
-0.16167019307613373 -1.4611054211854935e-05 0.09144378453493118
0.5812594890594482 0.03232816234230995 0.01867956481873989
-0.11734335869550705 -0.3090301752090454 0.23721957206726074
-0.34841278195381165 0.0017430596053600311 0.11923884600400925
0.35378897190093994 -0.138405442237854 -0.2690335512161255
-0.11405564099550247 -0.46913668513298035 0.1595456451177597
0.3992011547088623 -0.25732386112213135 -0.20231884717941284
0.3710609972476959 -0.5024352669715881 0.08838360011577606
-0.5750194191932678 0.0066066887229681015 -0.07597275078296661
-0.5747317671775818 0.2720044255256653 0.3187432587146759
0.38555893301963806 -0.5586414933204651 -0.07179497182369232
0.368112176656723 -0.0015041246078908443 -0.1953074038028717
0.1600901037454605 0.3895876705646515 0.3567151427268982
-0.4616795480251312 0.34913304448127747 -0.39943811297416687
0.04087955877184868 -0.6440877914428711 0.22200697660446167
-0.2870122790336609 0.2828870713710785 -0.3992902934551239
-0.5724881887435913 0.015260555781424046 0.3358965516090393
0.43348026275634766 0.0037311234045773745 -0.3568093776702881
0.12173186987638474 -0.00384605024009943 0.46592581272125244
-0.14095592498779297 -0.633908212184906 -0.04880625009536743
-0.41672804951667786 -0.09101329743862152 -0.3564791679382324
0.09491237998008728 -0.6227684617042542 -0.06833428889513016
-0.43853870034217834 0.004659994505345821 0.14779679477214813
0.29594185948371887 0.12051922082901001 0.35033997893333435
-0.583972156047821 0.1335693895816803 -0.07735037803649902
-0.010573342442512512 -0.5918781161308289 0.2319251149892807
-0.5805257558822632 0.23505647480487823 0.04408152773976326
-0.37578490376472473 -0.051255643367767334 0.05593372881412506
0.07665957510471344 0.39565402269363403 0.3752208650112152
-0.5763076543807983 0.0029911664314568043 0.26552027463912964
-0.0018080617301166058 -0.6227736473083496 -0.006609874311834574
0.5843563079833984 0.11327973008155823 -0.13915009796619415
0.34377193450927734 -0.002705148421227932 -0.26908159255981445
-0.3744310140609741 0.008843908086419106 -0.02264486812055111
0.026035811752080917 -0.4577253758907318 0.2480272501707077
0.03123820200562477 0.3061976432800293 0.3617194890975952
0.4981352686882019 0.10923194885253906 0.3399631977081299
0.034601908177137375 0.0028045063372701406 -0.2987270951271057
0.3839622735977173 -0.5308896899223328 -0.11501999199390411
0.16995111107826233 0.23641130328178406 -0.39921724796295166
0.09307392686605453 0.0005072844214737415 0.04533645510673523
0.01689961366355419 0.4017961025238037 0.19671614468097687
0.3515610694885254 0.0031144877430051565 -0.15396325290203094
0.4415760040283203 0.14490167796611786 -0.3998737633228302
-0.2777253985404968 0.4030836820602417 0.06585034728050232
-0.3452457785606384 0.4032737910747528 0.19249795377254486
0.35304468870162964 -0.10372369736433029 0.21501830220222473
0.09490451216697693 -0.6242700815200806 0.017845548689365387
-0.3643898069858551 0.010907945223152637 -0.30066317319869995
0.4438914954662323 -0.218267023563385 0.02010016143321991
-0.5747451186180115 0.31804749369621277 -0.3850778341293335
-0.5684909224510193 0.36329811811447144 0.3361870050430298
0.011641850695014 -0.23731712996959686 0.30127596855163574
-0.4726201593875885 0.004595059901475906 0.30048999190330505
-0.5811802744865417 0.039036042988300323 -0.2632528841495514
-0.2558680772781372 0.0016063987277448177 0.18401052057743073
0.1509268879890442 -0.5693154335021973 -0.3147828280925751
-0.5002699494361877 -0.04606872424483299 0.3475733697414398
-0.04820190370082855 -0.6225682497024536 0.007355867885053158
0.2571549117565155 -0.06769821047782898 0.350004643201828
0.4761788845062256 0.20845720171928406 -0.3990916609764099
0.2579296827316284 -0.12027428299188614 0.2829994559288025
0.2619933784008026 -0.23733235895633698 0.2779911756515503
-0.38261762261390686 0.001574366819113493 -0.2999137341976166
-0.3696620762348175 0.004505619872361422 0.0800710991024971
-0.05645732581615448 0.40455350279808044 0.12801125645637512
0.13811028003692627 -0.6224901676177979 0.16422858834266663
-0.3672826588153839 0.4050019681453705 -0.16634100675582886
0.5649470686912537 0.008357367478311062 -0.07997648417949677
0.03262057155370712 0.001369217410683632 -0.23551331460475922
-0.00994625873863697 -0.6225866675376892 0.10348925739526749
0.021807465702295303 0.009548802860081196 0.41778770089149475
0.4698754549026489 0.02577429823577404 0.34398460388183594
0.3148694336414337 -0.0015871981158852577 -0.3619961738586426
-0.1322169452905655 -0.6310404539108276 -0.09503138810396194
-0.2597663700580597 0.4052503705024719 0.02625919133424759
0.05717519670724869 -0.0025605489499866962 0.3167247474193573
0.47237974405288696 0.22514387965202332 -0.400949627161026
0.5555599927902222 0.005189039744436741 0.2177952229976654
0.028794359415769577 -0.6184850335121155 0.15362711250782013
-0.18335026502609253 0.0008949553593993187 0.10176059603691101
0.3654046952724457 -0.39607560634613037 -0.15610025823116302
0.16256503760814667 0.002201562747359276 -0.18705575168132782
-0.514576256275177 -0.09586820751428604 -0.2149612158536911
0.1067095473408699 -0.4687582850456238 -0.31740590929985046
0.4364323616027832 -0.001137434970587492 -0.06418181955814362
-0.25835394859313965 0.0034565338864922523 -0.3322398066520691
0.3146921694278717 -0.2254960834980011 -0.2997564971446991
-0.020903054624795914 -0.4535413384437561 -0.29079025983810425
-0.4591525197029114 -0.11124476045370102 0.14995437860488892
0.04486566409468651 -0.11182127147912979 -0.3665257394313812
-0.15666106343269348 -0.49869054555892944 0.09256628900766373
0.32725945115089417 -0.502875804901123 -0.21245376765727997
-0.18730802834033966 0.40692630410194397 0.2828347682952881
0.5842068195343018 0.1398133933544159 0.16543735563755035
0.02978484518826008 0.0016708532348275185 0.10334089398384094
-0.30499202013015747 0.007339836563915014 0.3255945146083832
-0.1816813051700592 -0.5092905759811401 -0.05491100996732712
-0.4614673852920532 0.06080785021185875 -0.3982842266559601
0.021931391209363937 0.12686340510845184 0.38435617089271545
0.053537070751190186 0.0029047762509435415 -0.3293960392475128
0.032237205654382706 -0.25982075929641724 0.3064461648464203
-0.3521919250488281 0.0020477743819355965 0.2333250343799591
0.2773008942604065 0.03484386205673218 0.4671807587146759
0.3008716404438019 -0.21214336156845093 0.25699231028556824
-0.37142518162727356 0.09565656632184982 -0.3956424295902252
0.21072940528392792 0.4032433032989502 0.2120503932237625
-0.5786964297294617 0.008232631720602512 0.019181661307811737
-0.015392230823636055 0.0006726086139678955 0.046087924391031265
-0.4269445836544037 -0.08134212344884872 0.3359515070915222
