0.3196236789226532 0.10342451184988022 0.3714078962802887
-0.5704304575920105 0.002953951945528388 0.30427828431129456
0.07819382846355438 -0.3473435342311859 -0.37279969453811646
-0.11952408403158188 -0.5201008915901184 -0.21518194675445557
0.04963209852576256 -0.4633204936981201 0.2505367696285248
-0.16570743918418884 -0.44865506887435913 0.07993032783269882
-0.24563883244991302 0.07106604427099228 -0.40468525886535645
-0.2424815148115158 -0.041138775646686554 -0.0305932629853487
0.5864377617835999 0.2823554575443268 -0.3889390826225281
-0.1939612179994583 0.40374261140823364 -0.17444361746311188
0.20994329452514648 -0.0770871639251709 0.41858887672424316
-0.4275380074977875 -0.08644663542509079 0.33034318685531616
-0.38835886120796204 -0.07039275765419006 -0.09116062521934509
-0.5815277695655823 0.3470887541770935 0.18624047935009003
-0.3961583077907562 0.07904554903507233 -0.12387491762638092
0.3105262517929077 0.2949112355709076 -0.4041154980659485
-0.38453245162963867 0.047049134969711304 -0.1603240668773651
0.11247759312391281 0.0689723864197731 0.344801664352417
0.5760588645935059 0.36187368631362915 0.34260156750679016
-0.5767258405685425 0.18734578788280487 -0.3935042917728424
0.3817038834095001 0.40207377076148987 0.22093908488750458
-0.3300141394138336 0.08193451911211014 -0.4006313979625702
-0.18300804495811462 0.00031729042530059814 -0.2242383360862732
0.18414948880672455 -0.622784435749054 -0.11427681893110275
0.25876036286354065 0.40097150206565857 -0.27333611249923706
0.28622356057167053 0.0016803992912173271 0.15492716431617737
-0.13255661725997925 0.2697102427482605 -0.4024273455142975
-0.15949557721614838 -0.025437811389565468 -0.24936510622501373
0.10910416394472122 -0.37734007835388184 0.2806522846221924
0.22752350568771362 -0.6331692934036255 0.1858232170343399
0.09927576780319214 0.00029896441265009344 0.14475731551647186
0.015788737684488297 -0.6203664541244507 -0.17008982598781586
0.4191508889198303 0.1983257234096527 -0.40549570322036743
0.2430589497089386 0.0439818874001503 -0.4043789207935333
-0.11631014198064804 0.20106425881385803 0.34426116943359375
-0.48382166028022766 0.0004200926050543785 -0.19642096757888794
0.03355314955115318 -0.002529183402657509 0.172190323472023
-0.22384172677993774 -0.20940114557743073 0.08280505239963531
-0.07574138790369034 -0.6306430101394653 0.13485108315944672
-0.1391831785440445 -0.6478014588356018 0.07516258209943771
-0.22688095271587372 -0.14638759195804596 0.07663588970899582
0.5756223797798157 0.28754982352256775 0.13830380141735077
0.08499132096767426 -0.006799830123782158 0.32196950912475586
-0.5813389420509338 0.25305286049842834 -0.22096073627471924
0.020781384781003 -0.6203086972236633 0.05472675710916519
-0.35658320784568787 0.40335434675216675 -0.3697724938392639
0.08976337313652039 -0.000339338555932045 -0.0032786387018859386
-0.2834557294845581 0.388136625289917 0.3404916226863861
-0.5733531713485718 -0.010407152585685253 0.3335905075073242
-0.009115304797887802 -0.09194938838481903 0.2966051697731018
-0.394242525100708 -0.07039012014865875 0.07722964882850647
0.16991277039051056 0.40320906043052673 0.1044970378279686
-0.008358471095561981 0.4030470848083496 -0.18922467529773712
-0.04311118647456169 -0.19402723014354706 -0.34275269508361816
0.18400198221206665 0.40107646584510803 0.27328479290008545
0.08934544771909714 0.2215595841407776 0.34405189752578735
-0.10590901970863342 0.36574041843414307 -0.39858385920524597
-0.42232704162597656 -0.0011755311861634254 0.3424135744571686
-0.05746837332844734 -0.624882161617279 -0.16494253277778625
0.28960058093070984 -0.6377213001251221 0.18657007813453674
0.4769432842731476 0.009360590018332005 -0.39503952860832214
-0.10777923464775085 0.09094231575727463 -0.40041619539260864
0.3118657171726227 0.026538437232375145 0.4206809401512146
-0.22942839562892914 -0.01886862702667713 -0.13116705417633057
0.260974645614624 -0.4240557551383972 -0.27538007497787476
-0.4146408438682556 0.38276582956314087 -0.40370312333106995
-0.33659157156944275 0.396698921918869 0.3289991319179535
0.5779678225517273 0.015905462205410004 -0.20250585675239563
-0.26608675718307495 0.00041580386459827423 -0.18553386628627777
-0.4637824296951294 0.0986626148223877 -0.3021969795227051
-0.5787166357040405 0.07317684590816498 0.08916740119457245
0.5817497968673706 0.3949405550956726 0.0713655948638916
0.24277402460575104 0.4013470709323883 0.14478753507137299
-0.3791647255420685 0.06449796259403229 0.1699969470500946
0.2365870624780655 0.4017966687679291 0.02221493236720562
0.2346770316362381 0.0017299633473157883 -0.1511685848236084
-0.5793073773384094 0.3143245279788971 0.01138310506939888
0.02039666473865509 -0.621917188167572 -0.07797017693519592
-0.4199828803539276 0.16952113807201385 -0.40125948190689087
-0.5004778504371643 0.09693067520856857 0.22150662541389465
0.5686360597610474 0.0072100539691746235 0.2317570447921753
0.3346964418888092 -0.23798784613609314 -0.28728947043418884
-0.32481345534324646 0.0034052953124046326 0.026677101850509644
0.10068973153829575 0.40200597047805786 -0.21288348734378815
0.2249271273612976 -0.197525754570961 0.29170265793800354
-0.44178321957588196 0.36187782883644104 -0.401593953371048
-0.5348676443099976 -0.09167422354221344 -0.35931000113487244
0.38594910502433777 0.3419284224510193 -0.4062715768814087
0.3717525005340576 -0.5248810648918152 0.08360174298286438
0.22969326376914978 0.3821398913860321 0.46208012104034424
-0.3704228401184082 0.4073241949081421 -0.14525017142295837
0.08814183622598648 0.4627648890018463 0.3986038863658905
0.41908571124076843 -0.3571959137916565 -0.1520959883928299
-0.5467614531517029 0.3978986144065857 -0.08894515782594681
0.539746105670929 0.39980876445770264 0.10603998601436615
0.5000861287117004 0.40190666913986206 -0.3768680989742279
-0.18073226511478424 -0.6223865151405334 -0.054778002202510834
0.4287123680114746 -0.09747550636529922 0.07651259005069733
0.3778362572193146 0.04639016091823578 0.3473179340362549
0.035820022225379944 0.10507587343454361 0.455735445022583
-0.5436893701553345 0.07640475779771805 0.09211010485887527
0.35341599583625793 0.4032129943370819 -0.14951372146606445
0.2409944087266922 -0.6180465817451477 -0.11493534594774246
-0.18390637636184692 0.07025773823261261 -0.4017828106880188
0.5708531737327576 0.014637496322393417 -0.2545567750930786
0.0063507212325930595 -0.16108568012714386 -0.36166301369667053
-0.5034237504005432 0.3725559711456299 -0.1497809737920761
0.21610403060913086 -0.6259663701057434 -0.2118227779865265
0.14619243144989014 0.26582446694374084 0.3418580889701843
0.568934440612793 0.01404669787734747 0.0501859225332737
-0.5622115135192871 0.20672710239887238 0.3410230576992035
0.11404678970575333 0.023802421987056732 -0.40253734588623047
0.3262563645839691 -0.39114370942115784 -0.19900809228420258
0.1343967765569687 0.0005108676850795746 -0.21068665385246277
0.2128504514694214 0.21539488434791565 -0.4043688476085663
-0.5719802379608154 0.2950564920902252 0.3340415358543396
0.40231937170028687 0.10427945852279663 0.3450653553009033
-0.5601579546928406 -0.05527338758111 -0.11840271949768066
-0.48149511218070984 0.1214165911078453 -0.39970913529396057
0.29386210441589355 -0.594791054725647 -0.24914847314357758
0.2955341637134552 0.2995778024196625 0.4613606035709381
-0.07386305183172226 -0.6195628643035889 -0.13906392455101013
0.4465709328651428 -0.2810092866420746 -0.010036319494247437
-0.05009295046329498 -0.0010553952306509018 -0.35542988777160645
-0.5872746706008911 0.35573750734329224 -0.27376797795295715
-0.3503817617893219 0.0016400092281401157 -0.2137950360774994
0.13195422291755676 -0.40534284710884094 0.2591678202152252
0.39189088344573975 -0.46265098452568054 -0.05469854176044464
0.11811058968305588 -0.00048069562762975693 0.287679523229599
0.002921114908531308 -0.619148313999176 0.1102931872010231
0.06454706937074661 0.33214372396469116 0.46075791120529175
-0.1071147620677948 0.40384411811828613 -0.24713119864463806
-0.4857046604156494 0.24818481504917145 -0.40177032351493835
-0.4787481725215912 0.3934853672981262 -0.1122911348938942
-0.08344978094100952 0.09716299921274185 -0.40219488739967346
0.07578809559345245 0.4073423445224762 0.43730270862579346
0.24593466520309448 -0.27430471777915955 -0.34288355708122253
-0.5254092812538147 0.39864033460617065 0.14187628030776978
-0.20737917721271515 -0.0005386648699641228 -0.22495193779468536
-0.45863038301467896 -0.10751023143529892 -0.25577983260154724
-0.036991607397794724 0.2959849536418915 -0.402597576379776
0.3708479702472687 4.03611920773983e-05 -0.19361434876918793
-0.38800346851348877 0.3416704535484314 -0.40244337916374207
0.37894418835639954 -0.0019311150535941124 -0.21664020419120789
0.2439316362142563 -4.1443854570388794e-07 -0.10274070501327515
-0.14548341929912567 -0.6537516713142395 -0.12038331478834152
0.022175239399075508 -0.6278826594352722 -0.25438687205314636
-0.5737839937210083 0.08759301155805588 -0.04428907111287117
-0.21471849083900452 0.02780146338045597 -0.4042871296405792
0.31861335039138794 -0.016626663506031036 -0.30561041831970215
0.20577985048294067 0.06670282781124115 -0.4019288122653961
0.17413151264190674 0.40147438645362854 -0.36871421337127686
0.2489119917154312 0.14595554769039154 -0.40304186940193176
-0.012781620025634766 -0.3751676380634308 0.2689574956893921
-0.4957405924797058 0.10555486381053925 -0.20736069977283478
0.0936044454574585 -0.6192626357078552 -0.14282524585723877
-0.4213598668575287 0.41343992948532104 0.01600511372089386
-0.2385043203830719 0.0007078985217958689 -0.18105445802211761
0.16383899748325348 -0.07265719026327133 0.42148080468177795
-0.09105877578258514 0.07719849795103073 0.34314122796058655
0.009939884766936302 -0.23248712718486786 -0.3672153949737549
0.26356932520866394 -0.011152112856507301 0.27670055627822876
-0.13948598504066467 -0.0005775312893092632 -0.11075872927904129
0.17982660233974457 0.0007691429927945137 0.158605694770813
0.16942745447158813 -0.6221194267272949 -0.10697471350431442
0.0935218408703804 0.46073007583618164 0.42047807574272156
0.1958613246679306 0.24802261590957642 0.3434772789478302
-0.5283826589584351 -0.09064165502786636 0.13121742010116577
0.06794644892215729 0.09061247110366821 -0.4032779037952423
0.32246482372283936 0.10302901268005371 0.45652344822883606
0.4245564043521881 -0.02394866570830345 0.07499084621667862
0.016293808817863464 -0.056775569915771484 0.3758561909198761
-0.20888729393482208 0.39848628640174866 0.2649964690208435
0.08244673162698746 0.4036926031112671 0.15047287940979004
0.09269781410694122 -0.016829317435622215 0.3148215711116791
-0.48477238416671753 0.40229135751724243 0.32919803261756897
-0.20406807959079742 0.4028034806251526 -0.07532839477062225
0.31550273299217224 -0.33690905570983887 0.2427671253681183
0.05589994415640831 -0.40434619784355164 0.25513437390327454
-0.46718788146972656 -0.0004919585771858692 0.16008755564689636
-0.4090759754180908 -0.09358055144548416 -0.28406620025634766
0.12550406157970428 -0.6210571527481079 0.14964018762111664
0.06935636699199677 -0.07067446410655975 0.4185204803943634
0.5673478245735168 0.3934081494808197 -0.01442551426589489
0.23514701426029205 -0.09604351222515106 0.36802947521209717
-0.18194252252578735 0.4036576747894287 -0.11891742795705795
0.21340793371200562 0.40251579880714417 -0.1501423418521881
0.11947701871395111 0.0011755223385989666 -0.32838836312294006
-0.45077475905418396 0.3962080478668213 -0.15989017486572266
-0.07391976565122604 0.40353575348854065 -0.20475444197654724
-0.26459404826164246 0.39833328127861023 -0.08230359107255936
0.33784884214401245 -0.532532274723053 -0.20137621462345123
0.3266364634037018 0.24450083076953888 0.4531824588775635
-0.3792682886123657 0.059008777141571045 -0.40005919337272644
0.5832355618476868 0.18179598450660706 -0.11751314997673035
-0.5831947326660156 0.25434523820877075 -0.04367750883102417
-0.3580837845802307 0.004042334854602814 -0.06684888154268265
0.1274600476026535 -0.21342074871063232 -0.3699542284011841
0.04958673194050789 -0.6229537725448608 -0.24102994799613953
0.10961364954710007 -0.0009248370770365 0.463418573141098
0.17873987555503845 -0.43154647946357727 -0.3106967806816101
0.44460463523864746 0.0012262524105608463 -0.1793624609708786
-0.3324492275714874 0.04961836710572243 0.3391362726688385
0.2726244628429413 0.0015740985982120037 -0.0689033791422844
-0.13824298977851868 0.00023314871941693127 0.06130537390708923
-0.02809576317667961 0.0017323661595582962 0.2463998943567276
-0.2928811013698578 0.37308335304260254 -0.06390431523323059
0.16745024919509888 0.0034316880628466606 0.23857559263706207
0.2086651623249054 0.0006445227190852165 0.21790194511413574
-0.17808765172958374 0.000606209971010685 -0.15197832882404327
0.26844024658203125 -0.6466359496116638 -0.2604358494281769
0.40695202350616455 0.0037128408439457417 -0.3847142159938812
-0.29077377915382385 0.4028308689594269 -0.21379920840263367
-0.5081135034561157 -0.09919510781764984 0.32105785608291626
0.030275899916887283 0.4029807448387146 -0.3111637532711029
-0.08727110922336578 0.0005784169770777225 -0.03561145067214966
0.23234045505523682 -0.618370532989502 -0.050919197499752045
0.12111696600914001 -0.03209194540977478 -0.374239981174469
-0.56575608253479 0.02156410738825798 -0.3898627758026123
-0.4085099995136261 0.001008446328341961 -0.37508058547973633
-0.22117677330970764 -0.14257466793060303 -0.16529212892055511
-0.5538176894187927 0.3905699551105499 -0.054781291633844376
0.2677302658557892 -0.5800904631614685 0.2058965563774109
0.33527910709381104 0.39997053146362305 0.2873796224594116
0.34131965041160583 -0.00022142473608255386 0.16043855249881744
0.1300637125968933 -0.24399200081825256 -0.3746568560600281
-0.19959600269794464 0.0006077517755329609 0.18759967386722565
-0.006613911595195532 0.02219613455235958 -0.401381254196167
0.39298081398010254 0.39127057790756226 0.33993738889694214
0.06343576312065125 -0.00016422662883996964 -0.2740287482738495
-0.4831266701221466 0.3185511529445648 -0.39995676279067993
-0.046792369335889816 -0.06670793890953064 0.27697423100471497
-0.45393240451812744 0.007597083691507578 -0.40036123991012573
0.15900442004203796 -0.24040746688842773 -0.36837396025657654
0.008805128745734692 -0.00046748295426368713 0.28051459789276123
-0.07402337342500687 -0.053399547934532166 -0.33293861150741577
0.4441129267215729 -0.2037513703107834 0.026125794276595116
0.05317842215299606 0.12128163874149323 0.4579276144504547
-0.24132414162158966 0.04669145494699478 -0.4025786519050598
-0.07170500606298447 0.0013832524418830872 -0.2384631335735321
0.27833279967308044 0.3513489067554474 0.45982131361961365
-0.16228008270263672 -0.005370683502405882 0.18953995406627655
-0.5658766627311707 0.02331412211060524 0.3340820074081421
-0.5549935102462769 0.040184397250413895 -0.3936191499233246
-0.5467243194580078 0.3866351544857025 -0.07839976996183395
-0.07909150421619415 0.0007218299433588982 0.207096666097641
-0.010011980310082436 0.3969137370586395 -0.3932928144931793
-0.44131970405578613 -0.003270423971116543 0.14916673302650452
-0.16419775784015656 -0.01266087219119072 0.18882650136947632
0.11627522855997086 0.2592625021934509 0.46193939447402954
0.2342512160539627 0.2284623682498932 0.46119260787963867
-0.40889105200767517 0.07090790569782257 0.042108308523893356
0.1759110391139984 -0.09482020884752274 -0.361549973487854
0.13052111864089966 0.40408962965011597 -0.10636722296476364
-0.021872276440262794 -0.5559031963348389 -0.2918168604373932
0.32307207584381104 -0.619174063205719 0.1552223563194275
-0.16381703317165375 -0.002016298472881317 -0.24925094842910767
-0.176481232047081 0.18356427550315857 -0.40322962403297424
0.3819545805454254 -0.0014150445349514484 -0.23572666943073273
-0.19733946025371552 -0.18689975142478943 0.14717024564743042
0.35000112652778625 -0.6400126814842224 -0.0769801139831543
-0.05261282995343208 -0.2830510139465332 -0.3396991491317749
0.3314700424671173 8.561089634895325e-05 -0.30048996210098267
0.4434853494167328 -0.13910885155200958 -0.011921671219170094
0.3903619349002838 -0.38814058899879456 0.07046294957399368
-0.13455668091773987 -0.6388537883758545 0.11895747482776642
0.5785776972770691 0.17850446701049805 0.032359056174755096
-0.3636658787727356 0.35618147253990173 0.037085212767124176
-0.18071958422660828 -0.6413554549217224 -0.05871516838669777
0.3354622423648834 -0.0029150648042559624 -0.2502991259098053
-0.47775715589523315 0.3917224705219269 -0.39950743317604065
0.17098216712474823 -0.6204748749732971 -0.18491920828819275
0.33293646574020386 0.3970920443534851 -0.3980012536048889
0.11321738362312317 0.11162612587213516 -0.4031176269054413
0.02595672197639942 -0.00017507001757621765 -0.21255192160606384
-0.250168114900589 0.006630667485296726 -0.3762345314025879
0.1346181035041809 0.0015314454212784767 0.04452503100037575
0.16052153706550598 0.0006003621965646744 0.15506596863269806
0.04979223757982254 0.0006270408630371094 0.051195040345191956
0.2307407557964325 -0.6223483681678772 -0.21512368321418762
-0.3799174427986145 0.0029639853164553642 -0.19162650406360626
-0.5271773934364319 -0.08745864033699036 0.10433924198150635
-0.17549510300159454 0.0017856461927294731 0.2940506339073181
-0.3923906981945038 -0.06515257805585861 0.27225881814956665
0.5829668045043945 0.32481518387794495 0.15509600937366486
0.5133656859397888 0.0031706837471574545 0.24476397037506104
-0.06553381681442261 0.23060834407806396 -0.40075594186782837
0.3342894911766052 0.24726775288581848 0.35346123576164246
0.15111497044563293 0.28222179412841797 -0.400025337934494
-0.39132481813430786 0.041138600558042526 0.3411787450313568
-0.37840232253074646 -0.0358455516397953 0.02250337041914463
0.23565830290317535 -0.17071165144443512 0.28898119926452637
0.03125341609120369 0.37922030687332153 -0.40116429328918457
0.23976589739322662 0.0017746500670909882 -0.05881429463624954
0.21002976596355438 0.00019165605772286654 0.17166002094745636
-0.18339921534061432 0.0004841908812522888 0.03703497722744942
0.24249213933944702 0.0003914562985301018 0.24666878581047058
-0.025731578469276428 -0.0006599656771868467 -0.3328334391117096
0.0774921253323555 0.4031689763069153 -0.07589392364025116
-0.14824555814266205 -0.18593719601631165 0.19927766919136047
0.5721740126609802 0.38072967529296875 -0.03605147451162338
0.03341706842184067 -0.6194416284561157 0.07098036259412766
0.05197184160351753 -0.4304178059101105 0.2576794922351837
0.19641324877738953 -0.00013637210940942168 -0.31678617000579834
0.3563697338104248 -0.6355561017990112 0.09212255477905273
0.459543377161026 0.0004988973960280418 0.24550768733024597
0.3125549554824829 -0.6203299760818481 -0.18980029225349426
0.5525703430175781 0.007695878855884075 -0.3659071624279022
0.516509473323822 0.24605269730091095 0.3448818624019623
-0.45368650555610657 0.03220261633396149 -0.4002949297428131
-0.14866836369037628 -0.6370683312416077 -0.045670170336961746
0.44489046931266785 1.0360963642597198e-06 -0.04639421030879021
-0.426235556602478 0.4051212668418884 0.050752539187669754
-0.04624490067362785 4.9112364649772644e-05 0.045202240347862244
-0.008095589466392994 -0.6179129481315613 0.036872487515211105
-0.5685065984725952 0.049965500831604004 -0.04762173444032669
0.027366403490304947 0.00033364444971084595 0.074968121945858
0.574773907661438 0.2219552844762802 -0.052978549152612686
-0.07448189705610275 0.38067325949668884 0.33950677514076233
0.27703896164894104 0.40120556950569153 0.04791386425495148
-0.16681958734989166 0.37630170583724976 -0.40042972564697266
-0.3794679343700409 0.004485204815864563 -0.29466158151626587
-0.5288509130477905 0.007082565687596798 -0.24556002020835876
0.35541704297065735 0.4023365378379822 -0.007209515664726496
0.5741808414459229 0.30736660957336426 -0.3895469009876251
0.28123870491981506 -0.5222592949867249 -0.2599891722202301
-0.11162354052066803 0.3161868453025818 -0.401677668094635
0.58226078748703 0.2997976243495941 0.30064383149147034
-0.4844996929168701 0.4062507152557373 -0.3317325711250305
-0.5059522390365601 0.3914855122566223 0.3301810026168823
0.5444985032081604 0.003842148929834366 0.16949988901615143
-0.30772677063941956 0.002713722176849842 0.0557834766805172
-0.3125177323818207 0.22781461477279663 0.341298907995224
0.5352350473403931 0.0040018679574131966 0.17681686580181122
0.22549918293952942 -0.0009681619703769684 -0.35889536142349243
-0.44707566499710083 0.3995068073272705 0.24132303893566132
0.02662714198231697 -0.002932954113930464 0.3215188980102539
-0.4613255560398102 0.001565831247717142 0.34956976771354675
-0.5077075958251953 -0.10084668546915054 -0.09195952117443085
-0.03693575784564018 -0.6437727212905884 0.17762093245983124
0.011560426093637943 -0.6231865882873535 -0.0761442482471466
-0.19163906574249268 0.0008020875975489616 -0.21740202605724335
0.5760207772254944 0.15983425080776215 0.265402615070343
0.5776158571243286 0.23066355288028717 -0.1273055076599121
-0.2115751951932907 -0.10929280519485474 0.12278763949871063
-0.47455736994743347 0.40396618843078613 -0.2426677793264389
-0.05185580253601074 -0.0003648558631539345 -0.02357219159603119
0.5296660661697388 0.004156728275120258 -0.2138775736093521
0.04101206362247467 -0.6190214157104492 0.14885170757770538
-0.013337483629584312 -0.6243877410888672 0.08501517027616501
-0.21323931217193604 -0.0024801846593618393 0.0507470965385437
-0.39757490158081055 0.0569540336728096 0.3385311961174011
-0.3527699112892151 0.0016897544264793396 0.2509119212627411
-0.5609268546104431 0.06447277963161469 0.3336900770664215
-0.01980726607143879 -0.0005801664665341377 0.14921267330646515
0.1014484390616417 0.4027427136898041 -0.1269119381904602
-0.3771180510520935 0.4098714590072632 -0.11076874285936356
-0.551487386226654 0.0022725719027221203 -0.338218629360199
0.14891302585601807 -0.6212514638900757 -0.1182640790939331
-0.5626111626625061 0.37471964955329895 0.29336291551589966
-0.5817402601242065 0.25168630480766296 0.14738357067108154
0.04251452535390854 0.001127602532505989 0.19656063616275787
0.050604697316884995 -0.6437930464744568 0.24008527398109436
-0.5861934423446655 0.19182294607162476 -0.03682995215058327
0.13116446137428284 -0.6176230907440186 0.043381329625844955
-0.4212145507335663 0.0037909457460045815 -0.06765185296535492
0.04108734801411629 -0.0008937511593103409 -0.1657460778951645
-0.20735576748847961 -0.11859952658414841 -0.16988611221313477
-0.17870454490184784 0.19264622032642365 -0.40342190861701965
0.4317704737186432 -0.3661390244960785 -0.13796594738960266
-0.18363358080387115 0.07435809820890427 -0.40248823165893555
0.21853628754615784 0.4030955731868744 0.25519680976867676
-0.08849088847637177 -0.10396435111761093 -0.32050570845603943
0.22111192345619202 -0.23713327944278717 -0.348014235496521
0.1329970508813858 0.46349528431892395 0.4402513802051544
0.3032698631286621 0.00203910656273365 -0.0122868986800313
-0.020413147285580635 -3.276113420724869e-05 0.046854112297296524
-0.5763218998908997 0.029369883239269257 -0.31077560782432556
-0.3154994547367096 0.39616602659225464 0.2997523546218872
-0.19063085317611694 -0.11407743394374847 0.14029833674430847
-0.5360764861106873 0.0016822874313220382 0.10711506754159927
-0.4467642605304718 -0.1152334064245224 -0.09782720357179642
0.06867280602455139 -0.00019653048366308212 -0.2673002779483795
-0.12704217433929443 -0.004432896617799997 0.23630841076374054
-0.03512858226895332 0.10099410265684128 -0.4049999713897705
0.05480051413178444 0.19987210631370544 -0.40328964591026306
-0.38385868072509766 0.004649844020605087 0.33194541931152344
-0.16259172558784485 0.40436798334121704 -0.11905290931463242
0.18935613334178925 -0.000269145704805851 -0.1773836612701416
0.32790976762771606 0.4028916358947754 0.2314201444387436
0.41780605912208557 -0.19815866649150848 0.11330409348011017
0.11643430590629578 0.3898979723453522 -0.40170472860336304
-0.52104252576828 0.0544903539121151 0.33967968821525574
0.36022379994392395 0.4026033878326416 0.0507667139172554
0.02788849174976349 -0.5206894278526306 -0.3095966577529907
0.37743544578552246 -0.6470287442207336 -0.09034024924039841
-0.11789196729660034 0.22467398643493652 0.36728882789611816
0.18082961440086365 0.27755627036094666 0.3451046645641327
0.23823222517967224 -0.6217557191848755 -0.11289872229099274
0.2876614034175873 0.002639779821038246 -0.37483450770378113
-0.5792520642280579 0.027859320864081383 -0.01685388945043087
-0.4675542116165161 0.10376989096403122 -0.34251394867897034
0.3751828074455261 0.4048270881175995 0.34701305627822876
0.5743691921234131 0.3740101456642151 0.04730873927474022
0.5813773274421692 0.25940704345703125 -0.37714359164237976
-0.5109043121337891 -0.10532975196838379 0.1460893154144287
-0.20139719545841217 -0.0015253550373017788 0.02478947304189205
-0.4580633342266083 0.09807006269693375 -0.11150055378675461
0.10681864619255066 -0.6038078665733337 0.25714436173439026
-0.050298165529966354 -0.0026587597094476223 0.2677999436855316
-0.06476282328367233 0.0012907227501273155 -0.10116150230169296
0.08213397860527039 -0.6204937100410461 -0.08496478199958801
-0.3886052966117859 0.39689382910728455 0.034486375749111176
0.3842105567455292 -0.4161677956581116 -0.11690826714038849
0.16718868911266327 -0.6215818524360657 -0.06917521357536316
0.3215876519680023 0.007955537177622318 0.3801014721393585
0.5749576091766357 0.3160322308540344 0.20542164146900177
0.3166213631629944 -0.39516115188598633 -0.22291836142539978
-0.2387826293706894 -0.16721998155117035 -0.11536174267530441
-0.5107218027114868 0.2929137647151947 0.34331461787223816
0.49239295721054077 0.0008295876905322075 -0.3357822895050049
-0.013501869514584541 -0.0001458730548620224 0.04988580569624901
0.1393636018037796 -0.5212089419364929 0.2528603971004486
0.12573710083961487 0.0002546999603509903 0.0052695684134960175
0.47965916991233826 0.3771738111972809 -0.4046552777290344
-0.5738510489463806 0.015078244730830193 0.2733609676361084
-0.17452707886695862 0.40363767743110657 -0.02240440808236599
-0.49360042810440063 -0.0046919179148972034 -0.03721033036708832
0.18798479437828064 -0.18060554563999176 0.30345797538757324
-0.010386444628238678 0.36917054653167725 -0.40212297439575195
-0.02484709583222866 -0.6201740503311157 -0.17254775762557983
0.005042706150561571 -0.6200675368309021 -0.21980682015419006
-0.5632171630859375 0.023309987038373947 -0.3954184353351593
0.4409477114677429 -0.134605273604393 0.035842135548591614
0.21176081895828247 0.40018582344055176 0.34667521715164185
0.1708652675151825 0.0559396930038929 0.3431866466999054
0.43710482120513916 0.12468297779560089 -0.40624648332595825
-0.3909497559070587 0.36675402522087097 0.03576783835887909
-0.5781636238098145 0.10013306140899658 0.31934961676597595
-0.23427172005176544 -0.3426310420036316 0.025049325078725815
-0.5043243169784546 0.00153662683442235 0.20330800116062164
-0.21807140111923218 -0.059001222252845764 -0.15602929890155792
-0.27166879177093506 0.364687979221344 -0.09894853830337524
-0.49795830249786377 -0.10386021435260773 0.23216822743415833
-0.3889072835445404 -0.05945967137813568 0.06757664680480957
0.30282989144325256 -0.09260902553796768 0.2535764276981354
0.24582745134830475 -0.5861600637435913 0.22048325836658478
0.334487646818161 -0.047370124608278275 -0.277068167924881
0.005871235392987728 -0.00042521674185991287 -0.2983941435813904
0.018378617241978645 0.4036158323287964 -0.10967671126127243
0.11460525542497635 -0.6402400135993958 -0.29268693923950195
0.16086584329605103 -0.08369600027799606 0.44445061683654785
0.3489746153354645 0.0014284406788647175 0.0009989142417907715
-0.26073047518730164 0.2362106889486313 0.3408147692680359
-0.24672797322273254 -0.0016026897355914116 -0.007454769220203161
-0.39843007922172546 0.2218845784664154 -0.404229074716568
-0.3579658269882202 0.03614423796534538 -0.03681537136435509
-0.1704539656639099 0.39924561977386475 0.3232570290565491
0.03556026890873909 0.2805008888244629 -0.402983695268631
0.12792129814624786 -0.6311260461807251 0.2089443951845169
0.47693493962287903 0.40176016092300415 0.14290101826190948
-0.30066347122192383 0.3986344635486603 0.032579757273197174
0.4134610593318939 -0.033129263669252396 0.12812992930412292
0.05370401218533516 -0.11849744617938995 -0.3717197775840759
-0.4447978138923645 0.40437549352645874 -0.2440447062253952
-0.3885134160518646 -0.055470749735832214 -0.05992485210299492
0.13417544960975647 0.04562715068459511 0.46367695927619934
-0.19079576432704926 -0.0014949701726436615 -0.3520265519618988
0.5777439475059509 0.07584936916828156 0.0754985362291336
0.28974878787994385 -0.047123584896326065 -0.321564644575119
-0.46936091780662537 0.4076833724975586 -0.09475129097700119
-0.06320635229349136 -0.6246923804283142 0.10884028673171997
0.5809851884841919 0.1905878186225891 -0.044784415513277054
0.18539980053901672 -0.389339417219162 0.2505478262901306
0.46790340542793274 0.21140092611312866 0.34433239698410034
0.09508068114519119 0.46217113733291626 0.3714374303817749
-0.20014339685440063 0.0011612670496106148 -0.13727489113807678
-0.10254695266485214 0.404049277305603 -0.25006237626075745
-0.5687101483345032 0.3698110580444336 0.2977161407470703
-0.4464360475540161 0.18597498536109924 -0.4018060266971588
-0.0624760165810585 -0.5726832151412964 -0.2697279751300812
-0.5790978074073792 0.005940672010183334 0.040258001536130905
0.1789146065711975 -0.008748186752200127 0.315157026052475
0.07839622348546982 0.40285351872444153 0.05201590061187744
0.3138890266418457 0.0018826639279723167 -0.15954804420471191
-0.314909964799881 0.0035878736525774 0.007022511214017868
-0.3544100224971771 0.3868975043296814 -0.18157245218753815
-0.40900707244873047 0.0009167911484837532 -0.24803195893764496
-0.5818837285041809 0.27305614948272705 -0.06280844658613205
0.1673545390367508 -0.07476286590099335 0.44744497537612915
0.058966681361198425 0.3617056906223297 0.34256765246391296
0.39117929339408875 0.3988248109817505 -0.07968845963478088
-0.04371968284249306 -0.6174254417419434 0.04033007472753525
-0.5421403050422668 0.39138129353523254 -0.2979205846786499
0.3294198513031006 -0.6260658502578735 -0.07131145894527435
0.3265528678894043 0.12051352113485336 -0.40368908643722534
-0.4639017879962921 0.08379493653774261 -0.39928123354911804
0.10722797363996506 -0.6330563426017761 -0.28714844584465027
0.5773667097091675 0.22436738014221191 0.20881973206996918
0.11273232102394104 -0.5997494459152222 -0.3177050054073334
0.21892525255680084 -0.6203181743621826 0.08009978383779526
0.15722323954105377 -0.5087108612060547 -0.31569138169288635
0.17351005971431732 0.0008077546954154968 0.09734998643398285
0.330716609954834 -0.049793511629104614 -0.29296278953552246
0.21499338746070862 0.0011457893997430801 0.09324094653129578
-0.41715142130851746 -0.005178352352231741 -0.2399509847164154
0.3276060223579407 0.38499656319618225 0.3692089319229126
-0.12429273873567581 -0.6490851640701294 -0.2036033719778061
0.1430167555809021 -0.6259415745735168 -0.26390594244003296
-0.48414063453674316 -0.1099325641989708 -0.16175764799118042
0.11400537192821503 -0.623723566532135 -0.046742089092731476
0.23169635236263275 0.38944920897483826 0.3469353914260864
0.21504811942577362 -0.23527711629867554 0.2949897348880768
0.29515475034713745 0.0007673297077417374 0.27503514289855957
-0.4571254253387451 0.08055050671100616 0.3404952585697174
0.5433980822563171 0.004033142700791359 0.20041950047016144
-0.33614450693130493 0.001503723906353116 0.17848896980285645
-0.46108686923980713 0.3980167508125305 -0.16490226984024048
0.04516325145959854 0.39064112305641174 0.40948250889778137
-0.3299817740917206 0.21074748039245605 -0.4050889015197754
0.5628331303596497 0.1564539521932602 -0.4010317623615265
0.017036346718668938 0.18469592928886414 0.35775718092918396
-0.142175555229187 -0.2230677604675293 -0.2788406014442444
-0.5811128616333008 0.00505635142326355 0.23676356673240662
0.19031141698360443 0.40304768085479736 -0.07179944217205048
0.2692544460296631 0.402888685464859 -0.11509615927934647
-0.49045097827911377 0.4023057520389557 0.2539600431919098
0.5783109068870544 0.2602250277996063 0.2546227276325226
0.5270538926124573 0.33013948798179626 -0.40666094422340393
0.18550753593444824 0.4018649160861969 -0.26975125074386597
0.22552502155303955 -0.42478233575820923 0.2341282218694687
0.5783925652503967 0.3358156979084015 0.2064017653465271
0.09166578948497772 0.2076168805360794 0.462574303150177
-0.08629753440618515 0.0011773956939578056 -0.18643982708454132
0.2724025845527649 0.4023936688899994 0.2862718999385834
0.3787843883037567 -0.5006429553031921 -0.12826323509216309
-0.48980724811553955 -0.11196717619895935 -0.14065122604370117
-0.26561108231544495 0.4028609097003937 -0.262618750333786
0.05635703355073929 -0.0014247483341023326 -0.20005463063716888
0.5180582404136658 0.0004768017679452896 0.31505653262138367
0.25544169545173645 0.20021679997444153 -0.4017627537250519
-0.5537946224212646 -0.000977229792624712 0.12921474874019623
0.12208888679742813 0.29495614767074585 -0.4039565920829773
-0.1477392464876175 -0.004056515172123909 0.2051292210817337
0.14814601838588715 -0.3037790060043335 -0.3737495243549347
0.3909667730331421 -0.4369833171367645 -0.06808246672153473
-0.01372786145657301 -0.6221160292625427 -0.06307337433099747
-0.44361138343811035 0.10912107676267624 -0.32180845737457275
0.41024357080459595 0.16936905682086945 -0.4047074019908905
-0.00301230582408607 0.4038861393928528 -0.11431822925806046
0.3773319721221924 -0.26664790511131287 0.1677083671092987
0.36172202229499817 0.003630751743912697 -0.0694064199924469
0.17154723405838013 0.4012197256088257 -0.0012779808603227139
-0.023075439035892487 0.019830523058772087 0.34720921516418457
-0.41063496470451355 0.17084074020385742 -0.40077173709869385
0.27863767743110657 0.40131300687789917 0.08743693679571152
-0.4925130307674408 0.0015013078227639198 -0.35469818115234375
0.3305734395980835 -0.0005027865990996361 -0.3303678631782532
0.04119187220931053 0.3764072358608246 0.43585970997810364
0.09765401482582092 0.09347840398550034 0.34591561555862427
-0.04648749902844429 6.372295320034027e-05 0.22000563144683838
0.5788284540176392 0.24217206239700317 -0.19059056043624878
-0.08973311632871628 -0.6529694199562073 -0.22831638157367706
-0.3754916489124298 -0.03820071369409561 0.11083291471004486
0.329091340303421 0.030479075387120247 0.3462681770324707
-0.5241127610206604 0.016366254538297653 0.34179845452308655
-0.06372348219156265 0.002148013561964035 -0.09884506464004517
-0.47943413257598877 0.39348921179771423 -0.13789814710617065
-0.11250503361225128 -0.465292364358902 0.16155336797237396
0.08554571121931076 0.0021383967250585556 -0.38094931840896606
-0.3015109896659851 0.00011740997433662415 -0.3152405023574829
0.5762141346931458 0.3705761730670929 0.2496524155139923
0.11710384488105774 -0.1158849373459816 0.3184150159358978
0.38445723056793213 -0.3497411608695984 -0.21455435454845428
-0.4296744465827942 -0.001203398685902357 0.2910851240158081
-0.47717374563217163 0.11483775079250336 0.34023645520210266
0.18053920567035675 0.0016997670754790306 -0.30561476945877075
-0.2680651843547821 0.2457089126110077 -0.40251484513282776
0.29603809118270874 -0.6240213513374329 -0.0961451530456543
-0.3353502154350281 0.4001877009868622 0.3077608644962311
0.42798754572868347 0.4015241861343384 0.11881949752569199
-0.05493495613336563 0.00014069490134716034 -0.23686574399471283
-0.20407634973526 -0.07692701369524002 -0.18321236968040466
0.1559659242630005 -0.6062461137771606 -0.3092157244682312
-0.5830275416374207 0.24158571660518646 -0.07773407548666
-0.3803066909313202 0.014390009455382824 0.33613550662994385
0.3216835558414459 -0.518644392490387 -0.21485348045825958
0.39385858178138733 -0.48713958263397217 -0.019057484343647957
-0.23742090165615082 -0.003857855685055256 0.039821162819862366
0.10456627607345581 0.35495585203170776 0.3408982753753662
-0.45847055315971375 0.12156152725219727 0.039808351546525955
0.1866041123867035 -0.5190619826316833 0.2485801726579666
0.40469202399253845 -0.11238405108451843 0.13757793605327606
0.15553931891918182 0.35867851972579956 -0.4036911129951477
-0.20411774516105652 0.0007311170920729637 -0.07308840751647949
-0.47877001762390137 0.4034561216831207 0.19229504466056824
-0.4166307747364044 -0.005218792241066694 -0.3771973252296448
-0.04395176097750664 -0.261587917804718 -0.3356446623802185
-0.017427869141101837 0.40288376808166504 -0.2961297035217285
-0.14543627202510834 0.1444447636604309 -0.4033338725566864
-0.1864207684993744 0.0008889129385352135 -0.20741654932498932
-0.04205331578850746 -0.08120020478963852 0.280286967754364
-0.2742132246494293 0.03729487955570221 -0.39810189604759216
0.04374656453728676 -0.08245866745710373 0.42649802565574646
0.4445919990539551 -0.34494122862815857 0.004276647698134184
0.030200716108083725 0.0004614023491740227 -0.08766086399555206
-0.2810267210006714 0.39819905161857605 0.00410213228315115
-0.07116679847240448 -0.3005760908126831 -0.32832416892051697
-0.1401044875383377 -0.6357958912849426 0.02862527221441269
-0.5716172456741333 -0.007349981926381588 0.22830024361610413
0.036254554986953735 0.24033276736736298 0.34905415773391724
-0.09509605914354324 0.00033268844708800316 0.059997864067554474
0.09362511336803436 -0.24265241622924805 0.3135697543621063
-0.5743198394775391 0.2721562683582306 -0.19518640637397766
0.27566641569137573 -0.6184008717536926 0.019976995885372162
0.04757111147046089 0.0005461610853672028 -0.07823430001735687
0.09237243235111237 -0.6224657297134399 -0.08314108103513718
-0.3900984525680542 0.08236271888017654 0.20396503806114197
0.11443644762039185 0.14665190875530243 0.3449137806892395
0.5788335800170898 0.16784903407096863 0.18067528307437897
0.03215678781270981 0.08283895254135132 -0.40487223863601685
-0.14396575093269348 -0.6481035947799683 -0.17204904556274414
0.4180319011211395 -0.05226663500070572 0.09269360452890396
0.2646617591381073 0.0008844835683703423 -0.25942063331604004
-0.561040461063385 0.07029275596141815 -0.22225049138069153
-0.5783951282501221 0.3094075322151184 -0.08391031622886658
-0.450420081615448 -0.005145995412021875 -0.18749551475048065
-0.133660227060318 -0.4487331807613373 -0.20101776719093323
0.24520373344421387 0.001016668975353241 0.18382945656776428
0.4172409772872925 0.0010723063023760915 0.2375812828540802
0.3458779752254486 0.29308152198791504 -0.40464359521865845
0.0076162563636898994 0.19319015741348267 0.40333712100982666
-0.2378748655319214 -0.3086339831352234 0.04317817836999893
0.2566976249217987 -0.046869806945323944 0.45920616388320923
0.16130264103412628 0.4028567969799042 -0.0407797209918499
0.44589003920555115 0.2169438749551773 0.3422930836677551
-0.12016773223876953 -0.6248343586921692 -0.13529562950134277
-0.4054237902164459 -0.07235970348119736 -0.0876835361123085
-0.30894604325294495 0.019781406968832016 0.3390161395072937
0.2537607252597809 -0.08019034564495087 0.32884058356285095
-0.030532024800777435 0.0019679758697748184 -0.09204299747943878
-0.10659830272197723 -0.2441944181919098 -0.30840733647346497
-0.2262686938047409 -0.05466645956039429 -0.12825770676136017
-0.47823965549468994 0.40505313873291016 -0.12769249081611633
0.37467697262763977 -0.4361530840396881 -0.13687747716903687
0.4813610911369324 0.4021487832069397 -0.036400206387043
-0.4964871108531952 -0.0012324897106736898 -0.39536052942276
0.323648601770401 0.3959568440914154 -0.39826202392578125
0.25961384177207947 -0.03660748153924942 0.4627073407173157
-0.5758509635925293 -0.019308384507894516 -0.09656420350074768
-0.17205767333507538 -0.5163073539733887 0.05318891257047653
0.29315879940986633 -0.6062783002853394 0.18654322624206543
-0.5816548466682434 0.04070555046200752 0.20253795385360718
0.33694565296173096 -0.564623236656189 -0.2024410516023636
0.005809114780277014 0.18730664253234863 -0.40288013219833374
0.4290272295475006 -0.37686511874198914 -0.07160171866416931
0.21003329753875732 0.0012068548239767551 0.1065407320857048
0.5765143036842346 0.18764066696166992 -0.12942782044410706
0.19010137021541595 0.467073529958725 0.3776327967643738
-0.08875849843025208 0.0003121262416243553 0.19655098021030426
-0.2379879653453827 -0.3326515555381775 -0.04528563842177391
0.3607981503009796 0.3991474509239197 -0.20017682015895844
-0.5564531087875366 0.3893732726573944 -0.12249287217855453
0.16416876018047333 -0.6248629093170166 -0.12473297864198685
0.5136139392852783 0.0012399964034557343 0.22795993089675903
0.4311750829219818 0.40123406052589417 0.1929779052734375
0.013356907293200493 0.40078312158584595 -0.0034822679590433836
0.29294028878211975 -0.462164044380188 0.19121301174163818
-0.5769250988960266 0.1210421696305275 0.16354171931743622
-0.07556746155023575 -0.6228622198104858 0.10304492712020874
-0.4604317247867584 0.09435298293828964 -0.10951152443885803
-0.5755617618560791 0.31657344102859497 -0.3958985209465027
-0.3762773871421814 0.03200666606426239 -0.12283127009868622
0.06482645124197006 -0.6212029457092285 0.11780177801847458
0.12256962060928345 0.2005021572113037 0.34397533535957336
0.2706204652786255 -0.6191459894180298 0.07743813842535019
-0.2067953646183014 0.26588329672813416 0.3452569842338562
-0.5072391033172607 0.3952016532421112 -0.012035994790494442
-0.05704570934176445 -0.62945556640625 0.2084418386220932
0.11080137640237808 0.4326237738132477 0.3578643798828125
-0.4059191048145294 0.07244947552680969 0.19662588834762573
0.023004498332738876 0.04939406365156174 0.4356704354286194
0.08454599231481552 -0.4797818660736084 -0.32183367013931274
-0.4712071120738983 0.11557309329509735 -0.30038636922836304
-0.5126394033432007 0.006450958084315062 -0.39860981702804565
0.34986570477485657 -0.0029166769236326218 0.21753999590873718
-0.14098817110061646 -0.5819094181060791 0.11847644299268723
0.1474631279706955 -0.061255622655153275 0.3136500418186188
0.09330807626247406 0.4638265371322632 0.3740590810775757
0.04000590369105339 0.00011802534572780132 -0.3183460235595703
-0.18041883409023285 -0.5212897062301636 -0.003236382268369198
-0.12274486571550369 -0.37536507844924927 0.17403475940227509
-0.09957201033830643 -0.007552694529294968 0.24441120028495789
0.34660646319389343 -0.6291077136993408 -0.18055570125579834
0.28166452050209045 0.46571338176727295 0.423084020614624
0.04029756784439087 -0.636506974697113 -0.2597444951534271
0.162526935338974 0.4641464352607727 0.3671281933784485
0.21539053320884705 -0.4146825671195984 -0.2978619337081909
-0.5751517415046692 0.002625843742862344 -0.27842316031455994
-0.2700555622577667 0.00305730989202857 0.24645590782165527
-0.09990356117486954 0.40086519718170166 0.26458242535591125
0.5765116810798645 0.24653872847557068 -0.09637882560491562
-0.04024663195014 -0.6419474482536316 -0.26790475845336914
0.1754188984632492 0.39036861062049866 0.34124159812927246
-0.1869296133518219 0.39766553044319153 0.32508090138435364
-0.12400183826684952 -0.6496567130088806 0.11001452803611755
-0.5505642890930176 -0.07286833226680756 0.16008058190345764
-0.1854739487171173 -0.2703412175178528 -0.2043662667274475
-0.08952918648719788 -0.0035983482375741005 0.2570454478263855
0.21366477012634277 0.0006250254809856415 0.05312219634652138
-0.01674269698560238 -0.6163595914840698 0.07200765609741211
-0.49222415685653687 0.0010253190994262695 0.1341962069272995
-0.08165077865123749 -0.005058868322521448 0.24621479213237762
-0.409082293510437 -0.07292724400758743 -0.05022071674466133
-0.1811976134777069 -0.11574793606996536 -0.22731012105941772
-0.5216966271400452 0.34846749901771545 0.337546169757843
0.2972247004508972 -0.3949741721153259 -0.24405691027641296
-0.18975618481636047 -0.4455012381076813 -0.039831191301345825
0.028456266969442368 0.4004746675491333 0.2870599925518036
0.2915082275867462 -0.6230776309967041 -0.11234370619058609
0.003648849204182625 -0.5215235948562622 0.24104376137256622
-0.28787821531295776 0.3578442931175232 -0.40136030316352844
0.014241877011954784 0.25858157873153687 0.34854525327682495
-0.4542643427848816 -0.11270257085561752 -0.08043201267719269
0.2804427146911621 -0.4952915608882904 -0.2566576302051544
-0.31848618388175964 0.2758067846298218 -0.40246090292930603
-0.15410475432872772 -0.5046437382698059 0.09987304359674454
-0.4424736797809601 0.02566496655344963 0.34563934803009033
0.49628522992134094 0.0004964730469509959 0.06792199611663818
-0.1340281367301941 -0.31386077404022217 -0.2836865484714508
0.16231054067611694 0.3965640068054199 0.27499741315841675
0.5326029062271118 0.0019095418974757195 0.09848368167877197
-0.3360183835029602 0.11031290143728256 0.3411540985107422
-0.13078710436820984 -0.3016132414340973 -0.2911977171897888
-0.112926185131073 -0.4070990979671478 0.1564275026321411
0.14097759127616882 0.04521609842777252 0.34277644753456116
-0.36994320154190063 0.05757855623960495 0.10336776077747345
0.04347885772585869 -0.07388561964035034 -0.3725312352180481
-0.22445489466190338 0.39474740624427795 -0.12170159071683884
0.11283699423074722 0.37186089158058167 0.34092435240745544
-0.37996765971183777 -0.06524810194969177 -0.13719721138477325
0.4053291082382202 -0.3358789086341858 0.13475999236106873
0.5237011909484863 0.13742861151695251 -0.4059706926345825
-0.19812336564064026 0.4043774902820587 0.22631116211414337
-0.5834770202636719 0.1865675300359726 0.004816083237528801
0.5780742168426514 0.1427093893289566 -0.3043506145477295
0.4625937044620514 -0.0011632915120571852 0.00596613809466362
0.24501338601112366 0.0034809615463018417 0.24506953358650208
-0.1749734729528427 -0.44410520792007446 0.05422172695398331
0.43025583028793335 -0.0006002425216138363 -0.15481026470661163
-0.4238113462924957 -0.08981582522392273 0.29564836621284485
0.5822554230690002 0.2520895004272461 0.3025358021259308
0.2335677444934845 0.4645344316959381 0.4383697509765625
-0.5813454389572144 0.11122474074363708 0.18713228404521942
0.4759543836116791 0.34031349420547485 -0.4059184789657593
-0.323901504278183 0.37483835220336914 -0.40042969584465027
-0.23968207836151123 0.012370586395263672 -0.39802372455596924
0.5643900036811829 0.003924250602722168 -0.07362330704927444
0.577072024345398 0.24753281474113464 0.08798392862081528
-0.322248250246048 0.40433719754219055 -0.12655726075172424
0.2373281866312027 0.4016481339931488 -0.26845166087150574
0.3549525737762451 0.34245458245277405 -0.4057078957557678
0.5648869872093201 0.39141926169395447 0.047713059931993484
0.36029675602912903 0.001209246926009655 0.052903931587934494
-0.21001805365085602 0.00015542283654212952 -0.02831442281603813
-0.5394752621650696 0.0022826706990599632 -0.21246986091136932
-0.3877061605453491 0.004659767262637615 -0.3966575562953949
-0.03635676950216293 0.0009525511413812637 0.06220044568181038
-0.44694575667381287 -0.09468156844377518 0.2052954137325287
0.13189154863357544 -0.0033815791830420494 0.3227830231189728
0.17682954668998718 0.0007298234850168228 0.03516852855682373
-0.23693451285362244 -0.19716201722621918 -0.02363133616745472
0.2425805777311325 0.4045729637145996 0.44585543870925903
-0.5831384062767029 0.31315115094184875 0.0012843990698456764
-0.5731499195098877 0.3551884591579437 0.15431800484657288
0.20391148328781128 0.30509042739868164 0.3429447412490845
0.24801073968410492 -0.6195336580276489 -0.17571388185024261
-0.42659491300582886 -0.003695561084896326 -0.21048496663570404
-0.1712133288383484 -0.0006722528487443924 -0.26018354296684265
0.3959283232688904 -0.2712813913822174 0.1438181847333908
-0.26078107953071594 0.0014818492345511913 -0.30387651920318604
0.013517693616449833 -0.00023421598598361015 -0.02704714611172676
0.3055364191532135 0.39735162258148193 0.4513257145881653
0.06550509482622147 -0.09867682307958603 -0.3741878867149353
-0.3637846112251282 -0.01090356893837452 0.2972935736179352
-0.5538333654403687 0.09276020526885986 0.33765923976898193
0.022841239348053932 0.0003786798333749175 0.2014109194278717
0.5571807026863098 0.40112951397895813 0.14159047603607178
0.1299477219581604 0.0014709187671542168 0.12429928779602051
-0.3890041410923004 0.054792746901512146 -0.282266765832901
