0.23592256009578705 0.0021589379757642746 0.19222742319107056
0.08014388382434845 0.18643496930599213 -0.40292811393737793
0.423348069190979 -0.17228925228118896 -0.17275620996952057
0.48429059982299805 0.40579861402511597 -0.24768884479999542
-0.5847930908203125 0.2900547385215759 -0.16224603354930878
-0.28333818912506104 0.4000583589076996 -0.1829405426979065
-0.0950043573975563 -0.6220142841339111 0.025462286546826363
0.513554036617279 0.060752883553504944 -0.40439721941947937
0.15927551686763763 0.4055054485797882 0.4604218304157257
-0.09199788421392441 0.0002616697456687689 -0.1548868864774704
0.1613674759864807 -0.6566590666770935 -0.3012634217739105
0.40328821539878845 0.007147584110498428 -0.4000033140182495
0.4278186857700348 -0.2922823429107666 0.10837904363870621
-0.42805272340774536 0.37650248408317566 0.34645920991897583
0.3571765720844269 -0.012731457129120827 0.20879197120666504
0.1358782947063446 6.161723285913467e-05 -0.07228860259056091
0.10128326714038849 0.40019920468330383 0.09478599578142166
0.2503967583179474 0.2131451666355133 -0.40491175651550293
-0.5741074085235596 0.34479281306266785 0.035653043538331985
0.17133843898773193 0.40303725004196167 -0.30785492062568665
-0.5169919729232788 0.05088644474744797 0.35135024785995483
0.3145182132720947 -0.4699794352054596 -0.23968735337257385
-0.221021831035614 0.400175005197525 0.31374219059944153
-0.14229512214660645 0.3847489356994629 0.3438607156276703
0.09351902455091476 -0.6220256090164185 0.17528609931468964
-0.5159125328063965 -0.0932147353887558 -0.37611913681030273
0.3718684911727905 -0.40462443232536316 0.10169564932584763
-0.14330317080020905 -0.5436655879020691 -0.19493940472602844
0.19037429988384247 -0.08144813776016235 0.3683059811592102
-0.033852364867925644 0.0002060053520835936 0.1295807808637619
0.38820281624794006 0.0017927810549736023 0.10856943577528
0.186377614736557 -0.6235833764076233 -0.005702773574739695
0.16783547401428223 0.0010460158810019493 0.2901231646537781
-0.5689570307731628 0.3839185833930969 0.08327285200357437
0.21509665250778198 0.4721953868865967 0.42097559571266174
0.29460230469703674 0.04750009998679161 0.3469153046607971
-0.04114820808172226 0.12546588480472565 0.3471888303756714
0.019437264651060104 -0.0014816485345363617 0.0646129623055458
-0.5096870064735413 0.10362418740987778 0.23583845794200897
0.11541324853897095 -0.023133037611842155 0.31969529390335083
-0.5672801733016968 0.38586151599884033 -0.12621347606182098
-0.4266121983528137 0.11127594113349915 -0.3189633786678314
-0.5722077488899231 0.222625732421875 -0.37294918298721313
-0.04928981512784958 0.2806191146373749 0.34866559505462646
-0.1693585067987442 -0.6485627889633179 -0.11576107144355774
-0.39865732192993164 0.4070635437965393 0.2998521625995636
0.01062561385333538 0.07089964300394058 0.34699365496635437
0.3897964060306549 0.4039776027202606 -0.053898006677627563
0.24853676557540894 -0.5980097651481628 -0.2711433470249176
0.28251391649246216 0.2487528771162033 0.3459804356098175
0.012437606230378151 -0.6222589612007141 0.02396664395928383
0.2121901959180832 -0.6216363906860352 -0.127507746219635
0.1465955525636673 -0.4718458354473114 0.2534283399581909
-0.5676611661911011 -0.05254616215825081 0.13816170394420624
0.14580826461315155 -0.5642099380493164 -0.30757200717926025
0.03497998043894768 -0.13341374695301056 -0.3631713390350342
0.028695693239569664 -0.029062572866678238 0.317771315574646
0.5673835873603821 0.19097068905830383 -0.3714545667171478
0.582469642162323 0.2418319582939148 0.17715229094028473
-0.4655980169773102 0.10053316503763199 -0.16781720519065857
0.021839283406734467 -0.0003409949131309986 -0.19932590425014496
-0.5047351121902466 -0.008916029706597328 -0.3381204307079315
0.0688684806227684 -0.07903365790843964 0.33249732851982117
-0.37960052490234375 0.2306004762649536 -0.40538445115089417
0.22572682797908783 -0.3749350309371948 -0.3462788164615631
0.4316706955432892 0.4008038341999054 0.2675135135650635
0.4014337360858917 -0.30187952518463135 0.1318959891796112
0.4245607852935791 0.0023233452811837196 -0.2293403148651123
-0.2176520824432373 -0.38197842240333557 -0.03653430938720703
0.13529378175735474 -0.6479611992835999 -0.2664342522621155
-0.5650700926780701 -0.02205466851592064 0.08965548127889633
0.30095964670181274 0.4019428789615631 0.167509987950325
0.2010701298713684 -0.4130934774875641 0.23778358101844788
0.13400804996490479 0.40173837542533875 0.1687391698360443
0.5065491199493408 0.37396642565727234 0.34465545415878296
-0.016275497153401375 0.39682602882385254 -0.30533039569854736
0.5792277455329895 0.03083983063697815 -0.3969740569591522
0.5523196458816528 0.40451720356941223 -0.2744598686695099
-0.11043810099363327 -0.44544392824172974 -0.22429735958576202
0.001338922418653965 -0.24769216775894165 -0.3636220097541809
-0.14040254056453705 -0.4183129370212555 0.14183588325977325
0.37465113401412964 -0.031046465039253235 0.18276706337928772
0.14947347342967987 -0.6210613250732422 0.06593336910009384
-0.39972972869873047 0.004391475114971399 -0.3985207974910736
-0.0052860938012599945 -0.6276061534881592 -0.14350366592407227
-0.08917064964771271 0.2570604383945465 0.36617422103881836
-0.5606359839439392 -0.03291173651814461 0.08593490719795227
-0.27300718426704407 0.0009705554693937302 -0.28055527806282043
0.012956572696566582 0.22197528183460236 -0.402768075466156
-0.38490572571754456 -0.053452376276254654 -0.28957048058509827
-0.5890616178512573 0.20915021002292633 0.15665745735168457
-0.07179802656173706 -0.6240644454956055 0.09260959923267365
0.4003506004810333 -0.4793904423713684 0.013982043601572514
-0.036504440009593964 0.4051123559474945 -0.05217486619949341
0.23499542474746704 0.3958437442779541 -0.400330126285553
-0.20861296355724335 -0.37343108654022217 0.07639992982149124
0.37896728515625 -0.0012729642912745476 0.05900342017412186
0.43367865681648254 0.4049914479255676 0.0846121534705162
0.11589279770851135 -0.6243810653686523 0.18688946962356567
-0.5573408603668213 -0.08099956810474396 0.12684419751167297
0.36525705456733704 -0.0587276928126812 0.19376389682292938
0.2505992352962494 0.42586106061935425 0.45573052763938904
-0.3760600984096527 0.026468636468052864 0.09072889387607574
-0.5136589407920837 0.2520068287849426 -0.40324315428733826
-0.4702761471271515 0.11983009427785873 0.3469887971878052
-0.5144990682601929 -0.11577080935239792 -0.12307878583669662
0.02192912995815277 0.22617818415164948 0.4410392642021179
-0.08053403347730637 8.160481229424477e-06 0.07298408448696136
0.3915460705757141 -0.16377097368240356 0.1462177038192749
0.4912121295928955 0.0034637863282114267 0.2513587176799774
-0.02048497647047043 -0.6220225691795349 0.14117997884750366
0.3050420880317688 -0.35943517088890076 0.250792920589447
0.577852725982666 0.1329445242881775 0.037267278879880905
-0.18501202762126923 -0.4956740140914917 -0.11827092617750168
-0.19255852699279785 -0.011170702055096626 0.12702585756778717
0.05030892416834831 -0.0001935274340212345 0.07896794378757477
0.0032077282667160034 0.001015211921185255 -0.003950577229261398
0.032630305737257004 -0.40835580229759216 -0.3116910755634308
0.2889326512813568 0.4036429524421692 -0.20905956625938416
-0.5472738742828369 -0.08067949116230011 -0.3833993375301361
-0.11635935306549072 0.2679157853126526 -0.40100228786468506
-9.855844837147743e-06 0.257418155670166 0.3489338159561157
-0.5139815807342529 -0.09585538506507874 0.12328910827636719
-0.5459503531455994 0.15873901546001434 -0.4031808376312256
0.3848235309123993 -0.09876056760549545 0.17562417685985565
0.42892077565193176 0.00017848331481218338 0.06812811642885208
0.25701653957366943 0.40194979310035706 0.2074694037437439
0.20636548101902008 0.0010112882591784 -0.11121764779090881
0.38113850355148315 -0.310946524143219 -0.2459844946861267
0.18131880462169647 0.19673679769039154 0.4696922302246094
-0.3779240548610687 -0.0033508557826280594 0.2081908881664276
-0.17820501327514648 -0.6376882195472717 -0.022115984931588173
0.3069384694099426 0.0008349958807229996 -0.2523442506790161
0.2919216752052307 -0.6540190577507019 -0.21615999937057495
0.18258927762508392 0.0018946528434753418 0.167173370718956
0.11444590985774994 0.47154152393341064 0.3783290684223175
0.15448687970638275 0.16250823438167572 -0.4036811292171478
0.23595885932445526 -0.3790486752986908 0.27474597096443176
0.3312569856643677 -0.0004307124763727188 -0.10993058979511261
-0.013481691479682922 -0.12232549488544464 -0.3587576746940613
-0.3330674171447754 0.40591952204704285 -0.3519290089607239
0.19202806055545807 -0.3789478838443756 0.2623220682144165
0.30844855308532715 0.28014299273490906 0.34621456265449524
0.5840708017349243 0.22373203933238983 -0.09117865562438965
-0.36065977811813354 -0.0006405492313206196 -0.2612253427505493
-0.5793167352676392 -0.028677118942141533 0.029849834740161896
-0.1761513203382492 -0.40970954298973083 -0.15554989874362946
0.4220673739910126 -0.0017618080601096153 -0.1942034810781479
0.2765827775001526 -0.07110998779535294 0.45424172282218933
0.2690592110157013 0.05967176705598831 0.4604550898075104
0.3822718858718872 -0.44253137707710266 0.09231816232204437
-0.5620718598365784 0.28597292304039 0.34226253628730774
0.3098208010196686 0.36817559599876404 0.4566579759120941
-0.3695735037326813 -0.0031309486366808414 -0.3698655664920807
0.5775642395019531 0.20591245591640472 -0.19439642131328583
0.04903688654303551 0.40209028124809265 0.3087630569934845
-0.18984024226665497 -0.3785609006881714 -0.17184661328792572
0.5042862296104431 0.00032247230410575867 -0.030693143606185913
-0.5893939137458801 0.2519787847995758 -0.18933972716331482
-0.397721529006958 -0.08637227863073349 0.32060015201568604
-0.4848004877567291 0.10328402370214462 -0.03993726521730423
0.41485610604286194 0.40509358048439026 0.06336706876754761
-0.5754486322402954 0.21539707481861115 -0.17920267581939697
-0.12499237805604935 0.3970578610897064 -0.15426823496818542
-0.573871910572052 -0.033517830073833466 -0.2056427299976349
-0.14383304119110107 0.002651352435350418 0.13105303049087524
0.361979216337204 0.08311476558446884 0.34568676352500916
-0.09362390637397766 0.4039768576622009 -0.31633228063583374
0.5850812196731567 0.3789742588996887 -0.1078701838850975
0.1974252313375473 0.4582023024559021 0.3654487431049347
-0.3560411036014557 0.4047187864780426 -0.3795507550239563
0.039773259311914444 0.1264355480670929 0.3502826988697052
0.3885223865509033 0.04624292999505997 0.3471262753009796
-0.39518678188323975 0.06975612789392471 -0.24979554116725922
0.22313405573368073 0.00016163941472768784 -0.35546091198921204
0.34837454557418823 -0.26516249775886536 0.2235080450773239
-0.2848653197288513 0.4030349850654602 0.2461068481206894
-0.499035120010376 -0.10532234609127045 0.026738669723272324
-0.45515984296798706 -0.11062764376401901 0.1563817262649536
0.15734370052814484 -0.0018644658848643303 0.015854939818382263
-0.10214251279830933 -0.49932849407196045 -0.24235469102859497
0.06884099543094635 -0.6221079230308533 0.1131894588470459
0.3792511820793152 -0.3476041555404663 0.18450959026813507
-0.5881626009941101 0.2751161456108093 -0.25121042132377625
0.11687451601028442 -0.4740435481071472 -0.31200674176216125
0.4203070104122162 -0.3453376889228821 0.1145351380109787
-0.2553480863571167 0.23157468438148499 0.3408959209918976
0.21688257157802582 -0.6175901293754578 -0.10707598179578781
-0.02471301704645157 -0.139625683426857 -0.34575995802879333
-0.43917375802993774 0.0023516372311860323 -0.1856059432029724
-0.5799736976623535 -0.031823039054870605 0.20809750258922577
-0.5657504200935364 0.07204251736402512 0.01695559360086918
-0.04184335097670555 0.40494075417518616 -0.014114522375166416
-0.36122334003448486 -0.007894812151789665 0.19603107869625092
-0.02899102307856083 0.032449670135974884 0.34602001309394836
0.5765484571456909 0.14789418876171112 -0.26744821667671204
-0.3735581934452057 -0.005215714685618877 -0.28253331780433655
0.08426268398761749 -0.007983793504536152 0.32073795795440674
-0.17218391597270966 -0.5303795337677002 0.08012843132019043
-0.5837437510490417 0.2659676671028137 -0.1776178479194641
0.13893894851207733 -0.47094449400901794 -0.32255837321281433
0.4423987567424774 0.0001379251480102539 0.3151651620864868
0.0441095344722271 -0.6274862885475159 0.19065649807453156
-0.07306037098169327 -0.6245782971382141 0.04541864991188049
0.5731809735298157 0.007717536762356758 0.09979572892189026
0.20158135890960693 -0.0755639597773552 0.42116206884384155
-0.0018076908309012651 0.04478442296385765 0.3470166325569153
-0.137212872505188 -0.3346041142940521 -0.28327855467796326
0.5369840264320374 0.36870867013931274 -0.4065815806388855
0.5751811861991882 0.013237151317298412 -0.08172416687011719
0.28484970331192017 0.003198046237230301 -0.11353036016225815
0.40355393290519714 -0.3766576647758484 -0.13793423771858215
-0.5793034434318542 0.3091101348400116 0.2851863205432892
0.16019128262996674 0.18770764768123627 0.34350448846817017
0.3696780800819397 -0.4559801518917084 -0.15630801022052765
-0.40490055084228516 0.07386723905801773 -0.4024726152420044
0.5684924721717834 0.12962041795253754 0.19351807236671448
-0.08208898454904556 -0.6296911835670471 -0.24555496871471405
-0.035884544253349304 -0.4413965344429016 0.2299833446741104
-0.04133380576968193 0.17394879460334778 0.38641634583473206
0.5799389481544495 0.19940446317195892 -0.39866143465042114
0.2650564908981323 -0.6494225859642029 0.17382213473320007
0.10981312394142151 0.00011937925592064857 0.13885921239852905
0.27369123697280884 -0.36123380064964294 0.2746524214744568
-0.32522913813591003 0.24107219278812408 0.3462221622467041
-0.15328209102153778 -0.39307013154029846 0.1135227233171463
0.14824438095092773 -0.029024271294474602 0.3161905109882355
0.20691438019275665 -0.0014537989627569914 0.31672558188438416
0.04641501605510712 0.08482028543949127 0.34629860520362854
0.1755710244178772 -0.6269965171813965 -0.20770788192749023
0.1283298283815384 0.4039214849472046 0.30125802755355835
0.3145083785057068 0.39822426438331604 0.15051274001598358
-0.5880619287490845 0.006923730950802565 -0.35796982049942017
-0.048800159245729446 0.010476086288690567 -0.40166133642196655
0.12221851199865341 -0.2709472179412842 0.31767186522483826
-0.2550502419471741 0.39811980724334717 -0.08399216830730438
0.4365003705024719 -0.2686684727668762 0.01149644423276186
0.30284667015075684 -0.016737882047891617 -0.3234729766845703
0.14532102644443512 -0.6439999938011169 0.24712872505187988
0.038884781301021576 -0.5032954216003418 -0.3131123185157776
-0.5107882022857666 0.39514756202697754 -0.0278247632086277
0.05461085960268974 -0.09169968217611313 -0.37830260396003723
-0.3816169202327728 0.02084588259458542 -0.1915023773908615
0.21276219189167023 0.0019379924051463604 0.13189569115638733
0.2522343397140503 -0.6252126693725586 -0.18411006033420563
-0.5690997838973999 0.0034053903073072433 0.07246799767017365
-0.44827166199684143 0.20214012265205383 0.34230437874794006
-0.2996543049812317 0.4075131416320801 0.07882097363471985
-0.08816083520650864 0.16133902966976166 0.3664654791355133
0.3594844341278076 0.001009204424917698 0.18681097030639648
0.47205525636672974 0.2702808678150177 0.3412659466266632
0.3349359333515167 0.31531548500061035 -0.4009801745414734
0.5036022067070007 0.2604994773864746 0.34654170274734497
0.11057382076978683 -0.5731943845748901 -0.31951209902763367
0.06579788774251938 0.0009216361213475466 -0.16013993322849274
0.33463501930236816 -0.585759699344635 -0.18912695348262787
0.0984286442399025 -0.41884395480155945 0.2574947476387024
0.190100759267807 -0.6382550597190857 -0.317481130361557
-0.478949636220932 0.3654373288154602 0.005756331142038107
-0.5665372610092163 0.039350174367427826 -0.35985466837882996
0.5687825679779053 0.2029309719800949 0.2914566993713379
-0.5871798396110535 0.01983005180954933 0.2981545925140381
-0.026887189596891403 0.0023037977516651154 0.07772520929574966
0.03273748606443405 -0.543647289276123 -0.3132771849632263
-0.5434532761573792 -0.09504923224449158 0.1315244436264038
0.09018386155366898 0.4237118661403656 0.3570355176925659
0.5824816226959229 0.3006415069103241 0.2586074769496918
-0.2987593412399292 0.40597525238990784 0.2687925696372986
0.1735861599445343 -0.07299679517745972 0.3198545277118683
-0.2166726142168045 -0.0005690436810255051 -0.002614344470202923
-0.0715532973408699 -0.487101286649704 0.20724889636039734
-0.43122598528862 0.33688750863075256 0.03707699477672577
0.2959563136100769 -0.6396315693855286 0.13610844314098358
-0.012678472325205803 0.403815358877182 0.025540368631482124
-0.44962242245674133 0.40083974599838257 0.026800306513905525
-0.03386622667312622 -0.37319138646125793 0.27264103293418884
0.49104470014572144 0.38156938552856445 -0.4051581919193268
-0.5874307155609131 0.1019291952252388 -0.21481120586395264
-0.13621482253074646 0.002713371068239212 -0.07410378009080887
0.09984280169010162 -0.3024972379207611 0.31807810068130493
0.5808385014533997 0.043050073087215424 0.25849759578704834
0.26142749190330505 -0.006171576213091612 0.28622472286224365
0.48407086730003357 0.28337669372558594 -0.4067750573158264
-0.4079962968826294 0.024838333949446678 0.349141925573349
0.436204195022583 -0.11872106045484543 -0.16096530854701996
0.5867114663124084 0.2384677529335022 0.2017393261194229
-0.38432180881500244 0.4101236164569855 -0.14223739504814148
-0.13321933150291443 -0.17960768938064575 -0.29052335023880005
0.042509064078330994 0.40106597542762756 -0.0397452637553215
-0.5848276019096375 0.04027425870299339 -0.042187608778476715
0.28960782289505005 0.17056110501289368 0.46699103713035583
-0.5765166878700256 0.29572075605392456 0.34271880984306335
-0.3931790888309479 0.004485145211219788 -0.27958858013153076
0.056750889867544174 -0.39065980911254883 0.2620649039745331
0.5064098238945007 0.0034691127948462963 0.29522690176963806
0.21146251261234283 0.40455812215805054 -0.3071436285972595
-0.3447205424308777 0.3974262773990631 -0.22563950717449188
0.5144967436790466 0.004830857738852501 0.05658048763871193
0.028942465782165527 0.25068363547325134 0.364050954580307
-0.44609344005584717 0.11514687538146973 -0.2583450973033905
0.4061705768108368 0.13203084468841553 -0.40514978766441345
-0.36658477783203125 0.3279151916503906 -0.4037516117095947
0.272792786359787 0.039312854409217834 0.34722548723220825
-0.37222549319267273 0.06795323640108109 -0.2788894474506378
0.2725188434123993 -0.003924165852367878 -0.3604176938533783
0.5830723643302917 0.270144522190094 -0.09885834157466888
0.4998490512371063 0.40169432759284973 0.30108463764190674
-0.09089257568120956 -0.00010369345545768738 0.041819050908088684
0.30227139592170715 0.003717383835464716 -0.3911568224430084
-0.3841557502746582 0.04181303828954697 -0.358564168214798
0.3974391520023346 -0.003935780376195908 -0.19167132675647736
-0.5835957527160645 0.10016484558582306 -0.35746821761131287
-0.5775910019874573 -0.0025931880809366703 0.1829967200756073
0.44928571581840515 0.3981849253177643 -0.27495163679122925
-0.3205016255378723 0.002958140801638365 0.06668458878993988
-0.33232030272483826 0.4073053300380707 0.10002416372299194
0.06309600919485092 -0.00029620807617902756 -0.11947377026081085
0.5866032242774963 0.26932021975517273 -0.2733597457408905
0.14622189104557037 -0.6207050085067749 0.12711048126220703
-0.4009263217449188 0.24716755747795105 0.34273761510849
0.3104156255722046 0.33295825123786926 0.39471107721328735
-0.42781710624694824 -0.08079470694065094 0.1152539998292923
0.5931586027145386 0.20226070284843445 -0.26816192269325256
-0.5814428925514221 0.005233675707131624 0.2661672830581665
-0.3766418397426605 0.2190394103527069 0.3457152247428894
0.5769038200378418 0.06070386618375778 -0.07148516923189163
0.5396849513053894 0.39904290437698364 -0.29175418615341187
0.3207291066646576 0.1089196726679802 -0.4045334756374359
0.33865246176719666 -0.4286421239376068 0.14846257865428925
0.28301429748535156 -0.05441829562187195 -0.32955101132392883
0.07657217979431152 -0.23561027646064758 -0.3811110258102417
-0.5223239064216614 0.00631999596953392 0.2205793857574463
-0.2961007356643677 0.16839483380317688 -0.40463611483573914
0.22642488777637482 -0.5249762535095215 -0.2827128469944
0.012050711549818516 -0.3713538348674774 -0.35445159673690796
-0.2507854700088501 -0.1730871945619583 -0.02937006577849388
0.0012778362724930048 0.0015533436089754105 -0.29348698258399963
-0.29384827613830566 0.40583091974258423 0.05934842675924301
0.5923090577125549 0.0926150530576706 0.14958542585372925
0.5728175044059753 0.01927349716424942 0.1256207674741745
0.2887764871120453 0.44880178570747375 0.3647410571575165
0.19842076301574707 0.0011699032038450241 0.18513385951519012
-0.033646099269390106 -0.034895747900009155 0.2770366370677948
0.0018411437049508095 0.40497052669525146 -0.06823627650737762
0.34201088547706604 0.4044034779071808 -0.28439345955848694
0.1930307149887085 0.0009508049115538597 0.2509661614894867
-0.37305697798728943 0.05702191963791847 0.3424919843673706
-0.19495654106140137 0.009930112399160862 -0.39662420749664307
0.18364714086055756 0.0028138356283307076 0.10344528406858444
-0.24473904073238373 -0.353672057390213 -0.060799214988946915
0.0697592943906784 -0.623945951461792 0.19231349229812622
-0.3319263160228729 0.4083706736564636 0.1276208907365799
-0.36478257179260254 -0.02317260392010212 0.1900913268327713
0.1119367703795433 -0.6249606013298035 0.2137824445962906
-0.5892838835716248 0.1542840600013733 0.2145095020532608
-0.2209162414073944 -0.20577746629714966 0.10757207125425339
-0.4802856743335724 0.39896059036254883 -0.10862721502780914
-0.5308083295822144 -0.07974451780319214 0.13329237699508667
0.20145276188850403 0.4041522443294525 -0.15685132145881653
0.5873347520828247 0.35887184739112854 0.25340795516967773
-0.5608495473861694 0.0047317747958004475 -0.25035443902015686
-0.4353192150592804 0.3623860478401184 -0.18782168626785278
0.004280074965208769 0.3987849950790405 -0.10750238597393036
-0.03490445762872696 -0.5679669380187988 0.23461410403251648
-0.49994757771492004 0.10205867886543274 -0.21996916830539703
0.5651046633720398 0.1308269202709198 -0.40169546008110046
0.5510847568511963 0.40319061279296875 -0.1554432064294815
-0.11333461105823517 0.2136533409357071 0.3475342392921448
0.24058645963668823 0.20407117903232574 0.46929094195365906
0.4508191645145416 -0.16712890565395355 0.000999755458906293
-0.18637031316757202 0.40177807211875916 0.32328733801841736
-0.5774019956588745 0.034373581409454346 0.33273956179618835
0.12050899118185043 0.405033141374588 0.22720521688461304
0.3110794723033905 0.00039568747160956264 0.29611244797706604
0.011673289351165295 0.05735892057418823 0.388548344373703
-0.4928581416606903 0.11193748563528061 -0.3129032254219055
0.3389695882797241 0.293713241815567 0.3458099663257599
-0.37690529227256775 0.044886790215969086 0.06163010001182556
-0.18150407075881958 -0.3678659498691559 -0.22406013309955597
-0.35101085901260376 0.38863882422447205 0.027829928323626518
0.57305908203125 0.01878800243139267 0.09729300439357758
0.40759018063545227 0.0009406775934621692 -0.020227685570716858
0.573084831237793 0.06586531549692154 0.05424093082547188
0.33456408977508545 0.002037743106484413 0.014832931570708752
-0.588671088218689 0.30605098605155945 -0.2915920615196228
0.5092276930809021 0.16915014386177063 -0.4061134457588196
0.48981496691703796 -0.0005995417013764381 0.30596601963043213
-0.3532954752445221 0.06058255583047867 0.34100449085235596
0.11421553790569305 0.4143306016921997 0.45631569623947144
0.43938305974006653 -0.37814876437187195 -0.07309316098690033
0.3149106204509735 0.0004126327112317085 -0.2716284394264221
-0.404245525598526 0.041488226503133774 -0.40158534049987793
0.4273304343223572 -0.2850398123264313 0.10049505531787872
0.36124297976493835 -0.0019863778725266457 0.08836310356855392
-0.5836836695671082 0.20658771693706512 0.02594100683927536
0.38452860713005066 -0.3896520435810089 -0.23168471455574036
0.2228040099143982 0.0010690833441913128 0.010871597565710545
-0.5713178515434265 -0.029394449666142464 -0.15791520476341248
-0.0788884237408638 -0.6143320202827454 -0.10691583156585693
-0.34070155024528503 0.003909300547093153 -0.028369508683681488
0.2718167006969452 0.0014067329466342926 0.23225179314613342
0.31385374069213867 0.017644936218857765 0.43346190452575684
-0.20003683865070343 0.2961658835411072 -0.40413880348205566
0.33784183859825134 -0.17950084805488586 -0.30363860726356506
-0.18418656289577484 -0.5270471572875977 0.04486750066280365
0.09753123670816422 -0.5765149593353271 0.2676471173763275
0.44573330879211426 -9.83276404440403e-05 0.19180996716022491
0.35466092824935913 0.0028757369145751 -0.09757955372333527
0.36684781312942505 -0.4739569425582886 -0.1537553071975708
0.1449708193540573 0.13242551684379578 -0.4036768078804016
0.35100895166397095 -0.36619797348976135 -0.2551847994327545
0.5811477899551392 0.19016852974891663 -0.1586836576461792
-0.22179989516735077 -0.1003919169306755 -0.12074211239814758
-0.32483309507369995 0.40287238359451294 -0.28260812163352966
0.5386440753936768 0.04810446873307228 -0.39848700165748596
-0.3540918231010437 0.41705915331840515 -0.0951547771692276
-0.10123144835233688 0.0032626166939735413 0.012969233095645905
-0.06872529536485672 -0.0022797230631113052 -0.12537124752998352
0.5543519854545593 0.39996597170829773 -0.1968376785516739
0.03121265396475792 -0.0019702259451150894 0.44299522042274475
-0.42961040139198303 0.0021587247028946877 -0.08636303246021271
-0.2069973200559616 -0.2185065746307373 -0.16642963886260986
0.20132161676883698 -0.14266036450862885 0.30355751514434814
0.039475925266742706 0.24260886013507843 0.45469194650650024
-0.5749735832214355 0.09764871746301651 -0.18293532729148865
-0.5517774224281311 0.00188801484182477 0.34450075030326843
-0.5748488306999207 0.10664171725511551 -0.017202408984303474
-0.09335163235664368 -0.6490018367767334 0.1563885360956192
-0.08698846399784088 0.33041080832481384 0.34502121806144714
0.08932610601186752 -0.0010838406160473824 -0.06083166226744652
-0.0360749214887619 -0.6199014186859131 0.1366342306137085
-0.1211741492152214 0.4049907326698303 -0.018616314977407455
-0.09218750894069672 -0.6529760360717773 -0.22988663613796234
-0.5246796607971191 -0.08563368022441864 -0.3129657804965973
-0.12269856780767441 0.012586482800543308 -0.40072423219680786
-0.09500132501125336 0.00118735758587718 -0.16912224888801575
-0.4303787052631378 0.2707597613334656 -0.4062417149543762
0.25290271639823914 0.4619066119194031 0.3812059760093689
0.3326070010662079 0.3586655855178833 0.3452707827091217
0.18382860720157623 0.0024578054435551167 -0.1137869656085968
-0.3834812045097351 -0.05618586391210556 0.057177361100912094
0.2943257689476013 -0.588081955909729 0.19673064351081848
-0.40311339497566223 -0.004512084648013115 0.03050910122692585
0.10505067557096481 0.39949214458465576 0.009534445591270924
0.2965877652168274 0.12520942091941833 0.46126461029052734
0.2935897409915924 -0.2685100734233856 -0.3092118501663208
0.03772380203008652 0.40580350160598755 -0.32197844982147217
0.20765401422977448 -0.06171656772494316 0.4558750092983246
-0.537320613861084 0.3918856978416443 0.34325364232063293
0.359189510345459 -0.3485426604747772 0.20250138640403748
0.22167137265205383 0.25710946321487427 0.4673481285572052
-0.36216410994529724 -0.0009265723638236523 -0.22058500349521637
0.25395849347114563 0.0016212444752454758 -0.2843552231788635
0.016880087554454803 0.35082218050956726 0.34840714931488037
-0.571308970451355 0.29571807384490967 -0.35996130108833313
-0.5027434825897217 0.06418438255786896 0.3498476445674896
0.42614027857780457 0.00038082688115537167 -0.32775968313217163
-0.1490655541419983 -0.42181169986724854 -0.1949935257434845
-0.566112756729126 0.072066530585289 0.3378952145576477
0.12310674786567688 -0.5161188840866089 0.257436603307724
-0.04720352217555046 -0.02611170895397663 -0.3450566828250885
-0.16959747672080994 -0.5029343366622925 0.029456794261932373
0.02657807432115078 0.00021150801330804825 -0.17394189536571503
0.4013855457305908 -0.39475250244140625 -0.01568000391125679
-0.3025187849998474 0.37663429975509644 -0.14180275797843933
-0.39318475127220154 0.40315505862236023 -0.38237249851226807
-0.5697450637817383 0.376903772354126 0.06556791067123413
-0.40297621488571167 -0.08177422732114792 -0.380435049533844
0.4762479066848755 -0.00043265707790851593 0.09387221187353134
-0.5854823589324951 0.022614458575844765 -0.269387423992157
-0.5711266398429871 0.06383765488862991 -0.354429692029953
-0.15534351766109467 -0.6441717147827148 -0.02218412049114704
-0.35318782925605774 0.01727597787976265 -0.4028578996658325
0.31341737508773804 -0.06787410378456116 0.39781445264816284
-0.47721827030181885 0.0023258556611835957 0.33034631609916687
-0.5876540541648865 -0.004074691329151392 -0.23476015031337738
-0.18740475177764893 -0.5012784004211426 -0.08538912981748581
-0.4352361559867859 0.1989753097295761 0.34531643986701965
0.17165222764015198 0.40508538484573364 0.1957932561635971
-0.09747619926929474 -0.47764500975608826 0.19080956280231476
0.2553735673427582 0.003160945139825344 -0.05440865084528923
-0.052850957959890366 -0.16142795979976654 -0.3514578640460968
0.1988985538482666 -0.6222756505012512 -0.04958633333444595
0.05741491541266441 0.3948252201080322 -0.3938881754875183
0.07843872159719467 -0.2700246274471283 0.3185792863368988
0.15167540311813354 0.1574181616306305 0.4650368094444275
-0.35300275683403015 0.010188048705458641 0.3395922780036926
-0.23070372641086578 -0.0020617367699742317 0.04657573252916336
-0.18015477061271667 0.002093689050525427 -0.3683943748474121
0.5752614140510559 0.24101755023002625 0.07126931101083755
0.2122749537229538 0.3548377752304077 0.47036582231521606
-0.4624161720275879 0.10768735408782959 0.09272520244121552
0.5895270109176636 0.04433160275220871 -0.09346476197242737
-0.4744669198989868 0.3974560797214508 0.024897122755646706
0.2129419893026352 -0.6152801513671875 0.09606138616800308
0.17571066319942474 0.4008031189441681 0.07421936839818954
-0.46995463967323303 0.08268590271472931 0.3490103483200073
0.031666386872529984 0.22539100050926208 -0.4050285816192627
-0.11304046213626862 -0.41311830282211304 0.1691814512014389
-0.5773470997810364 -0.03326408937573433 -0.32550501823425293
-0.2816069722175598 0.4030822515487671 -0.26249557733535767
0.5789186358451843 0.1197998970746994 -0.3291129767894745
0.09567588567733765 -0.6203240156173706 0.12460999190807343
0.47682803869247437 -0.0008735940791666508 0.043582484126091
-0.017837191000580788 -0.3851284682750702 0.283061146736145
-0.2589603066444397 0.39539626240730286 -0.17855656147003174
-0.38649672269821167 0.0641879215836525 -0.27987322211265564
0.3749593496322632 -0.424500972032547 0.05932634696364403
0.2188163548707962 0.40352198481559753 -0.24678413569927216
-0.21820226311683655 -0.16255001723766327 -0.13735662400722504
-0.5899491310119629 0.1816783994436264 0.15770141780376434
0.16319921612739563 0.0008203890174627304 -0.21049833297729492
0.26380449533462524 -0.3395422697067261 -0.3473997414112091
0.0320202074944973 0.3965940773487091 0.34537529945373535
-0.204143226146698 -0.20356841385364532 -0.20942048728466034
-0.3576868772506714 0.0602930523455143 0.34289979934692383
0.3272557854652405 -0.6358703374862671 0.1439511626958847
-0.036240797489881516 0.0012689093127846718 0.0380496084690094
0.49544835090637207 -0.000238130334764719 -0.014537062495946884
-0.05644851177930832 -0.0007424717769026756 0.23730485141277313
0.5918872952461243 0.10897570103406906 -0.042521946132183075
-0.011311654932796955 0.40442097187042236 0.048640549182891846
-0.10037806630134583 -0.5341753363609314 0.16904480755329132
0.48247694969177246 -0.0009554727002978325 -0.34458068013191223
-0.12676888704299927 -0.6405744552612305 0.07502567768096924
0.26877111196517944 0.0023209694772958755 -0.22753073275089264
0.12627539038658142 -9.29487869143486e-05 -0.08881675451993942
-0.048444267362356186 0.001120113767683506 -0.03011918067932129
0.5686654448509216 0.030464086681604385 0.24405591189861298
-0.3336475193500519 0.1105174720287323 -0.40035250782966614
-0.21552148461341858 -0.23306208848953247 -0.18921786546707153
0.5252895951271057 0.1020503118634224 0.3412500321865082
0.576714277267456 0.39336344599723816 0.05181301385164261
-0.006988588720560074 -0.05731707811355591 -0.366274356842041
-0.5462368726730347 -0.08411900699138641 0.24216912686824799
0.24313314259052277 0.014453952200710773 0.3348671495914459
-0.1869315803050995 0.0025878120213747025 -0.06824615597724915
-0.572903573513031 0.13659130036830902 -0.06362727284431458
0.22170111536979675 -0.6225244402885437 -0.1548592895269394
-0.0847105011343956 -0.6245072484016418 -0.10864333063364029
-0.19376584887504578 -0.4129907786846161 -0.022155817598104477
-0.45478734374046326 0.11150093376636505 0.019307265058159828
-0.33316051959991455 0.29172736406326294 0.34402894973754883
-0.1262158751487732 -0.0008719936013221741 -0.1717316061258316
0.10732772946357727 -0.2546987533569336 0.3178403973579407
-0.4087609350681305 0.1099056601524353 -0.18807171285152435
0.474161297082901 0.0006120970938354731 -0.13855938613414764
-0.4554007351398468 0.0003124407958239317 0.07596848160028458
-0.4757743775844574 0.02487032115459442 -0.40236249566078186
0.24477516114711761 0.0025880998000502586 -0.1846933513879776
-0.29739242792129517 0.40004202723503113 -0.059586286544799805
-0.25911661982536316 0.0018283901736140251 0.26918670535087585
0.0356157049536705 0.1474827080965042 0.45771825313568115
0.5752801299095154 0.3947221338748932 0.2326497584581375
0.04861888661980629 0.4008031189441681 -0.2915794551372528
-0.4888206124305725 0.378474622964859 0.3447892963886261
0.29562491178512573 0.4020223915576935 0.027879606932401657
-0.06070524454116821 -0.16757287085056305 -0.33644765615463257
-0.4572402834892273 0.3947538435459137 -0.07422801852226257
-0.06351413577795029 0.18537960946559906 0.40579959750175476
-0.44318297505378723 0.00425446592271328 -0.37211793661117554
-0.3912283182144165 0.09449318796396255 -0.30501788854599
0.39152297377586365 -0.09790578484535217 0.16945840418338776
-0.4954444468021393 0.1203841120004654 -0.18281157314777374
0.21835318207740784 0.4039768576622009 0.3442607820034027
-0.5737844705581665 0.005493491422384977 -0.24791255593299866
0.21551795303821564 0.40212002396583557 0.2442386895418167
0.44506317377090454 -0.34198197722435 -0.042190179228782654
-0.28812554478645325 0.3815252482891083 -0.0866447165608406
-0.3444092273712158 0.38781672716140747 0.33737823367118835
0.579796552658081 0.3278360664844513 -0.39952486753463745
-0.12260770797729492 0.0005454637575894594 0.025963623076677322
-0.3133229613304138 0.4043099284172058 0.28400227427482605
-0.544526219367981 -0.07088810950517654 0.2800646722316742
0.21359772980213165 -0.6242631673812866 -0.09941492974758148
-0.21015779674053192 -0.018558509647846222 0.08694557845592499
-0.21102425456047058 -0.12996160984039307 -0.1526663452386856
-0.00906708836555481 -0.26818570494651794 0.3007914125919342
0.07784247398376465 2.3767584934830666e-05 -0.18339267373085022
-0.13756833970546722 0.14105923473834991 -0.4033909738063812
-0.5696651339530945 -0.006016384810209274 -0.35796695947647095
0.2675621807575226 0.19802412390708923 -0.3967761993408203
0.3005969226360321 -0.14727355539798737 -0.32725703716278076
0.23699311912059784 -0.41964849829673767 -0.28118661046028137
-0.15937070548534393 0.009312313050031662 -0.39798444509506226
-0.05688879266381264 0.27028247714042664 0.38822779059410095
-0.457575261592865 0.018052473664283752 -0.39392051100730896
-0.41306090354919434 0.001955254003405571 0.04930252209305763
0.16666412353515625 -0.6184698343276978 -0.0438322015106678
-0.17159909009933472 -0.09812420606613159 -0.24056872725486755
-0.03511323034763336 0.39960283041000366 -0.24514873325824738
-0.041210439056158066 0.2968362867832184 0.34934672713279724
0.042569126933813095 0.04801220819354057 0.34626609086990356
0.2909664809703827 0.4336864948272705 0.4492988586425781
0.023243926465511322 0.40291693806648254 0.2876055836677551
-0.15885746479034424 -0.39318355917930603 0.08784694969654083
-0.3346017599105835 0.4041025936603546 -0.14832478761672974
0.3532315790653229 0.1752682626247406 0.34571024775505066
-0.4676383435726166 0.12123676389455795 -0.044338710606098175
-0.26398783922195435 -0.0002728166291490197 -0.1421787589788437
0.38495177030563354 -0.36893951892852783 -0.17712944746017456
0.2736034095287323 0.22911842167377472 0.46370360255241394
0.1626209318637848 0.06505126506090164 0.470105916261673
-0.1969079226255417 -0.06587474793195724 -0.19884267449378967
0.22055308520793915 0.2357073277235031 0.34228038787841797
-0.314240962266922 0.0025616982020437717 0.22037048637866974
-0.243455171585083 0.40491437911987305 -0.23812133073806763
-0.5788040161132812 0.03733433783054352 -0.05182903632521629
-0.14079810678958893 -0.43449559807777405 0.11379971355199814
-0.04758546128869057 0.0027996767312288284 0.09893724322319031
0.14156252145767212 -0.6249932646751404 0.10098288208246231
0.3650788366794586 -0.5429316759109497 0.10499084740877151
0.3257594704627991 0.06448857486248016 0.3446834981441498
-0.48629987239837646 -0.1224873811006546 -0.17908993363380432
-0.2931976020336151 0.36073410511016846 -0.08389057964086533
0.4997868537902832 0.0066130924969911575 0.23611606657505035
-0.030603745952248573 0.0007347501814365387 -0.24845507740974426
0.04630418121814728 0.10936497151851654 0.46523159742355347
-0.5834376811981201 0.01801309548318386 -0.05737234279513359
-0.5715932846069336 0.03952161595225334 0.17503823339939117
-0.4815705716609955 0.10297232866287231 -0.023990271613001823
0.18497832119464874 0.07499165832996368 0.3465699553489685
-0.413125216960907 0.001322639873251319 -0.13134102523326874
0.4513111710548401 -0.13401320576667786 -0.12072597444057465
0.03980579599738121 -0.030153119936585426 0.4079457223415375
0.11146227270364761 -0.0004902416840195656 -0.31040945649147034
0.10821224749088287 0.002370021305978298 -0.23491787910461426
0.20965290069580078 -0.6182658076286316 0.17992663383483887
-0.5777491927146912 -0.02559090405702591 0.14230549335479736
0.5794979333877563 0.3879154622554779 0.3075903356075287
-0.2964864671230316 0.40923410654067993 0.14132830500602722
-0.3799673318862915 -0.02601790800690651 -0.016219574958086014
-0.425049364566803 0.09657391905784607 -0.10550238192081451
-0.02835814282298088 0.3786672353744507 0.3408127725124359
-0.12787742912769318 -5.767913535237312e-05 -0.26721441745758057
0.2819613814353943 -0.3869880735874176 0.23777468502521515
-0.5866882801055908 0.09396541118621826 -0.06220012530684471
0.3806142807006836 -0.5940795540809631 0.024822071194648743
0.17237243056297302 -0.645952582359314 -0.28746551275253296
0.1346028745174408 0.20862820744514465 -0.4041816294193268
-0.5823305249214172 0.09010946750640869 0.20131947100162506
0.4404001832008362 -0.3262181878089905 -0.07346320897340775
0.02398701384663582 0.13827112317085266 0.457584023475647
-0.0369914285838604 -0.41025009751319885 0.23120126128196716
0.16946002840995789 -0.1826440840959549 0.30669620633125305
-0.2175675481557846 -0.19813062250614166 -0.18862022459506989
0.5776277184486389 0.32314178347587585 -0.17511554062366486
0.1741383820772171 0.32602328062057495 0.4681044816970825
-0.5746827721595764 0.32806164026260376 -0.17396749556064606
0.11856244504451752 -0.3025922477245331 -0.3779577314853668
-0.5755668878555298 0.12268782407045364 -0.31229501962661743
0.13322927057743073 -0.21429358422756195 -0.3795713484287262
0.237043559551239 0.0017493702471256256 0.19063818454742432
-0.3827011287212372 -0.08497888594865799 -0.21884730458259583
0.038682643324136734 -0.6186052560806274 0.00786521378904581
-0.5730578303337097 0.20215286314487457 -0.14927127957344055
0.25928983092308044 0.42634883522987366 0.44960877299308777
0.5789622068405151 0.3202405571937561 -0.2665477693080902
0.5834717750549316 0.2534923553466797 0.01569375768303871
-0.5069355964660645 0.12203015387058258 0.10858627408742905
-0.18022142350673676 -0.5243136286735535 -0.14350052177906036
0.24574226140975952 0.3624380826950073 -0.4058612883090973
-0.08130710572004318 -0.0015917420387268066 0.0720549002289772
0.3673621416091919 -0.0999419242143631 -0.25346478819847107
-0.1836613118648529 -0.6450383067131042 -0.03647878021001816
0.18939568102359772 0.22370979189872742 -0.40501871705055237
0.08127348124980927 0.24537977576255798 0.46508538722991943
-0.5724080204963684 -0.02456725388765335 -0.3991415798664093
-0.004104483872652054 -0.6288062930107117 0.19229471683502197
-0.449545294046402 0.0029453407041728497 0.27277350425720215
0.00930102914571762 -0.0021478841081261635 -0.056068338453769684
-0.2308734953403473 -0.04401639476418495 -0.08971937000751495
0.1593644618988037 -0.6253857612609863 0.053173791617155075
-0.5468945503234863 -0.06706062704324722 -0.40412649512290955
0.2013763189315796 0.0023345036897808313 -0.07368063181638718
-0.2600078284740448 0.40296515822410583 -0.11500903218984604
0.38892605900764465 -0.5409713387489319 -0.10666127502918243
-0.0696241557598114 -0.39029189944267273 0.22113920748233795
-0.4979541599750519 0.37012627720832825 -0.05448194220662117
0.32258597016334534 0.45213499665260315 0.3627353608608246
-0.49758484959602356 0.39992785453796387 -0.2121519148349762
0.5831566452980042 0.04661063104867935 0.04612940922379494
-0.5707751512527466 0.10168998688459396 -0.06436217576265335
0.47065412998199463 0.1362462341785431 0.34418219327926636
0.2928096354007721 0.005205557681620121 0.05879782512784004
0.3666515648365021 -0.29204219579696655 0.20876531302928925
-0.4085860252380371 0.4036540389060974 0.07843200117349625
-0.2357562780380249 -0.1715596467256546 0.016052335500717163
0.21318396925926208 0.074222631752491 -0.4048507809638977
0.18984586000442505 -0.008601966314017773 0.32466989755630493
0.3380688428878784 0.4036732614040375 -0.31607386469841003
-0.05189143493771553 0.3834626376628876 -0.395987331867218
-0.19332875311374664 -0.3538956344127655 -0.18571601808071136
0.37298232316970825 -0.5089470744132996 0.08823710680007935
0.25810763239860535 -0.6262790560722351 0.07446078211069107
0.40328720211982727 -0.36251819133758545 0.14498087763786316
0.09385239332914352 0.40369388461112976 0.22796626389026642
0.5710580945014954 0.3927808403968811 -0.050173647701740265
-0.3029051721096039 0.0014838501811027527 0.09818802028894424
0.080042764544487 0.107681043446064 -0.40519943833351135
0.12029056251049042 0.0006848662160336971 -0.23533639311790466
0.28531503677368164 0.4589715600013733 0.4429435729980469
-0.18914705514907837 -0.37659376859664917 0.13205024600028992
0.4048275649547577 0.4004422426223755 -0.2219672054052353
0.07060450315475464 0.39902201294898987 0.42976298928260803
0.5141606330871582 0.0034957746975123882 0.27012157440185547
-0.188182532787323 -0.0007219372782856226 -0.15747345983982086
0.5831807255744934 0.31595590710639954 -0.04370725154876709
-0.4005343019962311 -0.0037384554743766785 -0.00048107339534908533
0.194723442196846 -0.12403879314661026 -0.3730713427066803
-0.22148194909095764 -0.36709144711494446 0.07942789793014526
0.3188602328300476 0.36725956201553345 0.436435729265213
0.12685582041740417 0.2598569691181183 0.4641485810279846
0.07262992858886719 -0.6182176470756531 -0.0050984937697649
0.3337611258029938 0.003270859830081463 -0.2933458983898163
-0.5835145711898804 0.020227376371622086 -0.003514912910759449
0.41890841722488403 0.00012073386460542679 0.30998867750167847
-0.4725872576236725 0.3912111222743988 -0.06660386174917221
0.31789904832839966 -0.3909294307231903 -0.21999099850654602
-0.45403772592544556 0.11991288512945175 0.1756201982498169
-0.5797221064567566 0.2027784287929535 -0.3868374824523926
-0.4998323619365692 0.4050001800060272 0.2423756867647171
-0.5849965810775757 0.14068177342414856 -0.33485040068626404
0.5282933115959167 0.07823243737220764 0.3421930968761444
-0.1277868002653122 -0.001363573595881462 0.16800980269908905
-0.4647703766822815 0.33272451162338257 0.3393830358982086
-0.5380494594573975 0.3939552903175354 0.1383262574672699
0.3239833414554596 0.1797604113817215 0.4394656717777252
0.1434745043516159 -0.004514743108302355 0.2850751280784607
-0.035045724362134933 -0.6185096502304077 -0.17184580862522125
-0.1926112174987793 0.2181197702884674 -0.39659908413887024
0.32886168360710144 0.07394842803478241 0.3506995439529419
-0.4273722469806671 -0.0009066513739526272 -0.10167782008647919
-0.30212098360061646 0.40685904026031494 0.15572324395179749
0.20249328017234802 -0.19435666501522064 -0.3659448027610779
0.10303393006324768 0.1532731056213379 -0.4039759933948517
0.19093313813209534 -0.41833487153053284 0.24006778001785278
-0.5690985321998596 -0.03353516384959221 -0.3982515037059784
0.5544176697731018 0.1805197149515152 0.3425776958465576
-0.5000338554382324 0.05986405536532402 0.35113200545310974
-0.5088751912117004 0.13016048073768616 -0.4023248255252838
0.5703977942466736 0.1871313601732254 -0.28100353479385376
-0.458208292722702 0.1247064620256424 -0.0949266254901886
-0.02924128994345665 -0.5518498420715332 0.23761430382728577
0.16070932149887085 -0.24831707775592804 0.30979207158088684
-0.03117484040558338 -0.6411571502685547 -0.24913261830806732
-0.306505411863327 0.10110708326101303 0.345347136259079
0.029126035049557686 -0.0014006076380610466 0.15498469769954681
-0.2619830071926117 0.001110939309000969 0.10446549952030182
0.1285097748041153 0.39642372727394104 -0.4004767835140228
-0.2859412729740143 0.40134185552597046 0.13114504516124725
0.33649951219558716 -0.6355637907981873 -0.0991910919547081
0.27220797538757324 0.0035526533611118793 0.030628733336925507
0.34960857033729553 -0.6135604381561279 0.13381026685237885
-0.030135558918118477 0.0021208850666880608 0.1422915905714035
-0.0628427118062973 -0.3020295798778534 -0.33789771795272827
-0.03487149253487587 0.4030815660953522 0.17576028406620026
0.01899515464901924 -0.6206629872322083 0.09190886467695236
0.5472930073738098 0.39804568886756897 0.119603730738163
-0.46600425243377686 -0.11891710013151169 -0.3327428102493286
-0.1044691726565361 -0.4291929304599762 -0.23888011276721954
0.061688948422670364 -0.37649500370025635 0.3076854348182678
-0.28127238154411316 0.342878133058548 -0.39633116126060486
-0.5849938988685608 0.15705904364585876 -0.37284982204437256
-0.045985687524080276 0.40266862511634827 0.03807859122753143
-0.4389747083187103 0.20836758613586426 0.3442543148994446
0.2823044955730438 -0.2032914161682129 0.2703826427459717
0.14092960953712463 0.40485885739326477 -0.06506486982107162
0.16105835139751434 0.0016508400440216064 0.23550933599472046
-0.15167288482189178 0.002358950674533844 0.027299154549837112
-0.5761547088623047 0.0369521789252758 -0.27241313457489014
-0.09789750725030899 -0.6001101732254028 -0.2289057821035385
0.03515457734465599 0.4040367305278778 -0.08801323920488358
0.5699307322502136 0.1264020800590515 0.17170235514640808
0.42276397347450256 0.3283059895038605 -0.39764246344566345
0.31010159850120544 -0.07180549204349518 0.3673045337200165
0.31194084882736206 -0.6341097354888916 -0.17983050644397736
-0.08449166268110275 0.12698258459568024 -0.40263447165489197
0.28983744978904724 0.001977266278117895 0.1850244551897049
0.24688120186328888 0.0026256339624524117 -0.21601815521717072
0.2560836970806122 -0.12333916127681732 -0.3360595107078552
0.1823987066745758 0.4047817885875702 -0.2932530641555786
0.10475204139947891 -0.0003863191232085228 -0.32262352108955383
0.3849390745162964 -0.025531502440571785 0.1377958059310913
-0.5003835558891296 -0.11666695028543472 -0.01802126318216324
-0.16141469776630402 -0.0005831178277730942 -0.28347623348236084
-0.22354242205619812 -0.009998884983360767 0.019939761608839035
-0.4377995729446411 -0.101076640188694 -0.10775365680456161
0.17869198322296143 -0.6233797669410706 -0.1258581280708313
0.039617668837308884 0.4035786986351013 -0.030064010992646217
0.314016193151474 0.22976282238960266 0.4613008201122284
0.18515488505363464 -0.31940358877182007 0.3071708381175995
