0.3949238955974579 -0.28626373410224915 0.14654891192913055
0.43875443935394287 0.35014352202415466 0.34891846776008606
0.42928487062454224 -0.3594215512275696 -0.14971832931041718
0.5962148308753967 0.3586246967315674 -0.24890397489070892
-0.3574831485748291 0.24569396674633026 -0.40404871106147766
0.37962979078292847 0.008875270374119282 -0.37141650915145874
-0.5315852165222168 0.22137205302715302 0.3412117660045624
0.07834242284297943 0.17734527587890625 0.46606677770614624
-0.1798655241727829 0.0002749171108007431 0.05438840389251709
-0.5218914151191711 0.3267667591571808 -0.3952263295650482
-0.3974211513996124 0.09673189371824265 -0.2275618314743042
-0.08597282320261002 0.0015152189880609512 -0.07021421194076538
0.18326528370380402 -0.27386581897735596 -0.3584747314453125
0.026833418756723404 0.07317783683538437 0.3903640806674957
-0.4272225797176361 -0.08635681867599487 0.2125394344329834
0.32126128673553467 -0.42000412940979004 -0.22462645173072815
0.2647245228290558 -0.06835401803255081 0.27933788299560547
-0.25441449880599976 0.0005750153213739395 -0.0919693112373352
-0.005692068953067064 0.09248081594705582 0.3483395576477051
0.3122486174106598 -0.4071623980998993 -0.23928338289260864
0.06356204301118851 0.21922418475151062 0.3503035306930542
0.43558260798454285 -0.3216128945350647 0.06391781568527222
0.586083173751831 0.24736550450325012 0.20997761189937592
-0.5552960634231567 -0.04488883912563324 0.32517507672309875
-0.04421937093138695 0.21290254592895508 -0.40506744384765625
-0.3681350648403168 -0.00022340891882777214 0.17440059781074524
-0.055545590817928314 -0.21084867417812347 0.27531686425209045
-0.5430539846420288 -0.06496260315179825 0.31306564807891846
0.423218309879303 -0.385029673576355 0.028644613921642303
-0.43521982431411743 0.36527642607688904 0.02379729598760605
0.4063890874385834 -0.23875951766967773 -0.17233042418956757
0.222696915268898 0.4005541503429413 -0.18341708183288574
-0.5678974986076355 0.07958175241947174 -0.19753991067409515
-0.4366808235645294 -0.10622495412826538 -0.12121106684207916
-0.4911791980266571 0.1124623566865921 0.013660503551363945
-0.06358181685209274 0.39922744035720825 -0.2387578934431076
0.22656449675559998 -0.6194671988487244 0.021648172289133072
0.35187214612960815 -0.3589383065700531 -0.2625123858451843
0.2327205240726471 -0.6243465542793274 -0.2332061529159546
-0.05276365578174591 -0.24587422609329224 0.2854812741279602
-0.5329015254974365 0.08771520853042603 -0.025561261922121048
0.05135571211576462 -0.628564178943634 0.19318373501300812
-0.41236138343811035 0.3983258306980133 0.23133313655853271
-0.2807506322860718 0.3998808264732361 -0.11343029141426086
0.30942046642303467 0.4006151854991913 -0.0484880730509758
0.5328482389450073 0.4033793807029724 -0.03023407980799675
0.14456667006015778 0.04790067672729492 0.47025224566459656
0.5419283509254456 0.23328551650047302 -0.4036099314689636
0.38303142786026 0.2442084401845932 0.3475152850151062
0.02699052169919014 0.07832518219947815 0.3480519652366638
-0.3355977237224579 0.3624570369720459 0.0233458224684
0.1926051527261734 0.002273308113217354 0.03871176019310951
0.5475122332572937 0.39650198817253113 -0.37471264600753784
0.5730935335159302 0.007362218573689461 -0.2855241894721985
-0.5758196711540222 0.04510810226202011 -0.1985083669424057
-0.05550921708345413 0.3518694341182709 -0.3991512656211853
-0.23176366090774536 0.3934806287288666 -0.3704386055469513
-0.2517629861831665 0.3596234619617462 -0.3960578441619873
0.22971421480178833 -0.6228768229484558 -0.12532474100589752
0.1948806494474411 0.2535068094730377 -0.39710456132888794
-0.41817766427993774 0.005155423656105995 -0.2292429506778717
-0.18209591507911682 -0.39297980070114136 0.05495190620422363
0.29463914036750793 0.29835811257362366 0.4678150415420532
0.14099901914596558 0.3921051025390625 0.345158189535141
-0.47075262665748596 0.2874099016189575 -0.40323930978775024
0.23346488177776337 -0.22748282551765442 0.28837141394615173
-0.2374061942100525 0.40033501386642456 -0.02819068916141987
0.3177795708179474 0.0019356445409357548 -0.29886671900749207
-0.4547460377216339 0.399368017911911 0.01770000159740448
0.10739878565073013 0.19362269341945648 0.46842196583747864
0.01654362678527832 0.3799893856048584 0.3431330621242523
0.09409412741661072 0.09787695854902267 0.347953736782074
0.05515427142381668 0.3243076801300049 -0.4046514630317688
0.09744895994663239 -0.6231116056442261 -0.09458553791046143
-0.0638832077383995 -0.49771687388420105 0.20902468264102936
0.5853958129882812 0.29196855425834656 -0.2692466676235199
0.3636970818042755 -0.16662189364433289 0.19415520131587982
-0.10102678835391998 0.000420264812419191 0.07496888190507889
0.03811567649245262 -0.00042895134538412094 0.31121915578842163
0.2880496382713318 -0.621173083782196 -0.05699184536933899
-0.41636165976524353 0.399492472410202 0.050477806478738785
-0.570516049861908 0.15199625492095947 0.3320707380771637
-0.021488886326551437 0.39038994908332825 -0.39304929971694946
-0.5710391402244568 0.3723627030849457 0.19293774664402008
-0.5620743036270142 -0.05303432047367096 -0.02667323499917984
0.5520158410072327 0.009945174679160118 0.3414483070373535
-0.43405643105506897 0.014078576117753983 -0.3912089765071869
0.32270416617393494 0.004593731835484505 -0.14643383026123047
0.3157341182231903 0.10927606374025345 0.3487080931663513
-0.23322001099586487 0.1326509267091751 -0.4031388759613037
-0.5804338455200195 0.29757338762283325 0.08404061943292618
0.4454846978187561 -0.2954399585723877 -0.03678488731384277
-0.13776373863220215 0.0003626113757491112 -0.3427272439002991
-0.372750461101532 0.01423616986721754 -0.3975704312324524
-0.5852547883987427 0.16908414661884308 -0.12824715673923492
-0.11863654106855392 0.00179265346378088 -0.18599633872509003
-0.2859935462474823 0.40398889780044556 0.0674792230129242
0.09203988313674927 -0.045168954879045486 0.3234626352787018
-0.13840565085411072 0.40182164311408997 0.07599951326847076
-0.18627850711345673 -0.39424994587898254 0.010906700976192951
0.5192752480506897 0.3130417466163635 0.3448573350906372
0.3667442500591278 0.05499248951673508 0.34785908460617065
0.08816365152597427 -0.5990312099456787 0.2647007703781128
-0.29948022961616516 0.0007192105986177921 0.17561443150043488
-0.07477203756570816 0.003267405554652214 0.07595793902873993
-0.25014248490333557 -6.383564323186874e-05 0.0004353141412138939
-0.4003240466117859 0.4134520888328552 -0.16304726898670197
-0.4115369915962219 -0.10154424607753754 0.1833065152168274
-0.14487090706825256 0.33190035820007324 0.3441762328147888
-0.35354873538017273 0.3528130054473877 0.03683085739612579
0.20161354541778564 0.27204641699790955 0.4719683825969696
-0.2084973305463791 -3.287149593234062e-05 -0.20727716386318207
-0.4341009855270386 0.11992669850587845 0.24038583040237427
-0.5828221440315247 0.007369145750999451 -0.16230978071689606
0.1619097739458084 0.39517632126808167 0.2769652009010315
0.5008432269096375 0.20019596815109253 0.34034186601638794
0.5902940630912781 0.3055097758769989 0.21190375089645386
0.1728217452764511 -0.6490970253944397 -0.28674814105033875
-0.5813916325569153 0.1737661361694336 0.22812072932720184
0.5799969434738159 0.10466394573450089 -0.3972087502479553
-0.5200017094612122 0.05553573742508888 -0.39420852065086365
0.43026065826416016 -0.38123008608818054 -0.1344706118106842
0.20295879244804382 -0.3776938319206238 0.2730428874492645
0.07804084569215775 0.058042775839567184 0.47184208035469055
0.5811469554901123 0.011126117780804634 0.3152363896369934
-0.5152912139892578 8.160248398780823e-05 -0.14595212042331696
-0.3630276024341583 0.0022396319545805454 -0.029845092445611954
0.31158551573753357 -0.025156281888484955 -0.298745334148407
0.3704686462879181 -0.000480099581182003 -0.21679478883743286
-0.1663365364074707 0.0018551331013441086 -0.16217534244060516
-0.20139670372009277 -0.0015975988935679197 0.06135888025164604
-0.03257552906870842 -0.6276175379753113 -0.10651964694261551
0.06902158260345459 0.05108058080077171 0.3481300473213196
-0.29028570652008057 0.0005391528829932213 -0.023906510323286057
0.27314531803131104 -0.5169025659561157 -0.266429603099823
-0.3626713752746582 0.3993861973285675 -0.25282686948776245
0.029296807944774628 0.0013361333403736353 -0.2964382767677307
0.2900198698043823 -0.6300792694091797 -0.18723143637180328
-0.20501340925693512 0.20284403860569 0.344995379447937
-0.573729395866394 0.11771774291992188 -0.16563668847084045
0.5849398374557495 0.25135210156440735 0.1601710021495819
0.2829720377922058 0.3960118889808655 0.22384849190711975
0.14883999526500702 -0.44606319069862366 0.26139703392982483
0.5801119208335876 0.3997138440608978 -0.3459104895591736
-0.1967499554157257 0.39882001280784607 0.2590917646884918
-0.1799173355102539 -0.6409503221511841 -0.04572460800409317
-0.18040645122528076 -0.4446176588535309 -0.10347918421030045
0.23999497294425964 0.20504814386367798 0.34569796919822693
-0.016760097816586494 -0.6284511685371399 0.1335608959197998
-0.21144002676010132 -0.3362668752670288 0.11689721792936325
-0.20830009877681732 -0.19074063003063202 0.11549484729766846
-0.2455359250307083 -0.2276606261730194 -0.10981038957834244
-0.0006514346459880471 -0.6237450242042542 -0.05115455016493797
-0.011908904649317265 -0.6293922066688538 0.18317128717899323
0.038331080228090286 0.11967916041612625 0.4633920192718506
0.29992371797561646 -0.08481300622224808 0.4220496714115143
-0.3635874092578888 0.00042852479964494705 -0.08886171132326126
0.10707970708608627 0.0019870437681674957 0.22263795137405396
-0.5742944478988647 0.09882983565330505 -0.20937037467956543
0.3572530150413513 -0.05791019648313522 0.21853111684322357
-0.1564854383468628 -0.6331763863563538 0.06573610752820969
0.4427558481693268 -0.2501361668109894 0.04884123429656029
-0.5788738131523132 0.18348225951194763 0.13401596248149872
0.11399102956056595 -0.023578273132443428 0.3249717056751251
0.19827981293201447 -0.11675016582012177 -0.35933199524879456
-0.573944091796875 0.3305249810218811 0.17900066077709198
0.0300312303006649 0.003110910765826702 0.09608331322669983
0.2491127848625183 -0.009665792807936668 -0.33009546995162964
-0.03704436868429184 -0.4735124111175537 0.22204431891441345
-0.13684287667274475 -0.3871936500072479 -0.21891137957572937
0.25942909717559814 -0.10838571935892105 -0.3258284628391266
0.39670804142951965 0.004815616644918919 -0.10791952162981033
0.13961391150951385 0.0018599694594740868 0.15165051817893982
0.024192282930016518 0.06279007345438004 0.4491053819656372
-0.45572686195373535 0.3927915394306183 0.3304421007633209
-0.0612647645175457 0.0016345474869012833 0.18137359619140625
0.14043641090393066 -0.2286793738603592 -0.36924099922180176
-0.5028698444366455 0.392647385597229 -0.241598978638649
-0.5798423886299133 0.18309910595417023 -0.32237911224365234
-0.44191300868988037 -0.10307957977056503 -0.38793203234672546
0.32342836260795593 0.002745743840932846 0.1588042825460434
0.14082211256027222 -0.6218419075012207 -0.0030615488067269325
-0.48871105909347534 0.2090216726064682 0.34401366114616394
0.030480146408081055 0.40219783782958984 0.21693257987499237
0.27641725540161133 0.0019622596446424723 -0.346414715051651
0.04289831221103668 -0.5054941773414612 -0.306549072265625
0.05540577694773674 -0.546057939529419 -0.318247526884079
0.11445443332195282 0.26165637373924255 -0.400285542011261
0.21035049855709076 -0.1528807133436203 0.2965002655982971
-0.08919865638017654 0.07112891972064972 -0.4024539291858673
-7.938011549413204e-06 0.1723448634147644 0.34889310598373413
-0.16405068337917328 0.000420453492552042 -0.13813216984272003
0.04359541833400726 -0.6314136385917664 -0.2599887549877167
-0.26294204592704773 0.001076938584446907 0.20027455687522888
-0.07554447650909424 -0.37770918011665344 0.232271209359169
-0.21507059037685394 0.4018512964248657 -0.25876089930534363
0.43695998191833496 -0.2807057499885559 -0.11408079415559769
0.32902804017066956 -0.10770858824253082 -0.28921985626220703
0.29962649941444397 0.231147900223732 0.46212929487228394
0.3529152274131775 0.004481441341340542 -0.2726295590400696
0.2787409722805023 0.0033523691818118095 -0.32321810722351074
-0.19690930843353271 -0.37304502725601196 -0.1708056479692459
-0.34567195177078247 0.401379257440567 0.12007807195186615
0.39813369512557983 0.002958053257316351 0.03473608195781708
0.38656359910964966 -0.5525521039962769 0.038124971091747284
0.20035220682621002 -0.6269344091415405 -0.14382052421569824
-0.36258894205093384 0.3978364169597626 -0.16419130563735962
0.13500776886940002 -0.09221849590539932 0.33432674407958984
-0.3676465153694153 -0.04627954587340355 -0.11886157840490341
-0.18937376141548157 -0.02809336595237255 0.1577775627374649
0.5434397459030151 0.014258365146815777 0.3421728312969208
0.27082014083862305 -0.4971018433570862 -0.2614595592021942
-0.46312692761421204 0.06318613886833191 0.3461463451385498
0.0494675375521183 0.00394483283162117 -0.0681249275803566
0.2963847517967224 0.23304623365402222 0.34787291288375854
-0.1632036566734314 -0.019327320158481598 -0.23775234818458557
-0.05131399258971214 -0.0004434501752257347 -0.3165748417377472
0.2806320786476135 -0.14405004680156708 0.2633337080478668
0.5826275944709778 0.07558494061231613 0.1413222700357437
0.14256514608860016 -0.0029953564517199993 0.3342588543891907
0.2150343656539917 -0.3519277274608612 0.2874813675880432
0.4874667227268219 0.014587589539587498 -0.40098586678504944
0.20761364698410034 -0.4780256450176239 -0.3002484440803528
-0.3018220067024231 0.0005724094808101654 -0.32395103573799133
0.016161227598786354 -0.055948663502931595 0.37763556838035583
0.17540499567985535 -0.32082241773605347 -0.36950695514678955
-0.02722184918820858 -0.314031183719635 0.2886217534542084
0.5122562050819397 0.004551486112177372 -0.07020698487758636
-0.13607482612133026 -0.15743707120418549 -0.2768152058124542
-0.5813038349151611 0.2527388334274292 -0.03751228377223015
0.16715703904628754 0.215113565325737 -0.40428102016448975
0.3214852809906006 -0.6327709555625916 -0.21384696662425995
-0.530783474445343 0.14566300809383392 -0.39941418170928955
-0.5782635807991028 0.25096601247787476 -0.14626054465770721
-0.40225037932395935 0.03630884364247322 -0.4038158059120178
-0.37859463691711426 0.07176437228918076 -0.2615233063697815
-0.5137463212013245 0.09543836116790771 0.10191131383180618
-0.4750945270061493 -0.09146985411643982 0.17770491540431976
-0.22581100463867188 -0.2522779405117035 0.056986309587955475
-0.5281773209571838 0.09490132331848145 0.23970624804496765
0.11909732222557068 0.3993823230266571 0.1028844490647316
-0.5774779319763184 0.2645268142223358 0.15539081394672394
-0.5751883387565613 0.03774276003241539 -0.1304379552602768
0.37328940629959106 0.4028911292552948 -0.0031648799777030945
0.10125552862882614 0.003203840460628271 0.11664838343858719
0.5837382674217224 0.13403652608394623 0.06413716077804565
-0.1666325479745865 0.39702677726745605 -0.05152180790901184
0.446574866771698 -0.15350058674812317 -0.011655273847281933
-0.04156215861439705 -0.4482078552246094 -0.2820732593536377
0.12194700539112091 0.001664492767304182 0.18899938464164734
0.3056868612766266 0.0023431116715073586 -0.08068474382162094
0.319144070148468 0.026820503175258636 0.46053698658943176
-0.14891381561756134 -0.645622193813324 0.00420908909291029
0.5804159045219421 0.12078456580638885 0.324284166097641
0.410339891910553 0.2661225199699402 -0.39876946806907654
0.31800347566604614 0.4010236859321594 0.2064177542924881
0.31990623474121094 -0.6290370225906372 -0.21898238360881805
0.2130173295736313 -0.6219443082809448 0.11317459493875504
0.1394854187965393 -0.4605509042739868 0.2565821707248688
0.3929927349090576 -0.1990390121936798 -0.2026243656873703
-0.2942282557487488 0.3639248013496399 -0.024033889174461365
0.47901225090026855 0.0004985155537724495 -0.04849252849817276
0.36230725049972534 -0.14624646306037903 -0.26149827241897583
-0.11244656890630722 -0.5776158571243286 0.15626496076583862
-0.2259553074836731 -0.10478383302688599 0.025121822953224182
0.3983629047870636 0.40137752890586853 -0.0059978896751999855
-0.3040182292461395 0.32036054134368896 -0.40041059255599976
0.41694745421409607 -0.2830188572406769 -0.16947530210018158
0.3114630877971649 -0.3202832043170929 -0.30218976736068726
0.16959568858146667 0.40147337317466736 -0.10092668235301971
0.31344953179359436 -0.5333520770072937 0.16112321615219116
-0.04608682170510292 -0.3212006092071533 -0.33327722549438477
-0.49539491534233093 -0.005452894140034914 -0.01627299189567566
0.36559635400772095 -0.5079822540283203 0.08895274251699448
-0.5244701504707336 -0.10081342607736588 0.09382469207048416
0.13870349526405334 -0.010814981535077095 0.47256216406822205
0.1485903412103653 0.001917833462357521 -0.37029361724853516
-0.005349110811948776 -0.34409797191619873 0.2882835865020752
0.2558755576610565 0.40151694416999817 -0.15391923487186432
-0.5471075177192688 0.06595136970281601 0.1780582219362259
0.40316784381866455 0.40122368931770325 0.020440757274627686
-0.05087793618440628 0.0002803336828947067 -0.3399374186992645
-0.20726743340492249 0.39371949434280396 -0.3869239389896393
-0.05614323168992996 -0.418798565864563 0.2081073671579361
0.009467140771448612 0.001716266619041562 -0.09759411215782166
0.18132105469703674 -0.41942182183265686 -0.3108871877193451
-0.43508729338645935 0.39682748913764954 -0.33163198828697205
-0.193728506565094 -0.05141594633460045 0.1301930546760559
-0.553450345993042 0.3826398253440857 0.27121472358703613
-0.13706155121326447 0.0006161350756883621 -0.2245340198278427
-0.0507812537252903 -0.0004773186519742012 0.2604530453681946
-0.27341705560684204 0.3890003263950348 -0.06714591383934021
-0.16524717211723328 -0.46044209599494934 0.08916189521551132
-0.577893853187561 0.017658337950706482 -0.06376427412033081
-0.506030261516571 0.10305435210466385 0.24083657562732697
0.03411523625254631 0.08108975738286972 0.3488300144672394
0.043603233993053436 0.0001474739983677864 0.3286599814891815
-0.41685232520103455 0.38452982902526855 -0.3995590806007385
0.04399719089269638 0.1463625431060791 0.4632517099380493
0.5143441557884216 0.13285797834396362 -0.3987812101840973
0.32771217823028564 0.3997710347175598 -0.30609339475631714
-0.12282522767782211 0.39752379059791565 0.2520458996295929
0.3091256618499756 0.2950662672519684 -0.40304136276245117
-0.09099692106246948 0.001534764189273119 0.057154618203639984
-0.566196858882904 0.0780533030629158 0.09691544622182846
-0.3700268864631653 0.007496591191738844 -0.39763331413269043
-0.024384653195738792 -0.14462810754776 -0.3426135182380676
0.18599657714366913 -0.6292087435722351 -0.16342291235923767
-0.049994826316833496 -0.4640209674835205 0.22136907279491425
-0.5009528994560242 0.014182910323143005 -0.3983219563961029
0.11983837932348251 -0.6262781023979187 -0.07711703330278397
0.09433956444263458 0.002328261034563184 0.087370865046978
0.41248685121536255 -0.3752717077732086 -0.09286511689424515
0.3686662018299103 -0.41307398676872253 0.05509021878242493
0.06911192834377289 0.0022673355415463448 -0.31451737880706787
0.3204745948314667 -0.03057858534157276 0.46116840839385986
0.3286192715167999 0.19086068868637085 0.45388704538345337
-0.2421010136604309 -0.0064134011045098305 -0.018162159249186516
-0.5065179467201233 0.3967205584049225 -0.08144059777259827
0.36709967255592346 -0.05268276482820511 0.19935865700244904
0.2878057658672333 0.46249204874038696 0.40300020575523376
-0.1620330959558487 0.0012667682021856308 -0.09713170677423477
0.5362853407859802 0.40471458435058594 0.002266048453748226
-0.1355181485414505 0.39710837602615356 0.14065958559513092
0.21877196431159973 -0.6202890872955322 -0.2515535354614258
0.11030931770801544 0.0955682098865509 0.47153812646865845
-0.03519955277442932 -0.32677775621414185 0.28148841857910156
0.017930522561073303 0.3843117654323578 -0.39882636070251465
0.5844424962997437 0.2834028899669647 0.20104576647281647
0.40142202377319336 -0.09211891889572144 0.14072072505950928
0.0521240234375 0.04078676924109459 -0.403588205575943
-0.5331684947013855 -0.05945347994565964 0.32815131545066833
-0.3466033935546875 0.21438418328762054 -0.4042849540710449
-0.46229153871536255 0.16392524540424347 -0.40156352519989014
-0.3096175789833069 0.3448863625526428 0.0034756429959088564
0.577427327632904 0.009826832450926304 -0.08311352878808975
0.03244606405496597 -0.008937500417232513 0.45405036211013794
-0.18841604888439178 -0.5681377649307251 -0.049912914633750916
-0.16288644075393677 0.0006354143843054771 -0.017235970124602318
0.03485594317317009 0.32972657680511475 0.4660990536212921
-0.05638681724667549 -0.4668665826320648 0.20621837675571442
0.5083892941474915 0.393167108297348 -0.39940816164016724
-0.2832311987876892 0.16103358566761017 -0.40355607867240906
0.47105419635772705 0.004038263112306595 -0.04406002163887024
0.3516131639480591 0.004242364317178726 -0.17871993780136108
-0.3591565787792206 0.016650650650262833 0.08661281317472458
-0.13318131864070892 0.0026095863431692123 -0.07278914749622345
0.1962287575006485 -0.6204233169555664 -0.008487079292535782
0.3934004008769989 -0.39209064841270447 -0.045347776263952255
0.33670908212661743 -0.3829718828201294 0.19535653293132782
0.07783056050539017 0.39450928568840027 0.3797459602355957
0.504707932472229 0.002519036177545786 -0.06211530417203903
-0.21694894134998322 -0.14981471002101898 -0.16270361840724945
-0.5744608044624329 0.2804264724254608 -0.2188246250152588
0.12961168587207794 -0.09371894598007202 0.41827839612960815
-0.5444480180740356 0.09111045300960541 0.0868171751499176
0.22633089125156403 -0.6248279809951782 0.036065347492694855
-0.012232080101966858 0.3959277868270874 -0.3820023238658905
0.589805543422699 0.24651794135570526 -0.4016478657722473
0.5819563269615173 0.3037341833114624 0.3225889503955841
0.1542510688304901 0.3993223011493683 -0.14079125225543976
0.3384047746658325 0.17471161484718323 -0.406542032957077
0.21615132689476013 0.4001365900039673 -0.06433680653572083
-0.5686702728271484 0.06504333019256592 0.09310607612133026
0.12418483197689056 -0.40673139691352844 -0.3224657475948334
0.10178527981042862 -0.6249147653579712 0.04507051035761833
-0.028109049424529076 -0.23641818761825562 0.29237937927246094
-0.5201403498649597 0.25267598032951355 -0.39931878447532654
-0.12177348881959915 0.3237189054489136 -0.4006251394748688
-0.3509998619556427 0.3862142860889435 0.04679548367857933
0.25881072878837585 0.40130558609962463 0.06674694269895554
-0.162098228931427 0.0006612623110413551 -0.014969740994274616
-0.5758313536643982 0.19923506677150726 0.0019702648278325796
0.2512756288051605 0.003998293075710535 -0.09435167908668518
-0.15100796520709991 0.00020799878984689713 -0.13188964128494263
-0.06577163934707642 -0.12886014580726624 -0.3237002491950989
0.13764400780200958 -0.13537931442260742 0.3196460008621216
-0.3343871235847473 0.004365677013993263 -0.32457032799720764
0.38000258803367615 -0.6364901065826416 -0.09451314806938171
0.5864636301994324 0.11218423396348953 -0.05990844592452049
-0.32213786244392395 0.39692607522010803 0.3128751218318939
0.42532187700271606 -0.2601704001426697 0.07863083481788635
-0.45044514536857605 -0.10382629185914993 0.020718218758702278
0.05323713272809982 -0.07344844937324524 -0.36859428882598877
-0.5755027532577515 0.0416293703019619 0.28003785014152527
0.5775842070579529 0.15916594862937927 0.199069082736969
-0.42469075322151184 0.4040093421936035 -0.016747213900089264
-0.15748117864131927 0.1869903951883316 -0.404098778963089
0.29176729917526245 0.3410619795322418 0.47034555673599243
-0.5792515873908997 0.22953183948993683 -0.02955305390059948
0.21291401982307434 -0.650192141532898 0.2029169648885727
-0.5689241886138916 0.37025782465934753 0.02624618075788021
0.581112802028656 0.21205173432826996 -0.1249077320098877
0.30851489305496216 0.004148275125771761 -0.08255942910909653
0.425551176071167 -8.670799434185028e-05 0.08915473520755768
0.057082246989011765 -0.6255245208740234 -0.21230381727218628
0.1861194372177124 0.2363743931055069 0.46912750601768494
-0.5636256337165833 0.039733823388814926 0.29661768674850464
0.44521909952163696 0.00045365351252257824 0.18099020421504974
0.5873436331748962 0.23525117337703705 -0.32504603266716003
-0.5577977895736694 0.3787311911582947 -0.3846895694732666
0.2980511486530304 -0.38107600808143616 -0.293239563703537
-0.5786805152893066 0.10883552581071854 -0.2849101424217224
0.02748875878751278 -0.011933770030736923 0.29844072461128235
-0.5722639560699463 0.047219377011060715 -0.2566274404525757
-0.30034157633781433 0.38369908928871155 -0.16522178053855896
-0.5770043134689331 0.31386423110961914 -0.11923039704561234
-0.09287546575069427 -0.626664936542511 -0.11529680341482162
0.5886222124099731 0.22620823979377747 -0.4004051983356476
0.5849364399909973 0.25865453481674194 0.15331822633743286
-0.47303712368011475 0.39442726969718933 -0.20560652017593384
-0.12535706162452698 -0.4872826039791107 0.14341798424720764
0.3268493413925171 5.0179893150925636e-05 0.4681292474269867
0.3518044650554657 -0.2624604403972626 -0.2743374705314636
-0.2743339538574219 0.0033134687691926956 0.08835898339748383
-0.21752724051475525 0.396902859210968 -0.34564024209976196
-0.43189388513565063 -0.00018220022320747375 0.18221299350261688
0.019912149757146835 0.3999687135219574 0.01392399799078703
-0.25295573472976685 0.3981077969074249 -0.3644507825374603
-0.10147207975387573 0.001807243563234806 -0.1701141893863678
0.04237223044037819 -0.6261941194534302 0.05879954621195793
-0.14254997670650482 -0.46687784790992737 -0.17673195898532867
-0.15154922008514404 0.00017981452401727438 -0.16931864619255066
0.06042921915650368 0.40167322754859924 0.436842679977417
0.3416678011417389 -0.6289539933204651 0.017193926498293877
0.2284834235906601 0.004370600916445255 -0.139215886592865
-0.186159148812294 -0.6279311776161194 -0.02498934045433998
0.05765531584620476 -0.550145149230957 0.25424978137016296
-0.22327326238155365 -0.3364681005477905 0.054635949432849884
-0.45943549275398254 -0.042862892150878906 0.3368658125400543
0.14698752760887146 -0.5354222655296326 -0.3186763525009155
-0.09597913920879364 0.0007827081717550755 -0.09858105331659317
0.010852138511836529 -0.38509827852249146 0.26016172766685486
0.5090418457984924 0.003788868896663189 -0.22186753153800964
-0.5853022336959839 0.1696804016828537 -0.2465972602367401
-0.4094342589378357 0.40172702074050903 0.09133370220661163
0.0694824755191803 0.0031369966454803944 0.15323090553283691
0.4421437978744507 -0.22470565140247345 -0.07410676032304764
-0.20612244307994843 -0.05353722348809242 0.12979702651500702
0.3146510422229767 -0.6568622589111328 0.1460285186767578
0.45160672068595886 0.4012795388698578 -0.17904533445835114
-0.3320874273777008 0.3511497378349304 0.01932303048670292
-0.036848414689302444 0.00131248589605093 -0.27359822392463684
0.4582299590110779 0.40142086148262024 0.07067541778087616
0.33367180824279785 0.39892104268074036 -0.26881468296051025
0.5850859880447388 0.013297496363520622 -0.06069491058588028
0.354602187871933 -0.5622785091400146 -0.16339659690856934
0.07850775122642517 0.003406892530620098 0.03860723227262497
0.12778878211975098 -0.6278750896453857 0.10710181295871735
-0.08896272629499435 -0.6245877742767334 -0.012640553526580334
-0.5086522698402405 -0.019512180238962173 0.3461894094944
0.31872937083244324 -0.05690613389015198 0.35557320713996887
-0.1825331747531891 -0.4305824935436249 0.0031520824413746595
0.29276302456855774 0.0017516526859253645 -0.28752854466438293
-0.4930826723575592 0.39544838666915894 0.10526560246944427
-0.5790582299232483 0.05350223556160927 -0.03112456202507019
-0.5657183527946472 0.041486915200948715 -0.33813348412513733
0.21158139407634735 -0.6221215128898621 -0.11464542150497437
-0.08527717739343643 -0.26841801404953003 -0.3165837526321411
-0.5162752270698547 -0.0460713729262352 0.34154701232910156
-0.3127434551715851 0.008713854476809502 -0.3960118293762207
-0.2909257709980011 0.005564083345234394 -0.36155247688293457
-0.534569263458252 0.044884953647851944 -0.39549973607063293
0.3139793872833252 0.004737508483231068 -0.15755487978458405
-0.4285953938961029 0.11654452979564667 0.17835114896297455
0.28632158041000366 -0.0820067971944809 -0.3141767680644989
0.18578267097473145 -0.6480788588523865 -0.2631242871284485
-0.41025540232658386 -0.08393777161836624 0.2558974027633667
0.029263833537697792 -0.015949580818414688 0.3213479816913605
-0.25981375575065613 0.10497218370437622 0.3463522493839264
-0.5252593159675598 -0.0851384848356247 0.29175761342048645
0.012041990645229816 -0.5460165143013 0.24625693261623383
0.33217746019363403 0.257478803396225 0.4290788173675537
0.5810402035713196 0.012924081645905972 0.023593105375766754
-0.3534151613712311 0.41468727588653564 -0.1444595754146576
-0.45599809288978577 0.00019613886252045631 0.3095113933086395
0.11674086004495621 -0.06903251260519028 0.3232729434967041
-0.27801185846328735 0.39738941192626953 0.05961957573890686
0.2957817316055298 -0.635750412940979 0.09249196201562881
-0.2444291114807129 0.003964942879974842 0.30092278122901917
0.09004087746143341 0.0035988641902804375 -0.3808280825614929
-0.3501264452934265 0.017010483890771866 -0.12029015272855759
-0.5768167972564697 0.32628902792930603 -0.2677042484283447
-0.02271340601146221 0.37303033471107483 -0.40189018845558167
0.3223209083080292 0.40178143978118896 0.24328431487083435
-0.06421340256929398 0.0019077635370194912 -0.0977841392159462
0.14622431993484497 0.1436166763305664 -0.3977644145488739
-0.42379721999168396 -0.0002639372833073139 -0.2743282914161682
-0.03717239946126938 -0.0007417872548103333 -0.23879773914813995
-0.5265401601791382 0.09056361764669418 0.180616557598114
0.2510793209075928 0.004210339393466711 -0.1534976065158844
0.009521882981061935 -0.0005075298249721527 0.28439435362815857
-0.23373174667358398 0.397760272026062 0.22821451723575592
0.17797912657260895 0.00284664798527956 0.019131412729620934
0.06441986560821533 -0.6247747540473938 -0.09901943057775497
0.4869519770145416 0.004532685969024897 0.31305360794067383
0.5867246389389038 0.27497825026512146 0.19595612585544586
-0.10718274116516113 -0.5753757357597351 -0.2327251434326172
0.11214582622051239 -0.6212173700332642 -0.3238430917263031
0.23064473271369934 0.003906817641109228 -0.0755830854177475
0.3352522552013397 -0.5664955377578735 -0.20300573110580444
-0.5318559408187866 2.0845560356974602e-05 0.03797817975282669
0.04552469030022621 -0.15194572508335114 0.31170031428337097
-0.057283904403448105 -0.0025700852274894714 -0.25293052196502686
-0.22250382602214813 0.005437484942376614 -0.39218202233314514
0.5899513363838196 0.3811005651950836 0.26774364709854126
-0.570954442024231 0.0460716187953949 0.1612395942211151
0.14773784577846527 -0.17047183215618134 0.31454169750213623
-0.5159484148025513 0.08820199966430664 -0.030941858887672424
-0.09535884112119675 -0.6280509829521179 0.07086683809757233
-0.05733228847384453 -0.4730722904205322 0.21152085065841675
0.15869693458080292 0.40312978625297546 0.348452627658844
-0.57914799451828 0.3362533450126648 0.3364551365375519
-0.42061835527420044 0.10265657305717468 0.2559056580066681
0.19540147483348846 -0.6189553141593933 -0.30807945132255554
0.18858391046524048 -0.6290107369422913 0.06151937320828438
-0.18788696825504303 -0.40359610319137573 -0.0074149006977677345
-0.23641110956668854 -0.23521029949188232 -0.06603538990020752
0.21298205852508545 0.31406131386756897 0.3411567509174347
-0.5318748950958252 0.09243758767843246 0.16853740811347961
-0.37276405096054077 -0.025576837360858917 -0.08726245909929276
-0.4463769793510437 -0.0002338876947760582 -0.13508492708206177
-0.02166195586323738 -0.6220024228096008 0.16097599267959595
-0.37745630741119385 0.407247394323349 -0.0830867663025856
0.406002402305603 -0.11611196398735046 0.12946487963199615
-0.19882653653621674 -0.38306909799575806 0.00178420334123075
0.5822155475616455 0.13847076892852783 -0.40255865454673767
-0.5691975355148315 0.24213264882564545 -0.13680681586265564
-0.46752336621284485 0.3153243660926819 0.3442682921886444
-0.17642566561698914 -0.027895625680685043 0.17471393942832947
0.042067620903253555 0.40033045411109924 0.06553363800048828
-0.397249311208725 -0.0029596183449029922 0.3401767611503601
-0.050070736557245255 -0.626705527305603 0.07474157959222794
-0.22896891832351685 -0.0871305987238884 0.06933698803186417
0.32547882199287415 0.099996417760849 0.44280388951301575
-0.22623752057552338 0.001534351147711277 -0.1624954342842102
-0.021658889949321747 0.2125193327665329 -0.4039267599582672
0.03386316075921059 0.29609477519989014 -0.40370774269104004
0.2759590446949005 0.19686290621757507 0.3488749861717224
0.5800467133522034 0.25576773285865784 -0.39802607893943787
-0.5414685606956482 0.38203227519989014 -0.3828624486923218
0.13400419056415558 0.3998130261898041 0.029620429500937462
0.1271955370903015 0.4022311568260193 0.16413186490535736
-0.5248640179634094 0.18947364389896393 0.34627509117126465
0.14203619956970215 0.3998304605484009 0.05650010704994202
-0.15184833109378815 0.3978227972984314 -0.025403672829270363
-0.38083547353744507 -0.03850748389959335 0.14696305990219116
0.3897383511066437 0.003868974046781659 -0.051498670130968094
-0.14423151314258575 -0.6459997892379761 -0.11444751173257828
0.18621106445789337 0.0019120792858302593 -0.33000338077545166
0.5881182551383972 0.1362486630678177 -0.08756896108388901
-0.374475359916687 0.1289711445569992 0.3408007323741913
-0.4471066892147064 0.20584805309772491 0.3397079110145569
-0.4127832353115082 -0.09501585364341736 -0.3075418472290039
-0.46242743730545044 0.39757657051086426 0.2348940670490265
0.18363606929779053 0.023762699216604233 0.46673116087913513
0.06364426761865616 0.38732007145881653 0.3471699059009552
-0.35584011673927307 0.37720850110054016 -0.18375186622142792
0.15568651258945465 -0.08483331650495529 0.34779947996139526
-0.28444772958755493 0.39871886372566223 0.30008572340011597
-0.09018291532993317 0.0015623201616108418 -0.13634851574897766
0.0036246306262910366 0.400839626789093 0.17981098592281342
0.3108200430870056 0.39253124594688416 -0.39529040455818176
0.2112979292869568 -0.46637073159217834 0.24019336700439453
-0.29628658294677734 0.38958540558815 -0.39625781774520874
-0.38841137290000916 0.03143716976046562 -0.4006257653236389
0.5903916358947754 0.031142670661211014 0.06433991342782974
0.2927733063697815 -0.6370738744735718 0.13932038843631744
0.3619653880596161 -0.3714457154273987 -0.23718489706516266
0.15857423841953278 0.40200331807136536 -0.1096203550696373
0.5715557336807251 0.14647266268730164 0.3457568287849426
0.3377475440502167 0.01202480774372816 0.3805381953716278
0.1419990211725235 -0.5917801260948181 0.2626939117908478
0.32014694809913635 -0.539181113243103 -0.22351044416427612
0.2175525426864624 0.0021272972226142883 0.14848609268665314
-0.5679332613945007 0.1481744647026062 0.3345193862915039
-0.3846641480922699 0.03192942589521408 -0.4031217694282532
0.18192893266677856 -0.620409369468689 -0.24823406338691711
-0.46771785616874695 0.10000137984752655 -0.3938954472541809
-0.282707154750824 0.39545324444770813 -0.18029619753360748
-0.5826060175895691 0.14391513168811798 -0.14569106698036194
-0.46282416582107544 0.00840985681861639 -0.39858147501945496
-0.11318385601043701 -0.3982693552970886 -0.2356504648923874
-0.28025487065315247 0.0009672157466411591 -0.06166049465537071
0.5840296149253845 0.23624002933502197 -0.16648931801319122
-0.0639115497469902 0.33682000637054443 0.3464628756046295
-0.2197370082139969 -0.3355487287044525 0.07595758885145187
-0.3537105917930603 0.042535509914159775 0.06169521436095238
0.17071940004825592 -0.13560155034065247 0.31352052092552185
0.027878643944859505 -0.6615091562271118 0.2389373928308487
-0.5636345148086548 0.008990956470370293 -0.02269590273499489
-0.07270043343305588 0.0014722319319844246 -0.12488820403814316
0.21508070826530457 -0.00018097274005413055 0.13431546092033386
0.3490646779537201 -0.6442937850952148 0.10579326003789902
-0.5754923224449158 0.35052168369293213 -0.14604692161083221
0.011074337176978588 0.13058330118656158 -0.4041213095188141
-0.2823035717010498 0.025227345526218414 0.34281328320503235
0.38007834553718567 0.003604988567531109 -0.18538956344127655
0.37873393297195435 0.001582699827849865 -0.3409452736377716
-0.10629655420780182 -0.6261346936225891 -0.04040410742163658
-0.2821901738643646 0.37046027183532715 -0.08974482119083405
0.3407338261604309 0.0026648035272955894 -0.26628386974334717
-0.0017668739892542362 0.0018067630007863045 -0.28154751658439636
0.5646066069602966 0.40077731013298035 0.005248749628663063
-0.08238493651151657 0.001992980018258095 -0.17502731084823608
-0.4491131901741028 0.10872969031333923 -0.32620444893836975
0.349929541349411 -0.6207073926925659 -0.15883658826351166
0.001769504277035594 0.09067375212907791 -0.40586382150650024
0.27250581979751587 0.20434077084064484 0.34865668416023254
0.4022442400455475 0.40221381187438965 -0.09632325172424316
-0.13315033912658691 -0.6247692704200745 -0.06857488304376602
-0.007277477066963911 0.4003446400165558 -0.01967383362352848
0.4308042824268341 0.0026595876552164555 -0.365505188703537
-0.4409995675086975 0.09986976534128189 -0.3443404734134674
-0.373702734708786 -0.04874631017446518 -0.23274953663349152
-0.3122178912162781 0.001890038140118122 0.27291175723075867
0.4382522404193878 -0.3406211733818054 -0.1131276860833168
-0.4546886384487152 -0.09900099784135818 0.10442810505628586
0.206183061003685 -0.6271973252296448 -0.26831910014152527
-0.1171027272939682 -0.6461442708969116 -0.21524229645729065
-0.5782779455184937 0.19344334304332733 0.24825021624565125
-0.5761246681213379 0.1528492420911789 -0.33679914474487305
0.34075474739074707 -0.6398122906684875 -0.07122062891721725
0.24309904873371124 0.0035420823842287064 0.2240242213010788
0.4029945731163025 0.003016652539372444 -0.11330549418926239
-0.26029515266418457 0.4006156027317047 -0.04898708686232567
-0.22005686163902283 -0.009471314959228039 -0.11588167399168015
0.36967211961746216 -0.4383506178855896 -0.14390398561954498
0.037888724356889725 0.24749280512332916 0.3566894829273224
-0.4171801805496216 0.003865930251777172 0.03295613452792168
0.1580744981765747 -0.16246506571769714 0.3114829659461975
-0.5101546049118042 -0.0762493759393692 -0.3920303285121918
0.3891332149505615 -0.22520403563976288 0.16052937507629395
0.036872975528240204 0.4001009464263916 0.20802031457424164
0.1524176448583603 0.03441265970468521 0.4700174331665039
-0.3089049160480499 0.3945545256137848 -0.010995523072779179
0.2893023192882538 0.3990233540534973 -0.2923278212547302
-0.10938283801078796 0.0023570051416754723 -0.10564593225717545
0.43830642104148865 -0.00972890667617321 0.0019094310700893402
0.5897524356842041 0.31894242763519287 0.24074223637580872
-0.49992427229881287 -0.10576527565717697 0.13807441294193268
-0.5750331878662109 0.013015199452638626 0.10288742184638977
0.111641064286232 0.28904762864112854 0.34636133909225464
-0.04864712432026863 -0.017170539125800133 -0.3362909257411957
-0.5516586899757385 0.35508453845977783 -0.39597558975219727
0.21033358573913574 -0.3756718933582306 -0.32366156578063965
0.27558889985084534 -0.3745151162147522 -0.29092416167259216
0.43634718656539917 -0.28050461411476135 0.0451054573059082
-0.023986421525478363 -0.01901007629930973 -0.35057249665260315
-0.2247130125761032 0.3969086706638336 -0.11513055860996246
-0.18725931644439697 -0.40000391006469727 -0.05887848511338234
0.08162708580493927 0.39118337631225586 -0.39041417837142944
0.31041544675827026 0.09575182944536209 0.46522942185401917
0.5765920281410217 0.14884017407894135 0.17340517044067383
0.13198557496070862 0.08005540817975998 0.47175905108451843
-0.24557077884674072 -0.0001884731464087963 -0.15574617683887482
-0.12687553465366364 -0.2636449635028839 0.22704075276851654
0.16118933260440826 0.18814919888973236 -0.4049026370048523
0.5874392986297607 0.21386787295341492 0.04223335534334183
0.17693428695201874 0.38767606019973755 0.4603463113307953
-0.02488880418241024 -0.6269757747650146 -0.09515330195426941
0.18911002576351166 0.040073636919260025 0.34667086601257324
-0.014640108682215214 0.16163575649261475 0.34997543692588806
-0.38960808515548706 0.13324812054634094 -0.39998218417167664
-0.3524947762489319 0.03324964642524719 0.21230657398700714
-0.5625272989273071 0.35171574354171753 0.3284432291984558
-0.33862075209617615 0.39768391847610474 -0.2890162765979767
0.14654441177845 0.03872467204928398 0.34689658880233765
0.24558798968791962 0.40192264318466187 -0.12873058021068573
-0.05186709761619568 0.0027498011477291584 -0.050118587911129
0.17520326375961304 -0.6239690780639648 -0.0764990895986557
-0.12320782989263535 -0.023403257131576538 -0.2969743609428406
-0.013238105922937393 -0.0008989786729216576 0.31794682145118713
0.5898141264915466 0.3712642788887024 0.3152787983417511
-0.5798622965812683 0.003997386433184147 0.03531390428543091
-0.5710413455963135 0.336127907037735 0.05698912590742111
0.31879496574401855 -0.06742893904447556 0.43804624676704407
-0.5123127698898315 -0.10186194628477097 0.1879855990409851
-0.3372091054916382 0.3922455906867981 0.3271721601486206
0.03567856177687645 0.0019917923491448164 -0.25473856925964355
0.3387734293937683 -0.3445165753364563 0.21951335668563843
0.03364909812808037 -0.6264130473136902 0.032949693500995636
-0.2468443661928177 -0.00023820064961910248 -0.1912095695734024
0.3843022286891937 0.40088704228401184 -0.020075371488928795
-0.26836249232292175 0.3287467956542969 -0.40214046835899353
0.3261585831642151 -0.26756471395492554 -0.28647103905677795
-0.0764801949262619 -0.6245601773262024 0.0600554421544075
0.004055340774357319 0.40068790316581726 0.204306960105896
0.11566221714019775 0.05941009894013405 -0.4052627682685852
-0.5319643020629883 0.389504998922348 -0.004726329818367958
0.15968646109104156 0.029364043846726418 -0.4063018560409546
0.25767776370048523 0.3040745258331299 -0.403367280960083
-0.39469045400619507 0.06796378642320633 0.329146146774292
-0.1187802106142044 -0.6620001792907715 0.1352485865354538
-0.5672327876091003 0.34525713324546814 -0.2665612995624542
0.026918821036815643 -0.3508716821670532 -0.36888521909713745
-0.5709092617034912 0.1151743084192276 0.07716301828622818
0.02101089060306549 0.024176593869924545 -0.40309810638427734
-0.5323055386543274 0.39055970311164856 -0.06385701149702072
-0.30128318071365356 0.0030385563150048256 0.2011464685201645
-0.33161813020706177 0.28226372599601746 0.34477728605270386
-0.23942501842975616 0.194408118724823 0.3418618440628052
-0.5421335697174072 0.08236239850521088 -0.3100736141204834
0.30870869755744934 0.014774387702345848 0.44742581248283386
0.156173974275589 0.41812846064567566 0.46061190962791443
0.22015388309955597 0.3723578453063965 0.4670308828353882
-0.570009708404541 0.1348656862974167 0.2348136305809021
-0.5179153680801392 -0.013375457376241684 0.34644612669944763
-0.1901204138994217 0.3965442478656769 -0.16852714121341705
0.30141064524650574 0.1252737194299698 -0.405295193195343
-0.2782500088214874 0.3999406099319458 0.21290631592273712
-0.13636936247348785 -0.6484909653663635 -0.08917218446731567
0.10756492614746094 -0.39963629841804504 0.26777493953704834
-0.3109768331050873 -0.0012958468869328499 -0.1851203888654709
-0.12683279812335968 -0.375019371509552 0.19744154810905457
-0.12704044580459595 0.0020092055201530457 -0.018395762890577316
-0.17780950665473938 0.29541170597076416 -0.40115612745285034
-0.49071475863456726 0.17628183960914612 -0.4010637402534485
-0.15256044268608093 -0.49383607506752014 -0.17406213283538818
-0.1859392672777176 0.00022255931980907917 0.01755344308912754
-0.09399011731147766 -0.6305422186851501 -0.02707192488014698
0.18206273019313812 -0.0626751035451889 -0.35690727829933167
-0.1157999262213707 -0.5215204954147339 0.16142573952674866
-0.012650150805711746 0.0015137437731027603 0.07559370994567871
0.5648527145385742 0.31516650319099426 -0.39621198177337646
0.16432100534439087 0.002081113401800394 -0.3345443308353424
-0.5120900869369507 0.11721598356962204 0.32611867785453796
0.12022445350885391 0.4307318329811096 0.4483194351196289
0.5789400935173035 0.05909222736954689 0.18108655512332916
0.1967216432094574 -0.41174042224884033 0.23852258920669556
-0.1398448348045349 0.4010871946811676 -0.030082326382398605
0.5873473882675171 0.34913307428359985 0.058109100908041
-0.20853377878665924 0.39898908138275146 -0.17871536314487457
0.5898801684379578 0.2142438441514969 0.09529050439596176
0.029005158692598343 0.4004853069782257 -0.028732961043715477
0.11266958713531494 0.0016570817679166794 0.09398224949836731
-0.04046427458524704 -0.016703080385923386 0.2801506817340851
-0.037289705127477646 0.4003497064113617 -0.0804869532585144
0.014295983128249645 0.4017699360847473 0.1693945974111557
0.5583850145339966 0.15727299451828003 0.3476022779941559
0.25395169854164124 0.39969608187675476 -0.22611059248447418
-0.5781066417694092 0.27812936902046204 0.21495738625526428
-0.5710026025772095 0.11532311141490936 -0.36465534567832947
-0.4144270122051239 0.08574123680591583 0.21673838794231415
0.3599746823310852 -0.46326330304145813 -0.16490741074085236
-0.3669111430644989 -0.04969470947980881 0.2086687535047531
0.2987828850746155 -0.06272035837173462 0.456511914730072
-0.4508243501186371 0.07255861908197403 0.356697678565979
-0.16143682599067688 -0.6480922698974609 -0.11609487235546112
0.14243949949741364 0.3991795778274536 -0.236287459731102
0.41004183888435364 0.13691763579845428 0.34942278265953064
-0.5067330598831177 0.11293036490678787 -0.05480705201625824
0.03164583072066307 0.39723753929138184 0.15599164366722107
0.11765854805707932 -0.06741116940975189 -0.37102121114730835
0.5842627882957458 0.04285953938961029 0.27770763635635376
-0.1367909461259842 -0.6243179440498352 0.0011042479891330004
0.40392839908599854 0.3801268935203552 0.34413692355155945
0.41981643438339233 0.39937952160835266 -0.16729150712490082
-0.08263333886861801 -0.6286280155181885 -0.12120407819747925
-0.38127875328063965 0.3823911249637604 -0.17541180551052094
0.26061978936195374 0.004683670587837696 0.11268264800310135
-0.5817593336105347 0.1978118121623993 -0.23418329656124115
-0.09542505443096161 -0.6519013047218323 0.171102836728096
-0.03502703830599785 -0.6234438419342041 -0.15212231874465942
-0.17183047533035278 0.39841392636299133 0.27078548073768616
0.5809848308563232 0.0641922652721405 0.16945233941078186
-0.08852117508649826 -0.5292653441429138 -0.24879780411720276
-0.264533132314682 0.001662292517721653 0.09459774196147919
0.3791455030441284 -0.554248571395874 0.06465372443199158
0.19147877395153046 0.3901430666446686 0.4701535999774933
-0.5133471488952637 0.34432050585746765 -0.12177586555480957
0.22478777170181274 -0.6332810521125793 0.18051642179489136
0.5888932347297668 0.2853652834892273 -0.15546193718910217
0.20142051577568054 0.003612247295677662 -0.11407969146966934
-0.08430358022451401 -0.6270349621772766 0.04337334260344505
0.12185890972614288 0.3998880982398987 0.2580980956554413
-0.12142909318208694 -0.5739541053771973 0.14347535371780396
0.3140815198421478 -0.1565050333738327 -0.3068227767944336
-0.09576565772294998 -0.6018185019493103 0.17706255614757538
-0.571597695350647 0.35497182607650757 -0.06487343460321426
0.5814613699913025 0.35564562678337097 0.1426507532596588
-0.5358589887619019 -0.0811062753200531 0.08403844386339188
0.2303658425807953 -0.040360305458307266 0.29549485445022583
0.16919171810150146 -0.6286716461181641 -0.15760894119739532
-0.4798099994659424 0.39494502544403076 -0.10601092875003815
0.032611019909381866 0.12627582252025604 0.3772363066673279
0.3155655264854431 0.3713039457798004 0.4422875940799713
0.08265414088964462 -0.370834082365036 0.30387383699417114
0.06300780177116394 0.003406477626413107 0.0006411134963855147
0.09057208150625229 0.45156511664390564 0.43756309151649475
0.4359966218471527 0.2635238468647003 0.35066184401512146
0.24094779789447784 0.003610672429203987 0.005535981617867947
