-0.48100462555885315 0.3899668753147125 0.09636285156011581
0.10985793173313141 0.31389036774635315 0.4590396285057068
0.030468745157122612 0.40345531702041626 -0.12708668410778046
0.04341745376586914 -0.3641182482242584 -0.3609582483768463
-0.32089361548423767 0.004739400465041399 -0.26341232657432556
-0.5766271352767944 0.012192526832222939 -0.14782579243183136
0.0411987267434597 0.2532903850078583 0.43216583132743835
0.1259317249059677 -0.6079461574554443 0.25703030824661255
0.3036454916000366 0.02323678508400917 0.45570269227027893
-0.13408997654914856 -0.00027750711888074875 0.00895282719284296
-0.14063520729541779 0.40875574946403503 0.1796032339334488
0.5468377470970154 0.40458208322525024 -0.11278270930051804
-0.06746391206979752 -0.003749254159629345 0.2754194736480713
-0.22966207563877106 -0.32826173305511475 -0.042978957295417786
-0.13871251046657562 -0.5341657996177673 0.15195833146572113
-0.5275420546531677 0.004004972521215677 -0.18119831383228302
0.4509870707988739 0.17940278351306915 0.33639195561408997
-0.5130699276924133 0.16066499054431915 -0.39481523633003235
0.0293122548609972 0.0014987285248935223 0.052094921469688416
-0.5855256915092468 0.054486293345689774 0.21239596605300903
0.023260178044438362 0.0016907239332795143 0.133641317486763
0.23565560579299927 0.3997196555137634 -0.30804386734962463
-0.3160542845726013 0.3783411681652069 -0.12587156891822815
-0.1648850440979004 0.39782625436782837 0.32016319036483765
0.565457284450531 0.24628010392189026 -0.07336835563182831
0.3519584536552429 -0.38579508662223816 0.13446806371212006
-0.4213430881500244 0.4081766605377197 -0.09638963639736176
0.23729965090751648 0.35505402088165283 0.3353756070137024
-0.23447613418102264 -0.060507550835609436 -0.12623630464076996
-0.5267248749732971 0.18783019483089447 0.3466655910015106
0.024899912998080254 0.0031148456037044525 -0.38620370626449585
-0.35856592655181885 -0.036705099046230316 -0.2164899706840515
0.2998432219028473 0.40111202001571655 0.393972247838974
0.4527050852775574 -0.0007674340158700943 -0.08544160425662994
0.3779773414134979 -0.26076143980026245 0.1709078699350357
0.43791714310646057 -0.00040929578244686127 -0.07164832204580307
-0.578521728515625 0.2985994219779968 -0.3679870069026947
-0.5499775409698486 0.3994962275028229 0.11014369875192642
-0.22274066507816315 -0.27341488003730774 0.11915263533592224
0.15671056509017944 0.06410481035709381 0.4566763937473297
-0.06118030101060867 -0.6247124075889587 0.010566260665655136
-0.5426428914070129 0.34852856397628784 0.33867594599723816
-0.11359919607639313 -0.3489653170108795 0.24080634117126465
-0.3080406188964844 0.4058651328086853 -0.004585303366184235
0.35855984687805176 -0.6388622522354126 0.0881829559803009
0.05870775505900383 0.33174365758895874 0.34198495745658875
-0.2339976727962494 -0.37231671810150146 0.0606318935751915
0.1978270560503006 -0.617362380027771 -0.08751104772090912
-0.45368945598602295 0.17698808014392853 -0.40658116340637207
0.15881097316741943 0.40987148880958557 0.3524557650089264
0.10830612480640411 0.2583200931549072 -0.4093611538410187
-0.44814029335975647 0.40362051129341125 0.3091421127319336
0.2632247805595398 0.40937361121177673 0.14675630629062653
0.4326716363430023 0.39906755089759827 0.183379665017128
0.1348654180765152 0.001770912203937769 -0.21666090190410614
-0.5616921782493591 0.01279990840703249 -0.1427161544561386
0.17303816974163055 0.002765895798802376 -0.18218860030174255
-0.5539464950561523 0.002628946676850319 -0.08200139552354813
0.13206718862056732 0.32248687744140625 0.4612615704536438
0.31128913164138794 0.011218653991818428 0.38864660263061523
-0.44864994287490845 -0.11977700889110565 0.09807305037975311
-0.575403094291687 0.2177475243806839 -0.27968209981918335
0.09385600686073303 0.4097672402858734 -0.23297566175460815
0.04221495985984802 -0.6173850297927856 0.14920370280742645
0.24311694502830505 0.3763577342033386 0.3344917893409729
-0.34623777866363525 0.3645670711994171 -0.17469462752342224
-0.10116954147815704 0.31281399726867676 -0.4056360721588135
0.24348101019859314 -0.6283395886421204 0.11027183383703232
0.4000242054462433 0.009176049381494522 0.23605427145957947
-0.006109850946813822 0.0018017562106251717 -0.2722269892692566
0.35706114768981934 -0.38158532977104187 -0.21544748544692993
0.19180813431739807 0.0035455208271741867 -0.21331465244293213
-0.17980578541755676 0.4014767110347748 0.26206523180007935
0.5794663429260254 0.05389503762125969 -0.15028662979602814
0.49864092469215393 0.004944290965795517 -0.3217780292034149
-0.038648054003715515 -0.1606624722480774 0.27787837386131287
0.18502379953861237 -0.07419295608997345 0.41966038942337036
-0.08504641801118851 -0.1685175746679306 -0.3209434151649475
-0.5877800583839417 0.007361567113548517 -0.08216647803783417
0.03993673622608185 -0.5668037533760071 0.2557055652141571
-0.5647482872009277 0.3856661021709442 -0.30982276797294617
-0.4971875548362732 0.2396702915430069 -0.39663758873939514
-0.10953102260828018 0.363288938999176 0.33884093165397644
-0.10474631935358047 -0.06847330182790756 -0.3004037141799927
0.21475842595100403 -0.1883353739976883 0.29627087712287903
0.36180344223976135 -0.5100225806236267 -0.1687404066324234
0.17496226727962494 -0.6274799108505249 0.0872061625123024
-0.5262025594711304 0.10338664054870605 0.22632625699043274
-0.08485045284032822 0.39336061477661133 -0.10322064161300659
-0.3946055769920349 0.2608721852302551 0.34390655159950256
0.16860511898994446 0.3068436086177826 0.46054407954216003
0.3804419934749603 0.0043266331776976585 0.1931649148464203
0.03476514667272568 0.003873162902891636 -0.20934438705444336
0.34018322825431824 -0.5145981907844543 0.11744309216737747
0.384463369846344 -0.5219067335128784 -0.059870634227991104
0.34250664710998535 0.06909842044115067 -0.38990506529808044
0.3124294579029083 0.21806852519512177 0.4617835581302643
-0.14654868841171265 -0.5089513659477234 0.1004064604640007
0.03070516139268875 0.23046547174453735 0.36170557141304016
0.1656004786491394 -0.0038999891839921474 0.300152063369751
-0.20980140566825867 0.4073493182659149 -0.10865507274866104
0.31047311425209045 -0.61614590883255 -0.1348922699689865
0.4276880919933319 0.225138321518898 -0.3965761065483093
-0.048000577837228775 -0.3877522051334381 0.24932217597961426
-0.20288142561912537 0.002452423330396414 -0.36299243569374084
-0.5555265545845032 0.0006549154059030116 0.12024644762277603
-0.3020024001598358 0.3268904983997345 -0.40237855911254883
-0.4523703455924988 0.2428319752216339 -0.40140238404273987
-0.2014511078596115 0.004674038849771023 0.33547332882881165
0.008767738938331604 0.0010537151247262955 -0.0026479410007596016
-0.24040621519088745 -0.1610991656780243 -0.04992246627807617
-0.04046371579170227 0.39737117290496826 0.020771346986293793
-0.2090141624212265 -0.3738999664783478 0.062003061175346375
0.06653110682964325 -0.6269190311431885 0.007192553952336311
0.2806515097618103 -0.03165273740887642 0.2749802768230438
-0.580552339553833 0.06529883295297623 -0.30720382928848267
0.5399183034896851 0.010234525427222252 0.11125673353672028
0.31125184893608093 -0.6304170489311218 0.12413689494132996
-0.5906660556793213 0.29951852560043335 0.32935577630996704
0.4749023914337158 0.4066421687602997 0.3336169123649597
0.566442608833313 0.0005931537598371506 -0.2987789809703827
0.20215611159801483 -0.0886082798242569 0.4092074930667877
-0.5804436206817627 -0.016436180099844933 -0.3633788824081421
0.5792211890220642 0.22683686017990112 -0.39653831720352173
0.42003002762794495 0.2551341950893402 0.33925318717956543
0.03725006803870201 -0.5356293320655823 -0.3137948513031006
-0.34194666147232056 0.4026380777359009 -0.009532748721539974
-0.40742653608322144 -0.07830933481454849 -0.28947558999061584
0.5809263586997986 0.08695129305124283 0.1029631495475769
0.2524375021457672 -0.3304201662540436 0.28293031454086304
0.24875058233737946 0.0017857903148978949 -0.19341851770877838
-0.03871290385723114 -0.6364552974700928 -0.2735632658004761
0.5902349948883057 0.17057721316814423 0.22176174819469452
0.32692429423332214 0.4062041938304901 -0.28149867057800293
0.2574036419391632 -0.616392970085144 0.14818774163722992
0.11886952072381973 0.002784914802759886 -0.32102739810943604
0.05083451047539711 0.21787263453006744 0.4524852931499481
-0.12682124972343445 -0.5844079852104187 -0.21883082389831543
0.2835041284561157 -0.07876016944646835 0.3950929641723633
0.03694427013397217 0.3947068154811859 -0.16902698576450348
-0.576301634311676 0.057840973138809204 -0.33067408204078674
0.2882367968559265 -0.08409401029348373 0.3304997682571411
0.2684658467769623 -0.622895359992981 0.005930575542151928
0.20743587613105774 -0.6168636083602905 0.008399770595133305
-0.2664116322994232 0.14633359014987946 -0.3901106119155884
0.5377563834190369 0.004173346795141697 -0.25298622250556946
0.18973112106323242 0.00016322149895131588 0.2677973806858063
0.37464606761932373 -0.42597928643226624 -0.06541948765516281
0.30588528513908386 0.23734799027442932 0.4575902223587036
-0.05778077244758606 -0.6186913251876831 -0.21188893914222717
-0.370850533246994 0.002738585229963064 -0.2932206392288208
-0.5105239152908325 0.40552395582199097 0.21798670291900635
0.32821759581565857 -0.5998305678367615 -0.21602222323417664
-0.036990389227867126 -0.4746685028076172 -0.26904547214508057
0.041009604930877686 -0.6219788789749146 -0.07423795014619827
-0.12406903505325317 -0.6227796077728271 0.041432663798332214
0.05434241145849228 -0.5493258237838745 0.25001150369644165
0.3350171446800232 0.39573878049850464 0.18751688301563263
-0.5667527914047241 0.144199937582016 0.05492059141397476
-0.09356066584587097 -0.2618236839771271 0.2640458345413208
-0.5051208734512329 0.03607177734375 -0.4091857671737671
-0.18782615661621094 -0.571298360824585 -0.03485741466283798
0.14778076112270355 0.0012166418600827456 -0.14090119302272797
-0.2062223255634308 -0.25270870327949524 -0.16309398412704468
-0.4649165868759155 0.41296425461769104 -0.07687865942716599
0.018517617136240005 0.08702903240919113 -0.41431063413619995
-0.13435162603855133 0.29706430435180664 0.34569883346557617
-0.36915096640586853 0.046354617923498154 0.1419355422258377
0.16841505467891693 0.3899216651916504 -0.12050586938858032
0.13243909180164337 -0.20528069138526917 0.31039273738861084
-0.13460570573806763 -0.5676987171173096 0.1324736624956131
0.39444810152053833 0.0024168984964489937 0.11082828044891357
-0.2327657788991928 0.38931360840797424 -0.13655146956443787
-0.11788026243448257 -0.6247219443321228 -0.00509731937199831
0.4768703877925873 0.40283891558647156 0.033441055566072464
-0.05227891355752945 0.334145188331604 0.35310399532318115
-0.5826364755630493 0.03257565572857857 -0.31330981850624084
-0.016989566385746002 0.4072439968585968 0.3010142147541046
-0.19223392009735107 -0.03100588172674179 -0.19087399542331696
0.031971823424100876 0.38112232089042664 0.4416455328464508
-0.3627816438674927 0.004096427466720343 -0.34156855940818787
0.2644301652908325 0.0024738688953220844 -0.282279908657074
-0.5626987814903259 0.14865297079086304 0.33878397941589355
-0.06662794202566147 -0.0009666794212535024 0.3281877934932709
0.3223262131214142 -0.045065850019454956 0.44660332798957825
0.24017681181430817 0.0029993350617587566 0.0965309664607048
-0.5517863035202026 0.390586793422699 -0.3858269453048706
-0.3669009506702423 0.3459792733192444 0.3453598916530609
-0.35790279507637024 0.24328170716762543 -0.4036101996898651
0.2538259029388428 0.3802012503147125 -0.4147628843784332
-0.08575733006000519 0.40253156423568726 0.2090735286474228
0.039474908262491226 0.0014110454358160496 -0.08961346745491028
0.5480902791023254 0.38839828968048096 -0.053683094680309296
-0.12078437209129333 -0.37052905559539795 0.1646214723587036
-0.5446450114250183 -0.0016844675410538912 -0.3224527835845947
0.25908395648002625 0.3909203112125397 -0.1193787157535553
0.07777054607868195 -0.6598539352416992 0.23740240931510925
0.30291152000427246 0.3888038396835327 0.029616642743349075
-0.22021201252937317 -0.009638745337724686 -0.1193934977054596
-0.12087766826152802 0.002657112665474415 0.13290907442569733
0.1991109400987625 -0.41873884201049805 0.2464779019355774
0.02363596297800541 0.04723334312438965 0.3499695062637329
0.16681548953056335 -0.6224637031555176 0.07604241371154785
0.4571303725242615 0.003790584858506918 -0.27053171396255493
-0.4834277033805847 -0.019055891782045364 0.3615449368953705
-0.5821453332901001 0.21712614595890045 0.08899892121553421
0.2756471633911133 0.0029170955531299114 0.10354028642177582
-0.18403559923171997 -0.4018535017967224 0.0562775619328022
-0.5776340365409851 0.0510544516146183 0.1168011873960495
0.27687928080558777 0.009686645120382309 -0.39359134435653687
-0.1952318698167801 -0.5867152810096741 -0.044314973056316376
0.39477768540382385 -0.37546873092651367 -0.10786562412977219
0.03180050104856491 0.1819402575492859 0.45486021041870117
0.31852975487709045 -0.11000645160675049 0.2296217978000641
-0.45865336060523987 0.13405001163482666 -0.40675437450408936
0.5693284273147583 0.013048874214291573 0.32760822772979736
-0.529575765132904 0.39588361978530884 0.22032421827316284
-0.11186161637306213 -0.3026040196418762 0.22987914085388184
-0.04361062869429588 -0.49600857496261597 -0.27627813816070557
-0.23172402381896973 -0.14689160883426666 0.066302590072155
0.5699344873428345 0.28708526492118835 -0.20515340566635132
0.409593790769577 -0.004634866490960121 -0.2002178132534027
-0.19505923986434937 -0.30923783779144287 -0.19733187556266785
0.031682539731264114 -0.036806099116802216 0.3745534121990204
0.5848776698112488 0.3244788348674774 -0.015647809952497482
0.22989024221897125 -0.6159360408782959 -0.17898790538311005
-0.2591228485107422 0.0006946125067770481 -0.20497830212116241
0.3870898485183716 -0.4952617883682251 0.03538091480731964
-0.011071747168898582 -0.09922809898853302 -0.35199934244155884
-0.24510163068771362 -0.16264919936656952 0.05422447621822357
-0.5713880658149719 0.02462082915008068 -0.11430719494819641
0.5704455375671387 0.011464952491223812 -0.20935183763504028
-0.5656927824020386 0.3402295708656311 0.25524598360061646
0.5743144154548645 0.3104310929775238 0.1321990042924881
0.5821995139122009 0.39367735385894775 -0.4020724594593048
0.24376684427261353 -0.5964298844337463 0.2118254452943802
-0.4491874873638153 0.005230895709246397 0.10627172887325287
-0.20239165425300598 0.40940767526626587 0.16288921236991882
-0.10267437994480133 -0.002341790124773979 -0.23363180458545685
-0.24762071669101715 -0.00993852037936449 -0.02329399436712265
-0.4518784284591675 0.06346481293439865 -0.4022025167942047
0.43621453642845154 0.2272499054670334 -0.38947510719299316
0.019800588488578796 0.020545925945043564 0.39649349451065063
0.2744428813457489 0.0017195874825119972 -0.1915043294429779
-0.14710386097431183 0.0018533971160650253 -0.12617720663547516
0.06685143709182739 -0.6206416487693787 0.19968102872371674
0.2939532995223999 -0.6202105283737183 0.06815475970506668
0.5650085806846619 0.006767383776605129 0.1261465847492218
0.27925023436546326 -0.6133031845092773 0.1310606300830841
0.472540020942688 0.004190979525446892 -0.24165764451026917
0.02652941644191742 0.30358219146728516 0.3427802324295044
-0.2865699529647827 0.394634872674942 -0.04609468951821327
-0.1965210735797882 -0.4829261302947998 -0.0727827399969101
-0.1731324940919876 0.0005462495610117912 -0.09406637400388718
-0.5718345642089844 0.2997050881385803 -0.04442586377263069
0.06713955849409103 -0.6269248127937317 -0.2010839581489563
0.39786094427108765 -0.3614867925643921 -0.22586388885974884
-0.42504605650901794 0.3939216732978821 -0.16626913845539093
-0.5348513126373291 0.38155877590179443 0.2679232358932495
-0.5120412707328796 -0.08449728786945343 0.34759828448295593
-0.3127497434616089 0.35987693071365356 -0.1730746477842331
-0.4871503412723541 -0.08910470455884933 -0.11339753121137619
0.012925688177347183 -0.23721401393413544 -0.37240633368492126
0.23729471862316132 0.0020035235211253166 -0.17908528447151184
0.1442013382911682 -0.013130608014762402 0.46590885519981384
0.16344960033893585 0.40969106554985046 0.22451819479465485
-0.5806396007537842 0.2708203196525574 0.30096954107284546
0.1832476109266281 0.39849159121513367 0.2467145323753357
0.1945287138223648 0.33455511927604675 0.46105170249938965
-0.02768407203257084 -0.6116016507148743 -0.1900467574596405
-0.5920503735542297 0.24564507603645325 0.2773711681365967
-0.030499523505568504 -0.6356989145278931 -0.26459208130836487
0.4553845226764679 0.005203185603022575 -0.3796716630458832
0.1295713484287262 0.004574772901833057 -0.294434130191803
0.2282472848892212 -0.6087719202041626 -0.2854965031147003
-0.1723536252975464 -0.15138757228851318 0.20010435581207275
-0.5384895205497742 -0.0729987621307373 0.2809246778488159
0.14070472121238708 0.4004027545452118 -0.3400222957134247
0.4308381974697113 -0.22066032886505127 0.0017365470994263887
-0.09467101097106934 0.08500462770462036 -0.4027184247970581
0.27776750922203064 -0.3544534146785736 -0.3088795244693756
-0.4821197986602783 0.3924315869808197 0.11612381786108017
0.08774527907371521 -0.5125568509101868 0.2616633176803589
-0.49827930331230164 0.4024275243282318 0.2681300938129425
0.18045730888843536 -0.46808096766471863 -0.32595330476760864
-0.23786427080631256 0.16417300701141357 0.3437662124633789
0.0477636381983757 -0.0001205467851832509 0.21688830852508545
-0.07590316236019135 -0.46215882897377014 0.20493248105049133
-0.464237242937088 -0.04532996565103531 0.3529476821422577
-0.33016693592071533 0.4079805612564087 -0.37219032645225525
0.5711424350738525 0.23213982582092285 -0.13568341732025146
0.5718573927879333 0.08509363234043121 0.25830644369125366
-0.1706141084432602 0.0002691783010959625 0.0030557834543287754
0.406771183013916 -0.6155487895011902 -0.05348176136612892
-0.10171014070510864 0.004626491107046604 -0.2505893111228943
0.15391895174980164 0.32290998101234436 0.45937010645866394
-0.1502581536769867 -0.0010551691520959139 0.09279365092515945
-0.13580715656280518 0.22234566509723663 -0.4010351896286011
-0.19865207374095917 -0.11409945040941238 0.14268387854099274
-0.055394239723682404 0.4084548354148865 0.03828440606594086
0.16947337985038757 0.30209586024284363 0.33597254753112793
0.28084856271743774 0.46236783266067505 0.43786147236824036
0.45389431715011597 0.003179587423801422 0.27692538499832153
0.5767797231674194 0.19375599920749664 -0.37926656007766724
-0.5490756630897522 0.006344558205455542 -0.40465080738067627
0.5681982636451721 0.39366891980171204 0.2946870028972626
0.05628393962979317 -0.20185454189777374 -0.37226030230522156
0.09489796310663223 -0.6129978895187378 -0.048202238976955414
-0.3616621494293213 0.004498452413827181 -0.2076510190963745
-0.5715880990028381 0.2204384207725525 -0.31178152561187744
-0.4412849545478821 0.3569760322570801 0.33950185775756836
0.16840189695358276 -0.5870105028152466 -0.32257094979286194
0.5919438004493713 0.09789294749498367 0.19771702587604523
-0.23124155402183533 -0.30792635679244995 0.07452235370874405
0.22362692654132843 -0.045914292335510254 0.45287060737609863
0.34164437651634216 0.07857179641723633 0.3366764187812805
-0.19930294156074524 -0.584205150604248 -0.012847233563661575
-0.20299342274665833 0.350871741771698 0.33723193407058716
0.3295680582523346 0.06692846864461899 0.45631203055381775
-0.5166691541671753 0.39851367473602295 0.10017486661672592
-0.48720672726631165 0.12163717299699783 -0.10987173020839691
-0.1259249746799469 -0.44809189438819885 0.16726452112197876
0.3076021075248718 -0.6406663656234741 -0.21143178641796112
-0.4169404208660126 -0.09491478651762009 0.12417992204427719
-0.21451058983802795 -0.3806508779525757 0.033124376088380814
0.3648597300052643 0.4037211537361145 -0.2706828713417053
-0.04832908883690834 -0.6151351928710938 0.05461397394537926
0.5661790370941162 0.14179673790931702 -0.39154866337776184
0.4684377908706665 0.39957112073898315 0.1827867478132248
-0.3122296631336212 0.0023023122921586037 -0.18931131064891815
0.17659616470336914 0.13785265386104584 0.46101343631744385
0.1438683122396469 -0.6194493174552917 -0.03181493282318115
0.18019556999206543 0.0012755859643220901 -0.11767728626728058
0.10251858085393906 -0.6206942796707153 -0.14833176136016846
0.18642446398735046 0.3782495856285095 0.45779427886009216
-0.1101573258638382 -0.14781181514263153 0.24609987437725067
0.1846272349357605 0.2968257665634155 -0.405411958694458
-0.2135312259197235 -0.2469988763332367 0.07669279724359512
0.04075276851654053 -0.05649645999073982 0.445248544216156
-0.5729614496231079 -0.005218389444053173 -0.27346092462539673
0.1687561273574829 0.40667927265167236 -0.23636479675769806
0.26069217920303345 0.2564579248428345 -0.3911502957344055
-0.4624319076538086 -0.11941252648830414 0.2845105230808258
-0.12121549248695374 -0.38980284333229065 -0.2651965022087097
-0.17471429705619812 0.0012163305655121803 -0.0469985157251358
0.20491813123226166 -0.07009819895029068 0.38056930899620056
-0.5916552543640137 0.3072195053100586 0.03902143985033035
0.12053141742944717 0.4070318043231964 -0.19505813717842102
-0.3295561373233795 0.11398038268089294 -0.3884841799736023
-0.4859335720539093 0.029697054997086525 -0.39374202489852905
0.09030509740114212 -0.02205144613981247 0.4555400311946869
-0.1384781301021576 -0.16128429770469666 -0.2801281213760376
-0.21302494406700134 0.2568545639514923 0.3455004096031189
-0.309689998626709 0.3114839792251587 0.34101057052612305
0.23754791915416718 -0.6198441982269287 -0.08906291425228119
0.5118194222450256 0.005389529280364513 -0.33104828000068665
0.2859983444213867 -0.0011984705924987793 -0.36707109212875366
-0.3096837103366852 0.14064782857894897 0.34167057275772095
-0.3095508813858032 0.0010604176204651594 0.2250581830739975
0.1911385953426361 0.3963075280189514 0.3176333010196686
0.18192994594573975 0.36295926570892334 0.33786648511886597
0.39071124792099 -0.34541094303131104 0.14018124341964722
-0.05641108751296997 0.3613150119781494 0.33540353178977966
-0.43609297275543213 0.360163152217865 -0.41024479269981384
-0.4588792324066162 0.11624214798212051 0.341083288192749
0.5492131114006042 0.006219751667231321 -0.38306817412376404
-0.23954889178276062 -0.04291330277919769 0.04991636797785759
0.11295370757579803 -0.137050598859787 -0.37049031257629395
-0.5886569023132324 -0.014327489770948887 0.30450665950775146
-0.5183496475219727 0.3521704375743866 0.3367679715156555
0.05986427515745163 -0.6575339436531067 -0.27727335691452026
0.05310153588652611 -0.4035712778568268 0.2614510655403137
0.5941523909568787 0.18330124020576477 -0.12498734146356583
0.5595820546150208 0.05297248438000679 -0.39086392521858215
-0.13226982951164246 -0.6276372075080872 0.04459192603826523
0.2915952503681183 0.15217770636081696 -0.4082377552986145
-0.17348641157150269 -0.00044094648910686374 0.2778797447681427
0.5475430488586426 0.37935492396354675 -0.4080309569835663
0.4345066547393799 -0.11994381994009018 -0.13728661835193634
0.48951759934425354 -0.0003948928788304329 -0.29165324568748474
0.14855274558067322 -0.55922532081604 -0.3146081864833832
0.49844133853912354 0.1668993979692459 -0.39058220386505127
-0.4496667981147766 0.11790382117033005 0.23206642270088196
-0.042208049446344376 0.0001981040695682168 -0.06684037297964096
0.21932005882263184 -0.5332044959068298 0.23649689555168152
-0.3657250702381134 0.2500552535057068 0.3415806293487549
-0.3716166019439697 0.009048588573932648 -0.30833983421325684
0.2533096373081207 0.3366447389125824 0.34735679626464844
0.30350208282470703 0.0014583682641386986 -0.21020226180553436
0.040891364216804504 -0.30264726281166077 -0.3578886091709137
-0.33741167187690735 0.0010342388413846493 -0.16797330975532532
0.5448237061500549 0.3752349317073822 -0.40697988867759705
-0.1096828505396843 0.4023440182209015 -0.0057735079899430275
0.24175909161567688 -0.21328464150428772 -0.34849056601524353
0.0767076388001442 0.4009562134742737 0.28892236948013306
0.2709304392337799 -0.5228328108787537 -0.2707201838493347
0.21478992700576782 0.0009040255099534988 0.047962747514247894
0.06881619989871979 -0.6198643445968628 -0.11035331338644028
0.337974488735199 -0.14674115180969238 -0.2828141748905182
-0.19198207557201385 0.0038167936727404594 -0.10021637380123138
0.26442021131515503 0.4111769497394562 0.45679858326911926
0.2041902244091034 -0.0006479993462562561 -0.1676560789346695
0.26005110144615173 0.039955008774995804 0.45660626888275146
0.5828866958618164 0.0067597562447190285 0.2923568785190582
-0.004434543661773205 -0.0004307469353079796 0.1082104742527008
-0.29421988129615784 0.008792558684945107 -0.3953228294849396
-0.566029965877533 0.1970285028219223 -0.1514107882976532
-0.3969818949699402 -0.07627243548631668 -0.3971461057662964
0.347706139087677 -0.25487688183784485 0.21184544265270233
0.3534233272075653 0.002758390735834837 -0.24991872906684875
0.09156552702188492 -0.6187891364097595 0.09839455038309097
0.2534022033214569 -0.4027089774608612 0.2193375825881958
0.1826784461736679 0.29553112387657166 0.34082165360450745
-0.4590087831020355 0.11293428391218185 0.23138563334941864
0.5815266966819763 0.4014025926589966 0.05308402329683304
-0.039600830525159836 -0.6250601410865784 -0.12010083347558975
0.09427748620510101 -0.6176395416259766 -0.13530424237251282
-0.1911618560552597 -0.33505934476852417 -0.2025197446346283
0.579206109046936 0.005410539451986551 -0.2663356363773346
-0.12397966533899307 -0.00029108207672834396 -0.19927559792995453
-0.5636307597160339 0.010760907083749771 -0.20870225131511688
-0.5741379857063293 -0.04499185457825661 0.23645661771297455
0.0253888126462698 0.11218202859163284 0.4422803819179535
-0.5809897780418396 0.04914339259266853 -0.309305340051651
-0.24981389939785004 0.3954010605812073 -0.13516464829444885
-0.15586137771606445 -0.3882778584957123 -0.2000260353088379
0.04946472868323326 0.0012084916234016418 -0.24075022339820862
-0.4859711229801178 0.11476065963506699 0.3334946036338806
-0.47345030307769775 -0.0015170928090810776 -0.24315738677978516
-0.023925410583615303 -0.6214120388031006 -0.18574494123458862
0.4229270815849304 -0.017193889245390892 0.04776766523718834
0.23438619077205658 -0.5769522786140442 0.22767303884029388
-0.12495723366737366 -0.32366371154785156 0.2351696640253067
-0.3812924027442932 -0.0048157633282244205 -0.07169760763645172
0.06073462590575218 -0.6234896183013916 -0.11108236014842987
-0.05547988414764404 0.17331042885780334 -0.3916124701499939
-0.21511636674404144 -0.048004262149333954 -0.16103701293468475
0.10794388502836227 -0.617030680179596 -0.07058243453502655
0.41663381457328796 0.19226709008216858 -0.39277100563049316
0.23417727649211884 0.0009091626852750778 -0.04655582830309868
-0.44390422105789185 -0.09494775533676147 0.22570012509822845
-0.5654751062393188 0.012375704944133759 -0.3523082137107849
0.07293743640184402 0.39112144708633423 0.15889932215213776
-0.5854124426841736 0.35625699162483215 -0.2679605782032013
-0.26836398243904114 0.017078058794140816 -0.40706270933151245
0.21934106945991516 -0.04939468950033188 0.3182830512523651
0.3354865610599518 0.36939895153045654 0.3389016389846802
0.5720512270927429 0.18137715756893158 0.10438251495361328
0.5650628209114075 0.3902570605278015 0.28675147891044617
-0.22953751683235168 -0.07981161773204803 -0.05240984633564949
0.32277703285217285 0.0029295706190168858 -0.22518619894981384
0.029553260654211044 -0.5203408002853394 -0.30320683121681213
0.5355250835418701 0.3603997528553009 -0.4073483347892761
0.12752149999141693 0.39236339926719666 0.26559168100357056
-0.4849585294723511 0.0668090358376503 -0.3935942053794861
-0.22434121370315552 0.3937056362628937 -0.048244658857584
-0.5544933080673218 0.04533276706933975 0.10647209733724594
-0.4228377640247345 0.4060688018798828 -0.13346554338932037
-0.01435187179595232 -0.0022136978805065155 0.1739392727613449
-0.45679381489753723 -0.1176755502820015 -0.16616222262382507
-0.5747750997543335 0.1302233189344406 0.3108532726764679
-0.12665358185768127 -0.6138346195220947 -0.10619036108255386
0.039765384048223495 -0.027163386344909668 0.45459213852882385
0.10620223730802536 6.22868537902832e-06 -0.002372045535594225
0.19475911557674408 0.384032279253006 0.3508194386959076
-0.09918544441461563 -0.0011794250458478928 0.303785115480423
0.35491517186164856 0.005305107682943344 0.05564919859170914
0.40978142619132996 -0.3191055357456207 -0.18474319577217102
0.40719524025917053 0.003382580354809761 0.29011043906211853
-0.4242951273918152 0.11375896632671356 -0.12164756655693054
0.09366251528263092 0.07824782282114029 0.4616616666316986
0.25943484902381897 0.40495017170906067 -0.24830250442028046
-0.1675635725259781 -0.0038278321735560894 0.19127291440963745
0.41657066345214844 0.39157092571258545 0.05058826878666878
-0.5553540587425232 -0.0513923317193985 -0.031945183873176575
-0.47995856404304504 0.005098761525005102 -0.08920876681804657
0.18848247826099396 0.44516026973724365 0.3643055260181427
0.29934993386268616 -0.3863874077796936 -0.24706625938415527
-0.571140468120575 0.37008988857269287 -0.1620449423789978
-0.5625694990158081 0.34254294633865356 -0.24680973589420319
0.2822248935699463 0.004508618265390396 -0.004355002660304308
0.12341387569904327 -0.04064597934484482 -0.37966832518577576
-0.3646162152290344 -0.00028477120213210583 0.0835031270980835
-0.07189985364675522 -0.6357315182685852 -0.269551545381546
-0.024423960596323013 0.00040390389040112495 0.329502135515213
0.3517449200153351 -0.1896216869354248 -0.27178552746772766
0.06833066046237946 0.10852817445993423 0.45922762155532837
0.5547371506690979 0.005987019278109074 -0.24679552018642426
0.3271269202232361 0.15017566084861755 0.4603423476219177
-0.41642627120018005 0.10178301483392715 -0.08503005653619766
-0.26924124360084534 0.10197923332452774 -0.4059675633907318
0.2042485773563385 -0.5518433451652527 -0.29623210430145264
0.15532901883125305 -0.624260663986206 -0.10849787294864655
0.14352917671203613 -0.6045129895210266 0.2536713480949402
-0.35820308327674866 -0.01569857820868492 0.18863755464553833
-0.4794784486293793 0.09897978603839874 0.1646178960800171
0.3003537356853485 -0.6220888495445251 -0.03993145376443863
0.31655120849609375 0.005562406964600086 -0.0834609717130661
0.17960846424102783 0.4076131582260132 -0.08908630907535553
-0.06240074336528778 -0.2149183601140976 -0.3276975452899933
-0.05012166127562523 0.32213371992111206 -0.41532307863235474
0.12126351147890091 0.4067220389842987 0.26382535696029663
0.4266220033168793 -0.23673716187477112 -0.08684390783309937
-0.03366709500551224 -0.314060240983963 0.28267356753349304
0.15831133723258972 0.29313182830810547 -0.4159640669822693
0.20316776633262634 -0.6233457326889038 -0.25691840052604675
-0.5432654023170471 -0.007465759292244911 0.2098170816898346
-0.1723942905664444 -0.48087841272354126 -0.0895305797457695
0.11198631674051285 0.00013878662139177322 -0.357147216796875
0.2970707416534424 0.0035176831297576427 0.08266033977270126
0.3438083231449127 -0.028440028429031372 0.2250651866197586
-0.24979986250400543 0.218292698264122 -0.39535579085350037
0.29271018505096436 0.39571619033813477 0.20128275454044342
0.07303749024868011 -0.4955143630504608 0.2573215365409851
-0.0011336163152009249 0.16322658956050873 0.3914630711078644
0.4324549436569214 -0.29316985607147217 -0.1077781543135643
-0.1127132773399353 -0.6287649869918823 0.0003533867420628667
0.579009473323822 0.04553614556789398 -0.05629145726561546
-0.4049370586872101 0.012207107618451118 -0.39087575674057007
-0.225829616189003 -0.19518782198429108 0.03377163037657738
0.35319381952285767 -0.33304524421691895 0.18874472379684448
-0.4531767666339874 0.12356884032487869 -0.10451501607894897
0.3355148434638977 -0.4800534248352051 -0.21722005307674408
-0.4318781793117523 -0.09454206377267838 -0.3835381865501404
-0.051426295191049576 -0.3841862082481384 0.21104779839515686
0.515078067779541 0.37458592653274536 0.3495613634586334
0.11860541999340057 -0.5491008162498474 0.25465962290763855
0.4224310517311096 0.1544000655412674 0.3441787660121918
-0.5299927592277527 0.08368268609046936 -0.08851438015699387
-0.5657298564910889 0.001370720099657774 0.14800870418548584
-0.05196304991841316 -0.617853045463562 -0.06947460770606995
-0.580483078956604 0.01024449523538351 -0.3026507496833801
0.5502236485481262 0.006346176378428936 -0.19938591122627258
0.5686140656471252 0.34110599756240845 -0.3292982876300812
-0.5174738168716431 0.03668970242142677 0.35215553641319275
-0.21323752403259277 -0.17587636411190033 -0.16006501019001007
0.1503152847290039 0.30206581950187683 0.342332124710083
0.10660166293382645 0.39668670296669006 0.3342650532722473
-0.28257495164871216 0.3945747911930084 0.29537293314933777
0.03141946718096733 -0.005108008626848459 0.3290698528289795
0.29934266209602356 0.004971391521394253 0.17243753373622894
-0.42187219858169556 0.10410793125629425 0.2845611870288849
-0.10970921814441681 -0.6241222023963928 -0.15635709464550018
0.4209311604499817 -0.24923346936702728 -0.12100551277399063
0.14785046875476837 0.4611837565898895 0.37137794494628906
-0.05046609416604042 0.3650045394897461 0.34267568588256836
-0.5897455811500549 0.298475444316864 0.04567158222198486
-0.200005441904068 -0.365477591753006 0.06530705094337463
0.2949914336204529 -0.011225533671677113 0.33011555671691895
0.20888446271419525 0.14025239646434784 0.3504447042942047
-0.36591392755508423 -0.03916972130537033 0.08355043828487396
-0.022985342890024185 -0.38555482029914856 -0.3287716805934906
0.2271493375301361 -0.015018369071185589 -0.3603132665157318
0.13391689956188202 -0.49117839336395264 -0.3045778274536133
0.3834618031978607 -0.6091463565826416 0.015631714835762978
-0.44394639134407043 0.1632508933544159 0.34735676646232605
-0.2983749806880951 0.37921983003616333 -0.39339739084243774
-0.37575870752334595 0.026298586279153824 -0.36159804463386536
-0.5531927347183228 -0.07481970638036728 -0.02857302501797676
-0.03292010352015495 -0.6109538674354553 0.048112060874700546
0.48561254143714905 0.40213653445243835 -0.3366204798221588
0.32376646995544434 0.1443568766117096 -0.417400598526001
-0.4592462480068207 0.40638795495033264 0.21552962064743042
0.050859663635492325 -0.6230242848396301 -0.23136889934539795
0.42532697319984436 -0.2755589187145233 -0.11462913453578949
0.1662375032901764 0.3995152413845062 -0.3856840431690216
0.3543775975704193 0.3909234404563904 -0.16944482922554016
-0.5701007843017578 0.36710530519485474 -0.1532669961452484
-0.3646417260169983 0.382265567779541 0.01712356135249138
0.21580097079277039 -0.08381567895412445 0.4480818212032318
0.43704691529273987 -0.13005945086479187 -0.12213786691427231
-0.47421014308929443 0.10919039696455002 0.14327073097229004
-0.1891128122806549 0.4066377282142639 -0.12592339515686035
0.26569241285324097 0.40013450384140015 -0.07791794091463089
-0.1913609504699707 0.39393097162246704 -0.17222225666046143
-0.3264677822589874 0.003919986076653004 0.10711267590522766
0.1439410299062729 -0.6152046918869019 -0.2095927596092224
0.19538690149784088 0.33669814467430115 0.3456040918827057
-0.39407873153686523 -0.07639247179031372 -0.0622694194316864
0.044571224600076675 -0.4100029468536377 0.26709553599357605
-0.2737687826156616 0.0008924473077058792 -0.15586495399475098
-0.2262050360441208 -0.04350198805332184 0.02806563675403595
0.36346641182899475 -0.40332821011543274 -0.16042852401733398
0.07194789499044418 -0.5046992897987366 0.26300743222236633
-0.4408484697341919 0.0027966280467808247 -0.09495461732149124
-0.571612536907196 0.21450266242027283 0.06929546594619751
0.5609530806541443 0.22261790931224823 0.3391838073730469
-0.564874529838562 0.32468631863594055 0.2556680738925934
-0.1774253398180008 0.40662524104118347 -0.24828380346298218
0.45755818486213684 -0.05673593282699585 0.020796580240130424
0.4234037399291992 -0.1886218935251236 0.07009794563055038
-0.031094925478100777 -0.2760935127735138 -0.34130826592445374
-0.08248292654752731 -0.4726162254810333 0.18585118651390076
-0.49897798895835876 0.39237090945243835 -0.20809072256088257
0.0007776970160193741 0.36435186862945557 0.34006407856941223
0.0415167398750782 -2.8040260076522827e-05 0.21053780615329742
0.19136027991771698 0.45469045639038086 0.3587493300437927
0.27045387029647827 0.17686936259269714 -0.4035808742046356
0.30879807472229004 0.15872211754322052 0.3436180651187897
0.26665249466896057 0.19876672327518463 -0.4000088572502136
-0.1007024496793747 -0.630687952041626 -0.20099122822284698
0.02582853101193905 -0.058478668332099915 0.3340931236743927
0.27234798669815063 -0.33344632387161255 0.2612360715866089
-0.10296976566314697 0.0034171901643276215 -0.07147635519504547
-0.4114890396595001 0.38954657316207886 0.20613431930541992
0.13441778719425201 -0.04231768101453781 0.3201007544994354
-0.11849162727594376 -0.22850987315177917 -0.29236143827438354
-0.42739441990852356 0.39384034276008606 0.3111719489097595
-0.04934784024953842 -0.614773690700531 -0.07478143274784088
0.2602485120296478 -0.6326823234558105 0.15862785279750824
-0.17059539258480072 -0.4846915006637573 -0.06996679306030273
0.25942912697792053 -0.6197126507759094 -0.1207646057009697
-0.16027230024337769 0.13871881365776062 0.34098172187805176
-0.5683049559593201 0.39067861437797546 0.0024378695525228977
-0.5118106603622437 0.11075818538665771 0.10033562034368515
0.1904660016298294 0.0053861988708376884 0.07962754368782043
-0.49538716673851013 0.003878133837133646 0.26556360721588135
0.16856352984905243 0.4070330858230591 -0.31092649698257446
-0.17992697656154633 0.0804842859506607 -0.41067659854888916
0.0871974527835846 0.13803035020828247 -0.3989528715610504
-0.4226173460483551 0.3989260792732239 -0.14854533970355988
0.2577395737171173 0.01610090583562851 0.33344337344169617
0.16893313825130463 -0.6224353313446045 0.1145482063293457
0.25687503814697266 0.0023195380344986916 -0.23595976829528809
0.17546892166137695 0.39766114950180054 -0.3475111126899719
0.16764582693576813 -0.628021776676178 0.17244094610214233
-0.3938755691051483 0.08826437592506409 0.10906641185283661
0.2334572672843933 0.09351193159818649 0.3354355990886688
-0.04467696323990822 0.4073101878166199 -0.063736692070961
-0.3090139925479889 0.11372783035039902 0.34256798028945923
0.12958982586860657 0.35994118452072144 -0.4049566388130188
0.33019253611564636 -0.5675925016403198 -0.177723228931427
0.2987264394760132 0.04615034535527229 0.46145689487457275
-0.41261640191078186 0.4079797565937042 0.14479325711727142
0.5507857203483582 0.21601076424121857 -0.41423287987709045
-0.47420191764831543 -0.10197842866182327 0.33813148736953735
0.4800415337085724 0.405468225479126 0.03579288348555565
-0.5564390420913696 -0.07359371334314346 -0.304408460855484
0.24758994579315186 -0.6163626313209534 -0.03170124813914299
-0.21033068001270294 0.24248848855495453 -0.40350836515426636
0.5308167338371277 0.00438093114644289 -0.3396228551864624
0.2952803671360016 0.242966890335083 0.34410130977630615
0.3551199436187744 0.002780868671834469 0.05793890729546547
0.5655629634857178 0.28533098101615906 -0.11879891157150269
-0.20224732160568237 0.00598862674087286 -0.19489933550357819
0.11571197956800461 0.0017754132859408855 -0.09144044667482376
0.09806081652641296 -0.00389308575540781 0.2967670261859894
-0.5079507827758789 0.004388410598039627 -0.029461221769452095
0.39332854747772217 -0.37127169966697693 0.005186684895306826
-0.1696130931377411 0.3971390128135681 0.15607008337974548
0.00916542112827301 0.001223461702466011 -0.05187172070145607
0.035485707223415375 0.40494489669799805 -0.028881210833787918
-0.210764542222023 0.22252076864242554 0.3420233428478241
-0.5746342539787292 -0.0039965687319636345 -0.3498166501522064
-0.5906423926353455 0.13293708860874176 -0.07654828578233719
0.13809378445148468 0.33915045857429504 0.33479830622673035
0.19715312123298645 -0.6444100737571716 -0.30592238903045654
0.16266396641731262 0.39223191142082214 0.2083580195903778
0.021389126777648926 0.4124325215816498 0.08463243395090103
0.13655933737754822 0.003087804187089205 -0.3514021933078766
-0.18759354948997498 -0.49042534828186035 -0.03413758426904678
0.1893777996301651 -0.07940000295639038 0.41235312819480896
0.1435202807188034 -0.27057069540023804 0.3105604350566864
0.1457759141921997 0.27372774481773376 0.46078890562057495
0.1630636602640152 0.001007269136607647 -0.17742402851581573
0.02592630311846733 0.14979635179042816 0.3950333595275879
0.01124744676053524 0.0010674727382138371 0.008372243493795395
0.5862640142440796 0.30234619975090027 0.18785281479358673
0.3571469485759735 -0.3906536400318146 -0.28135618567466736
-0.38407060503959656 0.40654343366622925 -0.16605645418167114
0.17640763521194458 0.4086402952671051 -0.1758006513118744
0.10315800458192825 0.1750127375125885 -0.39267370104789734
-0.09563666582107544 -0.4877147674560547 -0.24947039783000946
-0.11026161909103394 -0.3224049508571625 -0.2952706515789032
0.01512413751333952 0.4077501893043518 0.16798116266727448
0.2840517461299896 -0.615207314491272 -0.13861212134361267
-0.4202362596988678 0.39488133788108826 -0.32966482639312744
0.41902583837509155 0.18270176649093628 0.3422999382019043
-0.12221039086580276 -0.04365100711584091 0.24780327081680298
-0.5565717816352844 -0.05848772078752518 -0.22451519966125488
0.06731054931879044 0.002856772392988205 0.1314556747674942
0.10683420300483704 -0.619929850101471 -0.17709806561470032
-0.023039033636450768 -0.6185473799705505 0.14318640530109406
-0.0009777476079761982 0.0017315074801445007 0.10063855350017548
0.4458885192871094 0.08383973687887192 -0.39575883746147156
0.15781141817569733 0.42603811621665955 0.44343116879463196
-0.04942052811384201 -0.0017054034397006035 -0.3505152463912964
0.14096204936504364 -0.0008289553225040436 0.15591539442539215
-0.014313382096588612 -0.0017991610802710056 0.34389835596084595
0.5613252520561218 0.007087329402565956 0.17586904764175415
0.4756940007209778 0.0030630978289991617 0.0743328407406807
0.32004156708717346 0.043993521481752396 0.40744832158088684
0.4339880049228668 0.40801942348480225 0.018637191504240036
-0.22564925253391266 -0.00054165069013834 0.19543716311454773
-0.06787226349115372 0.000687500461935997 -0.22750534117221832
0.32535478472709656 0.04451145976781845 0.41032278537750244
0.06935938447713852 0.09569916129112244 -0.38934341073036194
0.11795835196971893 -0.04189706966280937 0.31389662623405457
-0.15931366384029388 0.0007241927087306976 -0.24622677266597748
-0.2515919506549835 0.4067406952381134 0.11568708717823029
0.22115497291088104 0.1370694786310196 0.461395800113678
-0.15005329251289368 -0.14143942296504974 -0.2554834485054016
0.19321925938129425 0.08462782204151154 0.3484880328178406
0.20010678470134735 0.40244075655937195 -0.2998065948486328
0.13048160076141357 0.00046512484550476074 0.23832888901233673
-0.2402554303407669 -0.259056955575943 0.05040763318538666
-0.4723610579967499 0.3029042184352875 -0.41092419624328613
-0.370551735162735 0.06658530980348587 0.24832244217395782
0.37180253863334656 0.3215145468711853 0.3400537669658661
-0.19062970578670502 0.39704209566116333 0.2030152827501297
-0.39640694856643677 -0.006375229451805353 0.3381994068622589
0.2384481579065323 -0.14900684356689453 -0.357375830411911
0.2108348160982132 -0.5797480344772339 0.23278000950813293
0.3782919943332672 -0.4985269606113434 0.06172752380371094
0.25491830706596375 -0.4929460287094116 0.21615612506866455
0.5817691087722778 0.25921618938446045 -0.3990156054496765
-0.39191490411758423 0.029701892286539078 -0.3948361277580261
-0.3665544092655182 0.39364001154899597 -0.2716590166091919
-0.4536893963813782 0.10786595195531845 -0.1218658834695816
0.19630013406276703 -0.454746276140213 -0.3197382688522339
0.5395605564117432 0.3259127140045166 -0.4041067659854889
0.21465836465358734 -0.6216586232185364 -0.2691745460033417
0.07843568921089172 0.3896348178386688 0.35460561513900757
0.37065818905830383 0.0030550076626241207 0.3025449514389038
0.11635991930961609 0.2468012273311615 -0.3975260555744171
-0.4415777325630188 0.4036422669887543 -0.05776802450418472
-0.5544120073318481 -0.04974185675382614 -0.2974398136138916
-0.4786430597305298 0.002755506429821253 0.08808194845914841
-0.40694278478622437 0.34361809492111206 -0.4124332070350647
0.36427751183509827 0.38988083600997925 -0.06731988489627838
0.1693546324968338 0.002180004958063364 -0.24550260603427887
0.20509380102157593 0.0038194158114492893 0.12015854567289352
-0.026419932022690773 -0.6220542192459106 0.10909497737884521
-0.2212952971458435 -0.03430528938770294 -0.17671310901641846
0.36998769640922546 -0.6039513349533081 -0.12430311739444733
0.014633693732321262 -0.5982992053031921 0.2440657615661621
0.15566255152225494 -0.10470221191644669 0.3112947344779968
0.027226576581597328 0.0016965782269835472 -0.026825636625289917
-0.5793361663818359 0.185784250497818 -0.10434681177139282
0.07924514263868332 0.41281646490097046 0.4383034408092499
0.5758407711982727 0.15838657319545746 0.2597011923789978
-0.030879700556397438 0.0008659628219902515 -0.05713307857513428
-0.35384130477905273 0.0020893942564725876 -0.07924051582813263
0.2679113745689392 0.4016377031803131 -0.231766939163208
0.43107911944389343 0.40376025438308716 -0.29435691237449646
0.29281750321388245 0.4023783206939697 -0.4093383550643921
0.1740148663520813 -0.6258848905563354 -0.16412954032421112
-0.3357090651988983 0.019016114994883537 0.3416188061237335
0.16835561394691467 0.0017071766778826714 -0.031887855380773544
0.044240374118089676 0.004144575446844101 0.3104000389575958
0.4901220500469208 0.3376903831958771 -0.4147785007953644
0.1494671255350113 -0.026270486414432526 0.3174183964729309
0.23054946959018707 -0.6134719848632812 -0.17816340923309326
0.5867035388946533 0.26289066672325134 -0.3253442645072937
0.22833919525146484 -0.040934111922979355 0.2904266119003296
0.5644870400428772 0.40456336736679077 0.14796973764896393
-0.06692696362733841 -0.3745083212852478 0.26221951842308044
0.3066970109939575 -0.01751374639570713 0.46110498905181885
-0.5410177707672119 0.08758972585201263 0.2661929130554199
0.4417458772659302 -0.30867329239845276 -0.07709826529026031
-0.5691917538642883 0.08033980429172516 -0.06379636377096176
-0.11021266877651215 0.40822210907936096 -0.12653334438800812
0.2026917189359665 0.4719642102718353 0.3713730275630951
0.30382251739501953 0.11547452211380005 0.4582812488079071
-0.20632289350032806 0.40798690915107727 -0.253386527299881
-0.5439090132713318 -0.06927864253520966 0.27250397205352783
-0.10520383715629578 0.4068874716758728 0.193362295627594
-0.24491161108016968 -0.02702772244811058 -0.10007558763027191
-0.5048120617866516 -0.005148584954440594 0.04176894202828407
0.029926788061857224 -0.047648217529058456 0.3191086947917938
0.2060435563325882 0.2366739809513092 -0.4028363525867462
0.17167426645755768 0.46957480907440186 0.43704500794410706
0.16977377235889435 0.4118432402610779 0.01563514582812786
0.4628984034061432 0.01980837807059288 0.3359961211681366
-0.45151740312576294 0.3702610433101654 -0.00384836969897151
-0.33668753504753113 0.4060247540473938 -0.06651011854410172
0.0028756633400917053 0.0024717492051422596 -0.3384496569633484
-0.017118701711297035 -0.5567766427993774 0.22969886660575867
0.02210170216858387 -0.05831846222281456 0.3307833671569824
-0.03792766109108925 0.0010157851502299309 0.13289467990398407
0.43396276235580444 -0.1917499303817749 -0.14633840322494507
0.034590281546115875 -0.6405970454216003 0.24177812039852142
0.32988449931144714 0.3941566050052643 -0.19402417540550232
-0.580472469329834 0.20083710551261902 -0.3993731141090393
0.48402324318885803 0.4074594974517822 0.25158268213272095
-0.14431382715702057 0.39430907368659973 -0.40193280577659607
-0.515825092792511 0.09150929749011993 0.16686643660068512
0.20526738464832306 0.0033865557052195072 0.05172909051179886
0.09931447356939316 -0.03907919302582741 0.3167670965194702
0.45977044105529785 0.4057334065437317 0.11244077235460281
0.4452268183231354 -0.15573889017105103 -0.0012085336493328214
0.30478018522262573 0.30215078592300415 0.44511306285858154
