-0.514455258846283 0.02748838998377323 0.34819871187210083
0.49597641825675964 0.004690890200436115 0.2271900177001953
-0.3497469425201416 0.02037789300084114 -0.4012947380542755
0.2832411527633667 0.18168401718139648 0.46353909373283386
-0.5357803106307983 0.10803969949483871 -0.27452054619789124
-0.5835039019584656 0.34255722165107727 -0.3665664792060852
0.4278827905654907 -0.20797225832939148 0.08551822602748871
-0.5888902544975281 0.20300766825675964 0.28350695967674255
0.20335513353347778 0.22416144609451294 0.34397777915000916
-0.5328381061553955 -0.09019725769758224 -0.18009009957313538
-0.36242470145225525 0.21800270676612854 0.34639376401901245
-0.4138849973678589 0.005349778104573488 -0.3984210789203644
0.027833357453346252 0.0015826383605599403 -0.34610962867736816
-0.5768401622772217 -0.02641795203089714 -0.06338970363140106
0.26591065526008606 0.002322182524949312 -0.052174750715494156
-0.36796945333480835 0.4005577266216278 -0.2711464464664459
-0.19602857530117035 0.3981064260005951 -0.1030929908156395
0.40783393383026123 0.052934736013412476 0.34766775369644165
0.21660982072353363 -0.45286205410957336 -0.29680347442626953
0.4480586647987366 0.40335845947265625 0.05957396700978279
0.10417275875806808 0.001903443830087781 -0.1292852759361267
0.014089614152908325 -0.5507252216339111 -0.3033560514450073
-0.23297300934791565 -0.3263331949710846 0.03661082312464714
0.23540851473808289 -0.46189889311790466 0.22707898914813995
0.2625153958797455 -0.4170280992984772 -0.26864269375801086
-0.5781034231185913 0.3743099570274353 0.30205246806144714
0.1911826878786087 0.47655701637268066 0.38615959882736206
-0.11856135725975037 0.00442075077444315 -0.011650645174086094
0.2569414973258972 -0.38475462794303894 0.24038349092006683
-0.17344601452350616 -0.04416651651263237 -0.23689302802085876
0.10515953600406647 0.3230617046356201 0.46200817823410034
0.376592218875885 0.003294754773378372 -0.1759699285030365
-0.5832763910293579 0.3154921531677246 -0.34693825244903564
-0.4743678867816925 0.40383514761924744 -0.2340962141752243
0.30081355571746826 0.2619636058807373 -0.40226051211357117
-0.21209828555583954 0.24803045392036438 0.3482739329338074
0.28029897809028625 0.24145205318927765 0.34667325019836426
-0.5414703488349915 0.004323245026171207 0.29331067204475403
-0.2785637378692627 0.00264901015907526 0.10914383083581924
0.28696146607398987 0.4026927053928375 -0.03182310238480568
-0.10896631330251694 -0.5027017593383789 -0.2289673537015915
0.35664767026901245 -0.5786743760108948 -0.14649903774261475
-0.18609648942947388 0.4065430164337158 0.2834724187850952
-0.12784551084041595 0.40163454413414 -0.08507153391838074
0.07288047671318054 -0.15406015515327454 -0.37316134572029114
-0.15558061003684998 0.0022424766793847084 -0.15370137989521027
-0.22621233761310577 0.002607828937470913 0.19194361567497253
-0.5709326863288879 -0.05354861542582512 -0.2540593445301056
-0.3114129304885864 0.004405966494232416 0.2118125706911087
0.415693998336792 -0.16996033489704132 0.1107352152466774
0.5780099034309387 0.3444887399673462 -0.1446877419948578
-0.5726304650306702 0.37298116087913513 0.032754212617874146
-0.23082561790943146 0.0017640525475144386 -0.11524204164743423
-0.10962279140949249 0.22624929249286652 0.34946057200431824
-0.5844058990478516 0.01068389043211937 -0.2903722822666168
0.2334231585264206 0.3452703058719635 0.46647894382476807
-0.035628076642751694 0.28065210580825806 0.3909538984298706
0.21352237462997437 -0.26887109875679016 -0.35500216484069824
-0.5096147060394287 0.006160996854305267 0.24666227400302887
0.012882869690656662 0.0012888172641396523 -0.11771934479475021
-0.3224494755268097 0.1725902557373047 0.34602484107017517
0.06862843036651611 0.09195367246866226 0.4644414484500885
-0.3286462426185608 0.40231624245643616 0.2931443154811859
-0.5840107202529907 0.23360861837863922 -0.19894111156463623
0.41260039806365967 -0.21000178158283234 -0.17906266450881958
0.576943039894104 0.3745884895324707 -0.38568583130836487
-0.46358343958854675 0.0015335571952164173 -0.31772980093955994
-0.388285368680954 0.09192388504743576 -0.3979707956314087
0.22245605289936066 0.0047598001547157764 0.21925194561481476
-0.24014970660209656 -0.3380586802959442 -0.045996904373168945
-0.4507567584514618 -0.10007071495056152 -0.3869866728782654
-0.49932557344436646 0.10849281400442123 -0.1557222455739975
-0.3925570845603943 -0.08315179497003555 0.2823020815849304
0.16802284121513367 0.3991992175579071 0.460885226726532
-0.09084644168615341 0.1404411494731903 0.34644559025764465
0.4423450827598572 -0.2288666069507599 -0.07346857339143753
0.29982319474220276 0.05173182487487793 -0.4005730450153351
-0.5807952284812927 0.0771213173866272 -0.2935122549533844
-0.10417160391807556 -0.5101335048675537 -0.23482084274291992
0.18984924256801605 -0.3867267966270447 0.2653656005859375
0.25197142362594604 0.40254274010658264 0.07512562721967697
-0.5686748027801514 0.02987395040690899 -0.39317551255226135
-0.08274886012077332 -0.1392483413219452 0.26071634888648987
0.2164548635482788 0.15713240206241608 0.46480509638786316
0.035123348236083984 0.40428394079208374 -0.13159547746181488
-0.5757070779800415 0.06862090528011322 0.015715358778834343
-0.4674561619758606 -0.10718787461519241 -0.019149547442793846
-0.2996508479118347 0.26735720038414 -0.400316447019577
-0.11041095852851868 0.18345889449119568 -0.4021477997303009
-0.00013647525338456035 -0.6273993849754333 -0.05808572471141815
-0.5843539834022522 0.2842808961868286 -0.3379724621772766
0.02400720864534378 0.0784420371055603 0.37147995829582214
0.059683941304683685 -0.6256189346313477 -0.04122357815504074
-0.5107702612876892 0.07458648085594177 0.34586331248283386
-0.23186197876930237 -0.08366688340902328 0.058928702026605606
0.32799452543258667 0.40373140573501587 -0.351431667804718
0.4524112045764923 -0.0009945426136255264 -0.05529789254069328
-0.00207874970510602 0.39441800117492676 0.3367267847061157
0.3534965515136719 -0.516212522983551 -0.17049254477024078
0.5013996958732605 0.012586938217282295 -0.3994130790233612
0.01629144884645939 0.3900732398033142 0.34164959192276
-0.573438823223114 0.05827750638127327 0.25207221508026123
0.17130979895591736 0.00557992747053504 0.268254816532135
0.44815608859062195 -0.1099022850394249 -0.048879098147153854
-0.1840558499097824 -0.21727778017520905 0.16213113069534302
-0.3929517865180969 -0.058904629200696945 0.0701412707567215
0.5825866460800171 0.11523178964853287 -0.3507283926010132
-0.3519931137561798 0.007172717712819576 0.0448697991669178
-0.5881678462028503 0.15607239305973053 0.29548022150993347
-0.16336676478385925 0.002807017182931304 -0.1566392183303833
-0.34605154395103455 0.32421553134918213 -0.40240249037742615
0.27538827061653137 -0.08637827634811401 0.40248727798461914
-0.5025588274002075 -0.09773287177085876 0.336608350276947
0.3012693524360657 -0.07950369268655777 0.38399380445480347
0.005057882517576218 0.4030682444572449 -0.14014378190040588
0.27906984090805054 0.4014875292778015 0.19520556926727295
0.5573245286941528 0.2850247323513031 0.3443998098373413
-0.37785518169403076 0.21411050856113434 0.34646350145339966
0.12362430989742279 -0.04342133551836014 0.3176420331001282
-0.011287728324532509 -0.6245945692062378 -0.16146768629550934
-0.09546227008104324 0.1276325285434723 -0.400375097990036
-0.18116605281829834 0.00795767828822136 -0.38897889852523804
-0.3185098469257355 0.00301191583275795 -0.0763644352555275
0.25699177384376526 -0.3775607943534851 0.26398560404777527
-0.42590147256851196 0.10918363183736801 -0.39936625957489014
0.2562803626060486 0.36584994196891785 0.3466304838657379
-0.37798184156417847 0.2771431803703308 0.3466425836086273
0.3482959270477295 -0.23661500215530396 -0.2743088901042938
-0.24092410504817963 0.002058465965092182 0.04831842705607414
-0.11159579455852509 -0.43874189257621765 -0.22574642300605774
-0.42058083415031433 0.10611633211374283 -0.12984856963157654
-0.36468595266342163 0.07358535379171371 -0.3978855609893799
-0.0502595491707325 0.0034635551273822784 0.11264044791460037
-0.5509916543960571 -0.07487977296113968 -0.3307877779006958
0.2198691964149475 -0.6245110034942627 -0.028422091156244278
-0.13756036758422852 0.002720516175031662 0.2324189841747284
-0.08937684446573257 0.0035586636513471603 0.16266271471977234
0.406024307012558 0.0014612311497330666 0.04048829525709152
-0.026086457073688507 0.29243701696395874 -0.40056777000427246
-0.5023488998413086 0.403806209564209 0.22788740694522858
0.04843907803297043 -0.019916538149118423 0.4625396430492401
-0.5134443640708923 0.001885332865640521 -0.02084808610379696
0.23500800132751465 -0.05158141255378723 -0.3464130461215973
-0.15931805968284607 0.40429970622062683 -0.22995221614837646
0.3043712079524994 -0.013101741671562195 0.32456472516059875
0.372809499502182 -0.607695460319519 -0.1263003945350647
0.383741170167923 0.0030079204589128494 0.02648373506963253
0.1299992799758911 0.3952392041683197 -0.3948654532432556
0.44989651441574097 0.22066909074783325 0.3473784029483795
-0.5530955195426941 0.39114853739738464 0.18675071001052856
0.02155122719705105 0.2826510965824127 0.39832746982574463
0.17932213842868805 0.40385177731513977 -0.2181633561849594
-0.3641255497932434 -0.0032492107711732388 0.0520077683031559
-0.42606818675994873 0.0019492038991302252 -0.11316346377134323
-0.43390488624572754 0.40429240465164185 0.2611822187900543
0.34830883145332336 0.2162213921546936 -0.4016546607017517
-0.04615570604801178 -0.587945818901062 0.21812677383422852
-0.08931715786457062 0.17980094254016876 0.3931198716163635
0.25050675868988037 0.07838917523622513 -0.4010061025619507
0.18394263088703156 0.4003607928752899 -0.13442346453666687
-0.49778494238853455 -0.10747030377388 0.02467058226466179
0.44168123602867126 -0.21512947976589203 0.02717108651995659
0.05371219664812088 0.40304726362228394 -0.2998383045196533
-0.3529585301876068 0.0044483765959739685 0.31380125880241394
0.05302836745977402 -0.6268733739852905 0.03928939625620842
0.2909122705459595 0.01832139864563942 0.3408280611038208
0.17025446891784668 0.0008825063705444336 -0.08566265553236008
0.22051197290420532 0.0025959424674510956 0.009983104653656483
0.10812614858150482 0.00954353716224432 0.33882850408554077
-0.3687584102153778 -0.008462263271212578 0.08013121038675308
0.5729736685752869 0.20897860825061798 0.33841562271118164
-0.06355152279138565 -0.6413341760635376 0.17146548628807068
-0.34910082817077637 0.0027858521789312363 0.20850194990634918
0.11551543325185776 0.023912224918603897 -0.39979061484336853
-0.2264781892299652 0.003923627082258463 -0.1938541680574417
-0.5863904356956482 0.25744888186454773 -0.08131725341081619
-0.10941017419099808 0.004103543236851692 -0.11074845492839813
-0.2456146478652954 0.4048621356487274 -0.2385377287864685
0.4294208884239197 0.40385714173316956 -0.13867904245853424
0.40263670682907104 -0.3946245014667511 -0.005753021687269211
0.34724462032318115 -0.4612721800804138 0.12399876117706299
-0.37071362137794495 -0.029977969825267792 -0.36571526527404785
0.11976594477891922 -0.6258077025413513 0.10279151052236557
-0.5724336504936218 0.0783737376332283 0.333297461271286
-0.05938473343849182 0.0031832028180360794 -0.03018976002931595
0.2879333198070526 -0.3148016631603241 0.2576807141304016
0.1616591215133667 0.00414253631606698 0.17916938662528992
-0.580569326877594 0.13825833797454834 -0.31302618980407715
-0.4860384464263916 0.2952093183994293 -0.4010627269744873
-0.00902402400970459 0.002228762488812208 -0.2729320526123047
-0.5226143598556519 0.3829110562801361 -0.39809301495552063
0.059455856680870056 -0.48111268877983093 -0.31414860486984253
0.01348638255149126 -0.623167097568512 -0.22222641110420227
-0.5764850378036499 0.0022972216829657555 0.04107232764363289
-0.019214389845728874 -0.13680411875247955 0.293844997882843
0.37250450253486633 0.0017697797156870365 -0.12661446630954742
0.2051960527896881 -0.6238062381744385 0.07724178582429886
0.14704592525959015 0.46491485834121704 0.37150126695632935
0.08141908049583435 0.3944683372974396 -0.39404234290122986
-0.18320947885513306 0.004951296374201775 0.271505206823349
-0.36946576833724976 -0.0038239536806941032 0.2592592239379883
0.4232403635978699 0.40391430258750916 -0.14221282303333282
-0.3572683036327362 0.0037375185638666153 0.18540099263191223
0.5683884024620056 0.39693012833595276 -0.027489598840475082
-0.2971227765083313 0.37287411093711853 -0.09503591805696487
0.5387362837791443 0.40318185091018677 -0.2937937080860138
-0.5860404968261719 0.34564751386642456 0.0871313065290451
0.375543475151062 -0.6343542337417603 0.041020434349775314
-0.2762684226036072 0.0009897556155920029 -0.24431811273097992
-0.5802145600318909 0.05928300321102142 0.3355112075805664
0.5773022174835205 0.1759423166513443 -0.3974504768848419
0.11398445814847946 0.28820207715034485 0.3452792465686798
0.3279120922088623 0.0030215997248888016 -0.08653125166893005
0.02516290545463562 0.40391865372657776 -0.21380740404129028
0.24137409031391144 0.0014879237860441208 -0.05328221619129181
-0.47362589836120605 0.4030146598815918 0.25969401001930237
0.30458101630210876 -0.00029509057640098035 -0.307796835899353
-0.17094309628009796 -0.483773797750473 -0.1295044869184494
-0.5781092643737793 0.0031787827610969543 0.028220925480127335
-0.2215285748243332 0.031814608722925186 0.3445279002189636
0.19706851243972778 0.18399778008460999 0.3453184962272644
0.2774609327316284 0.00044730305671691895 -0.342980295419693
0.4819011092185974 0.40158113837242126 0.2667873203754425
0.5702731609344482 0.010328581556677818 0.03341149911284447
0.1159653440117836 0.0022412731777876616 -0.14100630581378937
0.3915172219276428 -0.43266773223876953 -0.07116592675447464
0.4273134469985962 -0.22067871689796448 -0.14452533423900604
-0.18740929663181305 -0.38496455550193787 0.06250094622373581
-0.06566937267780304 -0.18100905418395996 -0.33312174677848816
0.28948619961738586 0.0042844126001000404 0.017596852034330368
-0.5815273523330688 0.017951838672161102 -0.35958701372146606
0.4485471844673157 0.4027545154094696 -0.12370504438877106
0.38669824600219727 -0.6569071412086487 -0.05199365317821503
0.030718758702278137 0.010723013430833817 -0.39090707898139954
-0.2726960778236389 0.15563473105430603 -0.4006901681423187
-0.3906179964542389 -0.07202426344156265 -0.08908241987228394
0.04111387953162193 -0.624998152256012 0.05843318626284599
0.34759798645973206 -0.00413160677999258 -0.2764224410057068
0.08983788639307022 0.0011761318892240524 -0.32850542664527893
-0.04200756549835205 0.10612513870000839 -0.4024806022644043
-0.364260196685791 0.009626737795770168 0.32301491498947144
-0.49969983100891113 0.4042966961860657 0.16522622108459473
-0.25739118456840515 0.000903280102647841 0.07192537933588028
-0.16231757402420044 -0.3151108920574188 0.18655775487422943
0.014144777320325375 -0.2576684355735779 0.30345311760902405
-0.373837947845459 -0.046001508831977844 -0.23984526097774506
0.16028772294521332 0.4030840992927551 0.27150073647499084
-0.38935986161231995 -0.009468784555792809 -0.39561864733695984
-0.1273154765367508 -0.5916326642036438 -0.20898811519145966
-0.5180258750915527 0.35491806268692017 0.3447135388851166
0.23797790706157684 -0.6268556714057922 0.16507205367088318
0.0822712704539299 -0.6230655312538147 -0.1076655462384224
-0.20333385467529297 0.0009448770433664322 -0.18559107184410095
0.3845813572406769 0.0016625967109575868 -0.09635999798774719
-0.22835621237754822 -0.3253660500049591 -0.11410287767648697
-0.43696165084838867 0.10526832193136215 -0.23855572938919067
-0.21696743369102478 0.07187537848949432 -0.40194353461265564
0.012094777077436447 0.005237191449850798 0.27395007014274597
0.42662501335144043 -0.3402458727359772 0.0729314461350441
-0.42777544260025024 -0.005273140966892242 -0.18313968181610107
0.20783229172229767 -0.48065459728240967 -0.29985642433166504
0.45244908332824707 -0.001707670628093183 -0.11875630170106888
0.39754876494407654 -0.37252774834632874 -0.19631172716617584
0.4324913024902344 -0.19259773194789886 0.06487330049276352
0.36741718649864197 0.00019200704991817474 -0.2604365944862366
0.0331600047647953 0.34974855184555054 0.4384603202342987
-0.4259563088417053 -0.09316539019346237 0.02335718646645546
-0.09194839000701904 0.40186282992362976 0.14087063074111938
-0.2735285460948944 0.406382292509079 0.14793141186237335
-0.5880925059318542 0.2249830812215805 0.28461068868637085
0.017079057171940804 -0.38699406385421753 0.27468669414520264
-0.47467848658561707 0.05581621453166008 -0.40062907338142395
0.2014090120792389 -0.6273192167282104 0.018409477546811104
-0.5067272186279297 0.0007066859398037195 -0.3926073908805847
0.03425823897123337 0.002697201445698738 -0.2537464201450348
-0.047764427959918976 0.0032931165769696236 -0.09045367687940598
0.5822921991348267 0.3314626216888428 -0.29189714789390564
0.536383330821991 0.29117199778556824 0.3469902575016022
-0.04474204406142235 -0.1636485606431961 -0.3429582417011261
0.020337842404842377 -0.2180708348751068 -0.358654648065567
-0.0746786817908287 0.0026762038469314575 -0.06751435250043869
0.2242405265569687 0.002413440030068159 -0.22699591517448425
0.28178346157073975 0.003974311053752899 -0.15767908096313477
-0.1865970492362976 0.39498162269592285 0.3397456705570221
0.08669020980596542 -0.02518524043262005 0.30747559666633606
0.11761492490768433 0.001416221261024475 -0.026752358302474022
-0.4178182780742645 -0.0831342488527298 0.32893359661102295
-0.22462157905101776 -0.1900712251663208 0.07167831063270569
-0.16128981113433838 -0.41086649894714355 0.10003404319286346
-0.5101985335350037 0.02984297275543213 0.35457852482795715
-0.0890159085392952 -0.12811174988746643 -0.3204852044582367
-0.5006833672523499 -0.0886613056063652 0.34169256687164307
-0.1850559264421463 -0.06792187690734863 0.16327588260173798
-0.5532861351966858 0.08971944451332092 -0.2859611213207245
0.45223933458328247 0.1723608672618866 -0.4031940698623657
0.43390071392059326 -0.147726371884346 0.06324344128370285
-0.17718671262264252 -0.5778643488883972 0.031467538326978683
-0.06357096880674362 -0.6400918960571289 -0.19719953835010529
-0.14956118166446686 0.0036216052249073982 0.26236504316329956
0.24376699328422546 -0.4235554337501526 -0.2819364070892334
-0.16413070261478424 -0.38531509041786194 -0.1686442792415619
-0.4341103136539459 0.12038055062294006 0.23912273347377777
-0.5839555263519287 0.14913493394851685 -0.3460495173931122
0.3876090943813324 0.0025935880839824677 -0.02570597268640995
0.32189223170280457 -0.0016349940560758114 -0.25076648592948914
-0.001625147182494402 0.06610672920942307 0.34853506088256836
-0.40958091616630554 0.4129301905632019 -0.014807209372520447
0.2988371253013611 0.0035747429355978966 -0.183671772480011
0.08537182211875916 0.0036797914654016495 0.057082004845142365
0.09046920388936996 0.4040447473526001 0.23890095949172974
0.5481719970703125 0.4005572497844696 -0.3259606659412384
-0.026803286746144295 0.0024095731787383556 -0.07493359595537186
0.008959240280091763 -0.39869415760040283 0.24756309390068054
0.2771514654159546 -0.6258857250213623 0.06410425156354904
-0.1623142957687378 0.22810395061969757 -0.40256109833717346
-0.1686132550239563 0.0015126941725611687 -0.25563958287239075
0.5732349157333374 0.011449655517935753 -0.1812429428100586
-0.013939058408141136 -0.4494967758655548 -0.29317763447761536
0.5814563035964966 0.10556932538747787 -0.039827071130275726
-0.5784190893173218 0.0075273290276527405 0.25883591175079346
-0.15520717203617096 -0.6500151753425598 0.009986460208892822
0.4362928569316864 -0.06923752278089523 -0.1134604662656784
-0.21526040136814117 -0.3326374292373657 -0.16169166564941406
-0.3350231647491455 0.006367465481162071 -0.32392001152038574
0.26733729243278503 -0.5236243009567261 0.2066315859556198
0.147696852684021 0.4011250138282776 0.19256943464279175
-0.24043577909469604 0.005952772684395313 0.3330887258052826
0.446821391582489 -0.19287662208080292 0.00679070595651865
-0.11717759072780609 -0.30233335494995117 0.23660282790660858
0.44912081956863403 -0.2571744918823242 -0.05023183673620224
0.19781848788261414 -0.6238783001899719 -0.09466498345136642
0.044939592480659485 0.0019300205167382956 -0.14166593551635742
0.2380894422531128 0.4054982662200928 0.2530820369720459
0.5760833024978638 0.021693946793675423 0.05843961611390114
-0.022768491879105568 0.0025578062050044537 -0.10782154649496078
0.16456866264343262 0.0009322268888354301 -0.28315526247024536
0.1867154985666275 0.003071932587772608 -0.09842807799577713
0.4104706346988678 -0.3139706254005432 -0.17011800408363342
0.15518289804458618 -0.62590491771698 -0.16073466837406158
-0.5445107221603394 0.001809941604733467 0.10905518382787704
0.40794986486434937 -0.38402342796325684 0.05599832162261009
-0.12365011870861053 -0.3818124234676361 -0.260699599981308
0.06503158062696457 -0.6265801191329956 -0.043703384697437286
0.22000104188919067 -0.01761770248413086 0.2852829396724701
0.08205714821815491 0.0016137072816491127 0.1010693609714508
0.3120461404323578 0.23434287309646606 -0.3998824656009674
-0.5433772802352905 0.3924393057823181 -0.23644308745861053
-0.5125020742416382 0.0013717446709051728 -0.13989092409610748
0.04275751858949661 -0.07262254506349564 0.37340500950813293
0.22096124291419983 -0.6487625241279602 0.22306008636951447
0.5799878835678101 0.17821472883224487 -0.062013909220695496
0.5604774951934814 0.043441545218229294 0.343685120344162
0.41820061206817627 -0.05324928089976311 0.09597861021757126
-0.5155516266822815 0.3327062726020813 -0.39923909306526184
-0.5591380000114441 0.33017900586128235 -0.40293827652931213
0.35696500539779663 -0.0056531429290771484 -0.2643280327320099
0.4030373990535736 0.0008204635232686996 0.1252727210521698
-0.48340052366256714 -0.09243188053369522 -0.39896076917648315
0.07086089998483658 0.4002314507961273 -0.06436941027641296
0.04483881965279579 -0.6246979236602783 -0.038544245064258575
-0.11884957551956177 0.40257975459098816 0.12301953136920929
0.44094520807266235 0.000744091346859932 0.19384442269802094
0.10051001608371735 0.0041783819906413555 0.12330375611782074
-0.03248533606529236 0.0024070609360933304 -0.2294645458459854
-0.5069434642791748 0.09769925475120544 -0.28576594591140747
0.060741767287254333 -0.41618070006370544 0.2581382691860199
-0.28639817237854004 0.40745076537132263 0.1836576908826828
0.0701877698302269 0.002001364715397358 0.057561442255973816
-0.42002812027931213 0.40130123496055603 0.3288172483444214
-0.546550989151001 -0.06977421045303345 0.3296523094177246
0.09998279809951782 0.4058533012866974 0.13511168956756592
-0.42900869250297546 0.37863853573799133 0.3444038927555084
-0.3362983167171478 0.40818676352500916 -0.11292257159948349
0.028248995542526245 -0.2327459752559662 -0.3647468090057373
-0.05006157234311104 -0.6267906427383423 -0.07258052378892899
-0.4624103605747223 0.3553580641746521 0.010865218006074429
-0.049319516867399216 -0.015877610072493553 0.27506235241889954
-0.5636914372444153 0.0034950273111462593 -0.012124250642955303
0.5440170168876648 0.2675464153289795 0.3409574031829834
0.25517183542251587 -0.06961531937122345 0.28577569127082825
-0.5731091499328613 0.056029144674539566 0.21062415838241577
-0.08461669087409973 0.004345404915511608 -0.0013489952543750405
0.0940970629453659 0.21592535078525543 -0.4014381468296051
0.24806450307369232 0.2244870811700821 0.4619998335838318
-0.02973204478621483 -0.6252185702323914 0.11037448048591614
0.07219616323709488 -0.1120106652379036 -0.37521520256996155
0.023810703307390213 0.3480650782585144 -0.39943575859069824
0.2624915540218353 -0.6280712485313416 0.06692219525575638
-0.436411589384079 0.19826485216617584 0.3449563682079315
-0.07906182110309601 -0.6289463043212891 -0.12030822038650513
-0.3098972737789154 0.3988496661186218 -0.19959217309951782
-0.053038835525512695 0.0014804797247052193 0.1694575697183609
-0.5088527202606201 0.3932883143424988 0.03332216292619705
-0.18624359369277954 0.15818175673484802 -0.40307480096817017
0.37801772356033325 0.39943727850914 -0.3887545168399811
0.23284684121608734 0.0021803630515933037 -0.13211767375469208
0.5800279378890991 0.3311593532562256 0.08768333494663239
-0.5237419605255127 -0.09901359677314758 0.22484628856182098
-0.021831873804330826 -0.6236651539802551 0.10195886343717575
0.3228820264339447 -0.6295325756072998 -0.05831410735845566
-0.22499796748161316 0.004611911252140999 0.31546562910079956
-0.04451219365000725 0.40184101462364197 0.015269055031239986
-0.3843332529067993 0.403850793838501 0.27550971508026123
0.20909813046455383 0.4735587537288666 0.3742903470993042
0.2584409713745117 -0.14156368374824524 0.27583351731300354
0.17554737627506256 0.4302988052368164 0.45188260078430176
0.08571279048919678 -0.6259476542472839 -0.15165553987026215
0.3533717095851898 -0.36771899461746216 -0.2566356360912323
0.2527712881565094 -0.00019377080025151372 0.28668248653411865
0.17894411087036133 0.05234331265091896 0.46525487303733826
0.03609955683350563 0.12295937538146973 0.4074175953865051
-0.35521259903907776 0.0021967850625514984 0.19604697823524475
0.4358973503112793 0.40133336186408997 0.26937130093574524
0.2740424573421478 -0.24661582708358765 -0.3294305205345154
0.34395161271095276 0.001326926052570343 -0.10951841622591019
-0.2439768761396408 0.002935050055384636 -0.24439585208892822
0.4743114709854126 0.008294408209621906 0.3347795307636261
-0.11667793989181519 -0.35946720838546753 0.23561464250087738
-0.05651791766285896 -0.03177458792924881 0.27301856875419617
0.5497954487800598 0.29339730739593506 -0.4009033143520355
0.0111463014036417 -0.19117766618728638 -0.36278438568115234
-0.15318027138710022 0.004304917529225349 -0.0060442350804805756
0.28338101506233215 -0.24368605017662048 -0.3186379373073578
0.34071776270866394 0.0014354162849485874 0.22301504015922546
0.16458791494369507 0.024568865075707436 0.34451672434806824
0.11560525000095367 -0.007049005478620529 0.4660772681236267
-0.18550121784210205 -0.38362884521484375 0.11387564241886139
0.16903680562973022 0.22802495956420898 0.34536460041999817
0.16315153241157532 0.001870972104370594 -0.19472961127758026
-0.2763795256614685 0.1885436475276947 -0.40228399634361267
-0.5776329040527344 0.007403560448437929 0.2649773061275482
0.35018667578697205 0.07981167733669281 -0.398621141910553
-0.38303661346435547 0.4032716155052185 0.2909512221813202
0.25058504939079285 0.4634506404399872 0.42556843161582947
-0.570746898651123 0.018789716064929962 0.34551215171813965
-0.5157528519630432 0.3424828350543976 -0.3971264362335205
0.2211519479751587 -0.6182947158813477 -0.1773606836795807
0.14765915274620056 -0.5707623958587646 -0.31467682123184204
-0.5152049660682678 0.03656845912337303 -0.39432093501091003
0.28681138157844543 -0.6575848460197449 0.15432696044445038
-0.008055939339101315 0.09056690335273743 0.3484228849411011
-0.283751517534256 0.0027123549953103065 -0.11418501287698746
0.25055456161499023 0.47012823820114136 0.3704712688922882
0.050577133893966675 0.00375692592933774 -0.045300260186195374
-0.4389411509037018 0.3489352762699127 -0.40265318751335144
0.21215170621871948 -0.6244139671325684 -0.15031006932258606
-0.37071698904037476 0.399953156709671 -0.16322335600852966
-0.5710914731025696 0.2458617240190506 -0.39107728004455566
0.41858696937561035 0.0018848999170586467 -0.0325845442712307
-0.5779748558998108 0.2769065797328949 0.25948697328567505
0.3176349997520447 -0.5609550476074219 -0.22390882670879364
0.33513981103897095 0.06393979489803314 0.3473585844039917
-0.005452204495668411 -0.3544715642929077 -0.355539470911026
-0.5563388466835022 0.3843823969364166 -0.16253186762332916
-0.35280653834342957 0.11604975163936615 0.34533947706222534
-0.06678318977355957 0.0007217430975288153 -0.3213590383529663
-0.23004315793514252 -0.3277503252029419 0.04941973835229874
-0.022737182676792145 -0.6218316555023193 0.0464041605591774
0.32992860674858093 0.14116443693637848 -0.4028063118457794
0.3869360685348511 -0.6471021771430969 -0.03975297883152962
0.4413847029209137 0.00324811227619648 0.31357964873313904
0.16337968409061432 0.0003959089517593384 0.4671453535556793
-0.3948460817337036 0.10452184081077576 -0.3984316289424896
-0.5849867463111877 0.04770393669605255 -0.35589224100112915
0.3412628173828125 0.005029786378145218 0.11553135514259338
-0.12374111264944077 -0.6292502284049988 -0.07452966272830963
0.2724575698375702 -0.6262896656990051 0.04989062622189522
0.1642473042011261 0.002332334639504552 -0.1437891572713852
0.5787437558174133 0.2583494782447815 -0.28923991322517395
-0.45182573795318604 -0.09972023218870163 0.037218596786260605
-0.5410434603691101 -0.09006834775209427 -0.11837967485189438
-0.2336713969707489 -0.25150763988494873 0.04686988145112991
-0.3036741018295288 0.31417351961135864 -0.4011273682117462
-0.094767726957798 0.0018871026113629341 -0.15706467628479004
-0.14060840010643005 -0.6201403141021729 0.11872968077659607
-0.27010592818260193 0.09100722521543503 -0.4021778106689453
0.25614988803863525 -0.07796909660100937 0.43751612305641174
-0.5635995268821716 -0.05335596203804016 -0.09187660366296768
-0.5799539089202881 0.28500622510910034 -0.3329923748970032
-0.13405188918113708 -0.6543805003166199 -0.1736478954553604
-0.31826451420783997 0.3967803716659546 0.01881605200469494
0.5492592453956604 0.06696367263793945 -0.4010045528411865
0.37246420979499817 -0.5875168442726135 -0.13033676147460938
0.14159926772117615 0.47657954692840576 0.39810529351234436
0.0014590626815333962 0.402847558259964 0.20261386036872864
0.01212104968726635 -0.626670777797699 -0.023101000115275383
-0.4850628674030304 0.16843178868293762 -0.3991835117340088
-0.27961379289627075 0.39420387148857117 -0.09018179774284363
-0.5753517150878906 0.26964864134788513 -0.38673892617225647
0.18855004012584686 -0.0779208317399025 0.31120744347572327
0.21659132838249207 -0.6230074763298035 -0.18535584211349487
0.20172210037708282 0.0028968960978090763 -0.1570788472890854
0.4380878508090973 -0.007250471971929073 -0.002752012573182583
0.18413779139518738 -0.026645850390195847 -0.3692886531352997
0.011750194244086742 0.3166840374469757 0.3487342894077301
-0.4125673472881317 -0.08402427285909653 -0.2133244127035141
-0.41599857807159424 0.11177517473697662 -0.006393902935087681
-0.11639583855867386 -0.20021827518939972 0.23771071434020996
-0.1794021725654602 -0.4806557297706604 0.020895857363939285
0.08582834899425507 0.17323726415634155 0.4630488455295563
-0.12370201200246811 -0.43871045112609863 0.15612885355949402
0.3381544351577759 -0.21381007134914398 0.2183779925107956
0.48610201478004456 0.0031159520149230957 0.318829208612442
0.10494691133499146 0.03182418271899223 0.46146902441978455
0.333335280418396 0.3962181806564331 -0.39321595430374146
0.36696943640708923 0.0031508631072938442 0.13066880404949188
0.06987760215997696 -0.23986586928367615 0.31563079357147217
-0.08670792728662491 -0.3821544349193573 0.23812229931354523
-0.19813744723796844 0.000899443868547678 -0.30093246698379517
-0.07269390672445297 -0.5264012217521667 0.20490257441997528
-0.03567183390259743 -0.6253114342689514 0.22498653829097748
0.5783883929252625 0.14534611999988556 -0.02080608904361725
0.014333495870232582 0.16709032654762268 0.36868584156036377
0.15577085316181183 0.002053402364253998 -0.24248525500297546
0.24917544424533844 0.4015901982784271 -0.015295358374714851
0.5810962319374084 0.23235709965229034 -0.1687629520893097
-0.432550311088562 -0.07193264365196228 -0.39761286973953247
0.12101913243532181 0.005352053791284561 0.2740120589733124
0.324076384305954 0.1746169924736023 0.4369871914386749
0.09472202509641647 -0.5237966775894165 0.2626240849494934
0.16589011251926422 -0.2416021078824997 -0.36863571405410767
-0.5835784077644348 0.08085620403289795 -0.35362714529037476
0.37972331047058105 0.3077024817466736 -0.3993365466594696
-0.5818942189216614 0.09007476270198822 -0.0004877906758338213
-0.25783801078796387 0.014177346602082253 -0.3953847885131836
-0.5451656579971313 0.39376792311668396 -0.15283682942390442
0.3862239122390747 -0.5551948547363281 -0.10442166775465012
0.16693738102912903 0.3544657230377197 -0.40286746621131897
0.28613489866256714 0.47021597623825073 0.41938161849975586
0.5801575779914856 0.30628150701522827 0.21083317697048187
-0.03417114540934563 0.4031493067741394 0.2087099552154541
0.23755374550819397 -0.46611422300338745 -0.28523311018943787
0.35361286997795105 -0.38683682680130005 0.13628201186656952
0.20519714057445526 -0.08554240316152573 0.34943053126335144
0.38960349559783936 0.0022877478040754795 -0.07805781811475754
-0.11569785326719284 0.12298136204481125 0.34689679741859436
0.28796812891960144 0.2818143367767334 -0.40216073393821716
0.411714643239975 0.40336909890174866 0.12475413084030151
0.1585855782032013 -0.6281499862670898 0.17590954899787903
-0.5884625911712646 0.1794075071811676 0.2720757722854614
0.38585805892944336 0.40460148453712463 0.18988832831382751
0.09480298310518265 0.3944277763366699 -0.3981141149997711
0.1264239251613617 -0.4535355269908905 0.2586119472980499
-0.05143342912197113 0.003177526406943798 0.0004400675534270704
-0.10550236701965332 -0.5728440284729004 0.1749681681394577
0.2163713276386261 -0.6256880164146423 -0.1177394688129425
-0.2334677129983902 -0.2663893401622772 0.05214378237724304
-0.018580516800284386 0.00189748324919492 -0.2729836106300354
0.2233942300081253 -0.3575288951396942 -0.3477894961833954
0.0425165519118309 0.0030342545360326767 0.12105856090784073
0.5783631801605225 0.23169930279254913 -0.39099282026290894
-0.5269931554794312 0.4021907150745392 -0.09199759364128113
0.04466191679239273 0.0949358120560646 0.3490447998046875
-0.05922114476561546 -0.3662811815738678 -0.33193108439445496
0.26855215430259705 -0.3724047541618347 0.25486767292022705
-0.31416842341423035 0.0009672708110883832 -0.2268080860376358
0.19862546026706696 -0.2012435346841812 0.301670640707016
-0.012864460237324238 0.001377622364088893 -0.32696911692619324
0.41742557287216187 -0.03230026736855507 0.11447250843048096
-0.06048008054494858 0.0026405835524201393 -0.06908012181520462
0.2113204300403595 0.0034776958636939526 0.029060110449790955
-0.5776462554931641 0.052581097930669785 0.23629863560199738
0.3580259084701538 0.0029188254848122597 0.166659876704216
0.15721657872200012 -0.6263576745986938 0.04399603605270386
0.2358265519142151 -0.6260532736778259 0.12512342631816864
0.44554221630096436 -0.1293327659368515 -0.07496504485607147
-0.18591780960559845 -0.4903716444969177 -0.012612340040504932
-0.41047048568725586 -0.08055060356855392 0.2257370799779892
0.4286179840564728 -0.07959992438554764 -0.1493050754070282
-0.5744873285293579 0.06913742423057556 0.20075254142284393
0.24030525982379913 -0.08390022814273834 0.32946452498435974
0.3169528543949127 -0.043587490916252136 -0.30666160583496094
-0.4997532069683075 0.08418422937393188 0.34590116143226624
0.23205427825450897 -0.6249366998672485 0.22659894824028015
0.3806021511554718 0.4040091633796692 -0.3664287328720093
-0.20269346237182617 -0.3848862648010254 0.036440275609493256
-0.423494815826416 0.13561159372329712 -0.39900001883506775
0.39757147431373596 -0.3336937129497528 0.1458895355463028
0.23094114661216736 -0.04003599286079407 0.283126562833786
0.3031980097293854 0.46316292881965637 0.42702099680900574
0.09736224263906479 0.39995983242988586 0.09348254650831223
-0.39599624276161194 0.3636202812194824 -0.19870150089263916
-0.4119287133216858 -0.08388375490903854 -0.10890761762857437
-0.2582429349422455 0.2884141504764557 0.3458077907562256
-0.1582697331905365 -0.14155638217926025 -0.2548660337924957
-0.15728406608104706 0.3562569320201874 0.3448420464992523
0.4524877071380615 -0.027122268453240395 -0.04773789644241333
-0.06629986315965652 0.0017306022346019745 -0.17916613817214966
0.2587094306945801 0.4045930802822113 -0.12287328392267227
0.5768534541130066 0.09407135844230652 -0.09924011677503586
-0.042225178331136703 0.015239686705172062 -0.39489826560020447
-0.3609829843044281 0.10420522093772888 0.3446497917175293
0.027788152918219566 0.01627420261502266 -0.3978317677974701
0.5493148565292358 0.404295951128006 -0.2873843312263489
-0.018888134509325027 0.0004584300331771374 -0.3103675842285156
0.4385381042957306 -0.17100077867507935 0.049407120794057846
-0.44983139634132385 -0.10742568969726562 0.21383848786354065
0.2333727777004242 -0.6246888041496277 0.09206191450357437
0.5780937075614929 0.22825156152248383 0.0034378808923065662
-0.5825793147087097 0.12067358940839767 0.33777284622192383
-0.5105650424957275 0.09049529582262039 0.3469851613044739
-0.5716515183448792 -0.04529828950762749 0.24319243431091309
-0.062113143503665924 0.40547847747802734 -0.18900538980960846
0.21452130377292633 -0.4979095757007599 0.23234327137470245
0.28446218371391296 -0.6209737062454224 0.006251162849366665
-0.20683331787586212 -0.13665223121643066 0.12602269649505615
0.2570352256298065 0.0047174617648124695 0.2355315387248993
0.3878815472126007 0.4036915898323059 -0.10592768341302872
0.19178220629692078 0.40249359607696533 0.12842394411563873
0.13277800381183624 0.22408245503902435 -0.4012036919593811
-0.09583524614572525 0.14338350296020508 -0.40139615535736084
-0.4459077715873718 0.109211266040802 -0.3263925611972809
0.0907215029001236 -0.4676441550254822 0.25987866520881653
0.12684772908687592 0.001084091141819954 -0.10610954463481903
-0.002947924891486764 0.002494516782462597 0.1715681105852127
0.0003886466147378087 -0.6214077472686768 -0.10505570471286774
-0.12046095728874207 0.003921989351511002 0.11139985918998718
-0.5469608306884766 0.0668792575597763 -0.17802689969539642
0.026571236550807953 0.0017094019567593932 -0.15671701729297638
0.23552414774894714 -0.5730944871902466 0.22960658371448517
-0.1781565397977829 -0.5823136568069458 -0.09637945890426636
0.16535457968711853 -0.6240409016609192 -0.1787320226430893
0.30685269832611084 0.4096088707447052 0.45351165533065796
-0.14581340551376343 0.0023229499347507954 -0.11781495809555054
0.3333655893802643 -0.08340846002101898 0.22535163164138794
-0.2697567343711853 0.4057641923427582 -0.29645484685897827
0.23104648292064667 0.40121030807495117 -0.18096697330474854
0.10571791976690292 -0.6537498831748962 -0.30568942427635193
-0.12931343913078308 0.0017253272235393524 -0.272452175617218
-0.33606165647506714 0.4008081257343292 0.2513417601585388
0.39085474610328674 -0.4462003707885742 -0.03546872362494469
0.12141361832618713 -0.09235110133886337 0.33688589930534363
0.02324005402624607 0.0012706350535154343 -0.2112719565629959
0.5757344961166382 0.36539602279663086 0.021923333406448364
-0.5846925973892212 0.3059869706630707 -0.06495831906795502
0.2897619605064392 -0.383813738822937 -0.2768213748931885
-0.28037723898887634 0.003356718458235264 0.2778814435005188
0.5798934102058411 0.35168594121932983 -0.3305080235004425
0.10648144036531448 0.34997138381004333 0.46130481362342834
0.44142988324165344 -0.24893802404403687 -0.08949624747037888
0.027011429890990257 0.32115188241004944 0.3478548228740692
0.31609126925468445 0.001478525809943676 -0.30942612886428833
-0.43782779574394226 0.40430891513824463 0.061585377901792526
-0.1739393025636673 -0.6120557188987732 -0.12491252273321152
0.3758910000324249 0.003984821029007435 -0.08193984627723694
-0.5809462070465088 0.26883113384246826 -0.07285721600055695
-0.11195779591798782 -0.2613816261291504 0.24084006249904633
0.15508835017681122 0.07816613465547562 -0.4016851782798767
-0.39400696754455566 0.0053206924349069595 0.10643590986728668
-0.17059247195720673 -0.17911475896835327 0.18181802332401276
0.09581808000802994 -0.6213333606719971 0.0067312815226614475
0.21681548655033112 0.003292865352705121 -0.07077806442975998
-0.21702833473682404 0.40462952852249146 0.0867447480559349
-0.4735550582408905 0.051646847277879715 0.35211700201034546
-0.10026217252016068 0.004296251107007265 0.14491768181324005
0.5759486556053162 0.3770880103111267 0.08435679227113724
0.3592982292175293 -0.3626508414745331 0.19559797644615173
0.2964135408401489 0.10951510816812515 0.3470562696456909
-0.5880675315856934 0.1428079456090927 0.30918654799461365
0.12109750509262085 -0.3963807225227356 -0.3183938264846802
-0.008033456280827522 -0.42851537466049194 -0.2956121265888214
-0.12280933558940887 0.3241947293281555 -0.3999437987804413
-0.3517601191997528 0.30824440717697144 0.3455604016780853
-0.1745041012763977 0.4003080129623413 -0.38058972358703613
0.3374415934085846 0.002195935696363449 0.16851426661014557
0.11498304456472397 -0.1391153484582901 -0.3724937438964844
-0.49805960059165955 0.005034811329096556 0.35204651951789856
0.18405401706695557 0.40302205085754395 -0.17792651057243347
-0.5284814834594727 0.3791506588459015 0.3433689475059509
0.15932975709438324 0.07151807844638824 -0.4015112519264221
0.3811384439468384 -0.08438895642757416 0.16932746767997742
0.20215456187725067 0.17032718658447266 0.4642913341522217
0.06626764684915543 -0.11651752144098282 0.3159940540790558
-0.02515649050474167 0.005477059632539749 0.19415472447872162
0.5034947991371155 0.4040420353412628 -0.11952841281890869
0.37419775128364563 0.16994309425354004 -0.3997144103050232
0.3522213399410248 0.0034696911461651325 -0.0221884585916996
0.049739737063646317 -0.06823831051588058 -0.37070223689079285
0.25403904914855957 0.40170156955718994 0.12199384719133377
0.007007885724306107 -0.6243482232093811 -0.17701120674610138
0.5099850296974182 0.09641517698764801 -0.40099117159843445
0.0742092952132225 -0.6246989369392395 0.09051277488470078
0.5781532526016235 0.16656933724880219 0.23655010759830475
0.0722157284617424 0.2383570671081543 0.34883546829223633
0.08995388448238373 -0.49576741456985474 0.26091131567955017
-0.5681379437446594 0.03633686155080795 -0.39648720622062683
-0.5679250359535217 0.3777795135974884 0.03445001319050789
0.5799387693405151 0.38803768157958984 -0.20381328463554382
-0.578360915184021 0.033846911042928696 0.23631048202514648
0.11691242456436157 -0.4771902561187744 -0.32228952646255493
-0.24986426532268524 -0.00021980749443173409 0.028486469760537148
0.4336988627910614 -0.10393401235342026 -0.11910608410835266
0.5560480952262878 0.39954468607902527 0.02597144991159439
-0.5630002617835999 -0.008116165176033974 0.1503494530916214
0.40004315972328186 -0.00952676311135292 0.12458470463752747
0.23970277607440948 0.237214133143425 -0.4022306501865387
0.35571110248565674 0.023576127365231514 -0.4027758538722992
0.05724073573946953 -0.6296634674072266 0.21094490587711334
-0.4663858413696289 0.362728476524353 -0.17494171857833862
0.46373701095581055 0.3571230471134186 0.3468073904514313
0.18355001509189606 0.0013234992511570454 -0.3618735373020172
0.040992408990859985 -0.34327074885368347 -0.3680817186832428
0.34503528475761414 0.16126786172389984 -0.4034196138381958
-0.18736861646175385 -0.5927279591560364 -0.023561790585517883
0.2877051830291748 0.0047933668829500675 0.15317143499851227
0.11749054491519928 0.0020703081972897053 0.05752944201231003
-0.3601401746273041 0.003582680830731988 0.0995803251862526
-0.2178979367017746 0.4043717682361603 -0.3138391673564911
-0.5675660967826843 -0.052989453077316284 -0.10034464299678802
-0.5638922452926636 0.08933654427528381 0.10577384382486343
-0.5775976777076721 0.020793572068214417 -0.35020455718040466
0.23333625495433807 -0.004523858893662691 0.2931371331214905
-0.40753820538520813 0.38862404227256775 0.030439861118793488
0.17443233728408813 0.2895622253417969 0.344512403011322
0.07258456200361252 0.0029581328853964806 -0.3408753275871277
-0.09419066458940506 -0.08867355436086655 -0.31405872106552124
-0.5872855186462402 0.24074368178844452 0.013092022389173508
-0.40692245960235596 0.37071675062179565 0.030043385922908783
-0.11282915621995926 0.0032654637470841408 -0.15229065716266632
0.16850362718105316 0.22599151730537415 -0.40065065026283264
0.36414363980293274 0.40288472175598145 -0.06394792348146439
-0.17731910943984985 0.4036494791507721 0.1588318645954132
0.5758682489395142 0.026820193976163864 -0.21738408505916595
0.5750295519828796 0.12958285212516785 -0.25813454389572144
-0.06212947890162468 -0.0005382038652896881 -0.2525787353515625
0.2731335759162903 0.40270477533340454 -0.18521606922149658
0.019085053354501724 0.40220117568969727 0.013094216585159302
0.4346732795238495 -0.0007653473876416683 0.02943326160311699
0.37169694900512695 0.40379685163497925 0.11563651263713837
0.3684941232204437 -0.5520232319831848 0.08628398180007935
-0.538560152053833 -0.08950621634721756 0.022906258702278137
-0.09634731709957123 0.0010081697255373001 -0.042662955820560455
-0.1245085597038269 0.40243276953697205 -0.05323783680796623
-0.5874580144882202 0.1976323425769806 -0.0469905287027359
-0.1643296182155609 0.26135602593421936 0.3492530286312103
0.3381536304950714 0.00141229759901762 0.20892305672168732
0.400645911693573 -0.3259020745754242 0.13701437413692474
0.3894861042499542 -0.6391509175300598 -0.058505989611148834
-0.02912462316453457 0.4039919376373291 0.09363321214914322
-0.5842592716217041 0.3050302267074585 -0.2898027002811432
-0.42609521746635437 0.003599797375500202 0.050541117787361145
0.1122371107339859 0.005410327576100826 0.236390620470047
-0.08099810034036636 -0.04520593211054802 -0.32064875960350037
-0.12434067577123642 -0.003975780680775642 -0.2713644802570343
0.033792927861213684 -0.08027868717908859 0.3225778043270111
-0.06796007603406906 -0.6210271120071411 -0.1429879516363144
0.03565787151455879 -0.6237589716911316 -0.24102488160133362
0.003371316008269787 0.40367984771728516 -0.15324759483337402
-0.17225779592990875 0.2259720265865326 0.3491220772266388
0.30259546637535095 0.0035556359216570854 -0.17326249182224274
0.29315394163131714 0.055135972797870636 -0.4014297425746918
0.45463499426841736 -0.006198435090482235 0.003320705611258745
0.5784732699394226 0.33234915137290955 -0.3639713525772095
0.32789182662963867 0.023405978456139565 0.343409925699234
0.26050642132759094 0.40568503737449646 0.2761605679988861
-0.40859535336494446 0.39469632506370544 0.031396687030792236
-0.09518007189035416 0.002900015562772751 -0.013418658636510372
0.5410159826278687 0.00416097417473793 0.1682530641555786
-0.22346177697181702 -0.10827415436506271 0.0872899517416954
-0.4887695014476776 0.401708722114563 -0.18379491567611694
0.24825496971607208 0.020843584090471268 -0.4015940725803375
0.010107142850756645 0.001874282956123352 -0.15858876705169678
-0.24917681515216827 0.005114171653985977 0.3322460353374481
0.20627543330192566 0.4042547345161438 0.28680360317230225
-0.00712650828063488 0.0037217549979686737 -0.03769639506936073
0.0033880036789923906 0.22759689390659332 0.3528248071670532
-0.1836615651845932 0.0008170315995812416 -0.3323502838611603
-0.5076863169670105 0.09412895143032074 0.007434929255396128
0.3496116101741791 0.0031028734520077705 -0.11479000002145767
0.2465389370918274 0.4014144241809845 -0.3855992257595062
0.4474680721759796 -0.12892848253250122 -0.00978863425552845
0.16482527554035187 3.858096897602081e-05 0.3112369775772095
-0.14376474916934967 -0.6390712261199951 -0.03522195667028427
0.24371349811553955 0.028833817690610886 0.46372079849243164
-0.10809601098299026 -0.573204755783081 -0.23002299666404724
-0.04994036257266998 0.004134943708777428 -0.03137722611427307
-0.419403612613678 0.0017215816769748926 0.2820066809654236
0.25316932797431946 0.004781618714332581 0.07535474747419357
0.2664295732975006 0.40469422936439514 0.2947380244731903
0.3186970353126526 0.00039165839552879333 -0.22493726015090942
-0.21557311713695526 -0.0517793633043766 -0.181049644947052
0.31880053877830505 -0.6033735275268555 -0.22257505357265472
-0.12876521050930023 0.0032998695969581604 0.18441858887672424
0.10457909852266312 -0.28120288252830505 0.31767651438713074
0.5784966349601746 0.0773020014166832 0.1697002798318863
0.09781887382268906 -0.6526712775230408 0.25674888491630554
-0.1936212033033371 -0.011067619547247887 -0.1829528659582138
-0.3897535800933838 -0.05600164085626602 -0.3646956980228424
0.06973695009946823 0.4030321538448334 0.1384737342596054
-0.5358569622039795 0.39172884821891785 0.024548320099711418
