-0.34499165415763855 0.007557849865406752 0.14093472063541412
0.5766959190368652 0.14509443938732147 -0.3646668493747711
0.49229857325553894 0.007706319913268089 -0.31612083315849304
0.2249860018491745 -0.07886680960655212 0.2928292453289032
0.21155032515525818 -0.10345678776502609 -0.3600061237812042
-0.5696957111358643 0.031378213316202164 -0.06515118479728699
-0.3675757944583893 0.04112214967608452 0.26263460516929626
-0.1513991802930832 0.3885149657726288 0.0138322738930583
0.20887385308742523 0.012534725479781628 -0.11156316101551056
0.4620536267757416 0.28671181201934814 0.3332578241825104
0.37216874957084656 -0.35724538564682007 0.19530920684337616
0.539169192314148 0.017571335658431053 0.11028966307640076
0.43227335810661316 -0.07743505388498306 0.013549908995628357
-0.11871670186519623 -0.6331298351287842 -0.11455089598894119
0.25544455647468567 -0.04290764406323433 0.46932074427604675
0.11354674398899078 -0.5389969944953918 0.24976985156536102
0.588109016418457 0.0778251513838768 0.2373175472021103
-0.23605841398239136 -0.27049604058265686 0.08258453756570816
-0.5296888947486877 0.0725325345993042 0.2849310040473938
0.3684460520744324 0.39465442299842834 0.1907866895198822
0.32638049125671387 -0.5753635168075562 -0.20210273563861847
-0.3882409632205963 0.03283914178609848 -0.4045126438140869
-0.3336017429828644 0.3912222683429718 -0.046890031546354294
0.19707109034061432 0.3454720079898834 0.3337859809398651
0.07025366276502609 0.024072779342532158 -0.4000616669654846
0.13034696877002716 0.3965969979763031 0.011420008726418018
0.35320931673049927 -0.6236269474029541 -0.016918890178203583
-0.3337424397468567 0.41296371817588806 -0.11241132766008377
-0.28657615184783936 0.4074735641479492 0.1926635205745697
-0.5761938095092773 0.01541318278759718 0.05563550814986229
0.2645624577999115 0.26193052530288696 0.33463600277900696
-0.006067065522074699 0.0009398488909937441 0.07834283262491226
0.1887296736240387 -0.0032913698814809322 -0.007749879267066717
-0.5606359839439392 0.057381268590688705 0.24231216311454773
0.24746905267238617 -0.3689025342464447 0.25933027267456055
-0.4145592749118805 0.40463289618492126 0.32705026865005493
-0.3123117685317993 0.0012121815234422684 0.2920090854167938
-0.4115992784500122 -0.10696309059858322 -0.23123487830162048
-0.27870744466781616 0.4002622663974762 -0.3673362731933594
0.16014699637889862 -0.6074647307395935 -0.3026849627494812
0.5819451808929443 0.33640506863594055 -0.0854446068406105
-0.017634283751249313 0.04125005379319191 0.3515743613243103
0.5693456530570984 0.39213794469833374 0.20128634572029114
-0.09593520313501358 0.007990456186234951 0.3027823865413666
-0.11236055940389633 -0.21350803971290588 0.24534691870212555
-0.0668015256524086 0.41216495633125305 -0.17207098007202148
0.5213239192962646 0.39949989318847656 -0.05804050713777542
-0.3474212884902954 0.4050506055355072 -0.1009899377822876
-0.17541976273059845 -0.23198731243610382 -0.21210262179374695
-0.5600524544715881 0.04706699028611183 0.3308922052383423
0.220549538731575 -0.006921742577105761 -0.01757628843188286
0.19116520881652832 0.26701292395591736 0.3568785488605499
-0.0716099813580513 -0.37728050351142883 0.19633764028549194
0.1838640719652176 0.3977445960044861 -0.1785285770893097
0.5664772391319275 0.05417054519057274 -0.3096873164176941
-0.5108985304832458 -0.0003081511240452528 0.2715853154659271
0.1762600541114807 -0.6221999526023865 0.09534788131713867
-0.49085333943367004 0.20747214555740356 0.35347437858581543
0.011874631978571415 0.33764201402664185 0.3395615816116333
0.033137835562229156 0.01097758486866951 0.4226070046424866
-0.15970610082149506 -0.46639350056648254 0.1175500676035881
0.21695247292518616 -0.5254874229431152 -0.3036024272441864
0.14358563721179962 -0.00571575528010726 0.28523653745651245
0.19802860915660858 -0.6183068752288818 0.01865680143237114
-0.1833641529083252 0.31353139877319336 -0.38735806941986084
0.4234417676925659 0.009043468162417412 0.08034291118383408
0.584102213382721 0.2442263513803482 -0.3730146586894989
0.16599570214748383 0.11378695070743561 -0.4090316593647003
-0.17315006256103516 -0.6502020955085754 -0.005169177893549204
0.2330847680568695 0.31370970606803894 0.46479666233062744
0.08320460468530655 0.394072949886322 -0.38569924235343933
-0.28005313873291016 -0.007980392314493656 -0.2550590932369232
-0.36097076535224915 0.37716659903526306 -0.17694136500358582
-0.16082514822483063 -0.43337011337280273 0.07629295438528061
-0.35012081265449524 0.39883720874786377 0.21287107467651367
-0.2883138954639435 0.09222058951854706 -0.3871591091156006
0.11310801655054092 0.00772517966106534 0.32057783007621765
-0.16394752264022827 -0.011245504021644592 0.1686403453350067
-0.07993680238723755 0.3864196538925171 0.18312585353851318
0.0002722456702031195 0.05821441859006882 -0.38784387707710266
-0.104257732629776 -0.31638485193252563 -0.3146270215511322
0.47342514991760254 0.39815789461135864 -0.21024414896965027
-0.5546183586120605 0.2878820300102234 0.34220629930496216
0.5408395528793335 0.17164316773414612 -0.3982545733451843
-0.5900225639343262 0.09343034774065018 0.30647027492523193
0.1694960743188858 0.3984019458293915 0.23559893667697906
0.35748329758644104 -0.36626988649368286 -0.2545439302921295
0.5711203813552856 0.21226857602596283 0.05023501440882683
-0.5670027136802673 0.2283855378627777 -0.3981609046459198
-0.49290186166763306 0.0041270870715379715 0.2723061144351959
-0.4577636420726776 -0.09261536598205566 0.039422642439603806
-0.11191663146018982 -0.6209948658943176 -0.23444269597530365
-0.10737380385398865 0.0036270786076784134 -0.3696694076061249
0.41782861948013306 -0.07997824251651764 -0.1512799710035324
0.06860747933387756 0.036557842046022415 0.4594952166080475
-0.5923272371292114 0.29069072008132935 -0.1329442262649536
-0.37690889835357666 0.07511286437511444 -0.17779232561588287
-0.41667792201042175 -0.007359164301306009 -0.04563654959201813
0.06994742155075073 0.09579633176326752 -0.3878649175167084
0.1508251130580902 -0.6247283816337585 0.10605867207050323
-0.5740593671798706 -0.04296541213989258 -0.2959262728691101
0.45430368185043335 -0.15716499090194702 -0.014836674556136131
-0.2400607168674469 -0.2647378444671631 7.026465027593076e-05
-0.3891446590423584 -0.006547910161316395 -0.23946353793144226
-0.39011868834495544 0.40707823634147644 0.18873876333236694
-0.47807979583740234 0.35978350043296814 -0.4070168137550354
-0.369890958070755 0.07421719282865524 -0.3807868957519531
0.05506499111652374 -0.23970060050487518 -0.3822627365589142
-0.11264550685882568 0.3964724838733673 -0.3725314438343048
-0.31748053431510925 0.03728485107421875 0.3279341459274292
0.5646141767501831 0.35740718245506287 -0.20779691636562347
-0.5883676409721375 0.046794772148132324 0.23046541213989258
0.3107393682003021 0.43687641620635986 0.3920711874961853
-0.37961429357528687 -0.009090594947338104 -0.09211372584104538
0.12347529083490372 -0.6489325761795044 -0.3107534646987915
0.4398103356361389 0.05290450528264046 -0.4028325080871582
0.22520308196544647 -0.5954447388648987 -0.27846619486808777
-0.26057130098342896 0.012176914140582085 0.18917326629161835
-0.34848734736442566 0.3864065706729889 -0.35198065638542175
0.16751892864704132 -0.01849871501326561 0.4608507454395294
-0.3755786418914795 -0.04620339348912239 0.025857018306851387
0.1471165269613266 0.45376673340797424 0.3831700086593628
0.018650606274604797 0.00620023999363184 -0.22314167022705078
-0.47116056084632874 0.1828535944223404 -0.40242597460746765
-0.09855493903160095 0.3979743421077728 -0.14418378472328186
-0.5563201904296875 0.38026753067970276 -0.2411099523305893
-0.5675129294395447 0.03509293496608734 -0.024736693128943443
0.541633665561676 0.01187400333583355 -0.2854500412940979
0.17843015491962433 0.03384071961045265 0.4756243824958801
0.1337459832429886 -0.6163010597229004 0.09988945722579956
0.24611349403858185 0.00091298803454265 0.3280741572380066
0.12124159932136536 0.21354888379573822 0.33715176582336426
0.22243870794773102 0.4048530161380768 -0.21583792567253113
0.0813482254743576 -0.007445219904184341 0.24433957040309906
0.03844812884926796 0.06339718401432037 0.32886767387390137
0.17030370235443115 0.40286388993263245 0.14843931794166565
-0.16380487382411957 0.08645474165678024 0.33908915519714355
0.25254765152931213 -0.37488988041877747 0.25938746333122253
-0.570537269115448 0.2242404967546463 0.3270350992679596
-0.2248007357120514 0.393917053937912 -0.3752223253250122
0.5770186185836792 0.08016998320817947 0.34313538670539856
0.15690773725509644 -0.6080915331840515 -0.14049358665943146
0.24069726467132568 -0.012918510474264622 0.254285991191864
0.5844292044639587 0.03224572539329529 -0.2519816756248474
0.3233698904514313 0.004645359702408314 0.2511272728443146
0.5898246169090271 0.14897024631500244 -0.40378904342651367
-0.19656118750572205 -0.4260914623737335 -0.08608575910329819
0.2786898612976074 0.21542870998382568 -0.4039694368839264
0.2553589940071106 0.3998079299926758 0.017370857298374176
-0.3741295039653778 0.014403616078197956 -0.1984868347644806
0.5800936222076416 0.13739176094532013 0.28001704812049866
0.409315288066864 -0.00750941876322031 -0.37096598744392395
0.0165394376963377 0.41184771060943604 -0.2838548719882965
-0.20491211116313934 -0.010960891842842102 -0.19013094902038574
0.3916890323162079 -0.588351845741272 0.038865718990564346
-0.5677557587623596 0.3763634264469147 -0.17501968145370483
0.33863556385040283 0.3126847743988037 -0.3922805190086365
-0.06058581918478012 0.1258540004491806 0.3470270335674286
0.5766919255256653 0.321811318397522 -0.07812855392694473
-0.02072165720164776 0.09879186004400253 -0.39624813199043274
0.31169450283050537 0.39718109369277954 0.42072850465774536
0.06435196101665497 0.0021084649488329887 -0.18796011805534363
0.42699506878852844 -0.007613345980644226 -0.3214523494243622
0.5185626745223999 0.00776544539257884 -0.1448666751384735
0.41544222831726074 -0.0010558228241279721 -0.10128552466630936
-0.2584554851055145 0.014463542960584164 0.232686385512352
0.042604729533195496 -0.36728158593177795 -0.3086835741996765
0.38351330161094666 -0.6111410856246948 -0.048650674521923065
-0.14577051997184753 0.4001627266407013 0.0357140377163887
-0.569549024105072 0.18025298416614532 0.22425277531147003
0.20263820886611938 -0.027497146278619766 0.33757859468460083
0.3592720329761505 -0.3068247139453888 0.20495930314064026
0.5795847177505493 0.021975602954626083 0.23693062365055084
0.591712236404419 0.1090879961848259 -0.2904573976993561
0.26918312907218933 0.41255635023117065 0.26714977622032166
0.23476587235927582 -0.37661948800086975 0.26775258779525757
0.4197642505168915 -0.11811607331037521 0.12524071335792542
-0.30174413323402405 0.38011476397514343 0.0014810545835644007
0.24968993663787842 -0.007309366948902607 0.07844135910272598
0.5619630813598633 -0.005523717496544123 -0.34331825375556946
-0.5030272603034973 0.38754746317863464 -0.39693817496299744
0.3597028851509094 0.009949871338903904 0.08372588455677032
0.21765492856502533 -0.6465222239494324 -0.283417671918869
0.37458205223083496 -0.3076825737953186 -0.259957492351532
-0.13409128785133362 0.3935359716415405 0.2576318383216858
0.27567723393440247 -0.620117723941803 -0.1863773912191391
-0.518010675907135 0.11692887544631958 -0.1305568665266037
0.5913833379745483 0.1970791071653366 0.07312896102666855
0.22354845702648163 -0.6370254755020142 0.03779018297791481
-0.16598612070083618 0.006238260306417942 0.3274994492530823
0.11207816004753113 -0.008166749030351639 0.3287550210952759
-0.46080800890922546 0.10517296940088272 -0.1310710459947586
0.04875830188393593 -0.6236147880554199 -0.2605880796909332
0.07521223276853561 -0.4462662637233734 -0.3021831512451172
0.3519892990589142 0.17377342283725739 0.33939826488494873
-0.44183918833732605 0.4068075120449066 -0.24163281917572021
-0.46836403012275696 0.000992966815829277 0.1295250505208969
0.3205074965953827 0.2746535837650299 0.34501758217811584
0.5709776878356934 0.16923953592777252 -0.0301506407558918
-0.5841932892799377 0.07683414965867996 -0.06001747399568558
-0.18246135115623474 -0.6330481767654419 -0.04374008625745773
-0.34044843912124634 0.20534753799438477 -0.3864518404006958
-0.09471895545721054 -0.6474117636680603 -0.18279717862606049
0.1436072140932083 -0.5215591788291931 -0.30204954743385315
0.2989925444126129 -0.5347931385040283 -0.2466464340686798
0.44371309876441956 -0.08572419732809067 0.0196516215801239
-0.08136852830648422 -0.008791917003691196 -0.014546984806656837
0.1384914666414261 -0.36435839533805847 0.3138209879398346
-0.09988755732774734 0.136259987950325 0.3554247319698334
0.20421969890594482 -0.05156579986214638 0.3327108919620514
0.08613172918558121 0.4415495693683624 0.4303361475467682
-0.3009571135044098 0.36242175102233887 0.0037459037266671658
0.06844253838062286 0.014696052297949791 -0.0684405267238617
-0.019815918058156967 -0.3444262742996216 0.30285578966140747
-0.3622308075428009 -0.03237409517168999 -0.27289241552352905
-0.20385555922985077 0.008706029504537582 -0.30847659707069397
0.0633445456624031 0.0076304590329527855 0.34519994258880615
0.3349230885505676 0.27338865399360657 0.395682156085968
0.0746089294552803 -0.0967635065317154 0.3870031237602234
0.3225623071193695 -0.389782190322876 -0.24747233092784882
0.09315147250890732 0.0119993407279253 0.18708357214927673
0.06202160567045212 -0.6447161436080933 -0.28385284543037415
-0.5709326863288879 0.1913151741027832 0.24786913394927979
-0.07487696409225464 0.39233362674713135 -0.13871657848358154
0.39445561170578003 -0.5162837505340576 0.01796375773847103
-0.2944328486919403 0.4043917655944824 -0.24758942425251007
-0.09189069271087646 -0.3162734806537628 -0.33567607402801514
0.14030148088932037 -0.6330255270004272 -0.10589832812547684
0.2705995738506317 0.39663243293762207 -0.2647225260734558
0.5882605314254761 0.3268948793411255 0.15881671011447906
0.5189847946166992 0.010334394872188568 0.3274046778678894
-0.5248415470123291 0.4051099121570587 0.19160757958889008
-0.06854912638664246 -0.3460073173046112 0.26642006635665894
-0.5804612636566162 -0.01181537564843893 0.11139164119958878
-0.08902975171804428 -0.012458981946110725 -0.2844414710998535
0.5815529227256775 0.1624990701675415 -0.16192929446697235
-0.34963005781173706 0.012745839543640614 0.18906857073307037
-0.5925458073616028 0.12522925436496735 -0.29494795203208923
-0.5870062112808228 0.3556216359138489 0.06313662230968475
-0.16010263562202454 -0.642056405544281 -0.033950816839933395
-0.33771681785583496 0.4290347397327423 -0.05752955749630928
-0.460023432970047 0.34408748149871826 -0.17808742821216583
-0.1399807184934616 -0.6247171759605408 -0.024624917656183243
-0.07429418712854385 -0.6207619309425354 -0.21954737603664398
-0.017042245715856552 0.391836017370224 0.010821163654327393
0.028783312067389488 -0.2500353455543518 -0.3660408556461334
-0.5433393716812134 0.23060671985149384 0.35117173194885254
0.3372388482093811 0.39157721400260925 -0.3929293751716614
-0.03130453824996948 0.016816681250929832 -0.23039403557777405
0.2861926257610321 0.39837244153022766 0.4483042359352112
0.31815552711486816 0.26907607913017273 0.3683587610721588
-0.42430147528648376 0.38339340686798096 0.34885674715042114
0.15092416107654572 -0.13049152493476868 -0.37268227338790894
-0.19995202124118805 0.39924880862236023 0.3288850784301758
0.5809882283210754 0.09702461212873459 0.18226993083953857
0.07130429148674011 -0.0728098675608635 0.3166479766368866
0.10743667930364609 -0.004786142613738775 -0.05693155154585838
-0.5406150221824646 -0.07579721510410309 0.30137568712234497
0.19053015112876892 -0.38707345724105835 -0.2890624701976776
0.18500538170337677 -0.008437077514827251 0.19511300325393677
-0.23415623605251312 0.002129077911376953 0.04947536066174507
0.05510206148028374 -0.6171169281005859 -0.24966122210025787
0.4943636953830719 0.012314091436564922 -0.10957040637731552
0.12824459373950958 -0.6260138154029846 0.18885920941829681
-0.2680777609348297 -0.008145218715071678 0.3339797854423523
-0.2021932154893875 -0.0818173810839653 0.13682205975055695
0.19396495819091797 -0.5289301872253418 -0.28653576970100403
0.21104910969734192 -0.005669048056006432 -0.28363025188446045
-0.5248027443885803 0.3786419928073883 -0.402700275182724
-0.005766956601291895 0.015825878828763962 -0.393554151058197
0.3030479848384857 -0.4640147387981415 0.18337048590183258
-0.4322883188724518 -0.08766670525074005 0.12144041061401367
0.41152113676071167 -0.37904903292655945 -0.14172326028347015
0.5701256394386292 -0.0015920151490718126 0.04127160832285881
-0.4331023395061493 -0.03122093714773655 -0.39630743861198425
0.48541876673698425 0.4027155637741089 0.09527029097080231
0.21112583577632904 0.014738111756742 -0.1727219969034195
-0.1364561766386032 0.4039663076400757 -0.2081669718027115
0.17856450378894806 0.016528641805052757 -0.3493104577064514
0.5327234268188477 0.26540106534957886 0.32930079102516174
-0.23138487339019775 -0.3378278613090515 0.05812232196331024
0.4268503487110138 0.35891714692115784 -0.40344297885894775
0.14042434096336365 0.4058564305305481 -0.23818185925483704
0.43793100118637085 -0.05702344328165054 -0.02088223770260811
-0.1437927484512329 0.38919392228126526 0.35426440834999084
-0.2000730186700821 0.005731403362005949 -0.40542781352996826
0.3826076090335846 0.002249485580250621 0.0897907167673111
0.013628331944346428 -0.3738356828689575 0.28976479172706604
0.0025714775547385216 0.266075998544693 0.35431256890296936
-0.37151896953582764 0.39965781569480896 0.17786774039268494
0.29603928327560425 -0.6286540627479553 -0.17518745362758636
0.19982337951660156 0.38911229372024536 0.19251185655593872
0.42811357975006104 -0.15372221171855927 -0.14062465727329254
-0.1252359300851822 -0.04228300601243973 -0.2785857915878296
0.0844898372888565 0.35591137409210205 0.3519830107688904
-0.4383416473865509 0.20502857863903046 -0.4000760316848755
-0.14370547235012054 -0.09151523560285568 -0.25927677750587463
0.27835512161254883 0.47561606764793396 0.3701595366001129
0.3440789580345154 -0.27892905473709106 0.21857576072216034
-0.11688296496868134 -0.46374183893203735 -0.2325669229030609
-0.22718419134616852 -0.05511818081140518 0.04491297900676727
0.17705200612545013 0.4147743582725525 0.1757945716381073
0.5724767446517944 0.07183822989463806 -0.29273542761802673
0.1534622758626938 -0.04182667285203934 0.3168598413467407
0.08445033431053162 -0.5507347583770752 0.26041820645332336
0.24432294070720673 0.07650645077228546 0.3383191227912903
0.03633030131459236 0.26804453134536743 0.40739011764526367
0.1499786078929901 -0.04026396572589874 0.3010086417198181
-0.43520820140838623 0.39775651693344116 -0.04345197230577469
-0.41954123973846436 0.11423890292644501 -0.39676204323768616
-0.3131771683692932 -0.007813221774995327 -0.12561000883579254
0.38226836919784546 0.007129198871552944 -0.38160744309425354
-0.49439573287963867 0.3505827486515045 -0.16078314185142517
0.2895100712776184 0.002123303711414337 0.44617652893066406
0.5692907571792603 0.36149129271507263 0.32738038897514343
-0.4659351706504822 0.40737101435661316 -0.4008497893810272
0.1723475605249405 0.4127142131328583 -0.052384600043296814
-0.4798511564731598 0.13060538470745087 -0.3880525827407837
-0.501118540763855 0.12134841084480286 -0.29522252082824707
-0.3064711391925812 0.01669205166399479 0.25576072931289673
-0.5025461316108704 0.10398352891206741 0.19926613569259644
0.05589227378368378 -0.6134762763977051 0.1728724092245102
0.014330113306641579 0.17549355328083038 0.3375316858291626
-0.3567822277545929 0.4077919125556946 -0.31437090039253235
-0.590590238571167 0.0125761479139328 -0.04861702769994736
-0.4674217104911804 0.10716184228658676 0.331617146730423
0.19137194752693176 -0.614609956741333 0.10959495604038239
-0.2719869911670685 0.39275091886520386 -0.27330198884010315
0.018309345468878746 0.18659844994544983 0.35308828949928284
-0.20304560661315918 -0.2754283547401428 0.12311568111181259
-0.266128271818161 0.37983959913253784 0.339722216129303
0.5898256897926331 0.27194350957870483 0.21067561209201813
-0.42193618416786194 -0.005081485025584698 -0.10426317900419235
-0.48902004957199097 0.11726135015487671 0.06772906333208084
-0.014461190439760685 0.0030730608850717545 -0.3258940875530243
-0.12285127490758896 -0.626761794090271 -0.07446957379579544
0.4361252188682556 0.4019604027271271 0.02853800728917122
-0.07123011350631714 -0.37206682562828064 -0.26158878207206726
-0.13441696763038635 -0.06888709962368011 0.2401484251022339
0.17450761795043945 0.40656164288520813 -0.17673374712467194
-0.30850937962532043 0.3922036290168762 0.07601678371429443
0.19394312798976898 -0.42107895016670227 -0.2859293222427368
-0.3665759861469269 0.00377822108566761 -0.04264203831553459
0.012547691352665424 -0.6190627217292786 0.08567185699939728
0.10944819450378418 0.3943493664264679 -0.19857701659202576
-0.5901160836219788 0.10048393905162811 0.14309947192668915
-0.07719213515520096 0.38551121950149536 -0.340695858001709
-0.12487544119358063 0.016045251861214638 0.07416461408138275
-0.5270676016807556 -0.004898249637335539 0.33409106731414795
-0.4140380918979645 0.0034101938363164663 0.10838048905134201
-0.5297691822052002 0.08886844664812088 -0.3069581091403961
0.2617682218551636 -0.6203415393829346 0.057759080082178116
-0.05809219926595688 -0.007156032603234053 0.17948690056800842
-0.01194465160369873 -0.023404860869050026 0.2871532142162323
-0.4256581962108612 0.011276423931121826 -0.2553286850452423
0.3576647937297821 -0.4610249996185303 -0.14459121227264404
-0.4492768347263336 -0.11480090022087097 -0.04528031870722771
-0.18270793557167053 -0.40534764528274536 -0.027244269847869873
0.5802983045578003 0.2418285459280014 0.10693464428186417
0.09530720114707947 -0.6287044882774353 -0.1460115909576416
0.5850396156311035 0.18704243004322052 -0.06881461292505264
0.14627480506896973 0.00715906685218215 0.00985932257026434
0.4429672658443451 -0.15072721242904663 0.0598769336938858
0.2157890647649765 -0.6354294419288635 0.12331269681453705
-0.5682950615882874 0.3962898254394531 -0.3748243451118469
-0.20415352284908295 0.40289306640625 -0.14808951318264008
0.16731804609298706 -0.6320134997367859 -0.026348838582634926
-0.40227165818214417 -0.08640436828136444 -0.30431875586509705
-0.22178174555301666 -0.29243865609169006 -0.170267716050148
0.15908455848693848 -0.2156856209039688 -0.3745139539241791
0.42522644996643066 -0.3105105757713318 0.05328895151615143
0.1326741725206375 -0.008590828627347946 0.1451042890548706
-0.09347199648618698 -0.6440678238868713 0.10257365554571152
-0.4541815519332886 0.11077290773391724 -0.38683021068573
-0.4656158685684204 0.3951922357082367 -0.09558621793985367
-0.14640919864177704 0.013784225098788738 -0.05939135327935219
0.24701426923274994 -0.3851482570171356 -0.350347101688385
0.5696577429771423 0.36150869727134705 -0.3898341953754425
0.588493824005127 0.342465341091156 0.25834736227989197
0.08647941797971725 -0.001007795101031661 0.22607636451721191
0.07417502254247665 0.3856872320175171 -0.3268156051635742
-0.3929204046726227 0.42142707109451294 -0.006971495226025581
-0.506624162197113 0.4059211015701294 -0.3175804615020752
0.023834897205233574 0.3906673491001129 -0.19356770813465118
0.3089228570461273 0.2499048262834549 -0.4062398672103882
-0.39550817012786865 -0.047173697501420975 -0.3851490318775177
0.30625468492507935 0.011935574933886528 -0.024165550246834755
0.5727643966674805 0.003445862792432308 -0.40042105317115784
0.13342441618442535 -0.35827556252479553 -0.3680726885795593
0.03078913874924183 -0.6421974301338196 0.21294629573822021
-0.4271988868713379 -0.11460627615451813 0.10485569387674332
-0.4197033941745758 0.07815121859312057 0.13359878957271576
-0.17832176387310028 -0.541431725025177 0.04435485973954201
0.43241795897483826 0.19615857303142548 -0.4065215289592743
-0.5838797688484192 0.004422599449753761 0.28807753324508667
0.5710299611091614 0.005989846307784319 -0.015337137505412102
-0.23527111113071442 -0.17662404477596283 0.026209605857729912
-0.4433474540710449 0.38068199157714844 -0.40244171023368835
0.053983423858881 -0.6324223875999451 0.13767926394939423
-0.12481213361024857 -0.004583472386002541 0.13865762948989868
0.32554492354393005 0.19871848821640015 0.34400591254234314
-0.21725089848041534 -0.011487348936498165 -0.26258036494255066
-0.4133411943912506 0.4135430157184601 0.33849963545799255
-0.19262950122356415 -0.622255265712738 -0.03800700232386589
-0.08226503431797028 -0.0044199759140610695 0.3088372051715851
0.4232047498226166 -0.23534193634986877 -0.150417760014534
-0.5934473276138306 0.002445267979055643 0.08523499965667725
0.27589210867881775 0.4134417176246643 0.08929415047168732
-0.24268107116222382 -0.10753736644983292 -0.08827612549066544
0.22369599342346191 -0.0026109328027814627 0.17262287437915802
-0.085900217294693 -0.32219839096069336 0.2587662637233734
-0.3842591345310211 -0.057407841086387634 0.04350868985056877
0.5556858777999878 0.28852224349975586 0.3506767153739929
-0.2854166626930237 0.016730019822716713 0.25100934505462646
0.11510761827230453 -0.05722201615571976 -0.38798055052757263
0.3798561096191406 -0.17443138360977173 -0.23661407828330994
-0.11017323285341263 -0.0005520034465007484 0.08361196517944336
0.23045746982097626 -0.6638239026069641 -0.2865130305290222
0.37424468994140625 -0.0001526252890471369 0.011149993166327477
-0.31879183650016785 0.40617847442626953 -0.10854245722293854
0.3346831500530243 0.3916885554790497 -0.2326960414648056
-0.2788257896900177 0.2234257161617279 0.32965272665023804
-0.39095744490623474 0.06765048205852509 0.07796425372362137
-0.14623595774173737 0.010362761095166206 -0.007405393291264772
-0.07465860992670059 0.393510103225708 -0.08759377151727676
0.34138235449790955 0.012069602496922016 -0.18452301621437073
-0.05312969163060188 0.3894406259059906 0.29690954089164734
-0.40340450406074524 0.11090488731861115 0.10950496047735214
0.4048013687133789 0.3896287679672241 -0.33858567476272583
-0.3863508105278015 0.06915686279535294 0.19243048131465912
0.3862932324409485 -0.5708917379379272 -0.11024206876754761
0.3793973922729492 -0.5011103749275208 -0.055335599929094315
0.5777249932289124 0.25293445587158203 -0.35651180148124695
-0.5866284966468811 0.018090400844812393 -0.366896390914917
-0.046355973929166794 -0.3537682592868805 -0.3330169916152954
-0.5261837840080261 0.34330835938453674 -0.059845030307769775
-0.08306717872619629 -0.006523003336042166 -0.10166166722774506
0.17310340702533722 0.3591661751270294 -0.3964231610298157
-0.36401069164276123 0.0046223527751863 -0.39159151911735535
0.557835042476654 0.007097573485225439 -0.1652289628982544
-0.4066118896007538 0.3439657688140869 0.044321414083242416
0.23116230964660645 -0.621436357498169 0.040399227291345596
0.5663936138153076 0.20140613615512848 0.3311326503753662
-0.558991014957428 -0.05079954117536545 -0.2027999460697174
0.19934745132923126 0.3937346041202545 0.11363779753446579
-0.573567271232605 -0.05853834003210068 -0.34139084815979004
-0.32268571853637695 0.3348684310913086 0.3339625895023346
0.11527792364358902 0.011000920087099075 0.3148919939994812
-0.0011099381372332573 -0.010734086856245995 -0.046822916716337204
-0.3183043301105499 0.2249341458082199 0.3555643558502197
0.18057410418987274 -0.25870710611343384 0.31197983026504517
0.41320860385894775 0.40914595127105713 -0.23710253834724426
0.5792698264122009 0.21425972878932953 -0.3619667887687683
-0.07301618903875351 -0.004109978210180998 -0.1350630223751068
0.2836870551109314 0.3970014154911041 -0.08997593820095062
-0.04610460624098778 0.004799702670425177 -0.18495604395866394
0.22047285735607147 -0.0029046942945569754 -0.10118243843317032
0.2570839822292328 -0.035271648317575455 0.3256424367427826
-0.3428218960762024 0.229859858751297 0.3534071445465088
-0.5957441329956055 0.3471878468990326 0.1988936811685562
-0.32448992133140564 0.015649767592549324 0.03300115093588829
0.5867995023727417 0.09239867329597473 -0.2869293689727783
-0.5387746691703796 -0.08414793759584427 0.059588681906461716
-0.491176962852478 0.27904942631721497 0.3400065302848816
-0.5855031609535217 0.012197881937026978 -0.12907293438911438
-0.08347251266241074 -0.07520686835050583 0.2673150300979614
0.5785320997238159 0.07348857820034027 0.15440694987773895
-0.3656269311904907 0.3726786673069 -0.18921686708927155
0.2010076344013214 0.37854939699172974 0.47664183378219604
-0.5789657235145569 0.29166242480278015 -0.24028874933719635
-0.1435433030128479 -0.0939440056681633 0.1875424087047577
-0.19551178812980652 -0.2895181477069855 -0.18242734670639038
0.559508204460144 0.29382604360580444 -0.40763410925865173
-0.46478408575057983 -0.11833472549915314 -0.3346545994281769
-0.2843770682811737 0.4022851288318634 0.16050927340984344
-0.43410423398017883 0.0638212263584137 0.3386412560939789
0.0977158471941948 -0.617254376411438 0.2568592429161072
-0.41195231676101685 -0.10178863257169724 -0.13098280131816864
0.4422746002674103 0.41053062677383423 -0.11543188244104385
0.02524442784488201 -0.626898467540741 -0.012095443904399872
-0.4085391163825989 -0.011988799087703228 0.031063701957464218
-0.4516410231590271 -0.01028315257281065 0.06306499242782593
-0.5183250308036804 0.012382617220282555 -0.18020844459533691
-0.3106831908226013 0.36274003982543945 0.005573481786996126
0.2722261846065521 -0.0031544826924800873 -0.025920826941728592
0.050392698496580124 0.00798656977713108 -0.18495427072048187
0.1527688205242157 0.10779503732919693 0.47495484352111816
0.18849994242191315 0.016557179391384125 -0.18201684951782227
0.5705375075340271 0.04713255167007446 -0.13231468200683594
-0.23816892504692078 0.4021207392215729 -0.09274885058403015
-0.010802295058965683 0.015465748496353626 -0.08501134067773819
0.029445143416523933 -0.008877181448042393 0.051914673298597336
-0.5447965264320374 0.06775715947151184 -0.18707282841205597
0.07055827230215073 0.01012385729700327 0.21067875623703003
-0.42182695865631104 -0.08436842262744904 0.05593705177307129
0.3922840356826782 -0.15490508079528809 -0.23723754286766052
-0.5940440893173218 0.2925771176815033 -0.3027551472187042
-0.4315568208694458 0.21933811902999878 0.32792410254478455
0.22651980817317963 0.4311760663986206 0.35602495074272156
0.0699126347899437 -0.11660276353359222 0.30408698320388794
-0.5688855051994324 0.37533873319625854 0.06817767769098282
0.34022170305252075 -0.01228029653429985 0.3211492598056793
-0.19994330406188965 0.014597490429878235 -0.30389001965522766
-0.03921954706311226 0.17212240397930145 0.40300947427749634
0.24312222003936768 0.07955519109964371 0.33508214354515076
-0.5802698135375977 0.3732246160507202 0.2585129141807556
-0.23616449534893036 -0.3328724205493927 -0.01916312612593174
0.5864939093589783 0.24142985045909882 -0.10753867775201797
-0.23352938890457153 -0.009274226613342762 -0.2909277081489563
-0.4013674259185791 0.007088954094797373 0.22798559069633484
-0.33946505188941956 0.39241304993629456 -0.1859147846698761
0.1008058562874794 -0.6311724185943604 -0.1796908974647522
-0.045613039284944534 -0.460811585187912 -0.2836204469203949
0.04669826850295067 -0.6158708333969116 0.1340813785791397
-0.5664340257644653 0.030193669721484184 -0.1916903555393219
-0.4644487202167511 0.15165479481220245 0.3278176188468933
-0.5281769037246704 0.3127289116382599 0.3319142758846283
-0.5296134352684021 0.3857916593551636 -0.3331102430820465
0.14530794322490692 -0.6077386736869812 -0.15645551681518555
-0.450843870639801 0.41162028908729553 0.166800394654274
-0.456391841173172 -0.0565081350505352 -0.4124116003513336
-0.4489082098007202 0.1096389964222908 0.29833316802978516
-0.05822720378637314 -0.6203949451446533 0.19890627264976501
-0.3868100643157959 0.24978694319725037 0.3402450978755951
0.43454980850219727 -0.24787022173404694 -0.007545944303274155
0.21607288718223572 0.3715515732765198 0.33053699135780334
-0.22210532426834106 -0.11390175670385361 -0.10379546880722046
-0.22995740175247192 0.1281731128692627 0.3546910583972931
-0.08800175786018372 0.22377365827560425 0.40281981229782104
0.13782575726509094 0.3984569013118744 -0.2670731246471405
-0.0791730284690857 -0.00014860194642096758 -0.1215398907661438
0.13258856534957886 -0.6026380062103271 -0.32778266072273254
-0.5228307247161865 -0.045102573931217194 -0.38835787773132324
-0.5929509997367859 0.13919517397880554 -0.09569480270147324
-0.19484509527683258 -0.1898038685321808 0.15882503986358643
-0.23977792263031006 -0.3366405665874481 0.00014341023052111268
-0.252185195684433 0.39618006348609924 -0.15361903607845306
0.01929887756705284 0.3947027623653412 0.11207069456577301
0.024202659726142883 0.3951508402824402 0.3439536392688751
-0.5857840776443481 0.2885749936103821 0.27010679244995117
-0.4781470000743866 0.10358390212059021 -0.1831524819135666
-0.16304834187030792 0.01608881913125515 0.14269155263900757
0.3029728829860687 0.3441008925437927 0.3500402569770813
0.44028693437576294 -0.009633973240852356 -0.025940004736185074
-0.13067476451396942 0.005624529905617237 -0.08584966510534286
-0.4021107852458954 -0.04557871073484421 0.3389057219028473
-0.30480334162712097 0.32748985290527344 -0.39308324456214905
0.0781983733177185 -0.005556256044656038 -0.2074432373046875
-0.49381527304649353 0.3287276029586792 -0.019545121118426323
-0.5686706900596619 0.3740983009338379 0.09732037782669067
-0.5907540321350098 0.08531234413385391 0.32077857851982117
-0.3668528199195862 0.05639011412858963 0.24572744965553284
-0.19619295001029968 0.006742142606526613 -0.1037781611084938
0.35651230812072754 0.3122349977493286 0.34609556198120117
0.02253640443086624 0.41330647468566895 0.323090136051178
0.11484413594007492 0.11229633539915085 0.4651813805103302
-0.3319985270500183 0.4201880097389221 -0.07801584899425507
-0.15810048580169678 0.3062281906604767 0.3524222671985626
0.40585383772850037 0.1535041481256485 -0.4122870862483978
0.15370337665081024 0.4056672155857086 -0.13162943720817566
-0.02768077328801155 -0.0033065967727452517 0.08636382222175598
0.47518306970596313 0.4132072627544403 0.07183759659528732
-0.5765058994293213 0.2460709810256958 0.2224811166524887
0.13721607625484467 -0.3973465859889984 -0.3006012737751007
-0.5827188491821289 0.1848284900188446 -0.20255206525325775
-0.23400850594043732 0.2739773094654083 -0.3886335790157318
0.3646901547908783 -0.15981782972812653 0.21102593839168549
-0.591072142124176 0.1792166382074356 -0.16886009275913239
-0.5257280468940735 0.21373486518859863 -0.3858780860900879
-0.16357681155204773 -0.17733845114707947 0.18489889800548553
0.08235574513673782 -0.5431312918663025 0.2505142092704773
-0.16745983064174652 -0.5723510384559631 0.03403203561902046
0.18886961042881012 0.007226637098938227 0.0923740565776825
-0.16889619827270508 -0.012708308175206184 0.08667995035648346
0.36225858330726624 0.3664986789226532 0.35809120535850525
0.5803085565567017 0.3013036549091339 -0.2520623803138733
0.35795173048973083 -0.010333121754229069 0.03675882890820503
-0.3476516008377075 -0.012849674560129642 0.09055526554584503
0.10451751947402954 -0.0014849848812445998 -0.1817115694284439
-0.18125851452350616 0.39692816138267517 -0.10210645943880081
0.3479628562927246 -0.010936911217868328 0.2722366154193878
0.3429453670978546 0.08453785628080368 0.34774473309516907
0.39011576771736145 -0.649066686630249 -0.07156625390052795
0.2759810984134674 0.3201502561569214 0.32959121465682983
0.15381541848182678 -0.03586188703775406 0.32547757029533386
-0.5667508244514465 0.0036706964019685984 -0.01963161863386631
-0.36167457699775696 0.20988573133945465 0.34716853499412537
-0.4897710680961609 0.05595815181732178 -0.38725483417510986
-0.16315561532974243 -0.27729761600494385 0.17646437883377075
0.08960173279047012 -0.3872482180595398 -0.33838748931884766
0.3815407156944275 -0.3678952753543854 -0.2205216884613037
-0.17790348827838898 -0.3020581007003784 0.1677388995885849
-0.3333800733089447 0.3273865580558777 0.33994540572166443
0.09987768530845642 0.3427125811576843 0.33133193850517273
-0.34604448080062866 0.40598782896995544 -0.023136695846915245
0.002024119719862938 -0.012704610824584961 -0.3503972291946411
-0.09144094586372375 0.02394132874906063 -0.3867257237434387
-0.21814283728599548 -0.12325266003608704 0.06925096362829208
0.13287580013275146 0.010850931517779827 -0.05854026973247528
0.36146992444992065 -0.4674920439720154 0.09967934340238571
0.15085825324058533 0.46178117394447327 0.3892633020877838
0.37291213870048523 -0.51104736328125 0.10354531556367874
0.015187720768153667 -0.6221131682395935 -0.006152626127004623
-0.5899423956871033 0.3447411060333252 -0.09206883609294891
-0.14681962132453918 -0.6609862446784973 -0.038196761161088943
-0.07417415082454681 -0.612479031085968 0.0918968915939331
-0.5882025361061096 0.282403826713562 0.2691357731819153
-0.38126304745674133 0.04593687132000923 -0.028901997953653336
-0.01827836222946644 0.012742958962917328 -0.38799145817756653
0.5875901579856873 0.18863528966903687 0.1780034601688385
0.1423732489347458 0.08571398258209229 -0.4022292494773865
0.3410618007183075 -0.5345446467399597 -0.1678721010684967
0.2949303090572357 -0.019715063273906708 0.255605012178421
-0.2580418586730957 -0.00631288718432188 -0.3490743339061737
0.5815855264663696 0.2270750254392624 -0.06452400982379913
-0.2193964272737503 0.07225968688726425 -0.4125833809375763
-0.25544077157974243 0.3998824954032898 -0.3135351836681366
0.28908705711364746 -0.0022064216900616884 -0.16525578498840332
-0.06380937248468399 0.1530667543411255 -0.39135628938674927
-0.5717231035232544 0.020062122493982315 0.10683906078338623
0.27976974844932556 -0.5238085985183716 -0.2514500916004181
-0.029863683506846428 -0.46134981513023376 -0.2983115017414093
-0.1784505546092987 -0.3733263313770294 -0.10214189440011978
0.045335616916418076 0.06888281553983688 -0.41216331720352173
0.14863818883895874 0.11288871616125107 0.451981782913208
-0.13952456414699554 -0.4164758622646332 -0.17823795974254608
-0.16053611040115356 -0.04378673434257507 -0.25450170040130615
0.5519327521324158 0.17409387230873108 0.3455631136894226
0.43802520632743835 -0.27819299697875977 -0.1358642280101776
-0.5584475994110107 0.09021493792533875 0.34860292077064514
0.009991460479795933 -0.05599144846200943 0.3650108575820923
-0.07566562294960022 0.013953858986496925 -0.07829193770885468
-0.172901451587677 0.0816517323255539 -0.3966391682624817
-0.22600659728050232 -0.3396308720111847 0.10811477154493332
0.1877983957529068 0.013255001977086067 -0.3992907702922821
-0.5884478688240051 0.36796557903289795 0.11751256138086319
-0.44639852643013 0.021267307922244072 -0.38643771409988403
-0.2302495539188385 0.18526969850063324 -0.4121570885181427
0.08125582337379456 0.009841649793088436 -0.3335472345352173
0.18047833442687988 0.0005816173506900668 -0.12664157152175903
0.15637469291687012 0.01682453416287899 -0.04483654350042343
0.5010378956794739 -0.004943183623254299 -0.39493417739868164
0.26391613483428955 -0.1310834288597107 0.28237318992614746
-0.1037394180893898 0.3858654797077179 0.3507818579673767
0.4223591387271881 0.006423103157430887 0.29138630628585815
0.22189843654632568 0.33078551292419434 0.4620898962020874
0.5219149589538574 0.4136204123497009 0.10969448834657669
-0.26349788904190063 -0.007993084378540516 0.0338030569255352
-0.04665559157729149 0.015527129173278809 0.1661587804555893
0.3258017301559448 0.39018985629081726 -0.23766526579856873
-0.09341377764940262 -0.0012375700753182173 -0.3661715090274811
-0.13355232775211334 -0.010541502386331558 -0.27223095297813416
0.042161259800195694 -0.08609770238399506 0.32494044303894043
0.15724512934684753 -0.6304835677146912 -0.07308535277843475
-0.46379485726356506 0.007651777006685734 -0.06409665197134018
-0.037409111857414246 0.26343274116516113 0.3985709547996521
-0.4728543758392334 0.36960816383361816 -0.1241622045636177
0.2859099209308624 -0.6645165085792542 -0.22624558210372925
-0.481606125831604 0.3400299549102783 -0.4126344323158264
0.03491448238492012 -0.6225213408470154 0.08430919051170349
0.19817934930324554 0.3917486071586609 -0.20824766159057617
0.3232690989971161 -0.008569881319999695 0.4305972754955292
0.23566798865795135 0.028006484732031822 0.33064842224121094
-0.3869388699531555 -0.008413312956690788 -0.3327285945415497
0.032802093774080276 0.39188408851623535 -0.11397629231214523
-0.35618463158607483 0.014163739047944546 0.07544698566198349
0.06474053859710693 -0.39424750208854675 -0.3041991591453552
0.05678286775946617 0.39553388953208923 -0.3059467673301697
0.3331483006477356 -0.6311644315719604 -0.181326225399971
-0.17552846670150757 -0.6116295456886292 -0.1130622923374176
-0.05933145061135292 -0.19145508110523224 -0.3276307284832001
0.08753317594528198 0.4602394104003906 0.39177465438842773
0.13438759744167328 -0.002926258835941553 0.13611793518066406
0.013919949531555176 -0.30891263484954834 -0.35443630814552307
0.24806977808475494 -0.09466881304979324 -0.336977481842041
-0.15729127824306488 -0.010082624852657318 -0.13332882523536682
0.41750648617744446 0.009120455943048 -0.17144565284252167
-0.4120703935623169 0.0702732726931572 0.3350106477737427
0.024768197908997536 -0.5677660703659058 0.2531569302082062
-0.12722961604595184 0.22045564651489258 0.33563879132270813
0.2888239920139313 -0.5201120376586914 -0.23786629736423492
-0.5443095564842224 0.08596145361661911 -0.4074649214744568
-0.17448237538337708 -0.44045156240463257 -0.10739053040742874
0.1375456303358078 -0.007452876772731543 0.25589901208877563
0.44656869769096375 0.015116333030164242 -0.21334731578826904
0.31313660740852356 0.4031044542789459 -0.15994614362716675
-0.35624849796295166 0.3854808509349823 -0.03127528727054596
-0.573767364025116 -0.0069805290549993515 0.07171861082315445
0.269752562046051 0.042965117841959 0.33324068784713745
-0.05565785616636276 0.4068753719329834 -0.1284124255180359
-0.2997813820838928 -0.0020275332499295473 0.21008239686489105
0.31797435879707336 -0.12578488886356354 -0.30128607153892517
-0.03487357497215271 0.40343642234802246 0.21413588523864746
-0.2313242107629776 -0.3925301730632782 -0.04136861488223076
0.330482542514801 -0.2365468293428421 -0.28118255734443665
-0.17500412464141846 -0.6122927069664001 -0.12502145767211914
-0.21455490589141846 0.0003107658412773162 -0.0468466654419899
-0.08116930723190308 -0.6257041692733765 0.09448728710412979
0.4777660071849823 0.39484286308288574 0.013410044834017754
0.38345131278038025 0.013299745507538319 -0.09579683840274811
-0.2238963395357132 -0.3653414845466614 -0.041748691350221634
0.2801585793495178 -0.6074409484863281 0.11353742331266403
0.27847838401794434 -0.4454566538333893 -0.25805574655532837
0.02817590720951557 -0.5591128468513489 0.23403729498386383
0.36908024549484253 -0.4085320234298706 -0.12426124513149261
-0.5819377303123474 0.26577696204185486 0.12329980731010437
-0.16186274588108063 -0.5261182188987732 -0.15863628685474396
-0.21058297157287598 0.40804561972618103 0.07761044055223465
0.5279901623725891 0.38913866877555847 0.3011781871318817
0.3889673352241516 0.41064855456352234 0.34010979533195496
-0.23246824741363525 -0.22433918714523315 0.06419592350721359
0.06662406027317047 -0.05913934484124184 0.3148858845233917
0.07940348237752914 -0.08010245859622955 0.36805298924446106
0.37142810225486755 -0.39561015367507935 -0.07645443826913834
0.3558034896850586 -0.35190534591674805 -0.2626654803752899
0.14487627148628235 -0.007147425319999456 0.24847842752933502
-0.5648558735847473 0.03904541954398155 -0.38912513852119446
-0.18777203559875488 -0.4890868067741394 -0.010279509238898754
-0.5197739601135254 -0.10321375727653503 0.2343626767396927
0.36961764097213745 -0.028992554172873497 0.1969389170408249
-0.5956357717514038 0.1372126191854477 0.03149248659610748
0.04080594703555107 -0.10116024315357208 -0.3554673492908478
-0.1942681223154068 0.0014579673297703266 -0.1336396485567093
0.40439534187316895 0.3999927043914795 0.05534548684954643
0.04256901144981384 -0.0789697989821434 0.3863990008831024
0.44443291425704956 -0.3735871911048889 -0.11526555567979813
-0.026412973180413246 0.03870745375752449 -0.39700356125831604
0.11964837461709976 0.011518079787492752 0.4621816575527191
-0.37174561619758606 0.012928253971040249 0.10216593742370605
0.3585244417190552 -0.6221295595169067 -0.002026444301009178
0.37579041719436646 0.004455868620425463 -0.01628616824746132
-0.23105408251285553 0.3918085992336273 0.27724888920783997
-0.5796984434127808 0.2049553543329239 -0.3268698751926422
0.3536592423915863 0.009478500112891197 -0.3537784814834595
-0.14348217844963074 -0.6551878452301025 0.06314979493618011
0.45149022340774536 -0.27046284079551697 -0.015885403379797935
0.33008623123168945 -0.6274799704551697 0.10437393188476562
0.14971332252025604 -0.6271096467971802 0.012600482441484928
0.09706287086009979 0.010324818082153797 -0.17898091673851013
0.16985592246055603 0.45471030473709106 0.4118553698062897
0.3653727173805237 0.09349888563156128 -0.41508859395980835
-0.49850958585739136 0.3986804187297821 -0.22426651418209076
-0.5112971663475037 0.01464618369936943 -0.21851514279842377
0.08124952763319016 -0.6334449052810669 -0.26462385058403015
-0.4324302673339844 -0.0932338535785675 -0.08293803036212921
-0.5767702460289001 0.17545679211616516 0.08674637228250504
0.42950281500816345 -0.11735492199659348 0.05473582446575165
-0.3519303798675537 -0.009329291991889477 -0.013911055400967598
-0.08443041145801544 -0.09524441510438919 -0.33008062839508057
-0.08938637375831604 -0.616897702217102 0.13811887800693512
0.28602486848831177 0.32018935680389404 0.47279608249664307
-0.13039040565490723 0.3990629017353058 0.326274573802948
0.213898703455925 -0.07872837781906128 0.3291703462600708
-0.18446071445941925 -0.4153089225292206 -0.0025755425449460745
-0.04062313586473465 0.00376233272254467 0.13834092020988464
0.5811430811882019 0.29983627796173096 -0.051410749554634094
0.32993584871292114 0.4020628333091736 -0.01101565919816494
-0.21454095840454102 -0.10492914915084839 0.08086898177862167
-0.5959369540214539 0.16593021154403687 0.2509201169013977
-0.4080875515937805 0.012681594118475914 -0.057889264076948166
-0.056389715522527695 -0.6505513787269592 -0.2734592854976654
-0.5926392078399658 0.2262035757303238 -0.1242862418293953
0.32901039719581604 -0.6126468777656555 -0.07864636927843094
0.25673308968544006 -0.36621010303497314 -0.31220972537994385
0.47687119245529175 0.39494770765304565 -0.08783028274774551
0.23046492040157318 -0.009056292474269867 -0.10272849351167679
0.044309310615062714 0.21766746044158936 -0.40067359805107117
0.34067240357398987 -0.6253281235694885 -0.035050466656684875
0.16776412725448608 -0.6127026677131653 -0.2798004448413849
-0.5116110444068909 0.09074496477842331 0.21511812508106232
0.38090747594833374 0.4014872610569 -0.38087984919548035
0.018238291144371033 0.2865499258041382 0.3752945065498352
-0.10021550208330154 -0.6248307824134827 0.01241360418498516
0.41827812790870667 -0.37873682379722595 -0.11776992678642273
0.14793835580348969 -0.6517496109008789 -0.29213380813598633
0.4037475287914276 -0.3867979943752289 -0.06820286810398102
0.125465527176857 0.367318332195282 -0.3870297372341156
-0.590107262134552 0.12323058396577835 -0.246442511677742
0.22742992639541626 -0.658677339553833 0.22387437522411346
0.38604605197906494 -0.05972735211253166 0.14538273215293884
-0.5849923491477966 0.18789829313755035 0.05400557070970535
0.2797151207923889 0.013138609007000923 -0.09876587241888046
0.1330074965953827 0.4104844033718109 -0.2472517192363739
0.4007949233055115 -0.3890562653541565 -0.17066283524036407
0.30021095275878906 0.0036070924252271652 0.24459971487522125
-0.49003714323043823 0.09538453072309494 -0.1883673369884491
0.3758295476436615 -0.005786101333796978 -0.11135774850845337
0.018602795898914337 0.393148809671402 0.3920847773551941
0.04832731559872627 -0.005057802889496088 -0.18158194422721863
-0.22494478523731232 0.39900922775268555 0.01909293793141842
-0.3136090338230133 0.32677552103996277 -0.4132031202316284
0.5618077516555786 0.015432917512953281 0.0522753968834877
0.12827762961387634 0.3027629554271698 -0.4037298262119293
