0.008289165794849396 0.01225581206381321 0.3337944447994232
0.09831411391496658 0.46943947672843933 0.3994944989681244
0.4466720521450043 0.005437811836600304 0.3262455463409424
0.08437617123126984 0.001104705035686493 -0.15135706961154938
-0.27847984433174133 0.1874937266111374 -0.40317070484161377
-1.3005919754505157e-05 0.001789730042219162 0.04637293517589569
0.11286354064941406 0.3561665415763855 0.34243088960647583
0.15020395815372467 0.0019410792738199234 0.020168127492070198
0.26142728328704834 0.4038207232952118 0.21318605542182922
0.3398618996143341 -0.37400129437446594 0.1655454784631729
-0.14153961837291718 -0.21759268641471863 0.21145948767662048
-0.5777133703231812 0.2521499693393707 0.33395916223526
0.10802530497312546 0.40033775568008423 0.10701248049736023
-0.00839807465672493 -0.19132567942142487 0.29416102170944214
-0.12654228508472443 -0.0010280422866344452 -0.34631648659706116
-0.5621652007102966 0.0725255236029625 -0.22194592654705048
0.3756546080112457 0.12096275389194489 0.34436383843421936
0.41319602727890015 0.3853797912597656 -0.39563578367233276
0.22838380932807922 0.3884301781654358 0.3437997102737427
-0.5684342980384827 -0.04490675777196884 -0.23130521178245544
0.5803738236427307 0.09779487550258636 -0.02370103821158409
0.14043354988098145 0.00170892383903265 0.15791091322898865
-0.1420339196920395 0.0008467389270663261 0.11805616319179535
0.06223514676094055 -0.6251491904258728 -0.24141088128089905
0.007412895560264587 0.0014729304239153862 -0.036205366253852844
0.17590774595737457 -0.28924262523651123 0.3038085699081421
-0.17681588232517242 -0.456229031085968 0.03305838629603386
-0.13171114027500153 -0.014915112406015396 -0.2784542441368103
0.009928038343787193 -0.6206492781639099 -0.004508095793426037
-0.04132462665438652 0.06853008270263672 0.33928483724594116
0.5838940143585205 0.2592330873012543 0.13670553267002106
0.3372248411178589 -0.5563721060752869 0.13610000908374786
-0.36945870518684387 0.0013473150320351124 -0.3093319833278656
0.4490801990032196 0.4002675712108612 -0.2185135781764984
-0.21320578455924988 -0.0012722257524728775 0.12827888131141663
0.36974823474884033 0.0012339861132204533 -0.136760413646698
-0.04250595346093178 -0.16240708529949188 -0.34117481112480164
-0.17346113920211792 0.0018025361932814121 -0.03214418515563011
0.30753093957901 0.0021605221554636955 -0.15990962088108063
-0.021514613181352615 -0.6236765384674072 0.13904330134391785
-0.3799673020839691 -0.0447685644030571 -0.22264546155929565
0.20445077121257782 0.050792161375284195 0.4658111035823822
-0.1326778531074524 -0.0002934355288743973 0.0856054276227951
0.27144280076026917 -0.6221050024032593 -0.10303113609552383
-0.21036459505558014 0.001771313138306141 -0.11608026176691055
-0.20245298743247986 -0.383725106716156 -0.09958682209253311
-0.45179927349090576 0.3987627625465393 -0.20385564863681793
-0.48469460010528564 0.3984122574329376 -0.055824678391218185
-0.396323025226593 -0.06034998223185539 0.10512036085128784
0.020964745432138443 -0.0025798240676522255 0.3064679503440857
0.2794038951396942 0.35072943568229675 0.34500426054000854
0.3568395972251892 0.0022606244310736656 0.03565474599599838
-0.5507864952087402 0.06745966523885727 -0.1781090795993805
-0.4561019539833069 0.0043818168342113495 0.2466268539428711
-0.3216584622859955 0.4022153913974762 0.20034708082675934
-0.025621792301535606 0.40016353130340576 -0.01732533983886242
-0.2980567514896393 0.3721204698085785 -0.09529702365398407
0.38375359773635864 -0.015262867324054241 -0.2179030328989029
0.1830166131258011 -0.6243528127670288 0.034236595034599304
-0.4314410090446472 0.06899205595254898 -0.4036836326122284
0.18026690185070038 -0.10059279948472977 -0.3644781708717346
-0.3891511559486389 0.36442166566848755 0.03229590505361557
-0.1645614355802536 -0.4903847277164459 0.0805414617061615
0.3345528841018677 0.007854117080569267 -0.387612521648407
-0.3587292730808258 0.007948133163154125 -0.0918053686618805
-0.1294640153646469 -0.6402454972267151 0.07480452954769135
0.12757492065429688 -0.04867064207792282 0.4590925872325897
-0.31859514117240906 0.002111634239554405 0.21717782318592072
-0.0313783660531044 -0.6221189498901367 0.01754613034427166
-0.36191079020500183 0.4077787399291992 -0.03340058773756027
-0.570667028427124 0.054521746933460236 0.1722676157951355
0.2534356117248535 0.0012072008103132248 0.2613149881362915
0.13224908709526062 0.0018516480922698975 0.24208660423755646
0.34416136145591736 0.0032580019906163216 -0.19780556857585907
-0.4694799482822418 0.15215422213077545 0.34031230211257935
0.3375542461872101 0.18810801208019257 -0.4016709327697754
-0.14695949852466583 -0.5726624727249146 0.11217763274908066
0.4032041132450104 0.1404210925102234 0.3399190604686737
-0.31077322363853455 0.11433093994855881 -0.4046286940574646
-0.019111555069684982 0.211225226521492 -0.40251800417900085
-0.22990716993808746 -0.23880639672279358 -0.10253352671861649
0.34911271929740906 -0.3604152798652649 0.20836475491523743
-0.4415173828601837 0.025210026651620865 0.3458167612552643
0.3271200656890869 0.039689045399427414 0.4457603096961975
-0.5079742074012756 -0.0033429160248488188 0.35812047123908997
-0.5668905377388 -0.055493347346782684 0.018338389694690704
0.4541514217853546 0.0011170008219778538 -0.24630874395370483
0.030195552855730057 0.0011106831952929497 -0.33439260721206665
-0.4108148217201233 -0.08431264758110046 0.2978843152523041
-0.5469738841056824 0.006984901614487171 -0.08465384691953659
-0.12986917793750763 0.2318398505449295 -0.4014071226119995
-0.47132793068885803 0.4041099548339844 -0.07582557946443558
-0.4630768299102783 0.3821612596511841 -0.1663866937160492
0.13133610785007477 0.0012482767924666405 -0.20938105881214142
-0.5808359384536743 0.2809983193874359 -0.11977967619895935
-0.2492004930973053 -0.14338430762290955 -0.05573398247361183
-0.4633592367172241 0.12233718484640121 -0.29563698172569275
-0.08508805185556412 0.4002639055252075 -0.07218571752309799
0.06922987848520279 0.24913659691810608 -0.4022960066795349
-0.4061301052570343 0.07458074390888214 0.1971374899148941
0.10058297216892242 -0.6238530874252319 -0.04882366582751274
-0.13821394741535187 0.3935180604457855 0.3339734375476837
0.37055841088294983 -0.20253020524978638 0.19391070306301117
0.295272558927536 -0.041664931923151016 0.4619295001029968
-0.43808019161224365 0.11283418536186218 -0.1410815268754959
0.055918313562870026 0.4000296890735626 -0.18558944761753082
0.0031058171298354864 -0.0880831852555275 0.30280715227127075
0.09296691417694092 0.001973833190277219 -0.2766819894313812
-0.36793479323387146 0.0025305915623903275 0.1767292320728302
0.2713839113712311 0.0021415511146187782 0.03378736227750778
-0.1525738537311554 0.3984815180301666 -0.054702602326869965
-0.41036465764045715 0.1738452911376953 0.34071776270866394
-0.39905446767807007 -0.011808921582996845 -0.3948865234851837
-0.10222327709197998 -0.46348273754119873 -0.2343093752861023
0.5790599584579468 0.3159996271133423 0.034005023539066315
-0.08274130523204803 0.2878713309764862 0.34583303332328796
0.007848041132092476 -0.3901330530643463 0.24635489284992218
0.4177190661430359 -0.32275769114494324 -0.16107064485549927
-0.5428837537765503 0.08265355229377747 -0.31045666337013245
-0.020579146221280098 0.27173277735710144 0.4011266529560089
0.09828005731105804 0.31357982754707336 0.46255093812942505
0.5704529881477356 0.018435977399349213 -0.351519376039505
0.5748340487480164 0.11263560503721237 0.31067338585853577
-0.46333739161491394 -0.11258357763290405 0.14693139493465424
-0.17495004832744598 -0.22558823227882385 0.17050565779209137
-0.15441393852233887 -0.6410437822341919 -0.04128070920705795
-0.029728669673204422 0.40241876244544983 0.1843579113483429
0.5739861726760864 0.036878179758787155 0.1529836803674698
-0.027660178020596504 -0.6221033334732056 -0.14281688630580902
0.578262448310852 0.21577300131320953 0.19796116650104523
0.27729132771492004 0.0022400449961423874 -0.029246613383293152
-0.5110276341438293 0.0035340057220309973 0.09153256565332413
-0.518392026424408 0.10601219534873962 0.34193503856658936
-0.5762616395950317 0.16376590728759766 -0.365754097700119
0.17197701334953308 -0.584158182144165 0.25123676657676697
0.25008270144462585 0.0015749605372548103 -0.24823033809661865
-0.5795620679855347 0.28069373965263367 0.1781894862651825
-0.4454177916049957 0.39874833822250366 -0.22998833656311035
-0.4553317427635193 0.10993143916130066 0.23338766396045685
-0.03439553081989288 -0.5883733630180359 -0.2837845981121063
0.04873903468251228 0.0009685666300356388 -0.004279919900000095
0.5733441114425659 0.27235063910484314 -0.3948900103569031
0.40954381227493286 0.001979425549507141 -0.07010164111852646
0.3915060758590698 0.3062441945075989 -0.40080440044403076
0.07193732261657715 0.0005996078252792358 0.13891050219535828
-0.08493474125862122 -0.03761012852191925 0.2429879903793335
-0.46228811144828796 0.41029855608940125 -0.07644641399383545
0.4156996011734009 0.2612946033477783 -0.40276819467544556
-0.054977308958768845 -0.002507115714251995 0.2574971616268158
0.23298776149749756 0.4654974341392517 0.3693227767944336
0.2390892058610916 0.002118200995028019 0.029259324073791504
-0.14382493495941162 -0.6295426487922668 -0.0068784067407250404
-0.1384759098291397 0.0027538416907191277 -0.11141159385442734
0.41418173909187317 0.0006230240687727928 -0.29594388604164124
0.42812609672546387 -0.002411890309303999 0.13586696982383728
-0.5348936915397644 -0.08661530166864395 -0.24580158293247223
0.4396110475063324 -0.16522130370140076 -0.0730685442686081
0.25713467597961426 -0.05716381222009659 0.27584195137023926
-0.3198033273220062 0.12271439284086227 0.3413607180118561
0.2104147970676422 0.3560258746147156 -0.40051770210266113
-0.2309916764497757 -0.18111960589885712 0.04960975423455238
0.21363019943237305 -0.6241459846496582 0.13740020990371704
0.06502477079629898 0.0009103124029934406 0.10827304422855377
0.23720501363277435 -0.37611517310142517 0.26902687549591064
0.3670124113559723 -0.24274595081806183 0.18476265668869019
-0.3710034489631653 0.059559162706136703 -0.3516547977924347
-0.447284996509552 0.40457937121391296 -0.027445446699857712
0.10987581312656403 0.0033113574609160423 0.2491263598203659
-0.14705145359039307 -0.6486601233482361 0.09983249753713608
-0.44972696900367737 -0.09440738707780838 0.24516984820365906
-0.39632585644721985 0.3967055380344391 0.32623711228370667
-0.04187171161174774 -0.4214966893196106 -0.27953797578811646
-0.39541906118392944 0.05431763455271721 0.3058316707611084
-0.06325022131204605 -0.2200423777103424 0.26926279067993164
-0.025758707895874977 0.0006835530512034893 -0.3349212408065796
-0.24146191775798798 0.20969891548156738 0.33957311511039734
-0.10970249027013779 0.20062582194805145 0.3711109459400177
0.38530150055885315 -0.4945005178451538 0.043071240186691284
-0.5678458213806152 0.3530546724796295 0.3157188296318054
-0.5061866641044617 0.3691596984863281 -0.1025652289390564
-0.532733678817749 -0.08571877330541611 -0.07910382747650146
-0.23434005677700043 0.002210531383752823 0.16050608456134796
0.0279708169400692 0.3995504379272461 -0.3422967195510864
0.2860877513885498 0.008899208158254623 -0.39505377411842346
0.13442973792552948 -0.3198632001876831 0.30962318181991577
-0.5561296343803406 0.003308328101411462 -0.35986417531967163
-0.309565931558609 0.34176990389823914 -0.40297797322273254
-0.07928196340799332 0.39828094840049744 0.1951606273651123
0.3606494069099426 -0.41247648000717163 0.0872313529253006
-0.5671846270561218 0.053089648485183716 0.10421701520681381
-0.5825567841529846 0.17217621207237244 -0.24657472968101501
0.2733217477798462 0.24072590470314026 -0.40407946705818176
-0.053963661193847656 -0.1264817714691162 0.2744227349758148
0.17977355420589447 -0.6522874236106873 -0.26747849583625793
0.08409763127565384 0.19239147007465363 0.4655379056930542
0.19471658766269684 0.38942956924438477 -0.39730024337768555
-0.5110806226730347 -0.09579280763864517 0.3244471549987793
0.31224602460861206 0.11127578467130661 0.34812864661216736
0.08875370025634766 0.0010729492641985416 -0.036956317722797394
0.0658799335360527 0.401585191488266 -0.2965354025363922
-0.5292515158653259 0.11316399276256561 -0.4006246328353882
0.19712412357330322 -0.4934895932674408 -0.3027123212814331
0.5560267567634583 0.1689084768295288 0.3402547240257263
-0.34950700402259827 -0.002714596688747406 -0.2585122883319855
-0.15594987571239471 -0.2475133240222931 -0.2519831955432892
-0.03221310302615166 -0.6207810640335083 0.09033408761024475
0.19668921828269958 0.4178815484046936 0.45437100529670715
0.5736968517303467 0.007847609929740429 -0.1668330430984497
0.16904960572719574 0.38971084356307983 0.45777663588523865
0.5591629147529602 0.3936508595943451 0.32337018847465515
-0.11789856851100922 -0.09197252988815308 0.23736615478992462
0.2935584485530853 0.12960189580917358 0.4571663439273834
-0.4115392863750458 0.2505812346935272 -0.40333664417266846
-0.12503384053707123 -0.16757804155349731 0.22597071528434753
0.004230177495628595 0.0019105104729533195 0.14626295864582062
-0.1839372217655182 -0.5192838907241821 -0.06559918820858002
0.2616718113422394 -0.3043791651725769 -0.33805641531944275
-0.235463485121727 -0.23170813918113708 0.02992413006722927
-0.1831655502319336 0.001652340404689312 -0.2490268349647522
0.032505474984645844 -0.6475220918655396 0.23741695284843445
0.12258151918649673 0.0013761557638645172 -0.2512909471988678
-0.21321000158786774 0.3184151351451874 -0.40094515681266785
0.0815020203590393 -0.20538774132728577 0.31051093339920044
0.1536729633808136 -0.6189132928848267 0.1397053301334381
-0.4379537105560303 0.4049653708934784 -0.004830539226531982
0.2953219711780548 -0.47682440280914307 0.1902158558368683
-0.48612990975379944 0.3995251953601837 -0.226199671626091
0.3255285620689392 -0.3888997733592987 -0.22763556241989136
0.0549430251121521 0.009215478785336018 -0.3944881558418274
-0.20590634644031525 0.0018104310147464275 -0.12068171054124832
0.051025647670030594 0.3295907974243164 0.3433334529399872
0.4063599109649658 -0.3807973861694336 -0.07483609765768051
0.2771923840045929 0.0020597558468580246 -0.22175230085849762
0.48475587368011475 0.39852362871170044 -0.3525387644767761
-0.3097926676273346 0.39742085337638855 -0.17681007087230682
0.1937645524740219 0.32313498854637146 0.46656638383865356
-0.5012488961219788 0.3770371377468109 -0.05752289295196533
-0.3219747245311737 0.4029995799064636 -0.258222371339798
0.4424930214881897 -0.13829158246517181 -0.04631553962826729
0.07711924612522125 0.16899530589580536 0.4654504358768463
0.3013046085834503 0.0008520381525158882 -0.24227578938007355
0.5827280282974243 0.09867291897535324 -0.2450820356607437
-0.4743436872959137 0.39426183700561523 0.33026280999183655
0.2589290142059326 -0.0010723322629928589 0.1991383582353592
0.2091095745563507 0.0023414064198732376 -0.35756707191467285
-0.1755525767803192 -0.648909330368042 -0.09416913986206055
0.19593565165996552 -0.6207374930381775 0.025668201968073845
-0.3988911211490631 0.4049738347530365 0.054466284811496735
-0.12243843823671341 0.3994385898113251 0.1542184054851532
0.41982176899909973 0.18275530636310577 0.3437789976596832
0.017654234543442726 -0.031191015616059303 0.3719604015350342
0.1327497661113739 0.0020130001939833164 0.2316252887248993
-0.5329644083976746 0.37975162267684937 -0.3944481313228607
0.1302490383386612 -0.6018080115318298 -0.3155246078968048
-0.2551684081554413 -0.0008062776178121567 0.07851609587669373
-0.12010103464126587 0.0025085145607590675 0.14629869163036346
-0.11171923577785492 -0.054774247109889984 0.23854191601276398
0.2778017520904541 0.001772225834429264 0.09970973432064056
-0.5734065175056458 0.3605329096317291 0.02167569287121296
-0.5696804523468018 0.06867346167564392 -0.3896472156047821
-0.016535472124814987 0.002720368094742298 -0.011946521699428558
0.011971812695264816 -0.6604961156845093 0.23350192606449127
0.43998315930366516 -0.01443958654999733 -0.06542856246232986
0.40858733654022217 0.4028818607330322 0.20646123588085175
-0.160942941904068 -0.038685936480760574 0.18846860527992249
0.310314416885376 0.0007731218356639147 -0.3459361493587494
0.1801500767469406 0.0011379593051970005 0.1350560039281845
0.09162072092294693 -0.26609936356544495 -0.37484732270240784
0.578840970993042 0.33469438552856445 0.22517992556095123
-0.4212433397769928 0.003447967581450939 0.21842028200626373
-0.421488881111145 0.09282594919204712 -0.14405696094036102
0.1485193818807602 0.4142351746559143 0.4515506625175476
0.42398667335510254 -0.2876119315624237 0.08104812353849411
-0.013610041700303555 0.17588485777378082 0.40837934613227844
-0.20589451491832733 0.4016842246055603 -0.12692326307296753
0.1763547658920288 -0.6237327456474304 -0.11649087071418762
0.5796189904212952 0.35060515999794006 0.0819227397441864
0.3248734474182129 -0.17195503413677216 0.2270258218050003
0.08262156695127487 -0.06041506305336952 -0.3709833323955536
0.3251942992210388 0.22499243915081024 0.38159307837486267
0.10848069190979004 0.40089333057403564 -0.29997164011001587
0.44788873195648193 -0.34103694558143616 -0.06757107377052307
-0.09779375046491623 -0.6240450143814087 -0.13815626502037048
0.21010321378707886 -0.6241210699081421 0.10338957607746124
0.14993204176425934 -0.00039681559428572655 -0.3693217933177948
0.36399057507514954 0.33639219403266907 -0.40199971199035645
0.23811978101730347 -0.008776657283306122 0.2824636399745941
0.3145666718482971 0.4002532958984375 0.4163637161254883
0.15004825592041016 -0.6243706941604614 -0.020110217854380608
0.48166340589523315 0.025730863213539124 0.3433273434638977
0.5027956962585449 0.3979642689228058 -0.0780252143740654
0.5781846642494202 0.3629264831542969 0.005736162886023521
0.5140562653541565 0.09678336977958679 0.3408925533294678
-0.19847922027111053 -0.19299329817295074 0.13701850175857544
0.4254845082759857 -0.002597289625555277 -0.09297026693820953
-0.12386325746774673 0.0017754114232957363 0.14115935564041138
0.240700826048851 -0.08458007127046585 0.31613627076148987
-0.5740395188331604 0.05884985253214836 0.30740606784820557
0.5267760753631592 0.004455791786313057 0.2956489324569702
-0.555071234703064 -0.0673925131559372 0.042451050132513046
0.22054876387119293 -0.36317700147628784 -0.34314560890197754
0.30455246567726135 0.4021211564540863 0.19008685648441315
0.10096250474452972 0.0010615949286147952 -0.00409964844584465
0.3497011959552765 0.08372063934803009 -0.4021188020706177
-0.3245047926902771 0.1139146238565445 -0.4028952121734619
-0.14322629570960999 -0.43044015765190125 -0.1782860904932022
0.43762022256851196 -0.3203953802585602 -0.07335460931062698
0.1950565129518509 -0.47366899251937866 -0.3113704025745392
0.5772988200187683 0.030889932066202164 -0.36286211013793945
0.12790805101394653 0.40917909145355225 0.35210663080215454
-0.5695829391479492 -0.047715455293655396 -0.2951868772506714
0.2715868353843689 0.12216559052467346 0.3437526822090149
-0.15067477524280548 -9.950157254934311e-05 0.18262198567390442
-0.4270481467247009 0.10805299133062363 -0.4030896723270416
0.2663082778453827 -0.0021653524599969387 0.2630264461040497
-0.5617196559906006 0.05009990185499191 0.1575324684381485
0.14409984648227692 -0.34636709094047546 -0.3718898594379425
-0.46172112226486206 0.10251440852880478 -0.08996518701314926
-0.35126352310180664 0.30792221426963806 -0.3989676237106323
-0.42567703127861023 -0.08457106351852417 0.23993250727653503
0.24459272623062134 0.07565092295408249 0.3423762023448944
0.006704023107886314 0.26159435510635376 0.35009506344795227
-0.21677285432815552 -0.0011341269128024578 0.07068698853254318
0.025042355060577393 0.23646016418933868 -0.4003361165523529
0.036739397794008255 0.22299796342849731 0.42221173644065857
-0.3776340186595917 0.2005322128534317 -0.40578028559684753
0.2944708466529846 -0.47731682658195496 0.1923018842935562
-0.05187917873263359 0.3727412521839142 0.3431837856769562
-0.3700055181980133 -0.04568148031830788 0.18184314668178558
0.21284843981266022 0.0012016089167445898 -0.018734566867351532
0.18164941668510437 0.0013502668589353561 -0.09103259444236755
0.39532142877578735 0.4037490487098694 0.13672420382499695
0.4902527928352356 -0.0004228292382322252 -0.06991497427225113
-0.05126529932022095 -0.5571953654289246 0.21144194900989532
-0.16484051942825317 -0.001072494313120842 -0.2493174970149994
-0.43889060616493225 0.38523903489112854 -0.16217809915542603
-0.5278999209403992 0.36478790640830994 -0.08915439248085022
0.3178381323814392 -0.466571569442749 0.16864997148513794
0.5584785342216492 0.0077934879809618 0.20367825031280518
-0.0597761869430542 -0.61991286277771 -0.1553577482700348
0.20019614696502686 0.0013823043555021286 -0.3041189908981323
-0.40529629588127136 0.08804967254400253 0.05989495664834976
-0.004262050148099661 0.0015957839787006378 0.24518617987632751
0.30922117829322815 0.3025464415550232 0.46060165762901306
0.5155128240585327 0.4027193784713745 0.16924159228801727
0.576972246170044 0.09111242741346359 0.24553219974040985
0.24815458059310913 0.0011299722827970982 0.11035249382257462
0.22388388216495514 0.23293212056159973 -0.3998502790927887
0.3784947991371155 0.00017398223280906677 -0.11954369395971298
0.30982503294944763 0.23782992362976074 -0.40450602769851685
0.04387666657567024 -0.5015254616737366 -0.30735448002815247
0.2572777271270752 0.14647290110588074 0.34121543169021606
-0.37479570508003235 0.01940300688147545 0.3002171814441681
0.3768312633037567 0.39787188172340393 0.29992905259132385
0.46229174733161926 0.14975382387638092 0.3417004644870758
-0.26415616273880005 0.3123171925544739 0.3417329490184784
-0.12409060448408127 0.0016491729766130447 -0.21108084917068481
-0.2402842938899994 -0.3553401529788971 -0.02903093583881855
-0.25413209199905396 0.07123404741287231 -0.40208494663238525
0.22510245442390442 -0.6284541487693787 0.17871728539466858
0.1338857114315033 -0.0005026683211326599 0.19822333753108978
-0.1334857940673828 0.3718879222869873 0.3395824134349823
0.27186018228530884 0.41054579615592957 0.35099396109580994
-0.13257713615894318 0.11634982377290726 0.3399575650691986
-0.38261187076568604 0.39681458473205566 -0.005648267455399036
0.27523982524871826 -0.6246646046638489 0.08039835095405579
-0.12960843741893768 -0.267498254776001 0.22411753237247467
0.2988291382789612 0.03200854733586311 0.34447306394577026
-0.060706302523612976 0.39822936058044434 -0.057722024619579315
-0.33497315645217896 0.004842493683099747 0.3119952082633972
0.5749366879463196 0.1614421010017395 -0.39128243923187256
-0.2398173213005066 -0.21042318642139435 -0.034672144800424576
-0.5191640853881836 0.08964870125055313 0.036764729768037796
-0.5479884743690491 0.00031610578298568726 0.034391481429338455
0.40178272128105164 0.3774494230747223 0.34344950318336487
0.5407751798629761 0.3995203673839569 -0.07232297211885452
-0.1747012734413147 0.04914729297161102 -0.40280666947364807
0.03606729954481125 0.19975337386131287 0.46412044763565063
-0.39125266671180725 -0.06463240832090378 0.2812975347042084
0.4238913059234619 0.39677366614341736 -0.39107856154441833
0.009428922086954117 0.0016375870909541845 -0.2701946496963501
0.4207029342651367 -0.27100619673728943 0.10279057174921036
-0.03211886063218117 0.2955787777900696 0.37622371315956116
0.13832204043865204 0.10870608687400818 0.34306851029396057
0.42080962657928467 -0.2855426073074341 -0.14920440316200256
-0.030158115550875664 0.0022087059915065765 -0.09111732989549637
0.12065120786428452 0.4012027680873871 -0.06319723278284073
-0.5732374787330627 0.003021220676600933 -0.2675640881061554
-0.48346173763275146 0.09801465272903442 0.24420961737632751
0.2364809215068817 0.0005364511162042618 -0.2976672947406769
-0.5784571170806885 0.19339247047901154 -0.011936727911233902
0.10499081015586853 0.001706717535853386 0.17042270302772522
-0.17782503366470337 -0.6271494030952454 -0.10557796061038971
0.14500585198402405 -0.5633105635643005 -0.3184637427330017
0.09456153959035873 -0.6234251260757446 -0.24193152785301208
0.18510501086711884 0.40122878551483154 -0.095680832862854
-0.4155465364456177 -0.0975462794303894 0.13350895047187805
0.580227792263031 0.2516951560974121 0.22943072021007538
-0.5429764986038208 0.0007475148886442184 -0.3676041066646576
0.5203970670700073 0.0016527608968317509 0.11448615044355392
0.14643312990665436 -0.6225082278251648 0.17730993032455444
-0.08951486647129059 -0.6249741315841675 0.18377046287059784
0.06091730296611786 0.4007839858531952 0.09627343714237213
-0.212543785572052 -0.12638869881629944 0.11677955836057663
0.09535178542137146 0.4604954123497009 0.41880401968955994
-0.5597805380821228 0.3827840983867645 -0.0897970199584961
0.0685686394572258 0.400092750787735 -0.11943892389535904
-0.35905539989471436 0.369794636964798 0.036462463438510895
-0.5140770077705383 -0.10308269411325455 0.05869264528155327
-0.20956461131572723 0.40098533034324646 0.20976169407367706
-0.42030444741249084 -0.08933749794960022 0.32052791118621826
-0.5442012548446655 0.3804854154586792 0.10520246624946594
0.4105527102947235 0.40364891290664673 0.13444013893604279
-0.172944113612175 -0.5173866748809814 0.05130399018526077
-0.051339372992515564 0.002125682309269905 0.0029746638610959053
-0.23003855347633362 -0.3272511661052704 0.04428097978234291
-0.44419947266578674 0.10739647597074509 -0.16970203816890717
-0.08420591801404953 -0.22580741345882416 0.2641814649105072
-0.021268486976623535 0.1077573224902153 0.3434757888317108
-0.37603312730789185 0.0650225505232811 0.08642753213644028
0.2580084204673767 0.0018325126729905605 -0.1893172413110733
-0.39896664023399353 0.07999998331069946 -0.13382597267627716
-0.2202702760696411 -0.1351526975631714 -0.1509961038827896
0.4004760980606079 -0.3857426047325134 -0.051767341792583466
0.30128127336502075 0.46767860651016235 0.4224258363246918
-0.36658787727355957 0.008050935342907906 -0.10808390378952026
-0.012853480875492096 -0.13166776299476624 -0.35127949714660645
0.3333660066127777 -0.63721764087677 -0.1396188735961914
0.023611638695001602 -0.13455581665039062 -0.361269474029541
-0.5137966871261597 -0.0857396349310875 0.13333047926425934
-0.5075998902320862 -0.10595066845417023 0.19944199919700623
0.02204962633550167 -0.3823451101779938 0.2680358290672302
0.018269594758749008 0.20248354971408844 0.39251914620399475
-0.5434603095054626 0.07783762365579605 0.19406954944133759
0.026506325230002403 0.10087712109088898 0.4105967581272125
-0.0009068939834833145 0.2843377888202667 0.4057134687900543
-0.4045785963535309 -0.07640554755926132 0.272675484418869
0.3943079113960266 0.0017212843522429466 0.15953266620635986
-0.22421443462371826 -0.17385323345661163 0.0658489242196083
0.33137089014053345 0.01520838774740696 -0.40382370352745056
0.29158544540405273 0.16177980601787567 0.3431644141674042
0.5760015845298767 0.08542434126138687 0.11211021989583969
-0.1293952316045761 0.4015233814716339 0.09195788949728012
0.106354258954525 -0.008799739181995392 0.4655771255493164
-0.2817290425300598 0.05977907031774521 -0.4013981819152832
0.20782271027565002 -0.6203591823577881 -0.03516778722405434
-0.5116896629333496 -0.09477312862873077 -0.25590530037879944
-0.11837224662303925 -0.25528085231781006 0.22888430953025818
-0.3755525052547455 -0.005757544655352831 0.29498815536499023
-0.03355204313993454 -0.21955366432666779 0.2842642366886139
0.03875265643000603 0.07901734858751297 0.4636324346065521
0.23737841844558716 0.0024424903094768524 -0.18183845281600952
0.3437478542327881 -0.6319857239723206 -0.1729482263326645
-0.1589866727590561 -0.08576369285583496 -0.2592611312866211
-0.15883345901966095 0.3997519910335541 -0.23065641522407532
-0.07419382035732269 0.002842795569449663 0.2674504816532135
0.2840695083141327 0.0012762732803821564 0.2595809996128082
-0.4338934123516083 0.397985577583313 -0.39401841163635254
0.23644842207431793 -0.041207462549209595 0.462436318397522
-0.1424630880355835 0.39362841844558716 -0.38967832922935486
-0.1464300900697708 -0.6556575298309326 0.08714648336172104
0.1826191395521164 0.4010438621044159 -0.16302981972694397
0.49162381887435913 -0.0022857338190078735 -0.3501267731189728
0.03848373517394066 0.0018870588392019272 0.1884893774986267
0.08348240703344345 -0.007032130844891071 0.3211491107940674
-0.020580485463142395 0.0017882166430354118 0.15123623609542847
-0.5592682361602783 -0.004312370903789997 -0.18561895191669464
-0.29547587037086487 0.38776567578315735 -0.39578816294670105
0.5812186002731323 0.07520448416471481 0.022393526509404182
-0.4855059087276459 0.39963242411613464 -0.25522175431251526
0.17662908136844635 -0.6475244164466858 0.20960812270641327
0.1859428435564041 0.39981454610824585 -0.29242417216300964
0.14758625626564026 -0.0746799111366272 0.43198689818382263
0.5756554007530212 0.12036239355802536 -0.20557919144630432
-0.009933123365044594 0.3963826298713684 -0.3784455358982086
0.08806366473436356 0.007414684630930424 -0.38860562443733215
0.027300633490085602 -0.6278936266899109 -0.060081060975790024
0.41011643409729004 -0.38039302825927734 -0.005682657938450575
0.07829701900482178 0.001886716578155756 -0.3487822413444519
0.20853528380393982 0.3996170163154602 -0.2356702834367752
0.23990526795387268 0.016005590558052063 0.3423871099948883
0.1459345519542694 -0.619925320148468 -0.011166061274707317
-0.11541057378053665 0.0020456621423363686 -0.20214076340198517
-0.32410886883735657 0.36881887912750244 -0.1734975129365921
-0.5431978702545166 -0.08328612148761749 -0.19476830959320068
0.576458752155304 0.3181456923484802 0.12591247260570526
-0.4328073561191559 0.0943107157945633 0.2906242609024048
0.5694961547851562 0.009197486564517021 -0.12391039729118347
-0.14211660623550415 -0.3878718316555023 -0.21952314674854279
0.32975584268569946 -0.6315721869468689 -0.0838896632194519
-0.48048433661460876 0.3999768793582916 0.005933291278779507
-0.5589864253997803 0.37897175550460815 0.11924294382333755
0.14202827215194702 -0.13504470884799957 -0.36611029505729675
-0.023693321272730827 0.3990183472633362 0.2930235266685486
0.25768741965293884 -0.6311601400375366 0.15779556334018707
0.25349047780036926 0.0015886630862951279 -0.12332024425268173
0.44010040163993835 -0.16101348400115967 0.04883183166384697
0.27408960461616516 -0.4815673530101776 -0.2614973485469818
0.22940897941589355 -0.6221053600311279 -0.20203948020935059
-0.228404238820076 -0.2622506022453308 0.045973263680934906
-0.19605012238025665 -0.3785499632358551 -0.1631988137960434
0.49685826897621155 0.06000000983476639 -0.40168261528015137
-0.16811881959438324 0.3984483480453491 0.1759665310382843
-0.24148739874362946 0.39957088232040405 0.32645609974861145
-0.4361182153224945 0.010318552143871784 -0.39822202920913696
0.36562782526016235 -0.09395122528076172 0.19027253985404968
-0.10047568380832672 -0.2220717966556549 0.24227161705493927
0.28468382358551025 0.35315367579460144 -0.40278708934783936
0.07979057729244232 0.0327170304954052 -0.40220150351524353
0.1517067402601242 -0.09970694780349731 -0.3676578402519226
0.388492614030838 -0.5185605883598328 -0.03817757964134216
-0.07952048629522324 -0.39894571900367737 -0.2569434940814972
0.30666136741638184 -0.3153302073478699 0.24657504260540009
-0.5750766396522522 0.08346457779407501 0.026881244033575058
0.3914688527584076 0.28975963592529297 -0.4027961194515228
0.42203086614608765 -0.000986485742032528 -0.20458334684371948
-0.5541295409202576 -0.07453080266714096 0.2059725522994995
0.3594817817211151 0.32382065057754517 -0.40147489309310913
0.09838148951530457 0.2453167587518692 0.3467763364315033
-0.5774928331375122 0.03113020397722721 -0.361697793006897
0.2853093147277832 0.4347350299358368 0.4456865191459656
-0.31613412499427795 -0.00021470594219863415 -0.17089909315109253
0.5771146416664124 0.12325931340456009 -0.34781068563461304
-0.21689273416996002 -0.15588520467281342 0.10634446889162064
0.157497376203537 0.2149381935596466 0.46781447529792786
0.11239945143461227 0.399475634098053 0.11283382028341293
0.5623230338096619 0.39082762598991394 0.27105283737182617
-0.13390745222568512 -0.36579832434654236 -0.2878343164920807
0.08170071244239807 -0.6207435131072998 -0.18608295917510986
0.30523815751075745 0.0008317632600665092 -0.3399445414543152
0.44189801812171936 -0.13352257013320923 0.045649584382772446
-0.16283448040485382 0.12408578395843506 -0.4023541808128357
0.5836734771728516 0.3577147126197815 -0.3510691225528717
0.07341174781322479 -0.12553252279758453 0.31191593408584595
0.5766769647598267 0.10983583331108093 -0.30190372467041016
-0.5226895809173584 0.34994426369667053 -0.40067893266677856
-0.5806645750999451 0.2466733157634735 -0.04175029695034027
-0.1485712230205536 0.40040847659111023 0.1961107850074768
0.5799994468688965 0.021422630175948143 0.10677493363618851
0.42795631289482117 -0.1360112726688385 -0.15606260299682617
-0.11354415118694305 -0.0019471626728773117 0.23358997702598572
-0.15219484269618988 0.1561894714832306 -0.4032897651195526
-0.21397265791893005 -0.22459496557712555 0.09950841218233109
-0.4615003168582916 0.09507027268409729 -0.10985967516899109
0.15090101957321167 0.4004862308502197 -0.17905212938785553
0.5789615511894226 0.2947455644607544 0.13645541667938232
0.581246554851532 0.33570805191993713 -0.16503041982650757
-0.5721744894981384 0.34096086025238037 0.22344546020030975
-0.016726968809962273 0.2853665053844452 0.34853076934814453
-0.1644560843706131 0.1974857896566391 0.34340396523475647
0.19453522562980652 0.162114679813385 0.34084439277648926
-0.254631370306015 0.001071264035999775 0.1152338758111
0.5804489254951477 0.270366907119751 0.08518511801958084
0.28546932339668274 -0.25413334369659424 -0.3189040720462799
0.2450212985277176 -0.05732608586549759 0.3230680227279663
0.3067409098148346 -0.5616080164909363 0.17728759348392487
-0.3615880310535431 -0.02832881733775139 -0.04735376685857773
0.4310622215270996 -0.26120463013648987 0.07201869785785675
-0.4337187707424164 0.08697336167097092 0.3411513566970825
-0.5083444118499756 0.40041613578796387 -0.31437718868255615
-0.49569711089134216 -0.09005303680896759 -0.11701056361198425
0.5793218016624451 0.2817605137825012 0.19741736352443695
0.3480868339538574 -0.6368044018745422 -0.048057589679956436
0.3243672847747803 -0.06919792294502258 0.44277143478393555
0.23281288146972656 -0.6247459053993225 0.0016543514793738723
-0.24083003401756287 -0.33682388067245483 -0.032420843839645386
0.20251475274562836 -0.23715028166770935 -0.3557056486606598
-0.5168209075927734 0.0850142166018486 -0.39994198083877563
0.022884832695126534 -0.625085711479187 -0.13874299824237823
-0.5628750324249268 0.007766027003526688 -0.39722350239753723
0.06216665357351303 -0.6408858299255371 -0.28181424736976624
0.30643796920776367 -0.2633085250854492 -0.3050383925437927
0.3835184872150421 -0.014131112955510616 -0.23792238533496857
-0.5745756030082703 0.10876656323671341 -0.013942564837634563
-0.07966123521327972 0.0013362814206629992 0.18557919561862946
0.2285170704126358 0.0005785906687378883 0.19576849043369293
0.12342695146799088 -0.6191818714141846 0.19271789491176605
-0.3680078983306885 0.06604497134685516 -0.19356651604175568
0.16165108978748322 -0.6265815496444702 0.18832805752754211
-0.1843286156654358 0.04208313673734665 -0.4027680456638336
-0.3722066283226013 -0.04069788381457329 0.13777534663677216
0.34010767936706543 0.40116316080093384 -0.23376025259494781
-0.03896218538284302 -0.3655852973461151 -0.34768012166023254
-0.3763388991355896 -0.0024384423159062862 0.23973044753074646
0.012006453238427639 0.30236467719078064 0.3469948470592499
0.09159455448389053 0.46314942836761475 0.4026006758213043
0.4273202419281006 -0.023196667432785034 -0.1048218235373497
0.2956092357635498 0.153486967086792 0.3441002666950226
0.027405643835663795 0.027107398957014084 0.4539192020893097
-0.056855373084545135 -0.39520055055618286 -0.2847800552845001
0.1641485095024109 0.1537950485944748 0.4659031927585602
-0.5769665241241455 0.014244693331420422 -0.1464916467666626
0.1686956137418747 -0.6263526678085327 -0.0034568412229418755
0.12620559334754944 0.0021977294236421585 -0.04199006408452988
-0.10154712945222855 -0.4336322546005249 0.17015501856803894
-0.5177536010742188 0.39688050746917725 0.06299803406000137
-0.1918305605649948 -0.37324973940849304 -0.17955775558948517
-0.2188645750284195 0.397897869348526 -0.2695959210395813
-0.5360223650932312 0.021170778200030327 -0.39740267395973206
0.5769700407981873 0.1525924950838089 -0.2777900993824005
0.1730487197637558 0.40047863125801086 -0.03664584085345268
-0.3513851463794708 0.012556611560285091 0.3364357054233551
0.04844416305422783 0.4005201756954193 -0.23289760947227478
0.2721204161643982 -0.6224045157432556 0.08053750544786453
0.46888670325279236 0.4010573923587799 0.0033452827483415604
0.06428533792495728 0.34563228487968445 0.4595419466495514
-0.5790014266967773 0.15472643077373505 0.06408019363880157
0.24335414171218872 -0.00046457815915346146 -0.31844785809516907
0.5763857960700989 0.17438693344593048 -0.06983672082424164
-0.14667877554893494 -0.24832934141159058 -0.2586982548236847
0.3604172468185425 0.19353044033050537 -0.40113309025764465
0.12969470024108887 0.3703452944755554 0.3388267755508423
-0.3592037856578827 0.41867995262145996 -0.07223213464021683
-0.19451956450939178 -0.3508010506629944 0.13257230818271637
0.0358329638838768 -0.6237631440162659 0.14256896078586578
0.19310130178928375 0.1681772768497467 -0.4036332666873932
0.13143892586231232 -0.05787769705057144 0.3179996609687805
-0.4373452365398407 -0.09085831791162491 0.3255254924297333
-0.10661332309246063 -0.001574631780385971 0.2097151279449463
-0.4060050845146179 -0.07407482713460922 0.2526474595069885
0.08218003064393997 0.31103774905204773 0.46242716908454895
-0.42202824354171753 0.3994760811328888 -0.3338754177093506
0.3691618740558624 -0.45181331038475037 0.0859457477927208
0.04625583812594414 0.40202564001083374 0.01688552275300026
0.13250064849853516 -0.006702928338199854 0.32186800241470337
-0.569656491279602 0.04091709479689598 -0.3868371248245239
-0.32242676615715027 0.05947441980242729 0.340230256319046
-0.10376184433698654 -0.6326568126678467 0.09734292328357697
0.3135371804237366 -0.39832285046577454 0.17671741545200348
0.23953545093536377 0.41277793049812317 0.44571977853775024
-0.3466865122318268 0.40804433822631836 -0.09954693913459778
0.36971786618232727 -0.36208483576774597 0.18764041364192963
0.264116108417511 0.19545473158359528 0.34078308939933777
0.13803647458553314 0.15671317279338837 -0.4023403227329254
-0.4068695604801178 0.0024893246591091156 -0.2971641421318054
0.5748980641365051 0.026386551558971405 -0.027002055197954178
0.3023475408554077 0.0022084955126047134 0.1868850439786911
0.5163848996162415 0.40210655331611633 -0.22780032455921173
-0.3584043085575104 -0.012341741472482681 -0.33784765005111694
-0.16399869322776794 -0.4827134609222412 0.07918326556682587
0.306829571723938 -0.0015722508542239666 0.24288243055343628
0.09358100593090057 0.3417513072490692 -0.39797696471214294
-0.032341498881578445 0.001865561120212078 0.23231086134910583
-0.4556675851345062 0.11413486301898956 0.1424403339624405
0.08351622521877289 0.0010912222787737846 0.2184319943189621
-0.13695302605628967 -0.37836456298828125 -0.2489439845085144
-0.2247324436903 -0.37838613986968994 -0.037271447479724884
0.2495749145746231 0.0006437655538320541 -0.2935752868652344
-0.010764791630208492 -0.624233067035675 0.1654769629240036
0.23731468617916107 0.3998088240623474 -0.2177426815032959
-0.13709750771522522 -0.39013636112213135 -0.20026108622550964
0.49169087409973145 0.4009106159210205 0.23744414746761322
-0.13937275111675262 0.3985235393047333 0.22527840733528137
-0.13207805156707764 -0.363497793674469 -0.2764662802219391
-0.37039652466773987 0.41784411668777466 -0.06622343510389328
-0.34813201427459717 0.3981292247772217 -0.24003756046295166
-0.3803892135620117 0.0749078169465065 0.015186313539743423
0.5136359333992004 0.10756789892911911 0.34409505128860474
0.3740953803062439 -0.002999279648065567 -0.18019190430641174
0.4431365132331848 0.40149882435798645 0.03893973305821419
-0.3705194592475891 0.006209509447216988 0.10923617333173752
-0.3595951497554779 0.010008464567363262 -0.05662356689572334
-0.1516353040933609 -0.00048171356320381165 -0.06730324774980545
-0.5022969245910645 0.08296796679496765 0.34709811210632324
-0.5035675764083862 -0.06056439131498337 0.34760159254074097
0.5159085988998413 0.0020089736208319664 -0.15746983885765076
-0.4247615933418274 0.01907825469970703 0.34668996930122375
0.19948223233222961 -0.6250283718109131 0.017903372645378113
0.17737992107868195 -0.18898023664951324 0.3041508197784424
0.29859986901283264 -0.6222958564758301 0.01845143549144268
0.5392381548881531 0.3915255665779114 0.3376739025115967
0.329725056886673 0.00028469832614064217 0.18428437411785126
0.18311557173728943 0.001446351408958435 -0.04960758611559868
-0.11266615241765976 0.0016698968829587102 -0.19052261114120483
0.27222520112991333 0.20310883224010468 0.3435530960559845
-0.20625638961791992 -0.03993016853928566 0.14021265506744385
-0.0819944515824318 0.3991895020008087 -0.2987433969974518
0.18391895294189453 -0.034552402794361115 0.3001502454280853
0.17777062952518463 -0.6377999186515808 -0.2871516942977905
0.32066091895103455 -0.42170077562332153 0.1531926840543747
-0.027391593903303146 -0.20525680482387543 0.2861155867576599
-0.2925393283367157 0.36504271626472473 -0.10413859784603119
-0.5517868995666504 -0.07528552412986755 -0.12216352671384811
-0.19157102704048157 -0.38507336378097534 0.06794104725122452
-0.3948349952697754 0.06702709197998047 -0.17467868328094482
-0.4283396303653717 0.07802034169435501 0.34012141823768616
0.04824388399720192 -0.20468927919864655 0.3070259094238281
-0.10968543589115143 -0.030859384685754776 -0.3099002540111542
0.15767528116703033 -0.5656443238258362 -0.31219667196273804
0.5732578039169312 0.2961713671684265 -0.3992558419704437
0.09882186353206635 -0.11346422880887985 0.3103347718715668
0.20599886775016785 0.400115042924881 0.32163891196250916
0.5774646401405334 0.22735385596752167 0.1429762840270996
0.5705825686454773 0.009465726092457771 -0.06769801676273346
-0.3418692946434021 0.0033299860078841448 0.09362135827541351
-0.4224562346935272 0.10533551871776581 -0.3177223801612854
0.2265593260526657 -0.00034902943298220634 -0.3432645797729492
-0.4760533571243286 0.3940063416957855 -0.1233375072479248
-0.4452473223209381 0.09637481719255447 -0.06868875026702881
0.2546217739582062 0.36465463042259216 0.34498757123947144
-0.20889976620674133 -0.3750244677066803 0.06160512566566467
-0.4287034571170807 0.39632028341293335 -0.23084509372711182
0.38100698590278625 -0.27803710103034973 0.17416533827781677
0.25990918278694153 -0.37858524918556213 0.2376728355884552
0.5713074803352356 0.3609030246734619 -0.312696635723114
0.14290864765644073 -0.3602536618709564 0.30565378069877625
-0.28955700993537903 0.36550262570381165 -0.10000018030405045
0.4456159770488739 -0.22917746007442474 -0.03773897886276245
0.3718191087245941 -0.09737442433834076 -0.24137349426746368
-0.35120633244514465 0.0067482804879546165 0.04574646055698395
-0.11116370558738708 -0.6250829100608826 -0.08944223076105118
0.5786210298538208 0.16926191747188568 0.2784440219402313
-0.22062744200229645 -0.0014797889161854982 0.035955507308244705
0.1652560532093048 0.3991405665874481 0.22962982952594757
-0.4886126220226288 0.1066211387515068 0.29025158286094666
0.07199025899171829 -0.5236369967460632 0.2583831250667572
0.1699359118938446 0.002127202693372965 -0.24761517345905304
-0.43701329827308655 0.10235864669084549 -0.337706059217453
0.4277164041996002 0.4009951949119568 -0.1530606746673584
-0.3263036906719208 0.3584899604320526 -0.39882612228393555
-0.08403772115707397 0.4007006287574768 0.19824247062206268
-0.36632752418518066 0.01135044265538454 -0.269205242395401
0.5741192102432251 0.2858438789844513 0.33864346146583557
-0.3903260827064514 0.08841992914676666 0.3386886417865753
0.16606377065181732 0.40274709463119507 0.1888590157032013
0.0434688925743103 0.40082433819770813 -0.08384625613689423
0.20073917508125305 0.001119792927056551 0.18913722038269043
-0.18405483663082123 -0.46153441071510315 0.005103887524455786
0.12839765846729279 0.06798157095909119 0.3417508900165558
-0.42237019538879395 0.0002796207554638386 -0.301693856716156
-0.5793028473854065 0.20911751687526703 -0.051613274961709976
0.006170284003019333 -0.6235092878341675 -0.0015297409845516086
0.23955392837524414 0.3500003218650818 0.4651905298233032
0.1312631219625473 -0.4840698838233948 0.263210266828537
-0.5157963633537292 0.06304113566875458 0.3441447615623474
0.3645257353782654 -0.5337029099464417 -0.15355688333511353
-0.4400932788848877 9.668292477726936e-05 -0.33981266617774963
-0.21943233907222748 0.002165328012779355 -0.1638609766960144
0.005453893449157476 -0.6219238638877869 0.09424484521150589
0.007443090435117483 -0.621196448802948 -0.092204250395298
-0.19017936289310455 0.39840587973594666 -0.0692453384399414
0.5658164024353027 0.2516501247882843 -0.404134601354599
-0.18317349255084991 -0.44957298040390015 -0.01445004902780056
-0.49251866340637207 0.15692554414272308 0.34111130237579346
-0.5772868990898132 0.20797480642795563 0.2163608968257904
0.4578925371170044 0.0032243067398667336 0.23346543312072754
-0.5747982263565063 0.136668398976326 -0.2745130658149719
0.3875108063220978 -0.37833112478256226 0.08867477625608444
-0.3512158691883087 0.024578912183642387 0.3310157060623169
-0.5689001083374023 -0.025251537561416626 -0.11078104376792908
0.04816772788763046 -0.005845141131430864 0.3180948793888092
0.3271966576576233 0.07564051449298859 0.35198765993118286
-0.26730531454086304 -0.0010604646522551775 -0.02575412578880787
0.3340761065483093 0.31678369641304016 0.3440222144126892
-0.0781073272228241 -0.09519032388925552 -0.3247576951980591
-0.38976702094078064 0.002011182950809598 0.25524643063545227
0.3053450882434845 0.31538307666778564 0.34348002076148987
-0.034175243228673935 0.23035305738449097 0.3926283121109009
0.07722316682338715 -0.25875651836395264 -0.3703972399234772
-0.0044256048277020454 -0.3776262402534485 0.2547575533390045
0.22221314907073975 0.4006488025188446 0.18412776291370392
0.07145550847053528 -0.6185142993927002 0.18430308997631073
0.37691470980644226 -0.41798990964889526 0.07692016661167145
0.15397071838378906 -0.0867500752210617 0.3735182583332062
0.11934910714626312 -0.3162611126899719 -0.3728431165218353
-0.0857607051730156 -0.0003069811500608921 0.2397262454032898
-0.10523195564746857 -0.20309877395629883 0.2424985021352768
0.24534636735916138 0.3997901380062103 -0.3304145932197571
0.13526776432991028 -0.08536658436059952 0.4152071475982666
-0.577663779258728 0.004799081012606621 0.04216552525758743
0.3367813229560852 -0.5271259546279907 0.13647378981113434
-0.5702122449874878 0.06200408563017845 0.09124050289392471
0.3797297477722168 0.25433167815208435 0.3443441092967987
0.3621580898761749 -0.4056859314441681 0.10721445083618164
0.04280230030417442 0.33615121245384216 -0.40467730164527893
0.27081093192100525 -0.25752681493759155 -0.3305778205394745
0.5696433782577515 0.08469126373529434 -0.39586344361305237
0.38171324133872986 -0.5895708203315735 -0.09063369780778885
0.5758213400840759 0.10916178673505783 -0.39962929487228394
-0.3922543525695801 -0.09388452768325806 -0.26063641905784607
0.33423715829849243 -0.0007820571772754192 -0.219309464097023
0.32393547892570496 0.29742786288261414 0.3857709467411041
-0.11424749344587326 0.3990299701690674 0.0666906088590622
0.3752496838569641 -0.6340022683143616 0.055237747728824615
0.576746940612793 0.04586978256702423 -0.029199255630373955
0.06243652105331421 -0.5952580571174622 0.2540147006511688
-0.24380531907081604 0.24083660542964935 -0.4014066457748413
0.2564367949962616 0.4688578248023987 0.3723663091659546
-0.019348671659827232 -0.6215589642524719 -0.01972516067326069
-0.39203885197639465 0.1783486008644104 -0.4022146761417389
0.10586125403642654 0.001246212050318718 -0.10069149732589722
0.032490622252225876 0.22524572908878326 -0.4044092297554016
