0.012332050129771233 0.40102705359458923 -0.1751433163881302
0.22217385470867157 0.3323496878147125 -0.3928854465484619
0.0760430097579956 0.40646979212760925 -0.13909880816936493
0.5448847413063049 -0.0017360355705022812 -0.05695547163486481
0.06992583721876144 -0.6184902787208557 0.19998730719089508
-0.2247251719236374 -0.00956407468765974 -0.11774881929159164
-0.19606173038482666 -0.3832096755504608 -0.07360509037971497
-0.5675549507141113 0.31807395815849304 -0.3370456099510193
0.5217519998550415 0.0018876781687140465 0.10198228061199188
-0.018694963306188583 -0.6283354163169861 0.17685458064079285
-0.2948837876319885 0.34685662388801575 0.3355143666267395
0.4201321303844452 -0.3355424404144287 0.11605226993560791
0.5713264346122742 0.376520037651062 0.13607493042945862
-0.166548952460289 -0.6011262536048889 0.024729883298277855
-0.5541626811027527 0.04423172399401665 -0.40251126885414124
-0.317308634519577 -0.002096317708492279 0.1023746132850647
-0.38482046127319336 -0.07221406698226929 -0.08853403478860855
-0.38900262117385864 0.005689403973519802 -0.283630907535553
0.354874849319458 -0.2784642279148102 -0.2502693831920624
0.37237411737442017 -0.48940739035606384 -0.12095482647418976
-0.40929049253463745 0.04924833029508591 -0.3952457308769226
0.030127134174108505 0.33342689275741577 0.3427499234676361
-0.22946739196777344 0.40542343258857727 -0.15199221670627594
0.560430645942688 0.40581372380256653 -0.13316825032234192
0.4430864155292511 -0.2696605622768402 0.03308641538023949
0.344097375869751 -0.38898858428001404 0.18978764116764069
0.15497654676437378 -0.66068434715271 0.22048252820968628
0.26964545249938965 0.4601295590400696 0.3792344629764557
-0.38853076100349426 0.36068472266197205 0.3400614857673645
-0.12027773261070251 0.1549471914768219 0.3442753553390503
-0.3784489631652832 0.06120617687702179 -0.13698989152908325
0.11470387130975723 0.40108150243759155 0.15843512117862701
0.3032792806625366 -0.6315463781356812 0.08035847544670105
-0.3548601567745209 0.03816942870616913 0.20909123122692108
-0.4998919367790222 0.4016241133213043 0.10433389246463776
0.5726381540298462 0.23881594836711884 -0.043847568333148956
0.02656610868871212 0.16864357888698578 0.341722697019577
0.4433482885360718 0.12708063423633575 -0.3957865238189697
-0.1719721257686615 -0.42297518253326416 0.0681644007563591
-0.5288376808166504 0.3801240622997284 -0.14877480268478394
0.3108326196670532 0.3911978602409363 0.3623880445957184
0.2574700713157654 -0.6082568764686584 0.22642095386981964
-0.33259040117263794 0.15054439008235931 -0.39181920886039734
0.31107378005981445 -0.553726077079773 0.1720738261938095
-0.36062777042388916 0.4165767431259155 -0.07280278950929642
0.5855687856674194 0.24031449854373932 0.14884072542190552
-0.19988717138767242 0.005735152866691351 0.32440808415412903
0.03937704116106033 -0.157889261841774 -0.36156126856803894
0.20021812617778778 -0.08633586764335632 0.3988068401813507
-0.2107170969247818 0.014607081189751625 -0.40437379479408264
-0.1251278519630432 0.13337285816669464 -0.4008767604827881
0.013973455876111984 0.0005662925541400909 -0.15399202704429626
0.004652500152587891 -0.1580040454864502 -0.3690291941165924
-0.0789535716176033 -0.0015570510877296329 0.16781197488307953
-0.5746790766716003 0.2129022479057312 -0.2280864417552948
0.006711291614919901 -0.0010759956203401089 0.08503434807062149
-0.049960244446992874 -0.5890498161315918 -0.2597421407699585
0.1091739758849144 0.26389458775520325 -0.39198586344718933
-0.14259910583496094 0.016022350639104843 -0.3911897540092468
0.27145612239837646 -0.1156972125172615 0.2660372853279114
0.1725032776594162 0.40368497371673584 -0.22488175332546234
0.0873427763581276 -0.6157627105712891 0.1281006783246994
0.26983731985092163 -0.34067949652671814 -0.32833603024482727
0.3716561198234558 -0.005921994335949421 -0.2420722395181656
-0.06642605364322662 -0.3231900632381439 0.2741298973560333
0.30691441893577576 -0.02479541301727295 0.45536330342292786
0.08350129425525665 -0.0010140575468540192 -0.37685495615005493
-0.5104716420173645 0.3910101354122162 0.033330127596855164
0.5866855978965759 0.1475965529680252 -0.14203114807605743
0.12289349734783173 -0.0022008242085576057 0.21626681089401245
0.3131287395954132 0.29402291774749756 -0.3974875211715698
-0.5103093385696411 0.05648356303572655 -0.405454158782959
0.3386126160621643 0.3971633017063141 -0.018250735476613045
0.030707357451319695 0.0645836889743805 0.37742194533348083
-0.23460182547569275 0.00016647577285766602 -0.001244866754859686
0.44605058431625366 -0.005605255253612995 0.0026344163343310356
-0.24892719089984894 0.4036407768726349 0.22060725092887878
0.5736826062202454 0.19590483605861664 0.30106785893440247
-0.20377621054649353 0.002060556784272194 -0.1556740552186966
0.1990995854139328 -0.49929845333099365 -0.3065018653869629
0.573339581489563 0.10430923849344254 -0.2087017446756363
-0.18139158189296722 0.1822996437549591 0.34642139077186584
0.33493393659591675 0.23755685985088348 -0.39049020409584045
0.5049129724502563 0.007018369622528553 -0.180763840675354
0.3294984698295593 -0.4438305199146271 0.16897930204868317
0.37686675786972046 -0.21818794310092926 -0.23456746339797974
-0.5000242590904236 -0.008839674293994904 -0.2684743404388428
0.3214748799800873 0.11512691527605057 0.36024320125579834
0.26734015345573425 -0.1384408324956894 -0.33630135655403137
-0.20494671165943146 0.3875317871570587 0.08213365077972412
-0.3223172426223755 0.10874153673648834 0.3510364294052124
-0.22910475730895996 -0.3485388457775116 -0.12977072596549988
-0.22599731385707855 -0.025526151061058044 0.07366123795509338
-0.0380454920232296 -0.2824384272098541 -0.33272311091423035
0.44397205114364624 -0.1658528596162796 0.00202577724121511
0.07551930844783783 -0.000648037064820528 -0.24266208708286285
-0.5614548325538635 0.36132198572158813 -0.3515912890434265
-0.48183777928352356 0.16909299790859222 -0.391543984413147
0.0153197618201375 -0.39572224020957947 -0.31803447008132935
-0.11132333427667618 -0.00219236733391881 -0.2838839888572693
-0.2722373902797699 0.0012473324313759804 -0.26058658957481384
-0.4331670105457306 0.39277371764183044 0.3089924156665802
-0.274915874004364 0.17467491328716278 -0.3977068066596985
0.45179322361946106 -0.11617148667573929 -0.06365364789962769
0.04527846351265907 -0.6232044696807861 -0.26110097765922546
-0.5139852166175842 -0.07701434940099716 -0.17892301082611084
-0.4372056722640991 0.10188782215118408 0.07763266563415527
-0.3623808026313782 0.009261604398488998 -0.12112686783075333
0.5273846983909607 0.39768436551094055 0.041120998561382294
0.5757614970207214 0.28646841645240784 0.2081727832555771
-0.17876482009887695 -0.6347330212593079 -0.0857338160276413
-0.07041574269533157 -0.0009709931910037994 0.02947915904223919
-0.15352165699005127 -0.5786764621734619 -0.18594366312026978
0.14203763008117676 -0.6225380897521973 -0.11145084351301193
-0.2211982011795044 -0.34613797068595886 -0.1055687665939331
0.15595033764839172 -0.04130079597234726 0.3111792802810669
-0.4175484776496887 0.1719961166381836 -0.39764004945755005
-0.43973395228385925 0.009219113737344742 0.13290220499038696
-0.4439505934715271 0.394793838262558 -0.24463456869125366
-0.35425272583961487 0.2356065958738327 -0.40616199374198914
0.25061899423599243 0.25352227687835693 -0.41279688477516174
0.21230393648147583 -0.6151098012924194 -0.052819542586803436
0.008508534170687199 0.14354558289051056 -0.4084895849227905
-0.07017898559570312 -0.0015216838801279664 0.32899558544158936
-0.47371718287467957 0.06060255318880081 0.3621303141117096
-0.2968539595603943 0.4077857434749603 0.22692561149597168
0.18802645802497864 -0.002973121590912342 0.251772403717041
-0.06887595355510712 -0.6135656237602234 -0.2526140511035919
0.4778473377227783 0.00029411260038614273 0.0996711477637291
0.5613882541656494 0.3963944911956787 0.2503712773323059
-0.5848525166511536 0.35477906465530396 -0.08368420600891113
-0.005414347164332867 -0.6192774772644043 -0.15318387746810913
0.5885308980941772 0.1481754034757614 -0.3300021290779114
0.009972627274692059 -0.0023969775065779686 -0.14077746868133545
0.037883348762989044 0.367906779050827 0.4449668228626251
0.09588765352964401 -0.6149396896362305 0.07147365808486938
0.3097778558731079 0.03899746388196945 0.3537343740463257
0.4824081361293793 -0.0028784906025975943 -0.1567661464214325
0.14182452857494354 -0.2024054080247879 -0.3684612214565277
0.07205726206302643 0.3983970582485199 0.22231446206569672
0.4418818950653076 -0.002004537731409073 -0.3806689977645874
-0.5621874928474426 0.24444669485092163 0.30557781457901
-0.5876188278198242 0.08765055239200592 0.21809636056423187
0.23095586895942688 -0.1429053395986557 -0.3454079329967499
0.5663881301879883 0.37977293133735657 0.1204506903886795
-0.0874766856431961 0.40012064576148987 -0.29807260632514954
0.45033159852027893 -0.19053606688976288 -0.006945175118744373
0.28087568283081055 -0.6131417751312256 0.09346846491098404
-0.2759493589401245 -0.00019817566499114037 0.19817568361759186
0.3185296654701233 0.07722734659910202 0.37953445315361023
-0.5666288137435913 0.12715159356594086 0.2007533758878708
-0.5665545463562012 0.016513874754309654 -0.11203330755233765
-0.09007804095745087 0.0006280886009335518 0.11391530185937881
-0.43501490354537964 0.3913789391517639 -0.2686581313610077
-0.5190112590789795 -0.0012505552731454372 0.1472240388393402
0.024687394499778748 -0.4657045006752014 -0.2975550591945648
0.3235763609409332 -0.3398779034614563 -0.28179222345352173
0.5919173955917358 0.0931045189499855 0.15606948733329773
0.0033356768544763327 -0.005267573054879904 0.3280026614665985
-0.14522609114646912 -0.0014351634308695793 -0.17579029500484467
-0.22549325227737427 0.00037015415728092194 -0.10259819775819778
0.2502569556236267 0.39528632164001465 -0.20562013983726501
0.5820541977882385 0.09966352581977844 0.04325679689645767
0.4399438798427582 -0.006153010297566652 0.05308213084936142
-0.016143441200256348 -0.00018091220408678055 0.01821727678179741
-0.3661889433860779 0.03311023488640785 0.3405703902244568
-0.4068816006183624 0.03634209930896759 -0.39328324794769287
-0.5183765292167664 0.039122503250837326 -0.392168253660202
0.2564234435558319 -0.5131747722625732 -0.27000877261161804
0.3676794767379761 0.2441406100988388 0.3376671373844147
-0.16804945468902588 -0.0030699195340275764 -0.2537499964237213
0.29564809799194336 -0.003048354759812355 0.1108994111418724
0.3423750698566437 -0.6446932554244995 0.12444911897182465
0.11116553843021393 0.402429461479187 0.16149897873401642
-0.0033120401203632355 -0.4890310764312744 0.25239330530166626
-0.43502965569496155 0.11655084788799286 0.17106853425502777
-0.36092084646224976 -0.01404726691544056 -0.05575023964047432
0.3137328028678894 0.40088456869125366 0.050895992666482925
0.2808184027671814 -0.6286355257034302 0.0617121197283268
0.23581016063690186 0.4747704267501831 0.40261587500572205
0.03482444956898689 -0.30129340291023254 0.31048309803009033
-0.23373739421367645 -0.3304627239704132 -0.013265957124531269
-0.5136013031005859 -0.0009765718132257462 -0.1795845627784729
0.3269653618335724 -0.3754417598247528 -0.25626692175865173
0.036617863923311234 -0.0010580405360087752 -0.21092639863491058
0.15418681502342224 -0.07210583984851837 0.4431794583797455
0.3954969644546509 -0.0020900778472423553 -0.02662302367389202
-0.11461330950260162 -0.0015527373179793358 -0.09799971431493759
0.0765206515789032 -0.6281068325042725 0.13079985976219177
-0.5659782290458679 0.1556391417980194 0.33942803740501404
-0.5646112561225891 0.005818071309477091 -0.3624308109283447
0.29350578784942627 -0.0012247897684574127 0.04041816294193268
-0.5806649923324585 0.3132993280887604 0.19516846537590027
0.01917356811463833 0.24228523671627045 0.44200995564460754
0.325531005859375 0.04697291553020477 0.44083651900291443
-0.5309136509895325 0.35876983404159546 -0.3862152397632599
-0.44811567664146423 0.3979526460170746 0.18654751777648926
-0.428215891122818 0.13581056892871857 0.3366967439651489
0.31857284903526306 0.053360309451818466 0.45869746804237366
-0.2380344271659851 -0.06634698808193207 -0.11973414570093155
-0.11741520464420319 0.31983453035354614 -0.3990650177001953
0.5772925615310669 0.3449041545391083 -0.3232782781124115
0.03648095950484276 -0.6232250928878784 0.07089997828006744
-0.31588122248649597 0.09623376280069351 -0.4147854745388031
-0.03866568207740784 -0.6450996398925781 -0.24876347184181213
0.09174610674381256 0.2085459679365158 0.45921844244003296
0.08590120822191238 -0.001590902917087078 -0.0558447428047657
0.4210037291049957 -0.38055694103240967 -0.05115363746881485
-0.5555267333984375 -0.04284614697098732 -0.08558434247970581
-0.18646986782550812 0.3982066512107849 0.3251666724681854
0.5029414892196655 0.4027128517627716 -0.13939061760902405
-0.1018131747841835 0.3907524049282074 -0.23259049654006958
0.1956808865070343 0.0008880607783794403 -0.38273489475250244
-0.1759759783744812 0.4037434458732605 0.13402172923088074
0.03554735705256462 -0.06292394548654556 0.303860604763031
-0.580173134803772 0.22417251765727997 -0.07482434064149857
-0.5675939917564392 0.18702000379562378 0.16603243350982666
-0.10672348737716675 0.0001978054642677307 0.30999138951301575
0.17873582243919373 -0.6203410029411316 0.022029243409633636
-0.05573282390832901 0.06912107765674591 0.3513762950897217
-0.5916717648506165 0.25875169038772583 0.27690190076828003
-0.047375328838825226 -0.6029661893844604 -0.2672581374645233
0.16757343709468842 0.392187237739563 0.3267548680305481
0.14175444841384888 0.4640169143676758 0.40822428464889526
-0.11827633529901505 0.08882644772529602 0.3413097858428955
-0.42690616846084595 0.08413475006818771 0.3456578850746155
-0.4989776611328125 0.1136719211935997 -0.21730166673660278
-0.4923282265663147 -0.08320557326078415 0.33638712763786316
0.07071390002965927 0.24984805285930634 -0.39273056387901306
-0.11554326117038727 0.07808158546686172 0.34953218698501587
-0.556090235710144 0.08700507134199142 -0.3874044716358185
0.037974610924720764 0.33056801557540894 0.43950000405311584
-0.5775651335716248 0.027435971423983574 -0.29118165373802185
-0.00023124658036977053 0.40572139620780945 -0.19942636787891388
0.21129074692726135 -0.6150895953178406 0.23685172200202942
0.5777024626731873 0.0934489518404007 0.34268680214881897
0.41811466217041016 -0.07181882858276367 -0.14977391064167023
-0.2625100314617157 -0.0019206749275326729 -0.24783582985401154
0.3207605183124542 -0.00224513653665781 -0.371074378490448
-0.4035099446773529 0.3404747545719147 0.3490006625652313
0.31583401560783386 -0.06364283710718155 0.43304285407066345
-0.2746266722679138 0.16011890769004822 -0.41417956352233887
0.06472572684288025 0.23201356828212738 -0.41186490654945374
0.5722736716270447 0.01343971211463213 0.22680820524692535
0.07765384018421173 -0.6152410507202148 0.18724969029426575
-0.3716590702533722 -0.040740299969911575 0.1621646285057068
0.11588229984045029 -0.3757776618003845 0.29277998208999634
0.29937848448753357 -0.3890616297721863 0.18349000811576843
0.334552139043808 0.13346609473228455 -0.4130733907222748
-0.27537262439727783 0.38703611493110657 0.1655099093914032
-0.4758881628513336 0.39345434308052063 -0.20863552391529083
0.34652137756347656 0.3829709589481354 -0.3994849920272827
-0.14455491304397583 -0.0031583253294229507 0.23446884751319885
-0.47452932596206665 0.3892866373062134 -0.17748211324214935
-0.10838943719863892 -0.0010079527273774147 -0.21368840336799622
0.24713391065597534 -0.36189666390419006 -0.33307763934135437
0.43831950426101685 -0.22466236352920532 -0.08830233663320541
-0.5502437949180603 0.3847516179084778 -0.04730446636676788
-0.5418659448623657 0.08989220857620239 -0.034847602248191833
0.24656088650226593 -7.74674117565155e-06 -0.3410860598087311
0.01657695323228836 -0.3070281445980072 -0.3661315143108368
-0.4590243697166443 0.22942499816417694 -0.4108997881412506
0.4895497262477875 -0.004803917836397886 -0.027060002088546753
0.11704052984714508 0.39839258790016174 0.28814271092414856
0.27483946084976196 0.0012692725285887718 0.20919646322727203
0.3789311945438385 -0.1094219833612442 -0.22981023788452148
0.13666172325611115 -0.585243821144104 0.2653665542602539
-0.049038346856832504 -0.013757891952991486 -0.33705031871795654
-0.06858404725790024 0.3925187885761261 -0.4064180552959442
-0.04539404809474945 -0.4976425766944885 0.22463180124759674
-0.5302684903144836 0.09101582318544388 -0.22330859303474426
-0.15019118785858154 -0.6460903286933899 -0.048707909882068634
0.459742933511734 0.4002106189727783 -0.015096714720129967
-0.47377732396125793 -0.03432365506887436 0.3513737618923187
-0.14471933245658875 -0.43792790174484253 -0.16046679019927979
0.3226994574069977 0.39716672897338867 -0.31669551134109497
0.43804943561553955 -0.17368915677070618 -0.11851324886083603
-0.4419320821762085 0.019061200320720673 0.33388081192970276
0.3467826843261719 -0.6529300212860107 -0.11687172204256058
0.29317617416381836 -0.6380048394203186 -0.20198945701122284
-0.22416460514068604 0.12912122905254364 0.3517630696296692
-0.5854527950286865 0.3484649360179901 0.27542147040367126
-0.23759393393993378 -0.0013653934001922607 -0.1073395386338234
-0.04350654408335686 0.3934207558631897 0.22832098603248596
0.4148790240287781 -0.12627838551998138 0.12160173058509827
0.07978624850511551 0.282550573348999 -0.39655759930610657
-0.2008371502161026 0.3947769105434418 0.16869881749153137
0.23416189849376678 -0.0012845699675381184 -0.10322029143571854
-0.4525868594646454 0.11255474388599396 -0.3285115361213684
-0.24953170120716095 0.14066030085086823 -0.3907908797264099
0.23065760731697083 -0.0012148134410381317 -0.12363211065530777
-0.060110025107860565 -0.6151589155197144 -0.10467623174190521
0.08727812767028809 -0.3646300137042999 -0.37594500184059143
-0.06550030410289764 -0.08336420357227325 -0.32668569684028625
-0.14898842573165894 -0.003603289369493723 0.15398722887039185
0.2159481644630432 0.4573531746864319 0.43451452255249023
0.16759714484214783 0.1428818255662918 0.3410627543926239
0.3100372552871704 0.22155046463012695 0.36969077587127686
-0.04929229989647865 -0.6153199076652527 0.0682113990187645
-0.11171574145555496 0.17867006361484528 0.36658015847206116
0.3968369662761688 -0.0017709499225020409 -0.0705934464931488
0.24574048817157745 -0.400822252035141 -0.27701523900032043
0.5735749006271362 0.3808044195175171 0.26825904846191406
-0.45948415994644165 -0.11615148931741714 -0.18365922570228577
0.01965433917939663 0.043191131204366684 -0.4108087718486786
-0.449291855096817 -0.09419096261262894 -0.3873260021209717
-0.09283921867609024 -0.4511944055557251 -0.22002190351486206
-0.4177790582180023 0.008539995178580284 -0.18986372649669647
0.15225107967853546 -0.41128861904144287 0.2625185549259186
0.11110380291938782 -0.5378987193107605 -0.32051587104797363
0.5006904006004333 -0.0022908849641680717 -0.12752781808376312
0.021171201020479202 -0.0008941600099205971 0.06284632533788681
0.06469002366065979 -0.005566379986703396 0.3257361948490143
0.2447744756937027 -0.34698987007141113 0.27881520986557007
-0.22270986437797546 0.05814426764845848 -0.4013805091381073
0.25138983130455017 0.20876477658748627 0.4636634290218353
0.22358280420303345 -0.0744243785738945 0.27992916107177734
0.2705373167991638 0.13513977825641632 0.46019136905670166
-0.41908249258995056 0.3966468572616577 0.061211928725242615
0.384893000125885 -0.5408698916435242 -0.013715323060750961
0.4146957993507385 -0.0016564009711146355 0.33436569571495056
0.01880820468068123 0.20036083459854126 0.4156113564968109
-0.12917163968086243 -0.3687021732330322 0.2258869856595993
0.14410333335399628 -0.5067324638366699 -0.31962403655052185
-0.13483856618404388 -0.0014269291423261166 -0.11401176452636719
-0.3038705289363861 0.3754384517669678 -0.03537118434906006
0.2057829052209854 -0.6277434229850769 -0.03426973149180412
-0.4481784403324127 0.38691702485084534 -0.27230021357536316
-0.5753229260444641 0.16548871994018555 -0.11182507872581482
-0.5801641345024109 0.0024797297082841396 0.32749152183532715
-0.32464927434921265 0.3800322115421295 -0.1693297028541565
0.2154870480298996 -0.631991446018219 -0.17319440841674805
-0.44320058822631836 0.06936650723218918 -0.41165947914123535
-0.5155301690101624 0.10986056178808212 -0.039828866720199585
-0.12820689380168915 -0.633901834487915 0.15604129433631897
-0.462922602891922 -0.0020498852245509624 -0.05193642899394035
0.18340986967086792 -0.0009428365738131106 -0.016699783504009247
0.07987680286169052 0.3853660225868225 -0.39049190282821655
0.5666919350624084 0.38343673944473267 -0.3540612757205963
-0.23267902433872223 0.40190333127975464 0.34389743208885193
0.24692606925964355 0.3952111303806305 0.1945507824420929
-0.008486667647957802 0.013661039993166924 0.34602442383766174
-0.5772781372070312 0.3157585561275482 0.1934046596288681
-0.180192768573761 0.27255821228027344 -0.39490145444869995
-0.34300050139427185 0.387654572725296 -0.3674485981464386
-0.3934420943260193 0.07116879522800446 -0.40860238671302795
-0.12772905826568604 -0.29780200123786926 0.23493991792201996
-0.5709490180015564 0.3542802333831787 0.27827489376068115
-0.35111215710639954 0.3044806122779846 0.34218117594718933
0.27497467398643494 -0.001644912175834179 0.4542197585105896
0.1645835041999817 0.3016475737094879 0.34109604358673096
0.08508474379777908 0.45414474606513977 0.3757108151912689
-0.426861971616745 -0.10347986966371536 0.10541069507598877
0.41082659363746643 -0.0033840639516711235 0.08208414167165756
0.15414275228977203 -0.009862037375569344 -0.37927213311195374
0.5691054463386536 0.11116717755794525 -0.11321776360273361
0.40495550632476807 0.39351481199264526 0.33374160528182983
-0.33263111114501953 0.3872874081134796 0.17583446204662323
0.5550908446311951 0.010822812095284462 -0.09073172509670258
0.1636718511581421 -0.6162028312683105 -0.1654660552740097
0.022151248529553413 0.30860722064971924 0.34235942363739014
0.3173399567604065 -0.38312405347824097 0.19867528975009918
-0.072953961789608 0.004463020712137222 -0.09011354297399521
-0.3880186975002289 0.1649857759475708 0.3424990773200989
0.4015987515449524 0.19921045005321503 0.34845030307769775
-0.3937012851238251 -0.06986796110868454 -0.10336173325777054
0.17389437556266785 -0.3763141632080078 -0.3512283265590668
-0.5601927042007446 -0.020429158583283424 0.29523324966430664
0.580434262752533 0.09240487962961197 -0.2822452485561371
0.4531082510948181 -0.2209545224905014 0.026051288470625877
0.41216787695884705 0.395984411239624 -0.2782902717590332
0.29563257098197937 0.418095201253891 0.3533996343612671
-0.07901959121227264 0.3947376012802124 -0.22125279903411865
0.3652269244194031 -0.4668665826320648 -0.14222167432308197
0.25098130106925964 0.3372690677642822 0.4511001408100128
0.14276033639907837 -0.6475207209587097 0.21250717341899872
-0.13200436532497406 -0.0014577717520296574 -0.08889435231685638
0.08084504306316376 -0.6159856915473938 0.039775773882865906
0.3382739722728729 -0.11072572320699692 -0.2834208011627197
0.13508489727973938 0.3409104645252228 0.45474129915237427
-0.18823271989822388 -0.570105254650116 -0.011889905668795109
-0.43719562888145447 0.012807821854948997 -0.11122167110443115
-0.4084593951702118 0.09397561103105545 -0.1781005859375
-0.36972546577453613 0.06450488418340683 -0.03172244131565094
0.32046836614608765 -0.6513669490814209 -0.1320580542087555
-0.4205572009086609 0.1141841784119606 -0.3483414053916931
-0.5649310946464539 0.017546791583299637 -0.04146667942404747
0.575417697429657 0.11563330143690109 -0.13569854199886322
-0.0872097983956337 -0.4634570777416229 0.16211803257465363
0.14746776223182678 -0.6156149506568909 -0.016508392989635468
0.17606860399246216 -0.001528773456811905 0.16586840152740479
0.14827439188957214 -0.3498128354549408 0.29905787110328674
-0.5236957669258118 0.027105392888188362 0.3512454032897949
-0.20767897367477417 -0.331672340631485 -0.1448313146829605
-0.3538563549518585 0.30055198073387146 -0.39212220907211304
-0.2390594184398651 0.364783376455307 -0.4026838541030884
-0.4532208740711212 0.10561186075210571 0.15468141436576843
-0.43548524379730225 0.007909251376986504 0.23439355194568634
0.4082126319408417 -0.18590226769447327 0.13011150062084198
0.13392508029937744 0.36881986260414124 0.344978004693985
0.22171618044376373 -0.0010199043899774551 0.13000497221946716
-0.11068855226039886 -0.5237894654273987 -0.21945194900035858
0.18780145049095154 -0.4292856752872467 0.2574750781059265
0.5756385326385498 0.18612247705459595 -0.3268308937549591
0.29591405391693115 0.3883431553840637 -0.3929198980331421
-0.18431095778942108 -0.08874471485614777 0.15961837768554688
0.2230205237865448 0.4041639268398285 0.3324428200721741
-0.4533711075782776 0.0010506183607503772 -0.04094834625720978
-0.44619545340538025 0.03145650774240494 -0.40034326910972595
-0.3762669265270233 -0.005575851537287235 0.07074791938066483
-0.5241625308990479 0.0761130079627037 -0.34960150718688965
0.3187335431575775 -0.05569746717810631 0.3804728090763092
-0.007039396557956934 0.15354986488819122 0.3487338125705719
-0.07253037393093109 -0.1589958518743515 -0.3367479741573334
-0.5783058404922485 0.01096855103969574 -0.37959998846054077
-0.5435934066772461 -0.00642776396125555 -0.32000377774238586
0.12828293442726135 0.3988207280635834 -0.15537481009960175
0.15059731900691986 -0.6155176162719727 -0.1937512904405594
0.025835849344730377 0.2625978887081146 0.4520854353904724
0.3272559344768524 0.4139389395713806 0.38227924704551697
-0.03270094469189644 0.0980728268623352 -0.39277493953704834
0.4074958264827728 -0.14898857474327087 -0.17478039860725403
0.04113345593214035 -0.001009846106171608 0.18330781161785126
-0.5479364991188049 -0.04895894601941109 0.2494669109582901
0.394961953163147 -0.38326141238212585 0.12762314081192017
-0.05740094557404518 0.15178684890270233 0.3698226809501648
0.10831566154956818 0.0598289892077446 0.35032859444618225
-0.5835492610931396 -0.006584843620657921 -0.3378806710243225
-0.20545117557048798 -0.0010055750608444214 -0.14619116485118866
0.21955636143684387 -0.0015765205025672913 -0.36142870783805847
0.3776237964630127 -0.3722090423107147 -0.18445855379104614
-0.3465840816497803 0.396484911441803 -0.3843975067138672
-0.19922615587711334 0.396284818649292 0.1402813345193863
0.12256976217031479 -0.2675454318523407 0.30791187286376953
0.15291345119476318 -0.26616767048835754 -0.36081385612487793
-0.49690166115760803 -0.10553982853889465 -0.17779609560966492
-0.27297449111938477 0.3934454917907715 -0.07537861913442612
0.3080703914165497 -0.3032833933830261 0.2405710220336914
-0.1100849062204361 -0.0027599064633250237 -0.3439430594444275
-0.4919707775115967 -0.008405987173318863 0.27463027834892273
-0.14980550110340118 -0.5097904205322266 0.1229172945022583
0.2864120900630951 0.0032824547961354256 0.13574376702308655
-0.18751169741153717 -0.3206665813922882 0.16336120665073395
0.07056065648794174 -0.041690099984407425 0.33176273107528687
0.16835826635360718 0.42344552278518677 0.349075049161911
-0.22724664211273193 -0.11711184680461884 -0.13859744369983673
0.505744218826294 0.06412786990404129 -0.4145796000957489
0.11922511458396912 -0.0006485283374786377 0.13470342755317688
0.3964919149875641 0.4068780541419983 0.09151306748390198
-0.5643653273582458 -0.003630791325122118 0.08113079518079758
-0.49520307779312134 0.34914630651474 -0.1250285655260086
-0.09443866461515427 -0.6217794418334961 -0.09647173434495926
0.5761803984642029 0.09565016627311707 -0.12197745591402054
0.2039160579442978 0.20838403701782227 0.3442096710205078
-0.523452877998352 0.07738175243139267 -0.1900947242975235
0.21266834437847137 -0.0019098883494734764 0.1293802708387375
0.10449687391519547 0.0027575138956308365 0.26497790217399597
-0.5671981573104858 0.07461313158273697 0.2065592259168625
-0.17935073375701904 0.004056804813444614 0.33208590745925903
0.1482023149728775 -0.4220217764377594 -0.3272547125816345
-0.5886780619621277 0.19197413325309753 0.05165228247642517
-0.16262295842170715 -0.0022202003747224808 -0.052289389073848724
0.038272637873888016 0.2754284143447876 0.45190417766571045
-0.5662106275558472 0.07669562846422195 -0.2734996974468231
-0.15995723009109497 -0.5126478672027588 0.09622745960950851
-0.05687929689884186 0.050623729825019836 -0.4013344347476959
-0.5130106210708618 0.3648543953895569 -0.1348653882741928
0.07350005209445953 -0.0014798790216445923 -0.1904568076133728
0.33125054836273193 -0.6353909373283386 0.07629439234733582
0.2916904389858246 0.0006132367998361588 0.01590040512382984
0.13395516574382782 -0.6209008693695068 -0.07784505933523178
0.39659422636032104 -0.002727069891989231 -0.10660918802022934
0.5393139123916626 0.10456874221563339 -0.4147137999534607
-0.17378856241703033 0.4048481285572052 0.15818153321743011
0.09267454594373703 -0.015004891902208328 0.33455705642700195
0.20992566645145416 -0.6199032664299011 0.1775534451007843
-0.39760205149650574 0.14284780621528625 -0.40511971712112427
-0.0008716653101146221 0.19783750176429749 -0.415587842464447
0.07900208234786987 -0.6330621242523193 -0.3104376792907715
-0.14934854209423065 -0.0010285074822604656 -0.20223192870616913
0.28083017468452454 0.47429579496383667 0.39043059945106506
0.32126936316490173 0.39961522817611694 0.19303502142429352
-0.10397019237279892 0.15567214787006378 0.345739483833313
0.397087961435318 -0.004640056286007166 0.13655906915664673
-0.5566896200180054 0.06759646534919739 0.34510865807533264
-0.17701642215251923 0.005167682655155659 0.0421379916369915
-0.00015056109987199306 -0.0014398973435163498 -0.3041076958179474
0.024369031190872192 -0.6293114423751831 -0.14972420036792755
0.24194292724132538 0.2923130989074707 -0.4059143364429474
0.04621532931923866 -0.0011022747494280338 0.008758243173360825
-0.03729357197880745 -0.0015423833392560482 -0.10901474952697754
-0.14742732048034668 0.404649943113327 0.0730484127998352
0.51055908203125 0.2763234078884125 0.33722734451293945
-0.4298989474773407 0.008671868592500687 -0.16215747594833374
0.5905210375785828 0.18786922097206116 -0.11103947460651398
0.2405674308538437 -0.5587692856788635 0.2164313793182373
0.09575080126523972 -0.0009471969678997993 0.019929591566324234
-0.3848731815814972 -0.06966054439544678 0.318442702293396
0.2196730375289917 -0.5193080306053162 -0.2946598529815674
0.14085203409194946 0.25650736689567566 0.452115923166275
-0.006754632107913494 0.4040682017803192 -0.2184964418411255
0.412997305393219 0.3904654085636139 -0.17135345935821533
-0.456590473651886 0.0964592769742012 -0.3981650769710541
0.028539517894387245 -0.6266865134239197 0.11132154613733292
0.16566836833953857 -0.000989472959190607 -0.1799761950969696
0.5522834658622742 0.002886837348341942 0.22281482815742493
-0.4199174642562866 0.08254546672105789 -0.026653500273823738
-0.26219239830970764 -0.000449703773483634 -0.14385926723480225
0.27878403663635254 -0.22013498842716217 0.27714410424232483
0.17138326168060303 -0.6098843216896057 -0.30563777685165405
-0.020594678819179535 0.37903892993927 0.35253384709358215
-0.06718732416629791 0.4072636663913727 0.20507098734378815
-0.40582045912742615 0.10191112011671066 -0.3914973735809326
0.24552664160728455 -0.003261551260948181 0.24547159671783447
-0.28604793548583984 0.352447509765625 -0.026862820610404015
0.1884983628988266 -0.32122737169265747 -0.35505151748657227
0.5865647196769714 0.1043512374162674 -0.1240469217300415
-0.13954955339431763 -0.5301055312156677 0.12064186483621597
0.26391783356666565 0.005269298329949379 -0.2499469518661499
0.34330832958221436 -0.0031391079537570477 -0.27837806940078735
-0.08616440743207932 0.16414415836334229 0.36907967925071716
0.17160114645957947 0.46749135851860046 0.3694949150085449
0.5744361281394958 0.28474220633506775 -0.3334951102733612
-0.1714126020669937 0.4037146270275116 -0.022147994488477707
0.5261687636375427 0.0029575356747955084 0.2750582993030548
-0.15630647540092468 0.396946519613266 -0.22499750554561615
-0.588481605052948 0.03180733323097229 -0.248671293258667
0.426008939743042 0.06313201040029526 -0.4117901623249054
0.3221972584724426 -0.5474042296409607 -0.21981976926326752
0.18489448726177216 -0.001122826710343361 0.12427708506584167
-0.3384624719619751 0.404071569442749 -0.041382208466529846
-0.005644429475069046 -0.09667610377073288 0.28659695386886597
-0.587581992149353 0.19149357080459595 0.22156627476215363
0.3245483934879303 0.15150128304958344 0.3782881498336792
-0.018783267587423325 0.3999263346195221 -0.29579827189445496
-0.5157989859580994 -0.07455773651599884 0.21246737241744995
0.450261652469635 -0.275145947933197 -0.01011124812066555
0.3067058026790619 0.373836487531662 0.44696342945098877
-0.543100893497467 0.2797337472438812 -0.41285240650177
-0.3362986743450165 0.0017351415008306503 0.14368385076522827
0.39370197057724 -0.4729185998439789 0.015447059646248817
0.23597270250320435 -0.0008330885320901871 0.1675070822238922
-0.45350903272628784 0.004675278440117836 0.3354354202747345
-0.5635831356048584 0.03902101144194603 -0.324979305267334
0.45802026987075806 0.25488007068634033 -0.3985591232776642
0.31730785965919495 -0.002041333122178912 -0.197365403175354
0.21726101636886597 -0.0017782580107450485 -0.2696211338043213
0.4140072464942932 -0.30589815974235535 -0.17394667863845825
-0.24473059177398682 -0.00297180307097733 -0.009408315643668175
0.5742321610450745 0.10628146678209305 0.025375496596097946
-0.06850883364677429 0.003242400474846363 0.17762288451194763
-0.007181490771472454 -0.6305051445960999 0.16028614342212677
0.4504706561565399 0.39084094762802124 -0.355095237493515
-0.44674554467201233 0.00398725550621748 0.3642268478870392
0.3237139880657196 0.3193918764591217 0.3437308073043823
-0.5761396884918213 0.1505509614944458 0.004049336537718773
0.3810543417930603 -0.6122705936431885 0.06269194930791855
-0.33577921986579895 0.007352211978286505 -0.300753116607666
-0.5735959410667419 0.06112931668758392 0.3096877634525299
0.022407934069633484 0.3960629105567932 0.28831514716148376
0.5351700186729431 0.3951323926448822 -0.24360685050487518
0.1492355465888977 0.14274261891841888 -0.3918742537498474
-0.13342151045799255 -0.6294690370559692 0.03730512782931328
0.5759824514389038 0.40500330924987793 0.035015106201171875
0.5850931406021118 0.08721514791250229 -0.3409407436847687
-0.1596183478832245 -0.3896098732948303 0.11382336169481277
0.5858502388000488 0.19515860080718994 0.27847421169281006
0.10063839703798294 -0.6311410069465637 -0.23650401830673218
0.40303632616996765 0.4025510251522064 0.15580250322818756
0.012956909835338593 0.25261402130126953 0.36559873819351196
0.4336315989494324 -0.23642879724502563 -0.08435092121362686
-0.4167064428329468 0.3942413032054901 0.07755192369222641
0.03470436856150627 -0.5917097330093384 -0.31039556860923767
0.09758462756872177 -0.000889994902536273 -0.22354762256145477
0.10467210412025452 -0.002835630439221859 0.46103882789611816
-0.5371792316436768 -0.00800310168415308 -0.3474927246570587
0.5880622863769531 0.3875720798969269 0.25793370604515076
-0.47412624955177307 -0.0046693990007042885 -0.20906738936901093
0.5514599680900574 -0.0027317162603139877 0.06717593967914581
0.2189958393573761 0.0031240712851285934 0.2819608449935913
-0.32926133275032043 0.28804704546928406 -0.4184718728065491
0.44156157970428467 0.40801921486854553 0.31426337361335754
-0.12819243967533112 -0.46996501088142395 -0.2056383341550827
-0.1732824593782425 0.33778634667396545 0.3485613465309143
0.11063499003648758 -0.6198610067367554 -0.16992081701755524
0.015437781810760498 0.23209577798843384 0.4197674095630646
0.5743597149848938 0.22625692188739777 -0.3848769962787628
0.16077685356140137 -0.03714530169963837 0.31929102540016174
-0.10268162935972214 -0.0014231973327696323 -0.051733922213315964
-0.17153748869895935 -0.33945831656455994 0.15378393232822418
0.5274973511695862 -0.00455278716981411 0.1279282420873642
0.020382406190037727 -0.36779868602752686 0.30375179648399353
-0.3580511510372162 0.2718975245952606 0.3482758700847626
-0.4455929398536682 -0.004925556946545839 -0.34162622690200806
-0.41236355900764465 0.003629201790317893 -0.252417653799057
0.2654520571231842 -0.3357824385166168 -0.3379657566547394
-0.346505731344223 -0.012940621934831142 0.1668822318315506
0.31264954805374146 0.2860105335712433 -0.41624292731285095
-0.5762959718704224 0.19747216999530792 -0.2509985566139221
0.4598272740840912 -0.14903084933757782 -0.06283155083656311
-0.10230392962694168 -0.001708141528069973 -0.23557186126708984
-0.571681559085846 0.31295400857925415 -0.4021507501602173
-0.11014682799577713 0.004888531751930714 -0.0411415658891201
0.29421254992485046 -0.3762678802013397 -0.24821364879608154
-0.24433206021785736 0.25974059104919434 -0.40140166878700256
0.0416298545897007 0.06971574574708939 0.458083838224411
0.5678565502166748 0.12941130995750427 0.22258064150810242
0.3137122690677643 -0.16104240715503693 0.25813934206962585
0.5664669871330261 0.38790085911750793 -0.39443129301071167
-0.310768723487854 0.361020565032959 -0.005673193372786045
-0.37688612937927246 0.011295062489807606 -0.38920196890830994
0.160767063498497 -0.12867310643196106 0.30669528245925903
0.05860140919685364 0.009127750061452389 0.45780032873153687
0.2967073619365692 -0.6257004141807556 -0.19205354154109955
0.12858863174915314 0.2909914255142212 0.3486815392971039
-0.37845543026924133 -0.0814681276679039 0.2182174026966095
-0.44932231307029724 0.0015043499879539013 0.3036468029022217
-0.20620550215244293 -0.18289755284786224 0.08811809867620468
0.21589742600917816 -0.35040172934532166 0.2836689352989197
0.25628742575645447 -0.16962562501430511 -0.32979732751846313
0.37215742468833923 -0.377638041973114 0.09671377390623093
0.4426090717315674 -0.11761003732681274 0.0529986135661602
0.3309028744697571 0.1869305819272995 0.3380745053291321
0.32705968618392944 0.002480592578649521 -0.047925833612680435
-0.27302807569503784 0.003867551451548934 0.263833612203598
0.26678046584129333 0.3998057544231415 0.26451411843299866
0.16879400610923767 -0.0008735312148928642 -0.03349785879254341
-0.267408549785614 0.14633531868457794 -0.3924216032028198
0.3061714768409729 0.4039822220802307 0.14276844263076782
-0.4088091552257538 0.15006312727928162 -0.4050411880016327
-0.2617866098880768 0.40130728483200073 -0.01369286049157381
-0.3656427562236786 0.005479433573782444 0.14795847237110138
-0.5707014203071594 0.034500621259212494 0.06106036528944969
-0.2381303757429123 0.3967176377773285 0.11271821707487106
0.13541266322135925 -0.01371838804334402 -0.3562099039554596
0.010423431172966957 0.3953847289085388 0.006530817598104477
-0.14877957105636597 -0.36397865414619446 -0.2475055456161499
0.5679442882537842 0.08499152958393097 -0.06459767371416092
-0.2772757411003113 0.19543926417827606 -0.3965875208377838
0.16931457817554474 0.46337783336639404 0.3763915002346039
0.03238550201058388 0.39076653122901917 0.32721784710884094
-0.212828129529953 0.224455788731575 -0.39956018328666687
0.5094437599182129 0.09840139746665955 -0.3982640206813812
-0.3500998914241791 0.202826589345932 -0.41516441106796265
0.17708221077919006 -0.003384282812476158 0.27985215187072754
-0.21576906740665436 -0.05424199998378754 0.12692196667194366
-0.5706375241279602 0.047505587339401245 0.10880564898252487
0.30994877219200134 -0.08981044590473175 0.3232933282852173
0.34191668033599854 -0.383251816034317 0.12807515263557434
-0.41577625274658203 -0.008389381691813469 0.22561535239219666
-0.2456250637769699 0.007282081991434097 -0.33436641097068787
0.23189908266067505 -0.001220523496158421 -0.06482547521591187
0.03034413419663906 -0.6138821840286255 -0.03227129951119423
-0.2573912441730499 0.303987979888916 -0.3985249698162079
-0.37279462814331055 0.00014742283383384347 0.30185019969940186
0.08895411342382431 -0.5070260763168335 -0.3255642056465149
-0.5092104077339172 -0.09509418159723282 0.12683294713497162
0.3446255624294281 -0.42745381593704224 -0.1936338245868683
-0.5534816980361938 0.005926984827965498 0.2857600450515747
0.286873996257782 0.4010317027568817 0.15347346663475037
0.2939838469028473 -0.44670695066452026 -0.2559690475463867
0.30852311849594116 -0.0022908933460712433 0.13028863072395325
-0.5774039626121521 0.3612106740474701 0.07685770839452744
0.22695842385292053 0.39636924862861633 0.4519195854663849
0.03360887989401817 0.238919198513031 0.4544157385826111
0.03474188223481178 0.38528895378112793 0.34066131711006165
0.060802802443504333 -0.6157551407814026 0.18658395111560822
-0.5443000197410583 -0.09549693763256073 -0.3539297878742218
-0.24082790315151215 0.004232581704854965 0.31272390484809875
0.5766019821166992 0.1718047559261322 0.09064182639122009
-0.21621905267238617 -0.0007218006066977978 -0.10505785793066025
0.20964208245277405 -0.6233093738555908 -0.2112884223461151
0.2610914409160614 -0.001983822323381901 0.15804529190063477
0.3456123173236847 -0.6619662642478943 0.08398978412151337
0.32706961035728455 0.28731298446655273 0.34663155674934387
0.16890323162078857 0.3986969292163849 0.32235226035118103
-0.08352335542440414 0.40083178877830505 -0.05496460199356079
0.40678226947784424 -0.33076000213623047 0.1615464687347412
-0.10267584025859833 -0.5790392756462097 0.1709982007741928
0.030169788748025894 0.08972647786140442 0.45545145869255066
-0.5762056708335876 0.2550255358219147 0.033889517188072205
0.18254131078720093 0.34554851055145264 0.34518080949783325
0.30731654167175293 -0.3968697488307953 0.18541549146175385
-0.03564801812171936 -0.617784321308136 -0.07363341748714447
-0.45472320914268494 0.026179486885666847 -0.40715059638023376
-0.1907905787229538 0.3953680694103241 0.3145933151245117
-0.32389020919799805 0.3943936824798584 0.08957134932279587
-0.21915602684020996 -0.00024373712949454784 0.23562020063400269
-0.024737445637583733 -0.4364522397518158 0.22528253495693207
0.469275563955307 0.38787928223609924 -0.3242390751838684
-0.49433034658432007 0.39133065938949585 -0.19817525148391724
-0.18028204143047333 -0.38093864917755127 -0.13031117618083954
-0.5866109728813171 0.240910142660141 -0.24623055756092072
0.31006866693496704 0.4403434991836548 0.3856423795223236
0.2712404429912567 0.3780193030834198 0.4517992436885834
-0.5920713543891907 0.12826400995254517 -0.353281170129776
-0.4272191524505615 -0.10656187683343887 -0.00940797757357359
0.00953107699751854 -0.18783816695213318 -0.350678950548172
0.44367536902427673 -0.36470460891723633 -0.007431940641254187
0.13561557233333588 0.40319815278053284 0.32461652159690857
-0.27919885516166687 0.3539927303791046 -0.07191140949726105
-0.28391411900520325 0.3410317301750183 -0.11343353986740112
-0.3788968324661255 0.05691313371062279 -0.2708991765975952
-0.08546178787946701 -0.0010884166695177555 0.31988561153411865
-0.17566587030887604 -0.6302788853645325 -0.08954783529043198
0.39922913908958435 0.3883681297302246 -0.4022601842880249
-0.19092993438243866 -0.335073322057724 0.16253039240837097
-0.20809490978717804 0.004370095208287239 -0.11111761629581451
-0.198205828666687 0.12452536821365356 0.34290409088134766
0.2823447585105896 -0.10338126122951508 -0.3281908333301544
0.45704513788223267 -0.0047149742022156715 -0.009090645238757133
-0.12705349922180176 -0.0038868056144565344 0.20177987217903137
-0.19223736226558685 -0.16531910002231598 0.14324916899204254
0.44230252504348755 0.00658370042219758 0.3386901915073395
-0.2694898843765259 -0.0007927501574158669 0.18250510096549988
-0.5654920935630798 0.02795097976922989 0.26540234684944153
-0.5464603304862976 0.2638678252696991 0.34417930245399475
0.5550245642662048 0.40535950660705566 0.3156835734844208
-0.5827422738075256 0.3092605471611023 0.01775166019797325
-0.2724677622318268 0.39326211810112 0.1681312769651413
0.5622629523277283 0.0012768900487571955 0.018972836434841156
-0.4244280159473419 0.10354012995958328 0.08351758867502213
-0.11480524390935898 -0.12249768525362015 0.21540655195713043
-0.26883465051651 0.0033121686428785324 -0.21895001828670502
0.149240180850029 -0.0574965737760067 0.3073538541793823
-0.23461666703224182 -0.04902659356594086 -0.06641501933336258
0.09225575625896454 0.39258676767349243 0.33299675583839417
-0.4373968839645386 0.3441416323184967 0.0398186519742012
-0.37335658073425293 -0.006509404629468918 -0.2312108725309372
-0.3009524345397949 -0.0012117214500904083 0.13402767479419708
-0.021675579249858856 -0.615605890750885 -0.11755136400461197
0.1904725879430771 0.03460010513663292 -0.3973919451236725
-0.563921332359314 0.137022465467453 -0.3840535879135132
0.44698232412338257 -0.13775797188282013 -0.0348845049738884
-0.0751943588256836 0.118071049451828 -0.3953826427459717
0.025355050340294838 0.1641874611377716 0.34859830141067505
0.12492701411247253 -0.002174412366002798 0.2741321921348572
-0.2084982842206955 0.32161766290664673 -0.3928113281726837
0.04986908286809921 -0.6255632042884827 -0.06751713156700134
-0.566512405872345 0.1123165637254715 -0.3945242166519165
0.3811596930027008 0.22852791845798492 0.352618545293808
0.202683225274086 -0.3856049180030823 0.2847491204738617
0.07235172390937805 -0.5289780497550964 -0.31364381313323975
-0.3676191568374634 0.37983769178390503 0.002260908018797636
-0.13414429128170013 0.3567034900188446 0.33677950501441956
0.5859848260879517 0.3309478759765625 -0.014542987570166588
-0.053135618567466736 0.3892672657966614 -0.38977929949760437
-0.5128265619277954 0.3965362310409546 0.04744936525821686
0.04851116985082626 -0.07546154409646988 0.4080977737903595
-0.4686580300331116 -0.0007660668343305588 0.1968778520822525
-0.3657916486263275 -0.0016958937048912048 -0.03914865478873253
0.4676845967769623 0.024232549592852592 -0.39782053232192993
-0.3817604184150696 0.06856867671012878 0.001898590475320816
0.08580604940652847 -0.6229130625724792 -0.17390669882297516
0.29553237557411194 0.3948565721511841 0.1934071183204651
0.09634904563426971 0.001694394275546074 -0.175587460398674
0.22074057161808014 -0.01762440614402294 0.2821977436542511
-0.18646833300590515 -0.0022671855986118317 0.0992966741323471
0.24965576827526093 -0.6270124316215515 -0.2709307372570038
0.4505631923675537 -0.1739652454853058 0.04415484145283699
-0.25847306847572327 0.10431443154811859 0.35238730907440186
-0.43583500385284424 0.10112091153860092 0.03252891078591347
-0.03174921125173569 -0.36680367588996887 -0.3060440123081207
-0.5107145309448242 0.38825950026512146 0.10621093958616257
-0.3821810185909271 0.05771400406956673 0.265757292509079
0.432693749666214 -0.0057425545528531075 -0.08115116506814957
0.02104894630610943 -0.1967737376689911 0.3031555414199829
-0.4415034055709839 0.00041992554906755686 -0.3674871325492859
0.5662463903427124 0.3613230884075165 0.3304730951786041
0.019416317343711853 -0.6186506152153015 0.08618920296430588
-0.3267931640148163 0.0006057228893041611 -0.09245500713586807
0.2480752170085907 -0.4028262495994568 -0.29405149817466736
0.3726285696029663 0.005096467211842537 0.3282848298549652
-0.5770940780639648 0.09183844178915024 -0.1624017208814621
0.02669818513095379 -0.004684758372604847 0.3468683958053589
-0.34795111417770386 -0.0007445402443408966 -0.015111158601939678
-0.22354473173618317 -0.3344115614891052 0.017917992547154427
0.36149856448173523 -0.46269598603248596 -0.14264371991157532
-0.009201565757393837 0.18061544001102448 -0.4189240336418152
-0.40855732560157776 -0.005644537042826414 -0.09625288844108582
0.18493729829788208 -0.6240769028663635 -0.09378960728645325
0.4052560031414032 -0.3848167061805725 -0.10462382435798645
0.4079749882221222 -0.2297569364309311 0.1487296223640442
-0.5720502734184265 0.00787804089486599 0.10620363801717758
0.14476266503334045 -0.6310462355613708 -0.299664169549942
0.3078673183917999 -0.5949118137359619 -0.2291121631860733
0.017032520845532417 -0.6145586967468262 -0.021790483966469765
0.20811450481414795 0.007864583283662796 0.3494405150413513
0.00673746457323432 -0.6453201174736023 -0.2740384340286255
0.37339192628860474 0.3942069411277771 0.22822116315364838
0.0442030169069767 -0.0287221260368824 0.44710585474967957
0.02001345157623291 -0.0010324949398636818 -0.012950357981026173
