0.32468971610069275 -0.08984760195016861 0.36684513092041016
-0.14773190021514893 0.3995468318462372 -0.06467252224683762
-0.4540625512599945 0.0028720025438815355 0.07716811448335648
0.4986683428287506 0.00328159611672163 -0.2589195966720581
-0.1468307077884674 -0.40920326113700867 -0.17521120607852936
-0.1521100103855133 0.4003634750843048 -0.004036250989884138
0.19221781194210052 0.3109849691390991 0.46979427337646484
0.25436675548553467 -0.43814629316329956 0.21776051819324493
0.14703881740570068 0.41359856724739075 0.3500571548938751
-0.18116185069084167 0.2327154129743576 -0.40319231152534485
-0.2273055464029312 0.00197009090334177 -0.0808701440691948
0.5694475769996643 0.3934875726699829 -0.0342910997569561
-0.14446379244327545 -0.3182483911514282 0.21820054948329926
0.5792686343193054 0.06964399665594101 0.1551586091518402
-0.5586167573928833 0.038324274122714996 0.048770174384117126
0.36824846267700195 -0.6283783316612244 -0.13876493275165558
0.3247719705104828 -0.02059224434196949 0.43024104833602905
-0.5779938101768494 0.21026533842086792 -0.014311467297375202
-0.15125885605812073 -0.6266844868659973 -0.03842804953455925
-0.5776929259300232 0.3564453125 0.29476839303970337
-0.3260496258735657 0.33497142791748047 0.3429211378097534
-0.40693873167037964 0.056178461760282516 -0.4015222191810608
-0.5758403539657593 0.22012116014957428 0.3369940221309662
0.2616012394428253 0.003769082948565483 -0.21296466886997223
0.17517733573913574 0.22260327637195587 0.342070609331131
0.03981136158108711 -0.07909568399190903 0.3170614242553711
-0.4200529456138611 0.4108705520629883 -0.13321712613105774
0.016208430752158165 -0.6174627542495728 0.18510699272155762
-0.5507134795188904 0.09092369675636292 0.343511164188385
0.5775994062423706 0.014185509644448757 0.0034024170599877834
0.1594562977552414 0.46470731496810913 0.3698204755783081
0.44425544142723083 0.20600531995296478 -0.4041346609592438
-0.46298933029174805 0.001625171396881342 0.35259169340133667
0.42702972888946533 -0.3712701201438904 0.02112535387277603
0.3796844482421875 -0.4657270908355713 0.041835736483335495
0.5821096301078796 0.3328145146369934 -0.1343774050474167
0.3635788857936859 0.40030696988105774 0.005509024485945702
-0.5841912627220154 0.2400052547454834 0.2969086468219757
-0.5871376395225525 0.22022508084774017 -0.2744179368019104
-0.1397828757762909 0.092831552028656 -0.40368184447288513
0.3600727617740631 -0.11519123613834381 0.1990218311548233
0.20645199716091156 0.4010310769081116 0.29298996925354004
0.5791371464729309 0.07732142508029938 -0.3115334212779999
0.1472415179014206 -0.4799013137817383 -0.31350240111351013
0.47855105996131897 0.006495713721960783 0.32480373978614807
-0.34360215067863464 0.4040406346321106 -0.01336018368601799
-0.29287880659103394 0.3997073471546173 0.22799961268901825
-0.5799112319946289 0.0052847107872366905 0.2599813640117645
0.13227364420890808 -0.3672853708267212 0.31351757049560547
-0.4717390835285187 0.11571435630321503 -0.0036124030593782663
-0.575910747051239 0.04239838570356369 0.3400082290172577
0.06374134123325348 0.0032147751189768314 0.04657822474837303
-0.5736666321754456 0.03992422670125961 0.3327835202217102
0.09608955681324005 -0.6186069250106812 0.0828174352645874
0.35238632559776306 0.39921480417251587 0.050077322870492935
-0.5268135070800781 0.3918769061565399 -0.393485963344574
0.17127560079097748 0.4016905128955841 0.2653537094593048
0.0507504977285862 0.002614059252664447 -0.2572895288467407
0.2761952877044678 0.3472849428653717 0.3439440429210663
0.014091908931732178 -0.6183030009269714 -0.023699739947915077
-0.043802883476018906 0.3854788839817047 0.3401721119880676
-0.4350060522556305 0.1094108521938324 0.05683556944131851
0.0023694306146353483 -0.620079517364502 -0.0777401402592659
0.26193201541900635 0.0038622161373496056 0.11587505787611008
0.04015617445111275 -0.5062637329101562 -0.307181179523468
-0.35689204931259155 -0.003574233502149582 -0.07410118728876114
-0.23785869777202606 0.36426204442977905 0.3421470820903778
0.14923395216464996 -0.6170335412025452 0.1358494758605957
0.3634951710700989 0.39884236454963684 -0.19743293523788452
-0.14061351120471954 -0.63498854637146 -0.17550799250602722
-0.10487939417362213 -8.362624794244766e-05 -0.20379765331745148
0.20724207162857056 0.4710691273212433 0.4037000238895416
0.41388407349586487 0.0006986213847994804 -0.023346491158008575
-0.24769309163093567 -0.16116991639137268 -0.015172066166996956
-0.30799558758735657 0.40848708152770996 -0.059820711612701416
-0.1011715978384018 0.17973564565181732 0.34779754281044006
-0.5830576419830322 0.2777996063232422 0.2877283990383148
0.41009244322776794 0.1094595193862915 -0.4039672017097473
-0.31298163533210754 0.40243810415267944 0.18107497692108154
-0.5404959917068481 0.09139984846115112 -0.23997357487678528
-0.31015443801879883 0.39588943123817444 -0.2915586233139038
0.2846986949443817 -0.25006192922592163 -0.3228103816509247
-0.40412914752960205 -0.08227518945932388 0.16377320885658264
-0.46174636483192444 0.05580080300569534 0.34868285059928894
0.3849655091762543 -0.06365244835615158 0.1735621690750122
-0.5073640942573547 -0.09582579135894775 0.33423617482185364
-0.44385188817977905 0.14337345957756042 -0.40031227469444275
0.14589785039424896 -0.34320688247680664 -0.3707405924797058
-0.4163844883441925 0.40043142437934875 -0.14125430583953857
0.0696113258600235 -0.41539666056632996 -0.31523215770721436
-0.35824036598205566 0.08582904934883118 -0.4015640318393707
0.5203512907028198 0.10252530127763748 0.33989033102989197
-0.43409621715545654 -0.10477244853973389 -0.15387308597564697
0.5768434405326843 0.09135497361421585 -0.32655832171440125
-0.43095862865448 0.399149090051651 -0.20025505125522614
-0.10122992843389511 -0.06615355610847473 0.2509431838989258
0.3373604714870453 -0.043647218495607376 0.3565532863140106
-0.06571211665868759 -0.47037234902381897 0.20720450580120087
0.27185341715812683 -0.38949844241142273 -0.2600176930427551
-0.22795994579792023 0.22568976879119873 0.34461158514022827
0.24568641185760498 -0.6507962346076965 0.17914409935474396
0.0727301836013794 -0.45357829332351685 -0.31463009119033813
0.03023052029311657 -0.620258629322052 -0.1202927678823471
0.26233217120170593 -0.3795245587825775 0.22797146439552307
-0.4704129099845886 0.4055512547492981 -0.1182694137096405
-0.2821896970272064 0.0014397692866623402 -0.3167993724346161
0.4473347067832947 -0.24878743290901184 -0.030427223071455956
-0.5744380950927734 0.034112609922885895 -0.25605058670043945
-0.3174994885921478 0.353823184967041 -0.4036140739917755
-0.09145113080739975 -0.002649102360010147 -0.21868477761745453
-0.21114042401313782 -0.05597005784511566 0.1116618886590004
0.1530284881591797 0.002094380557537079 -0.2887813448905945
0.11963485181331635 0.40067118406295776 -0.009051678702235222
-0.517210066318512 0.029088754206895828 -0.40180569887161255
0.3086741268634796 0.004199774470180273 0.12761838734149933
0.3743125796318054 0.002719438634812832 0.14869120717048645
-0.3989638388156891 0.36502259969711304 -0.19908103346824646
0.12544095516204834 -0.013665598817169666 0.3176147937774658
0.2832225263118744 0.3997761905193329 0.11829448491334915
0.0971980020403862 0.002419569529592991 0.2352021336555481
-0.3910130560398102 0.0017523495480418205 -0.039501775056123734
0.15494279563426971 -0.12774500250816345 -0.3679821491241455
0.31449127197265625 0.4291979670524597 0.4447419345378876
0.15014183521270752 0.25670555233955383 0.468767374753952
-0.30468112230300903 0.3976905345916748 0.0218605175614357
-0.14087334275245667 -0.6163791418075562 0.1195831224322319
-0.17923545837402344 -0.07426834106445312 0.16472724080085754
0.29787692427635193 0.004448576830327511 0.13353364169597626
-0.22816535830497742 0.1883721798658371 -0.4021624028682709
0.2696561813354492 -0.18760621547698975 -0.330606609582901
0.37145134806632996 0.005310390144586563 0.30278846621513367
-0.05546979233622551 0.39849182963371277 0.29022327065467834
0.1490144282579422 0.40057894587516785 0.14685896039009094
0.3145560026168823 0.13799040019512177 0.461384117603302
0.16387079656124115 -0.6192669868469238 -0.1516789048910141
-0.07856599241495132 0.3985278606414795 0.2887759506702423
-0.32772502303123474 0.08431713283061981 0.34317129850387573
0.11432573944330215 0.0031649810262024403 0.10156087577342987
0.5242347717285156 0.0006260387599468231 -0.15543831884860992
-0.08037500083446503 -0.5505416989326477 -0.2539457380771637
0.24123401939868927 -0.6205501556396484 -0.12236207723617554
-0.18686389923095703 -0.43794605135917664 -0.05567987263202667
0.16319455206394196 0.39932581782341003 0.13406646251678467
0.28069207072257996 0.00310616847127676 -0.011844152584671974
-0.3915177285671234 0.18553082644939423 0.3441270887851715
-0.5192995667457581 0.4006603956222534 0.29696282744407654
-0.1801173985004425 -0.5814331769943237 -0.09213925898075104
-0.24053868651390076 0.12109744548797607 0.34372639656066895
-0.35462313890457153 0.0029511703178286552 0.004379210062325001
0.3897172808647156 -0.4431556761264801 0.00024893973022699356
-0.3714922070503235 0.004475584253668785 -0.2858903706073761
0.5793123245239258 0.10081116110086441 0.1512850672006607
-0.11509688198566437 0.0024590985849499702 -0.24422048032283783
0.044395215809345245 0.0024404036812484264 -0.039522405713796616
-0.4111238718032837 0.3951318860054016 0.08748574554920197
-0.5566738843917847 -0.07307053357362747 0.23783709108829498
0.14451313018798828 0.29101160168647766 -0.40362831950187683
-0.5777574181556702 0.2585505247116089 -0.36141836643218994
0.31617143750190735 2.436339855194092e-06 0.3301091492176056
0.06859710812568665 -0.5629305243492126 0.26004570722579956
0.21185718476772308 -0.6215087175369263 -0.1685815453529358
-0.1283601075410843 -0.012813394889235497 0.2176734060049057
-0.15305987000465393 0.06635702401399612 -0.39960357546806335
0.12294823676347733 0.0017785411328077316 0.03286498785018921
-0.5822884440422058 0.2943803071975708 -0.36996743083000183
0.38832545280456543 0.003448106348514557 -0.12348129600286484
0.10400158166885376 0.4024266302585602 -0.2896497845649719
-0.5508221983909607 0.005404282361268997 0.12987329065799713
0.19172877073287964 0.29111412167549133 0.34305599331855774
0.28356635570526123 0.02905889041721821 -0.40227505564689636
-0.29686930775642395 0.4021168649196625 0.25279074907302856
0.11795200407505035 0.05340499058365822 0.4676636755466461
-0.23948067426681519 -0.051277559250593185 -0.01584399864077568
0.001374051091261208 -0.5748395919799805 -0.3005712628364563
-0.4828294813632965 0.11212588846683502 -0.049861207604408264
0.3041946589946747 0.00257004052400589 0.22513717412948608
-0.21390752494335175 0.40179839730262756 -0.21957546472549438
0.1435743272304535 0.04252669960260391 0.3444962203502655
-0.14323309063911438 -0.4764474630355835 -0.17761361598968506
-0.4255152940750122 -0.10366860777139664 0.3265199661254883
0.2942577004432678 -0.5438151359558105 -0.24638473987579346
0.007215598132461309 0.06940461695194244 -0.40290793776512146
0.24418163299560547 -0.4651925563812256 -0.2797865569591522
-0.05964555963873863 0.0019630859605968 -0.18391281366348267
0.3045061230659485 0.00021417782409116626 -0.26624059677124023
-0.3657977879047394 0.052002280950546265 0.31929653882980347
0.2568410038948059 0.4009154736995697 -0.1523265391588211
0.139968141913414 0.2826005816459656 -0.4050213098526001
-0.5822669267654419 0.016921985894441605 0.004405181854963303
0.5580341219902039 0.05875735729932785 0.33798548579216003
0.21652370691299438 -0.6197910308837891 -0.15398730337619781
-0.5800137519836426 0.2961222231388092 0.20042508840560913
0.005527154076844454 0.25954240560531616 -0.4031679630279541
-0.5634392499923706 -0.06171852722764015 -0.2196931540966034
0.02216893993318081 0.0028554610908031464 0.26151278614997864
0.3617931604385376 -0.6355931162834167 -0.1550968885421753
0.03699096292257309 0.0017237747088074684 -0.0873885378241539
0.20156735181808472 -0.038688868284225464 0.4626102149486542
0.5777954459190369 0.3697797954082489 0.31046077609062195
0.3446725904941559 0.39946308732032776 0.2049957662820816
-0.496719628572464 0.0022213850170373917 0.02361137419939041
-0.21714551746845245 -0.06521302461624146 -0.16503503918647766
0.5679869055747986 0.010979786515235901 0.1304129809141159
-0.42402467131614685 -0.10292111337184906 -0.17506004869937897
0.4438539445400238 0.05607550963759422 0.3438890874385834
-0.23777247965335846 0.0011400808580219746 -0.28184396028518677
-0.22970625758171082 -0.3010725975036621 -0.12939658761024475
-0.3563324213027954 0.003215119242668152 -0.13145342469215393
-0.5797904133796692 0.10755245387554169 0.15851567685604095
0.461259126663208 0.39917269349098206 -0.05661436915397644
0.11316049844026566 -0.4189853072166443 0.2625594437122345
0.5770561099052429 0.16987521946430206 -0.2824530303478241
-0.3568319082260132 0.0036201667971909046 0.03623421862721443
-0.014137251302599907 0.004044038243591785 0.2209388166666031
0.4934667944908142 0.0013201646506786346 0.2782788872718811
-0.001242424943484366 0.0032185791060328484 0.044327206909656525
-0.24397602677345276 -0.09200382977724075 -0.05751257762312889
0.05921447277069092 -0.42892542481422424 -0.313996821641922
0.1948377639055252 0.40073198080062866 -0.1143646314740181
-0.5812209248542786 0.08795779943466187 -0.2536368668079376
0.1949470341205597 0.002941681072115898 0.0896688923239708
-0.1651526540517807 -0.18132314085960388 0.1917162835597992
-0.22935491800308228 0.000511523277964443 0.1368994414806366
-0.29173967242240906 0.35811254382133484 -0.08214815706014633
0.027614127844572067 -0.008556513115763664 0.4512284994125366
-0.38240116834640503 -0.061990413814783096 -0.2866056263446808
0.13395793735980988 0.0025515402667224407 -0.19677972793579102
0.5033544898033142 0.002432237844914198 -0.13833926618099213
-0.23918317258358002 -0.0015246318653225899 -9.494321420788765e-05
-0.4288014769554138 -0.09548704326152802 0.3127647042274475
-0.4777417778968811 0.10313507914543152 0.07748144865036011
-0.10159441828727722 0.39877814054489136 0.17011745274066925
-0.5722647309303284 0.3545539081096649 0.3211619555950165
0.5787854790687561 0.13253086805343628 0.18622690439224243
0.1817253679037094 -0.6194943785667419 0.009407389909029007
-0.5803608298301697 0.019052749499678612 -0.0630536749958992
0.3056601583957672 0.006886443123221397 0.33043938875198364
-0.14690086245536804 -0.12303785979747772 0.20885910093784332
-0.2832048833370209 0.011401733383536339 -0.39847666025161743
0.23787175118923187 -0.6230964660644531 -0.08719077706336975
-0.5734251737594604 0.1879548281431198 -0.39638975262641907
-0.464438259601593 0.04752809926867485 -0.4060989320278168
0.029445091262459755 0.001945451833307743 0.11860335618257523
0.4107680320739746 0.0018154181307181716 -0.30553093552589417
0.01253580767661333 -0.6309219002723694 0.24196021258831024
0.06178947165608406 0.0026957509107887745 -0.2429242879152298
0.07161121815443039 0.43592092394828796 0.4311349093914032
0.3575085997581482 0.001964583992958069 0.2523897588253021
-0.1766476035118103 -0.43285995721817017 0.03840351477265358
-0.18579156696796417 -0.2860438823699951 0.16132192313671112
-0.35483232140541077 0.008373650722205639 -0.1402144581079483
0.3735577166080475 0.40130236744880676 0.11289092153310776
-0.38595473766326904 -0.07254014164209366 0.21697212755680084
0.16763809323310852 -0.6169599890708923 -0.021167125552892685
0.22227609157562256 0.33326756954193115 -0.40266531705856323
-0.3911120593547821 0.05977500602602959 -0.3119838237762451
-0.11701907962560654 0.40052923560142517 -0.060741130262613297
0.29665231704711914 0.0036751762963831425 -0.2106681764125824
0.20247270166873932 0.3988279700279236 -0.06204090639948845
-0.2070939987897873 0.00043715164065361023 0.0561283715069294
0.34795233607292175 -0.0500236414372921 -0.26130303740501404
-0.37516146898269653 -0.06111149862408638 -0.2130158692598343
0.27870112657546997 -0.6151315569877625 0.11081627011299133
-0.5741625428199768 0.004917708225548267 -0.07822724431753159
-0.24867276847362518 0.0007098820060491562 -0.12184568494558334
0.3683270812034607 0.39668911695480347 0.2876405417919159
-0.1209120973944664 0.0026954729110002518 -0.20429503917694092
0.1307055503129959 -0.06586740911006927 0.45619431138038635
-0.22568069398403168 0.40232881903648376 0.11062977463006973
-0.15436357259750366 -0.3149386942386627 -0.26570647954940796
-0.5788533687591553 0.03907426819205284 -0.017942605540156364
0.13575127720832825 0.36951708793640137 0.34200534224510193
-0.2961190640926361 0.04474722594022751 -0.4018068313598633
0.3860771656036377 -0.5773374438285828 -0.0776078999042511
0.26611554622650146 -0.19639849662780762 0.27595025300979614
0.012695018202066422 -0.38222116231918335 0.25089946389198303
0.5827603936195374 0.14614123106002808 0.2626532018184662
0.12776318192481995 -0.011925386264920235 0.4675946533679962
0.47455763816833496 0.0012874407693743706 -0.3541966378688812
-0.2777690589427948 0.0022141309455037117 -0.24412278831005096
0.5355846285820007 0.22956284880638123 0.34649837017059326
-0.07807321846485138 -0.41461190581321716 0.20021674036979675
-0.5004454255104065 0.39915135502815247 0.25123903155326843
0.32397642731666565 0.29011526703834534 0.4292449355125427
0.579167366027832 0.30939558148384094 0.005356150679290295
-0.5694947242736816 0.3576151728630066 -0.3818933963775635
-0.16421012580394745 -0.38255950808525085 -0.1619618684053421
0.3741726279258728 -0.13306738436222076 0.18538637459278107
-0.21898601949214935 -0.03796425834298134 0.0816073939204216
0.5700653791427612 0.002108214423060417 -0.14542533457279205
0.29117780923843384 0.3997032046318054 0.1467515230178833
0.5798694491386414 0.17325043678283691 0.018935896456241608
0.05814480036497116 -0.6195361614227295 -0.017494557425379753
0.4990725815296173 0.012369551695883274 -0.39924710988998413
-0.13448110222816467 0.40213102102279663 -0.1694830060005188
-0.07843119651079178 -0.5768501162528992 -0.25383031368255615
-0.2302190214395523 -0.001371992751955986 -0.029469214379787445
-0.5766398310661316 0.0511503592133522 0.04656799137592316
0.001517437631264329 -0.6191763877868652 -0.16252148151397705
0.0909857451915741 0.40180549025535583 -0.022076604887843132
-0.5924359560012817 0.33262068033218384 0.08438181132078171
0.5776522755622864 0.1182321086525917 0.24091306328773499
-0.40867477655410767 0.004355401732027531 0.2774888873100281
0.3540051579475403 0.0039648511447012424 0.09534875303506851
0.17094267904758453 0.002959182485938072 0.17209358513355255
-0.2168010175228119 0.000855589285492897 0.06030961498618126
0.11149339377880096 0.2631734013557434 -0.4025808572769165
-0.3768710494041443 0.025446904823184013 -0.1773321032524109
0.10470236837863922 0.399819940328598 0.3412562310695648
0.2658287286758423 0.4633544981479645 0.4314662516117096
0.3224499225616455 0.3975440561771393 0.3417249023914337
-0.5613654851913452 -0.06387294083833694 -0.1611568033695221
0.04978504776954651 -0.0707785114645958 0.3448737561702728
0.11315042525529861 -0.32223522663116455 0.3113921582698822
-0.584762454032898 0.2836039662361145 -0.2652290463447571
0.4565657675266266 0.2690173089504242 0.34496378898620605
0.5784458518028259 0.26193445920944214 -0.018847033381462097
-0.549730658531189 0.37372416257858276 -0.3991107642650604
-0.16858696937561035 -0.3167152404785156 -0.2449398934841156
-0.08303233236074448 -0.000376884825527668 -0.1789601445198059
-0.027957996353507042 0.0024351077154278755 -0.06971272081136703
0.19118008017539978 0.0009639505296945572 -0.04405426234006882
-0.5728234648704529 0.3228002190589905 0.339286744594574
-0.05765780434012413 -0.31158044934272766 0.28049442172050476
-0.0019584428519010544 -0.6055670976638794 0.24196165800094604
0.13603579998016357 0.0030324398539960384 -0.05001157149672508
-0.5753135681152344 -0.02702481672167778 0.3095320761203766
-0.5093327164649963 0.006954219192266464 0.24334648251533508
-0.5174615383148193 0.10541745275259018 -0.13657674193382263
-0.14564669132232666 0.002004872541874647 -0.2542242407798767
0.5778743624687195 0.26641646027565 -0.39004868268966675
0.15913137793540955 -0.6012448072433472 -0.30627545714378357
0.1629449725151062 -0.6284422278404236 0.20688354969024658
-0.16069339215755463 0.005018113646656275 0.28458932042121887
-0.232744961977005 0.0014389697462320328 0.2504059076309204
0.31967151165008545 -0.6211036443710327 -0.05059095844626427
0.10543542355298996 0.2762320339679718 0.344001442193985
0.1038724035024643 -0.6200167536735535 -0.19480229914188385
0.3147587776184082 -0.5782331228256226 0.16495563089847565
0.09267355501651764 -0.6211937665939331 -0.14795105159282684
0.36974743008613586 -0.1320658177137375 -0.24471735954284668
0.20180697739124298 0.03187255188822746 0.34191617369651794
0.0021444899030029774 0.0016597174108028412 0.2800355851650238
0.4264436364173889 0.3596140146255493 -0.4036239981651306
-0.008476022630929947 0.40117207169532776 -0.054916445165872574
-0.1479332000017166 -0.4123530387878418 -0.17443515360355377
-0.019373314455151558 -0.647538959980011 -0.2731427848339081
0.40840432047843933 -0.00733495969325304 -0.17604608833789825
0.5662220120429993 0.007959708571434021 0.2590298354625702
0.07611106336116791 0.0034371642395853996 -0.3407632112503052
-0.08669079840183258 0.003184299450367689 -0.1298026144504547
0.5809504389762878 0.05174477398395538 -0.19705374538898468
0.25718235969543457 0.21110615134239197 0.4683091938495636
0.06437887996435165 -0.6193949580192566 -0.046562716364860535
-0.2850218713283539 0.39020055532455444 -0.050792843103408813
-0.039032019674777985 -0.6227042078971863 -0.018820643424987793
0.0012385235168039799 0.25109440088272095 0.3802008628845215
0.43251892924308777 0.4008718430995941 0.18853101134300232
-0.4948328137397766 0.40113118290901184 0.23177705705165863
0.27563750743865967 -0.6170715689659119 -0.04237346723675728
0.3109346628189087 0.39781060814857483 0.4521051347255707
0.27870655059814453 -0.25124576687812805 -0.3291906416416168
0.5272315740585327 0.11076844483613968 0.3403072655200958
-0.16837242245674133 -0.11742975562810898 0.1881570965051651
-0.3156714141368866 0.004500249400734901 0.3057446777820587
0.15142299234867096 -0.39076346158981323 0.2595057785511017
-0.31432420015335083 0.0031188828870654106 -0.1233450248837471
0.2129194289445877 0.40057966113090515 0.05590183287858963
0.33595097064971924 -0.31654849648475647 0.2268752008676529
0.18560823798179626 -0.6233291625976562 -0.12118448317050934
-0.4573732614517212 0.0037169274874031544 -0.045169685035943985
0.29800793528556824 -0.023634934797883034 0.4617979824542999
0.25680604577064514 0.0029701292514801025 -0.29818257689476013
-0.33928391337394714 0.37371116876602173 -0.17782598733901978
0.1999213993549347 -0.11996137350797653 -0.35807353258132935
-0.4235285520553589 -0.089394211769104 0.3333977460861206
0.1975575089454651 -0.40851545333862305 0.23900960385799408
0.5776801109313965 0.04111235588788986 0.021268656477332115
-0.38470298051834106 -0.07639427483081818 0.1173248216509819
0.15571440756320953 -0.03707024082541466 -0.3676135540008545
-0.5092468857765198 0.034994252026081085 0.3505112826824188
0.07816750556230545 0.46055370569229126 0.3834122121334076
-0.09990021586418152 -0.309707373380661 -0.30508649349212646
-0.3778669238090515 0.023302365094423294 -0.38395193219184875
0.5394325256347656 0.3950846493244171 0.3084771931171417
0.5084344744682312 0.002210717648267746 0.05144444480538368
0.17368128895759583 -0.033418625593185425 -0.36552920937538147
0.5797581076622009 0.21305210888385773 0.13972657918930054
0.4512946903705597 -0.02274620532989502 -0.03248662129044533
-0.41433414816856384 0.4014952480792999 -0.38421761989593506
0.5166280269622803 0.4017511010169983 -0.21714891493320465
0.21313659846782684 0.18602338433265686 0.34248894453048706
-0.33322104811668396 0.08167031407356262 0.3439940810203552
-0.026816723868250847 -0.3051542341709137 -0.35107579827308655
0.06374507397413254 0.0036548320204019547 0.15512822568416595
-0.13426901400089264 0.0030838102102279663 0.006275509484112263
0.015918314456939697 -0.62184739112854 -0.13336950540542603
0.385699987411499 0.22389757633209229 -0.4026746451854706
0.12028815597295761 -0.6497814059257507 -0.30201423168182373
0.4832918643951416 0.23738741874694824 -0.3986078202724457
0.2426825612783432 -0.494157999753952 0.2204134315252304
0.27391451597213745 -0.371292382478714 -0.30454111099243164
-0.4744315445423126 -0.10941768437623978 -0.34396377205848694
-0.5515598058700562 0.07512917369604111 -0.2330876886844635
-0.00845848023891449 -0.6183533072471619 0.11703317612409592
0.32093483209609985 0.4014118015766144 -0.1142641007900238
0.35423630475997925 -0.05653738975524902 -0.26295480132102966
-0.14762559533119202 0.3639633059501648 0.3447020649909973
-0.21449264883995056 -0.13635221123695374 0.11316081881523132
-0.198210209608078 -0.379391074180603 0.07543601095676422
0.25219637155532837 -0.015296582132577896 0.287614107131958
-0.5244261622428894 0.3968341648578644 -0.033907338976860046
0.44903764128685 -0.24916265904903412 -0.02740751951932907
-0.5139960646629333 0.11018747836351395 0.34800583124160767
0.2576538324356079 -0.26526573300361633 -0.3365614116191864
0.4387415945529938 -0.19093947112560272 -0.10790503770112991
0.26816463470458984 -0.4356618821620941 0.2100837677717209
-0.0011247722432017326 -0.0418117381632328 -0.35571524500846863
-0.3956524431705475 0.3543016314506531 0.04602117836475372
0.06905072182416916 -0.44451865553855896 -0.31408923864364624
-0.06312176585197449 -0.051957715302705765 0.2728915512561798
-0.5655046105384827 0.09128659963607788 0.1742042601108551
0.27771395444869995 -0.029889117926359177 0.32281142473220825
-0.4508010447025299 0.020254146307706833 0.3541577458381653
0.4345272481441498 0.0011220863088965416 -0.21124346554279327
0.2776229977607727 -0.34429818391799927 -0.31715521216392517
0.5092729330062866 0.3552832305431366 -0.4059399962425232
-0.5604766011238098 0.11539625376462936 0.3417831063270569
-0.5752701163291931 0.29260632395744324 0.33904018998146057
0.19843250513076782 -0.05998283997178078 0.31474512815475464
0.19788283109664917 0.0029517309740185738 0.08270227164030075
0.38841870427131653 -0.5173271894454956 -0.06807427108287811
-0.4808903932571411 -0.005898565985262394 -0.3968866169452667
0.5790280699729919 0.0713992640376091 0.278579443693161
0.5801433324813843 0.22675935924053192 0.22309432923793793
-0.5646527409553528 0.3687276840209961 -0.0032432875595986843
0.5161248445510864 0.39869454503059387 0.1709066480398178
0.29941555857658386 -0.40197211503982544 -0.24175786972045898
-0.2323334515094757 -0.15256227552890778 0.034520406275987625
-0.2952831983566284 0.3672229051589966 -0.049080416560173035
0.11050163209438324 -0.33084043860435486 -0.3748411238193512
-0.14779002964496613 -0.43359509110450745 -0.1734650433063507
0.5732913017272949 0.05487198010087013 0.32966873049736023
-0.5288252830505371 0.14371056854724884 -0.40158113837242126
0.24124881625175476 0.4530639052391052 0.4450642168521881
0.389509379863739 -0.4322475790977478 -0.06456924229860306
-0.35164856910705566 0.3854793310165405 0.3405379056930542
0.1918707638978958 0.10142824053764343 -0.4024195075035095
0.14860843122005463 -0.36966586112976074 0.2953401207923889
0.1533271223306656 0.4001978635787964 0.2762417793273926
-0.4240933358669281 0.09703174978494644 0.05853841081261635
0.3454909026622772 0.32698795199394226 -0.4035227596759796
0.37871018052101135 -0.5433363318443298 -0.1175793707370758
0.5808292031288147 0.2473635971546173 0.07737898081541061
-0.3913176655769348 0.20371977984905243 -0.4063805341720581
0.017988290637731552 0.4001346528530121 -0.34411540627479553
0.5714335441589355 0.39636632800102234 0.09482327848672867
0.26695409417152405 0.0024973927065730095 -0.281425416469574
-0.5892345309257507 0.3154467046260834 -0.36365562677383423
0.05275722220540047 0.4024795889854431 -0.2741294503211975
0.5799229741096497 0.24905772507190704 0.159540593624115
0.49146610498428345 0.01096323411911726 -0.39781978726387024
-0.1935560703277588 0.0007984261028468609 0.10193268209695816
-0.0602232962846756 -0.5920580625534058 -0.26573842763900757
-0.23249928653240204 -0.3217935860157013 -0.14493654668331146
0.30362561345100403 0.004006539471447468 -0.1958240121603012
-0.028329923748970032 -0.6209917664527893 0.22379013895988464
-0.5862577557563782 0.29426032304763794 -0.2115030735731125
-0.09385138005018234 0.2135404646396637 0.40343666076660156
0.5791839957237244 0.2423582822084427 0.24422088265419006
-0.16439589858055115 0.32949650287628174 0.3467879295349121
-0.37469571828842163 0.12657523155212402 0.3432697355747223
0.44864368438720703 0.4021519422531128 0.26467275619506836
0.11267601698637009 0.07150338590145111 0.3448692262172699
0.09888816624879837 0.00266995164565742 -0.010587240569293499
0.5782849788665771 0.14506255090236664 0.22314080595970154
0.3955155313014984 -0.0003848401829600334 -0.3005935549736023
0.19902928173542023 -0.0015641313511878252 0.3047064244747162
0.5644073486328125 0.03543293476104736 -0.3939111828804016
-0.4639115035533905 -0.0011629760265350342 0.020618416368961334
0.049195002764463425 0.1626124233007431 0.3466423451900482
-0.5808385610580444 0.04116294905543327 -0.20083066821098328
0.176909402012825 -0.622822642326355 -0.11700721830129623
-0.47010087966918945 0.3191194534301758 0.34316641092300415
-0.3398887515068054 0.3819032907485962 0.00025917711900547147
-0.025256196036934853 0.40109309554100037 0.17063075304031372
-0.18484707176685333 -0.4820336401462555 -0.0132543183863163
0.3144662380218506 -0.00074007548391819 -0.2889438569545746
-0.24156299233436584 0.39914998412132263 -0.19707831740379333
-0.044146761298179626 0.398820161819458 0.23799119889736176
-0.3666488230228424 -0.030980996787548065 0.01723705232143402
-0.022555727511644363 0.4003092646598816 -0.015108862891793251
0.44419822096824646 -0.2612769901752472 0.029689714312553406
0.4408194422721863 0.2530667781829834 0.34374478459358215
0.13077153265476227 0.0028953924775123596 -0.17966385185718536
-0.03757047653198242 0.0028212685137987137 0.23289908468723297
0.21656735241413116 0.4005899131298065 0.23015086352825165
0.3509089946746826 -0.11151747405529022 -0.27390462160110474
0.5794468522071838 0.07093539088964462 0.13776426017284393
0.3900197148323059 -0.0018809124594554305 -0.177056685090065
0.34110715985298157 -0.13202950358390808 -0.2839352786540985
-0.4680100381374359 -0.102273128926754 -0.025152966380119324
0.4448123276233673 -0.08482826501131058 -0.06814875453710556
0.2826017141342163 0.0016030538827180862 0.2595750689506531
0.4410703480243683 -0.2860416769981384 -0.10728826373815536
-0.09800368547439575 0.24682572484016418 -0.40339624881744385
0.4776224195957184 0.24694587290287018 -0.4038390517234802
0.3653631806373596 -0.5912283658981323 0.08204042166471481
0.31710755825042725 -0.37548938393592834 0.1860349178314209
-0.4809756875038147 0.3987714648246765 0.20029588043689728
-0.5798169374465942 0.06431899219751358 0.03223864361643791
0.32987886667251587 -0.3850785195827484 0.1469750553369522
0.542921781539917 0.21725736558437347 0.3429952561855316
-0.06378453224897385 0.40065062046051025 0.17116467654705048
-0.4161420464515686 0.005868429318070412 -0.40076518058776855
-0.26021134853363037 0.40128904581069946 0.24047504365444183
0.055449310690164566 0.08731850981712341 0.4642842710018158
0.21248191595077515 0.40144073963165283 -0.3119891583919525
-0.4218599498271942 -0.0916861817240715 -0.3937557637691498
0.580845296382904 0.07545101642608643 0.11898228526115417
0.1367504745721817 0.07400541752576828 -0.4038006067276001
-0.49727609753608704 0.09380321949720383 0.14344336092472076
-0.39620110392570496 -0.07612046599388123 0.07848089933395386
-0.3293813467025757 0.3973439931869507 -0.16830556094646454
-0.576164186000824 0.12219341844320297 0.0816054716706276
-0.42164888978004456 0.08447746932506561 0.23512519896030426
0.13837239146232605 0.003193951677531004 0.027899138629436493
0.2916184961795807 -0.15675705671310425 0.263825386762619
0.5646039843559265 -0.00021261069923639297 0.0435890331864357
0.3723554015159607 0.40207773447036743 -0.3587521016597748
0.2532191574573517 0.468562513589859 0.39737892150878906
0.1737212985754013 -0.6199091672897339 -0.19997335970401764
-0.3266882002353668 0.003234521485865116 0.026488352566957474
-0.49279892444610596 -0.10831974446773529 0.233749657869339
0.4450925290584564 -0.12545648217201233 -0.058088310062885284
0.5766915082931519 0.07318377494812012 -0.22178548574447632
-0.5468477010726929 0.38900864124298096 0.15327990055084229
-0.3742372989654541 -0.06050761416554451 -0.3084365725517273
0.291585236787796 -0.6176217198371887 0.12778057157993317
0.4566796123981476 0.12135715037584305 -0.40214699506759644
0.1198049932718277 0.08027490973472595 0.3453139662742615
0.010908269323408604 0.40102386474609375 0.03932049870491028
-0.15103764832019806 -0.6446223855018616 0.003488553687930107
0.12510764598846436 -0.6226961612701416 0.16183671355247498
-0.35307592153549194 0.0008564008167013526 -0.12049473822116852
0.111014224588871 0.40170058608055115 0.20315933227539062
0.29655447602272034 0.3990026116371155 -0.28779977560043335
-0.39782819151878357 0.03922966867685318 0.3445398807525635
-0.04878246411681175 0.002460405696183443 -0.11934887617826462
-0.09897038340568542 0.4002903997898102 0.15775121748447418
0.576854407787323 0.30382218956947327 -0.14220589399337769
-0.585483729839325 0.1400132030248642 0.3070042133331299
0.2895739674568176 -0.25982457399368286 -0.31855013966560364
-0.03597741574048996 -0.6171869039535522 -0.1960023194551468
0.22305740416049957 -0.5000863075256348 -0.29095205664634705
0.05717989429831505 -0.6402201652526855 -0.2825344502925873
0.12814386188983917 -3.6504119634628296e-05 -0.29063957929611206
0.25977879762649536 -0.39629054069519043 0.20785120129585266
-0.13211825489997864 -0.05019393190741539 -0.280140221118927
-0.3854752480983734 0.07822242379188538 0.19867382943630219
0.048017844557762146 0.39978456497192383 -0.17647871375083923
0.06013017147779465 0.0035065212287008762 -0.3408564031124115
0.23587734997272491 -0.056199874728918076 -0.3455878496170044
-0.419393390417099 0.057860881090164185 0.3427944779396057
0.06263183057308197 0.3151397705078125 0.4641026556491852
0.3673110604286194 -0.30782464146614075 0.20037928223609924
0.5830734372138977 0.13326293230056763 0.02526361681520939
0.2394716888666153 -0.19503188133239746 0.2892228364944458
-0.22520805895328522 -0.3716992139816284 -0.08308014273643494
0.12950100004673004 0.40070635080337524 0.22011074423789978
0.19301801919937134 0.010684301145374775 0.33641791343688965
-0.24322544038295746 0.3788081109523773 0.3412599265575409
-0.14398300647735596 -0.6291466355323792 0.025379061698913574
-0.37958720326423645 0.34261080622673035 0.03930782899260521
-0.34886476397514343 0.22494685649871826 0.3441876769065857
-0.5824239253997803 0.018274391070008278 -0.272742360830307
-0.3461602032184601 0.005294399335980415 0.25312474370002747
-0.48018258810043335 0.369841992855072 -0.012827281840145588
-0.015451272018253803 -0.6275505423545837 -0.2369806468486786
0.11043436825275421 -0.008168850094079971 0.31732386350631714
-0.003583060810342431 -0.6186208724975586 0.07292914390563965
-0.5301032066345215 0.3937290608882904 -0.013182753697037697
0.09091649949550629 -0.2853582501411438 0.31384149193763733
-0.28516337275505066 0.400696724653244 -0.23516924679279327
0.31871306896209717 0.41329634189605713 0.4481317400932312
0.4888647496700287 0.0024655803572386503 -0.12078234553337097
-0.453886479139328 0.003503657877445221 0.2857361137866974
-0.18545688688755035 -0.37657415866851807 -0.14785772562026978
-0.2357834279537201 -0.16213251650333405 0.03322969004511833
0.057815805077552795 0.14967302978038788 0.4597623348236084
0.5719916224479675 0.19527335464954376 -0.3949224352836609
0.3701412081718445 -0.37353217601776123 -0.2145252525806427
-0.5797451734542847 0.009930318221449852 -0.24093745648860931
0.1312420815229416 0.2535308599472046 0.34352928400039673
-0.5369288325309753 -0.0916430652141571 -0.12640945613384247
0.15608547627925873 0.11055616289377213 0.46699070930480957
-0.3722618818283081 0.39920416474342346 -0.3459866940975189
0.18319885432720184 0.0027702143415808678 -0.2966420352458954
0.3640683889389038 -0.40858030319213867 -0.1450963169336319
0.5073675513267517 0.39940345287323 0.07610028982162476
0.3041953444480896 0.37495386600494385 0.34384140372276306
0.5773202776908875 0.022066660225391388 0.09234769642353058
-0.3505115509033203 0.28182119131088257 -0.40409529209136963
0.5783998966217041 0.10220620036125183 -0.002482172567397356
0.3875109553337097 -0.0028858487494289875 -0.20432497560977936
0.06313147395849228 0.001646622084081173 -0.07298802584409714
-0.021243726834654808 0.39267879724502563 -0.39437639713287354
-0.5227499604225159 0.3994814157485962 -0.36952731013298035
-0.23467926681041718 0.002364367712289095 -0.10806871950626373
0.5155313611030579 0.39771029353141785 -0.01283020619302988
-0.4917316138744354 0.13145902752876282 0.34545227885246277
0.15415847301483154 -0.6172753572463989 -0.1973889172077179
0.43562570214271545 -0.1815963089466095 -0.11475306749343872
0.08526439219713211 -0.6189485788345337 0.10520728677511215
-0.24613241851329803 0.40092363953590393 -0.2254505753517151
-0.4900762736797333 0.09649240970611572 -0.4031086266040802
0.2578175961971283 0.0036386605352163315 -0.23106305301189423
0.14883914589881897 0.2092471569776535 0.3408168852329254
-0.04328298568725586 -0.6279035806655884 -0.27770277857780457
-0.4571540951728821 -0.11085681617259979 0.20154528319835663
0.23851661384105682 0.18439733982086182 0.46836379170417786
0.21541108191013336 0.0029070801101624966 -0.2829543948173523
-0.009855266660451889 0.002437818329781294 0.2670063078403473
0.006314669735729694 0.001467820256948471 0.06717215478420258
-0.5519192814826965 0.22900447249412537 0.3414970636367798
-0.23701408505439758 0.00473542045801878 0.31974321603775024
0.03176385909318924 0.38310080766677856 0.4148688316345215
0.3448334336280823 0.0037541473284363747 0.08386489003896713
-0.5472020506858826 0.11457927525043488 -0.4014609158039093
0.5443299412727356 0.0034274067729711533 -0.3497534692287445
0.31236615777015686 0.1325278878211975 0.44467493891716003
0.5234583616256714 0.35079383850097656 -0.4023706018924713
-0.3189737796783447 0.39979130029678345 -0.18575476109981537
-0.5082082748413086 0.3087750971317291 0.3434999883174896
0.44363635778427124 -0.23439738154411316 -0.06495493650436401
-0.4432128667831421 0.3895729184150696 0.3393529951572418
-0.16282165050506592 -0.4429706037044525 -0.14810526371002197
-0.5091785788536072 -0.1055176854133606 -0.24763639271259308
0.5779495239257812 0.25323715806007385 0.006796767935156822
-0.5738087892532349 0.054687149822711945 -0.3330869674682617
0.28117045760154724 -0.40045127272605896 0.19724303483963013
0.5806467533111572 0.15287716686725616 0.026850219815969467
-0.022089039906859398 0.0025012418627738953 -0.005220560356974602
-0.515951931476593 0.10785990953445435 -0.28937801718711853
-0.3114836812019348 0.22104735672473907 -0.40558868646621704
-0.5008038878440857 -0.10754896700382233 -0.18979701399803162
0.4008376896381378 -0.21117202937602997 -0.19816379249095917
-0.45659589767456055 0.12428551912307739 0.021764902397990227
-0.40658193826675415 -0.08927138149738312 -0.11038365215063095
0.053532470017671585 0.39958757162094116 0.24494458734989166
-0.17716223001480103 -0.5838245749473572 -0.09936153888702393
-0.343108206987381 0.4018954038619995 -0.2516089975833893
-0.017717527225613594 0.004068207927048206 0.18415480852127075
0.17801536619663239 0.09833438694477081 0.46696576476097107
-0.17598140239715576 -0.5452147126197815 0.04128020629286766
0.31806400418281555 -0.4075680077075958 -0.224477618932724
-0.5760475397109985 0.07538183778524399 -0.05853940546512604
0.4374985992908478 0.0018822983838617802 -0.3187423348426819
0.10809963941574097 -0.6192432641983032 -0.225758895277977
0.20951509475708008 0.26019811630249023 0.3443854749202728
0.5229291915893555 0.0031232829205691814 0.11416520178318024
0.040318477898836136 0.1576353907585144 0.3484554886817932
0.24186429381370544 0.004320845939218998 0.2228575497865677
0.07130245119333267 0.0025563742965459824 0.1176498532295227
0.36700406670570374 -0.6033532023429871 0.0745815709233284
0.4423721134662628 -0.048765718936920166 0.039415061473846436
0.302435040473938 0.4000924229621887 -0.0270791444927454
0.5620684027671814 0.002424599602818489 -0.08253393322229385
0.23667027056217194 0.003171836957335472 -0.19369244575500488
0.56629878282547 0.01181271206587553 -0.3804677426815033
0.37575599551200867 -0.4954057037830353 0.06177767738699913
-0.5072794556617737 0.38365286588668823 -0.1313614398241043
-0.3393481969833374 -0.0003398642875254154 -0.3114226758480072
-0.5715466141700745 0.37035971879959106 0.2199110984802246
0.5719738006591797 0.2515954077243805 -0.39371374249458313
0.2516179382801056 -0.034436408430337906 0.2808753252029419
0.46000784635543823 -0.0006978620076552033 0.0318634994328022
0.04626165330410004 -0.618428647518158 -0.07325660437345505
0.32839077711105347 0.39897412061691284 -0.01508556678891182
0.2996307611465454 -0.18685244023799896 0.25301438570022583
-0.48893237113952637 -0.1064533144235611 -0.05374137684702873
0.07728774845600128 0.05566449463367462 0.4667847454547882
0.5696837306022644 0.20311278104782104 0.3400619328022003
-0.07469290494918823 -0.6507493853569031 0.17590677738189697
-0.35321226716041565 0.08310125768184662 -0.3956519067287445
-0.20822307467460632 -0.29248619079589844 0.12768535315990448
0.1629282534122467 -0.6193532347679138 0.15322160720825195
0.29473137855529785 -0.6161713600158691 -0.046323519200086594
-0.4111959934234619 -0.015339884907007217 0.3450894355773926
0.5723628401756287 0.17923592031002045 0.335333913564682
-0.3798999488353729 -0.05469382181763649 0.15868797898292542
-0.10111333429813385 0.0030240819323807955 0.2771100103855133
-0.10116907954216003 0.3656672239303589 -0.3983956277370453
-0.05703788250684738 -0.6443440914154053 0.1586824506521225
0.15428805351257324 -0.6191748976707458 0.032767754048109055
0.38840463757514954 -0.6096518039703369 -0.054135262966156006
-0.5404039621353149 0.09589899331331253 -0.3121791183948517
0.08884290605783463 0.4002348780632019 -0.10565334558486938
-0.17977549135684967 0.40226107835769653 0.28991514444351196
-0.21220555901527405 -0.127901092171669 0.11190744489431381
0.23371829092502594 0.34430399537086487 0.470615953207016
0.20172514021396637 0.08830700814723969 0.46446898579597473
-0.037135932594537735 -0.4823170602321625 0.22473058104515076
0.5805991291999817 0.07615622878074646 0.02385771833360195
0.05888214707374573 -0.0982373058795929 -0.37162795662879944
0.2540363371372223 -0.32571175694465637 0.2817804515361786
0.20418189465999603 -0.057971786707639694 0.4607126712799072
-0.5054607391357422 0.3321864902973175 0.3447326123714447
-0.002746635116636753 0.0001307940110564232 -0.300931453704834
0.47682973742485046 0.3980501592159271 0.1247667670249939
0.1546449214220047 0.4000007212162018 -0.22446122765541077
-0.18441013991832733 -0.4806947410106659 -0.014721651561558247
-0.13648252189159393 -0.1528664380311966 -0.2802530527114868
0.3064647912979126 0.2693251371383667 -0.4046328365802765
-0.09646178036928177 -0.3717553913593292 0.23478662967681885
0.5834671258926392 0.28368502855300903 0.28200581669807434
0.09842351824045181 -0.038893409073352814 0.46406617760658264
-0.580590009689331 0.02473358064889908 -0.08422806859016418
0.3666815757751465 -0.0037232269532978535 -0.23495642840862274
0.35496968030929565 0.3391622304916382 -0.40393877029418945
0.18517017364501953 -0.6178673505783081 0.109563447535038
-0.05540292710065842 0.0023189473431557417 0.15258610248565674
0.3239358067512512 -0.23736484348773956 0.23651514947414398
0.21838943660259247 -0.6220531463623047 -0.2091633379459381
0.3264129161834717 0.24751988053321838 0.34956327080726624
0.3717769682407379 -0.6421566009521484 0.008264217525720596
0.3382517099380493 -0.2348407804965973 -0.2808048129081726
-0.4363996386528015 0.0062043918296694756 -0.26936349272727966
0.5792943835258484 0.09882929921150208 -0.324647456407547
-0.028818001970648766 0.40089476108551025 -0.11404438316822052
0.05053914710879326 -0.3852097988128662 0.29758062958717346
-0.5145140290260315 0.0029121676925569773 -0.05252982676029205
0.2976967692375183 0.4010096490383148 -0.07580062747001648
0.028112342581152916 0.4005766212940216 -0.10711880773305893
-0.1573457419872284 -0.4242058992385864 0.09621453285217285
-0.36549440026283264 -0.01865994557738304 0.055000729858875275
0.40955469012260437 -0.2725464403629303 -0.1811920702457428
-0.5857619643211365 0.3214454650878906 0.20834967494010925
-0.5131500363349915 0.006799601949751377 0.238656148314476
-0.16916649043560028 0.39998844265937805 -0.2771064341068268
0.05608034133911133 0.37925416231155396 -0.4020470380783081
0.3999467194080353 0.40032172203063965 0.13152846693992615
0.2797478139400482 0.0036569982767105103 -0.21927636861801147
0.2528696358203888 0.40289080142974854 -0.12221983075141907
0.4310842454433441 -0.004511956125497818 0.006683895830065012
-0.41146692633628845 0.390958696603775 -0.01933712512254715
0.2993592917919159 -0.6229480504989624 -0.22985689342021942
0.33392107486724854 0.39876997470855713 -0.00164591777138412
0.29625922441482544 -0.08124944567680359 0.42139849066734314
-0.5470119714736938 0.0027675307355821133 -0.14575457572937012
0.30700910091400146 -0.07626703381538391 0.41960346698760986
0.5256214737892151 0.0015059690922498703 0.2780943810939789
0.5793719291687012 0.2907865643501282 -0.3694175183773041
0.022974107414484024 -0.39383020997047424 0.2479972094297409
-0.48892781138420105 0.21095170080661774 0.3422064781188965
0.5804628133773804 0.25496649742126465 0.33001622557640076
-0.16787376999855042 -0.09879808127880096 -0.24594746530056
0.23502671718597412 -0.635591983795166 0.2238406389951706
0.3409060537815094 0.003764600493013859 0.18184518814086914
-0.4737550616264343 -0.11243128031492233 -0.1526174545288086
0.041322316974401474 0.14485901594161987 0.46205976605415344
0.22096127271652222 0.19597341120243073 -0.40398380160331726
-0.1144634261727333 -0.6189224720001221 -0.05612127482891083
0.04759431257843971 -0.050505977123975754 0.32103103399276733
-0.3938359022140503 0.3950994908809662 -0.29987576603889465
0.36113688349723816 0.0002333435695618391 0.2135774791240692
-0.2558775842189789 0.40220266580581665 -0.28439074754714966
-0.37695443630218506 0.40331584215164185 -0.16308632493019104
0.32949355244636536 0.002778497524559498 -0.11230878531932831
0.4475649893283844 -0.2745257616043091 -0.01140725426375866
-0.2143714278936386 -0.3670617640018463 0.10070262104272842
-0.15560749173164368 -0.38825270533561707 0.10157021880149841
-0.10956734418869019 0.0007529538124799728 0.200288787484169
-0.3352104127407074 0.3978312015533447 -0.18039767444133759
-0.06266258656978607 -0.6244400143623352 -0.19145536422729492
-0.07668847590684891 -0.02357216365635395 -0.3269456923007965
0.4393196403980255 -0.0018059273716062307 0.017578739672899246
-0.0760597512125969 0.0011092349886894226 -0.30686211585998535
0.37690678238868713 0.2796725034713745 -0.40340739488601685
-0.10078621655702591 -0.6205022931098938 0.016121037304401398
-0.44906288385391235 0.005841386504471302 -0.3655061721801758
-0.5820693969726562 0.3408139646053314 0.14678514003753662
0.32407158613204956 0.10700234770774841 -0.4044053256511688
-0.26962143182754517 0.40057653188705444 0.13517893850803375
0.11761783063411713 -0.06770561635494232 0.45695632696151733
-0.5812150835990906 0.03405044972896576 -0.33261236548423767
-0.21080553531646729 0.06244692951440811 -0.40196049213409424
-0.45435723662376404 -0.11157754063606262 -0.3532123863697052
0.57749342918396 0.36860391497612 -0.07923666387796402
-0.13701441884040833 -0.628555953502655 -0.05989866331219673
-0.012334460392594337 0.167621448636055 0.34969446063041687
0.3887503147125244 -0.1137261614203453 -0.21847765147686005
0.03349292650818825 -0.6186631321907043 0.09784116595983505
