0.03286796435713768 0.3965369462966919 0.3848629295825958
-0.45621588826179504 0.3912855088710785 -0.14293648302555084
0.07371680438518524 -0.1412336230278015 0.31238487362861633
0.3368271589279175 -0.3213617503643036 0.22670955955982208
-0.36935967206954956 -0.04533667117357254 0.07361216098070145
0.27925625443458557 -0.5527521967887878 0.194678395986557
-0.11428789049386978 -0.6220201849937439 -0.052782587707042694
0.20199762284755707 0.0024281966034322977 -0.07298504561185837
0.11502838879823685 0.09138165414333344 -0.40291810035705566
-0.5719246864318848 0.3445736765861511 -0.39519378542900085
-0.45198220014572144 -0.1112605482339859 0.01420850120484829
-0.3925762474536896 0.37241166830062866 -0.19855915009975433
-0.39371106028556824 0.39808428287506104 -0.25999918580055237
0.06553789973258972 0.21864378452301025 0.34744560718536377
0.3088863790035248 0.35798895359039307 -0.40702202916145325
0.05775563046336174 0.0026709632948040962 0.0747927725315094
-0.153772234916687 -0.38363632559776306 0.13290394842624664
0.30156460404396057 0.22154489159584045 0.34426218271255493
-0.05652078241109848 0.27037912607192993 0.37465497851371765
0.4347616732120514 -0.1683700531721115 -0.10571803152561188
0.08032938092947006 -0.17767305672168732 0.3113749623298645
0.041864000260829926 -0.08494898676872253 0.37885886430740356
-0.45294085144996643 -0.056143488734960556 0.3497025668621063
-0.35190048813819885 -0.0009683216921985149 0.19803060591220856
-0.02048821561038494 0.0020611947402358055 0.10797244310379028
0.24920514225959778 0.1259734034538269 0.46288156509399414
-0.4109638035297394 -0.09770689159631729 0.03566613048315048
0.010181266814470291 0.30767008662223816 0.34492501616477966
-0.4698014557361603 0.1780349314212799 0.34320133924484253
0.12891998887062073 0.0022615715861320496 -0.0127826863899827
0.26033371686935425 -0.6448405981063843 -0.2626735270023346
-0.5322296619415283 -0.0885397344827652 -0.28634700179100037
0.15101441740989685 -0.058044660836458206 0.45963016152381897
0.4522605240345001 -0.027130769565701485 -0.04942995309829712
0.05258888378739357 0.002757206093519926 0.08999891579151154
-0.2827000916004181 0.38512179255485535 -0.07154253870248795
0.4562283158302307 0.004400049336254597 -0.37691473960876465
-0.0668334886431694 0.0027527417987585068 -0.16570214927196503
-0.5764375329017639 0.00843943189829588 0.06391173601150513
-0.4338855445384979 -0.04916226491332054 0.34981614351272583
0.0968041941523552 -0.6210601329803467 0.13207674026489258
-0.5804306268692017 0.15412014722824097 -0.17928096652030945
0.3003724217414856 0.15152347087860107 -0.4046078324317932
-0.394650399684906 -0.0823555588722229 0.06953782588243484
0.5261335372924805 0.002805765951052308 -0.29707157611846924
-0.053942542523145676 0.39896029233932495 -0.06876149028539658
-0.06283494830131531 0.012590701691806316 0.3323216736316681
-0.3738511800765991 0.4032188951969147 0.2980318069458008
0.5779790878295898 0.16375954449176788 0.32116183638572693
0.06320178508758545 -0.6350517868995667 -0.2759753167629242
-0.180633082985878 -0.5816088914871216 -0.08727985620498657
0.3884935975074768 -0.40437230467796326 0.013854905031621456
0.28610357642173767 0.4018203020095825 0.2713228762149811
-0.36839228868484497 0.017254550009965897 0.33841803669929504
0.1166115552186966 -0.6332870125770569 -0.319902241230011
0.5831100940704346 0.1170816421508789 -0.3476133644580841
0.029533371329307556 0.402065634727478 0.28669473528862
-0.4579114317893982 -0.11213671416044235 -0.011735554784536362
0.34200847148895264 -0.505445659160614 -0.19356662034988403
-0.05430362746119499 0.002100256271660328 -0.05541973188519478
0.5827214121818542 0.35808804631233215 0.2120027393102646
0.053891465067863464 -0.08619208633899689 0.37649112939834595
-0.014538850635290146 0.002450942061841488 0.06294247508049011
0.16542068123817444 0.4621827304363251 0.3697381317615509
0.5838059186935425 0.06460870802402496 -0.20927731692790985
-0.2070578932762146 0.39940395951271057 -0.2105010598897934
0.28614097833633423 -0.6211795210838318 -0.0007672060746699572
0.5799649953842163 0.04764265567064285 -0.22450435161590576
0.12266434729099274 -0.4232325851917267 0.2619522511959076
0.44188812375068665 0.3435985743999481 0.34400826692581177
-0.18953663110733032 0.0017951619811356068 -0.06092286854982376
-0.504475474357605 0.023600352928042412 0.3495910167694092
-0.07827843725681305 -0.5382584929466248 0.19369204342365265
-0.4501497149467468 0.10481254756450653 -0.33017629384994507
-0.5774527788162231 0.31000393629074097 -0.3814138174057007
0.44247713685035706 -0.3546527326107025 0.015318362042307854
-0.05436685308814049 0.002191191539168358 -0.011128841899335384
-0.07740822434425354 -0.5968935489654541 -0.25303101539611816
-0.21043048799037933 0.15250444412231445 -0.40465062856674194
-0.4876132607460022 -0.11269865185022354 -0.017366735264658928
0.036931607872247696 0.0027954475954174995 -0.173250213265419
-0.41019824147224426 -0.0959610715508461 0.22123683989048004
-0.038944900035858154 0.27914750576019287 0.39792415499687195
0.5756365060806274 0.3952152729034424 0.08239269256591797
-0.3852914869785309 0.006230636965483427 0.0764855444431305
0.12819480895996094 -0.6440844535827637 0.21959957480430603
0.2817907929420471 -0.6207424402236938 0.0022346586920320988
0.02749071829020977 0.0018245819956064224 -0.11738170683383942
0.391046404838562 0.0017415506299585104 -0.2496112734079361
0.11944657564163208 -0.6241028308868408 -0.08113366365432739
0.3513474464416504 -0.09454721957445145 0.20978353917598724
0.12065212428569794 -0.5757531523704529 0.2623216509819031
-0.5839034914970398 0.32157376408576965 0.25011250376701355
-0.23246310651302338 -0.025653136894106865 0.05789162963628769
0.10613759607076645 -0.3818764388561249 0.28141969442367554
0.23144541680812836 0.17293880879878998 0.3445356786251068
-0.5046970844268799 -0.10670610517263412 -0.08369981497526169
0.2590995132923126 0.002716174814850092 -0.05626154690980911
-0.3903845548629761 0.16120918095111847 0.3447427749633789
-0.5280706286430359 0.08314233273267746 -0.24343392252922058
0.5545733571052551 0.005046470556408167 0.26761263608932495
0.3088837265968323 -0.6247661113739014 -0.13510006666183472
-0.38360729813575745 0.07076823711395264 0.033200331032276154
0.0443977415561676 -0.621833860874176 0.14596311748027802
0.4485974907875061 -0.29122981429100037 -0.018550004810094833
-0.47904127836227417 -0.10992101579904556 -0.1358109563589096
0.23021554946899414 -0.6077512502670288 0.22254006564617157
-0.5055987238883972 0.39476433396339417 -0.13251633942127228
0.09312204271554947 0.002790406346321106 -0.02049890160560608
-0.2547386884689331 0.000748602207750082 -0.2838662266731262
-0.41943359375 -0.00041136424988508224 0.16117362678050995
-0.06481778621673584 0.38526883721351624 -0.40001973509788513
0.25013837218284607 0.17697152495384216 0.4640407860279083
0.12896645069122314 0.17738676071166992 0.4677650034427643
-0.07087727636098862 0.0011538243852555752 -0.23594637215137482
0.32766756415367126 0.07116156816482544 0.34558621048927307
-0.35447314381599426 -0.0008596805855631828 0.005797530524432659
0.1534385085105896 -0.03820005804300308 0.3167303800582886
-0.09772125631570816 -0.1924789845943451 -0.31295931339263916
-0.44754838943481445 0.1062050312757492 -0.18424567580223083
0.3053637742996216 0.3897334933280945 0.35277023911476135
-0.2468675822019577 0.26717430353164673 -0.4044255018234253
0.20168274641036987 0.4007663428783417 -0.33615821599960327
-0.15384216606616974 -0.2960311770439148 -0.2595233917236328
0.2555917203426361 0.39914804697036743 -0.21960529685020447
0.4608861804008484 0.0012264628894627094 -0.028953267261385918
-0.35216736793518066 0.27425655722618103 0.34151121973991394
0.07032687216997147 -0.5293868184089661 -0.3170611560344696
0.02446192316710949 -0.6230629682540894 0.11247137188911438
0.20966419577598572 -0.07558717578649521 0.3226679265499115
0.2839796543121338 -0.3765382170677185 0.25581806898117065
-0.5036390423774719 0.26709696650505066 0.3423844277858734
-0.15928970277309418 0.00025698175886645913 -0.20417520403862
-0.18239983916282654 -0.0004380811005830765 0.061592139303684235
-0.05105278640985489 0.40037962794303894 0.22895392775535583
-0.39482468366622925 0.05516015365719795 0.3414205014705658
0.1831296682357788 0.4002240300178528 -0.20428821444511414
-0.45609384775161743 0.3433561623096466 0.013042515143752098
-0.3767852187156677 0.39910751581192017 0.22901727259159088
0.22203829884529114 0.0021471891086548567 -0.19927023351192474
0.29604896903038025 0.39915400743484497 -0.2654189169406891
-0.008349694311618805 0.39339977502822876 -0.3935919404029846
0.36261895298957825 -0.64262855052948 0.08942347764968872
0.10004527121782303 -0.0002654166892170906 0.2418554127216339
-0.5734624862670898 0.06232205778360367 -0.21740344166755676
-0.48588913679122925 0.08657927066087723 -0.4036926031112671
0.5679383277893066 0.007647648453712463 -0.10891322046518326
0.38841503858566284 0.004162672907114029 -0.3711106777191162
0.22415107488632202 0.4024990499019623 0.15648534893989563
0.399841845035553 -0.000924035906791687 0.2086905539035797
-0.5833470225334167 0.2975979745388031 -0.09068623930215836
-0.054902784526348114 0.39947372674942017 -0.3329746723175049
0.5821546912193298 0.32120248675346375 0.08029419183731079
0.3520212173461914 -0.6377867460250854 -0.07389260083436966
-0.21166127920150757 0.246359184384346 0.34715646505355835
-0.349155455827713 0.4193671941757202 -0.10865944623947144
0.3392788767814636 -0.6360594630241394 0.04789485037326813
-0.4955151081085205 0.14983884990215302 -0.4023075997829437
-0.19887635111808777 -0.3731893301010132 -0.17022275924682617
0.5839312672615051 0.3638225793838501 -0.12228576838970184
-0.5480369925498962 -0.08023522049188614 0.17996744811534882
-0.46485117077827454 0.11504290252923965 -0.317005455493927
-0.5829663872718811 0.22449304163455963 0.12302026152610779
-0.26136723160743713 0.39255526661872864 -0.3918486535549164
-0.5370450615882874 -0.0009105224162340164 0.11251917481422424
0.07381871342658997 -0.2020195573568344 0.311039537191391
-0.37550511956214905 0.05605683475732803 0.11099499464035034
-0.09217105805873871 4.526972770690918e-05 0.08387568593025208
-0.3654268980026245 0.004530423320829868 -0.27965500950813293
0.3277765214443207 0.12700654566287994 0.3453117609024048
0.2838686406612396 0.39761608839035034 0.32843512296676636
0.5817918181419373 0.08582913875579834 0.05721532553434372
-0.5777459740638733 0.025340138003230095 -0.10552788525819778
0.5802390575408936 0.21471714973449707 0.3044787049293518
-0.3679237961769104 0.34401917457580566 -0.19491468369960785
0.22939054667949677 -0.07640453428030014 0.3180564045906067
-0.4641273021697998 0.39112138748168945 -0.014352704398334026
-0.3676696717739105 0.009709187783300877 -0.39995649456977844
0.041371263563632965 0.4006381630897522 -0.15283039212226868
0.080885149538517 0.0027649174444377422 0.14355158805847168
0.00583771662786603 0.0010856296867132187 -0.255813866853714
-0.4977220296859741 0.2268986850976944 -0.40510857105255127
0.370128870010376 -0.6473399996757507 0.03172579035162926
0.3941466808319092 0.3546977639198303 0.3442692458629608
0.5235797166824341 0.2367899864912033 0.3459993898868561
-0.31544387340545654 0.08820496499538422 0.3438243567943573
-0.13692893087863922 0.053651466965675354 -0.40316522121429443
0.07260876148939133 0.17236201465129852 0.3445322811603546
0.5390127301216125 0.08473647385835648 -0.4054073691368103
0.03700726106762886 -0.08466394990682602 0.3150597810745239
0.19395796954631805 -0.08722291141748428 0.42450225353240967
0.01645532436668873 0.28186729550361633 0.38230833411216736
-0.11224689334630966 0.15391862392425537 0.3468095660209656
0.322179913520813 0.0020460737869143486 -0.3516375422477722
0.5821213722229004 0.18452811241149902 0.020692242309451103
-0.48407357931137085 0.4038224518299103 -0.3508743941783905
-0.2858225107192993 0.34468409419059753 -0.05858180299401283
0.49067798256874084 0.3882587254047394 0.34253406524658203
-0.3507457375526428 0.4007832705974579 0.20056937634944916
0.4095057249069214 0.39997372031211853 -0.3188558518886566
-0.04436066001653671 -0.6238070726394653 0.08236540108919144
-0.4799976646900177 -0.0011642740573734045 -0.40377122163772583
-0.2585615813732147 0.17123903334140778 0.3438684642314911
0.045269887894392014 -0.07820124179124832 0.34771841764450073
-0.3933207392692566 -0.07391473650932312 0.11711239814758301
0.24619555473327637 -0.08023311197757721 0.4379343092441559
-0.3964206576347351 -0.08743841201066971 -0.2668290436267853
-0.5712260007858276 0.08219101279973984 -0.3892461061477661
0.01729685440659523 -0.3669101297855377 0.30011698603630066
0.007452717516571283 0.001668088138103485 -0.3383946418762207
-0.16701382398605347 -0.6001823544502258 0.07402124255895615
-0.12916341423988342 0.39322078227996826 -0.3920365273952484
0.5834776759147644 0.18108254671096802 -0.13226139545440674
0.44650524854660034 0.002825701842084527 0.26862138509750366
-0.20032627880573273 0.000837972853332758 -0.1036597266793251
0.31063950061798096 -0.19215895235538483 0.24295412003993988
-0.30237725377082825 0.14401289820671082 -0.4059005081653595
0.44512873888015747 0.16274920105934143 0.34615060687065125
-0.2906947731971741 0.39994943141937256 -0.3812057673931122
-0.317274272441864 0.4080120623111725 -0.04811130836606026
0.3586404025554657 0.0020335486624389887 -0.306596040725708
-0.34337809681892395 0.4018733501434326 -0.28271251916885376
-0.423184871673584 0.17474451661109924 -0.403973251581192
0.3470391631126404 0.19813644886016846 0.34668564796447754
0.28204575181007385 0.4491552412509918 0.44056087732315063
0.2621154487133026 0.3067459464073181 0.4641205072402954
-0.5147545337677002 0.0005503197317011654 0.06431767344474792
-0.5260612368583679 0.09394426643848419 -0.38027718663215637
0.20948925614356995 0.0026295213028788567 0.16868077218532562
0.38458487391471863 0.0033195288851857185 -0.18423891067504883
-0.42371273040771484 0.13389840722084045 -0.4014570415019989
-0.5806185603141785 0.11985154449939728 -0.009664357639849186
-0.05951209366321564 0.3883547782897949 0.3414279520511627
-0.19455666840076447 0.14262013137340546 -0.40376606583595276
-0.23198631405830383 -0.13219279050827026 0.06457741558551788
-0.10808653384447098 -0.6176440715789795 -0.22308804094791412
0.0013814991107210517 0.00258831400424242 0.13927018642425537
0.25635337829589844 -0.6245191693305969 -0.15568602085113525
0.5757034420967102 0.1615704447031021 -0.3948853611946106
-0.1806233823299408 0.1817782074213028 0.3448519706726074
0.10665402561426163 -0.3740239143371582 -0.3605988621711731
-0.42484140396118164 0.40227147936820984 -0.3493106961250305
-0.19960488379001617 -0.0019412534311413765 0.09063243865966797
-0.05999983847141266 -0.1486833691596985 0.2744528651237488
-0.47999057173728943 0.38766545057296753 -0.39739441871643066
0.27766063809394836 0.3990843594074249 0.29865074157714844
0.04796997085213661 0.0638510212302208 0.3482910394668579
-0.5757219195365906 0.03703157603740692 -0.14428356289863586
-0.11640289425849915 -0.13086937367916107 -0.29760029911994934
0.33716121315956116 -0.556560754776001 -0.20591942965984344
0.22484815120697021 -0.6486089825630188 -0.264097660779953
-0.5650973320007324 -0.0003191737341694534 -0.33680063486099243
0.1057029515504837 -0.09561353176832199 0.31847405433654785
0.582615315914154 0.1704317182302475 -0.014679557643830776
-0.12925393879413605 0.4002135396003723 -0.053865060210227966
-0.11672564595937729 0.24636666476726532 0.3654262125492096
0.4330928921699524 -0.0005996434483677149 0.11131882667541504
-0.5806552767753601 0.30351385474205017 -0.06349894404411316
-0.07278499752283096 -0.6535598635673523 0.1758127361536026
0.05188475176692009 0.3999899923801422 -0.26187777519226074
0.5604107975959778 0.3772854804992676 0.3414149582386017
0.22628235816955566 0.4006953835487366 -0.27220413088798523
-0.5552071332931519 0.06328078359365463 -0.35749179124832153
0.07084107398986816 0.0034557562321424484 0.20587904751300812
0.4532042443752289 -0.019826941192150116 -0.05274355784058571
-0.0071739740669727325 -0.1745368093252182 -0.3575921654701233
0.21168066561222076 0.17523568868637085 0.4667774438858032
-0.2929469347000122 0.39531174302101135 -0.05415979400277138
-0.5804438591003418 0.33564648032188416 0.022366497665643692
0.3915654122829437 -0.6006892919540405 -0.06322439014911652
0.13116422295570374 0.3997954726219177 0.262281596660614
0.1074976995587349 0.16658122837543488 0.46539464592933655
0.4233497977256775 0.000722439493983984 0.04738467186689377
0.22808313369750977 -0.11181806772947311 0.2955719828605652
0.09809236228466034 0.002459137234836817 0.008851762861013412
-0.22337888181209564 0.012630620039999485 0.34119874238967896
-0.5782628059387207 0.3348117768764496 -0.19302250444889069
0.18563205003738403 -0.6249760985374451 0.17639495432376862
0.24854779243469238 -0.04205278679728508 -0.3427794277667999
-0.1887025684118271 -0.27172204852104187 -0.2171555757522583
0.09200402349233627 -0.001944148214533925 0.3269387483596802
0.2781742513179779 0.04021507129073143 0.46425870060920715
-0.3338845372200012 -0.00027468043845146894 -0.0266624316573143
-0.2559073269367218 0.08722293376922607 -0.4030827283859253
-0.43979910016059875 -0.10661924630403519 0.0561247281730175
-0.4804578721523285 0.3999306261539459 0.2226380556821823
0.17552709579467773 0.27062705159187317 0.3439665734767914
-0.01726384274661541 0.0018080323934555054 -0.004633460659533739
-0.41541117429733276 -0.1002393513917923 0.29318898916244507
0.5747920274734497 0.3920126259326935 -0.2817836403846741
0.2566976845264435 -0.42494985461235046 -0.2772436738014221
0.1930050551891327 0.29016152024269104 0.46238473057746887
-0.4941907525062561 0.14148612320423126 -0.4008708894252777
0.5176241397857666 0.31399792432785034 0.3428083658218384
0.07982882857322693 0.25920870900154114 0.46649765968322754
0.36530107259750366 -0.3918927013874054 -0.1581805795431137
-0.426647424697876 0.004930627997964621 0.18467488884925842
0.2596452534198761 0.001933414489030838 -0.3478374779224396
-0.5490896701812744 0.09791427105665207 0.33725789189338684
0.5760661363601685 0.1246897354722023 -0.3953532874584198
0.17420843243598938 0.0020654210820794106 -0.20272612571716309
-0.11243810504674911 -0.056808341294527054 0.24124513566493988
0.4976760745048523 0.4005419611930847 0.029980110004544258
-0.4650660455226898 0.10867996513843536 0.26651516556739807
0.00822773203253746 0.0019901301711797714 -0.18636375665664673
-0.5730565786361694 -0.006538741756230593 0.04948988929390907
0.5860804915428162 0.3364863097667694 -0.05992436408996582
0.015515637584030628 0.0010751527734100819 -0.24627265334129333
0.5753425359725952 0.3841613531112671 -0.3799976706504822
0.08066020905971527 0.003191574476659298 0.24611517786979675
0.03555281087756157 -0.04608342796564102 -0.367984414100647
0.11132031679153442 -0.5884941220283508 0.2597261667251587
-0.17708292603492737 0.001489137765020132 -0.14132073521614075
0.33936378359794617 0.015616284683346748 -0.4052439033985138
-0.3181636333465576 0.3978337347507477 0.01660733111202717
0.057456620037555695 -0.41003844141960144 0.25535139441490173
0.37061747908592224 -0.21786661446094513 -0.24781736731529236
0.37896913290023804 0.002764821285381913 -0.010591316968202591
-0.48055359721183777 0.11271434277296066 -0.16159123182296753
0.22737155854701996 -0.6196199059486389 -0.1387348473072052
0.555464506149292 0.4018245041370392 -0.07945092022418976
-0.06310553848743439 0.00229036808013916 -0.03135149925947189
0.17857401072978973 0.14637762308120728 0.34371304512023926
0.2845824360847473 0.3988865315914154 0.10128358006477356
0.3759465515613556 -0.1452382653951645 0.18081918358802795
0.2332857847213745 0.1557675004005432 0.3443989157676697
0.2903681695461273 0.003471743781119585 -0.16477274894714355
0.17259098589420319 0.2987385094165802 0.34217315912246704
-0.3786955177783966 -0.06663485616445541 -0.01653599552810192
0.08128932118415833 0.40036848187446594 -0.14608408510684967
-0.5688573122024536 -0.037286918610334396 0.05433077737689018
-0.545993447303772 0.002991990651935339 -0.14429238438606262
-0.1332317739725113 -0.6586789488792419 -0.13979440927505493
-0.35564470291137695 0.0026009150315076113 -0.3443226218223572
0.3828601837158203 -0.2240518033504486 0.17132706940174103
-0.4836442768573761 0.3981413245201111 -0.12124098092317581
-0.09962128102779388 0.0016963868401944637 0.15258976817131042
0.5615421533584595 0.3996337056159973 -0.15144972503185272
0.34887975454330444 0.0037144748494029045 -0.09128149598836899
0.16775089502334595 0.0016791695961728692 -0.2438381016254425
-0.581222653388977 0.17821505665779114 0.2754107117652893
0.5833800435066223 0.21659158170223236 -0.3170577585697174
0.199070543050766 -0.4692683219909668 -0.3062877953052521
-0.16999785602092743 -0.3796984553337097 0.14647819101810455
-0.48132771253585815 -0.11127603054046631 -0.06471238285303116
-0.12350087612867355 0.2000618427991867 0.3513507544994354
-0.17356924712657928 0.0003678184002637863 0.04770255833864212
0.36423975229263306 0.34684038162231445 0.3447992205619812
0.21190795302391052 0.47124218940734863 0.3764752745628357
-0.49921607971191406 -0.0015496080741286278 -0.3361903429031372
-0.4508303999900818 0.3480181396007538 0.02213393896818161
-0.28022992610931396 0.2593173086643219 0.3450438678264618
0.14020274579524994 -0.006761702708899975 0.3138394057750702
0.5868054032325745 0.30086639523506165 0.26515915989875793
-0.547796905040741 0.013013548217713833 -0.4027721583843231
0.5747289657592773 0.3945653438568115 0.23608368635177612
0.32353463768959045 -0.2579724192619324 -0.2908773124217987
-0.053415313363075256 -0.4015389084815979 -0.2747895121574402
0.17877045273780823 -0.6235150098800659 -0.09209678322076797
0.43066930770874023 0.4005896747112274 0.12442813813686371
0.2894173860549927 -0.31518450379371643 0.25939738750457764
-0.13102899491786957 -0.6606079339981079 -0.19296832382678986
0.5826186537742615 0.20496344566345215 -0.39101746678352356
-0.2777990996837616 0.3729572296142578 -0.10626521706581116
0.23021987080574036 0.001444750465452671 -0.3244844675064087
0.09378930181264877 0.05459028109908104 0.4681428372859955
0.3311595022678375 -0.1045064777135849 0.2318716198205948
0.44520169496536255 0.1615673005580902 0.34194663166999817
0.33222445845603943 -0.45603302121162415 0.1442948579788208
0.200253427028656 0.4005124866962433 -0.31973734498023987
0.2685143053531647 0.003154430305585265 0.009701089933514595
-0.42240777611732483 -0.10197442770004272 0.011343773454427719
-0.5241594910621643 0.3974230885505676 0.09033484756946564
0.1718035787343979 -0.6219675540924072 -0.05498311668634415
-0.3899361491203308 0.003668307326734066 -0.2919539213180542
0.20687340199947357 -0.08899861574172974 0.32320985198020935
0.25175097584724426 0.47245869040489197 0.3910757601261139
-0.0026861769147217274 -0.3888280987739563 0.24106258153915405
0.24788281321525574 -0.37419864535331726 -0.31633418798446655
-0.0003341205883771181 -0.32914939522743225 -0.3617779016494751
-0.3591204881668091 0.02023652195930481 -0.09928107261657715
-0.1921101212501526 0.16192258894443512 0.3455623686313629
-0.582804262638092 0.1643534004688263 -0.3551950454711914
-0.5788914561271667 0.2017337530851364 -0.14508454501628876
-0.18114452064037323 0.0009210929274559021 0.022743772715330124
-0.04994117468595505 0.0031764544546604156 -0.13395531475543976
0.1545524001121521 0.0016356594860553741 0.21607212722301483
0.27506476640701294 0.19583357870578766 0.4657364785671234
-0.08272788673639297 0.4004513919353485 -0.05607931315898895
-0.3128146231174469 -3.7383753806352615e-05 -0.22487510740756989
0.2015143781900406 -0.6243443489074707 -0.006430280394852161
0.05061794072389603 -0.6230922341346741 -0.1583791971206665
-0.12185092270374298 0.0014933929778635502 0.12311690300703049
-0.5445696711540222 0.11384359002113342 0.3374776840209961
0.2040291130542755 0.0026340987533330917 0.0643002837896347
-0.3154285252094269 0.052831020206213 -0.4019510746002197
0.2971116602420807 -0.10172068327665329 0.25033068656921387
0.5826733112335205 0.1988636553287506 -0.20154905319213867
0.21196147799491882 0.14016342163085938 0.34360215067863464
0.04070119559764862 0.15601174533367157 0.3470228612422943
-0.14710119366645813 0.3999628722667694 -0.18594405055046082
0.10606273263692856 -0.3963109254837036 0.27176132798194885
0.5799587965011597 0.07508627325296402 -0.1986507624387741
0.35076379776000977 0.4003741443157196 -0.32532432675361633
-0.5216654539108276 0.024195874109864235 -0.3966981768608093
-0.5790632963180542 0.17535963654518127 -0.3744007349014282
-0.4771084487438202 0.01957661472260952 0.35404059290885925
-0.11724197864532471 0.40063485503196716 -0.0185409989207983
0.04223903268575668 -0.08238760381937027 0.31583285331726074
-0.46520909667015076 0.10300026834011078 0.06296941637992859
0.07657784223556519 -0.6225267052650452 -0.12257282435894012
0.13787832856178284 -0.5216200947761536 -0.319476842880249
-0.027651144191622734 -0.3826422095298767 0.2566622197628021
-0.34647494554519653 0.3975025713443756 -0.14925658702850342
0.580622136592865 0.3787473142147064 -0.27717941999435425
-0.3885040283203125 -0.07955732196569443 -0.10019693523645401
0.5660848021507263 0.3360948860645294 0.3400074243545532
-0.44403907656669617 0.20197366178035736 -0.4012778103351593
0.15183477103710175 -0.008708120323717594 -0.3683658540248871
0.10911064594984055 0.003168717958033085 -0.18086229264736176
0.0037794357631355524 -0.44965919852256775 0.24075627326965332
-0.3583277463912964 0.02603602409362793 0.20794427394866943
-0.15752430260181427 0.3560778796672821 0.34649571776390076
-0.3830210268497467 0.06087185814976692 0.2676408886909485
-0.48444607853889465 0.3742351830005646 -0.15531380474567413
-0.5374463796615601 0.0010868002427741885 -0.24836841225624084
0.5813921689987183 0.1103762537240982 0.015440600924193859
-0.22258228063583374 -0.30166295170783997 -0.13316583633422852
0.3541949987411499 0.12348039448261261 0.34508806467056274
-0.07190593332052231 0.06284836679697037 0.343684583902359
-0.3860792815685272 -0.07298077642917633 -0.11159317940473557
-0.281156450510025 0.1382356584072113 0.3442801535129547
0.03528299927711487 -0.030892137438058853 0.4628123342990875
0.04869896546006203 0.002834081184118986 0.11567262560129166
-0.1077798381447792 0.40042179822921753 0.06369983404874802
0.28060382604599 0.2872815728187561 0.3452725112438202
-0.055046502500772476 0.15863734483718872 0.350270539522171
0.28134995698928833 0.28630825877189636 -0.40634533762931824
-0.07169509679079056 0.3873082995414734 0.34403693675994873
-0.03403354436159134 -0.30805063247680664 -0.34609559178352356
-0.512967050075531 0.3741913139820099 0.34777766466140747
-0.31398749351501465 0.0023248791694641113 0.1817304491996765
0.5818687677383423 0.0602056160569191 0.2028135359287262
0.3299359977245331 0.21384544670581818 -0.4050571620464325
0.30485644936561584 -0.21567775309085846 0.24686379730701447
0.016068149358034134 -0.622085452079773 -0.16704075038433075
0.1586926430463791 0.00037662778049707413 -0.3656347095966339
-0.35401666164398193 0.23534046113491058 0.3447384536266327
-0.4343089461326599 0.384267657995224 -0.16237668693065643
-0.3373412489891052 0.004164442420005798 0.15512333810329437
0.541557788848877 0.23382626473903656 0.34388718008995056
-0.23469506204128265 0.10321801900863647 -0.4045359790325165
-0.030976006761193275 -0.07226867228746414 0.28190892934799194
0.03659120574593544 0.1267523467540741 0.34873437881469727
-0.3361464738845825 0.3442561626434326 -0.17937447130680084
0.2949346899986267 -0.27421605587005615 0.2554584741592407
-0.5027754902839661 0.23254667222499847 0.34203025698661804
-0.5750373601913452 0.022539695724844933 -0.13746197521686554
0.1574401557445526 0.0027712853625416756 0.1553860455751419
0.021349608898162842 -0.37506285309791565 -0.34950220584869385
-0.562639594078064 0.3796069025993347 0.3055184483528137
0.5806790590286255 0.36244311928749084 -0.3081245422363281
0.18923243880271912 -0.6251171827316284 0.10837492346763611
-0.12251726537942886 0.0008481517434120178 0.09730803966522217
0.582607626914978 0.1560017168521881 -0.24539633095264435
0.13273057341575623 0.25960326194763184 0.4654097557067871
0.2810320556163788 -0.3072698414325714 0.26413023471832275
0.13143932819366455 0.08024948090314865 0.4683402180671692
0.20061884820461273 0.0025101033970713615 0.2602298855781555
-0.15363746881484985 -0.16910108923912048 -0.2585357129573822
0.2964474856853485 0.46361738443374634 0.4326701760292053
-0.12714509665966034 0.0006133615970611572 0.19852803647518158
0.08314391225576401 -0.6534932255744934 -0.3027021586894989
0.11428986489772797 -0.5522972345352173 -0.32375457882881165
0.06417334079742432 0.3887580335140228 0.4617694020271301
-0.1802322268486023 0.0022186338901519775 -0.06244983896613121
-0.4729815125465393 0.3710419833660126 -0.001819866825826466
0.3637901246547699 0.3990350663661957 -0.28295910358428955
0.2744626998901367 -0.16333937644958496 0.26996397972106934
0.052568431943655014 0.002793786581605673 0.06280378997325897
0.30411213636398315 -0.3938971757888794 0.18027056753635406
0.38900989294052124 -0.5061838030815125 -0.0598708838224411
-0.36669209599494934 0.012395510450005531 0.07179615646600723
0.17875699698925018 0.472143292427063 0.4341990053653717
0.22261716425418854 0.02633504383265972 -0.40313979983329773
-0.34363994002342224 0.0005085757002234459 -0.26052552461624146
-0.3366853892803192 0.39183229207992554 -0.17780902981758118
-0.19366569817066193 8.429517038166523e-05 0.035325679928064346
0.03793329745531082 0.002978251315653324 0.06333068758249283
-0.19791163504123688 0.40157610177993774 0.15403328835964203
-0.010021996684372425 0.4002646207809448 0.024654332548379898
0.45316994190216064 0.4004729092121124 -0.17928744852542877
0.32611143589019775 0.06210903450846672 0.3466517925262451
0.0362323559820652 -0.22756582498550415 -0.368735671043396
-0.21673783659934998 -0.10333064198493958 -0.1637609601020813
0.239056795835495 -0.08590696007013321 0.35249564051628113
-0.38243359327316284 -0.06876236945390701 0.1465555727481842
0.46976184844970703 0.40075603127479553 -0.15425226092338562
0.25569790601730347 0.03512842208147049 -0.4035303592681885
0.291878879070282 0.1773366630077362 0.46222466230392456
-0.4922711253166199 0.10218588262796402 0.3218139410018921
0.18884409964084625 0.4762641489505768 0.4311206042766571
0.13109160959720612 0.4018520414829254 0.2170470803976059
-0.5139046311378479 0.0018315487541258335 -0.2749045789241791
0.5818147659301758 0.05760429799556732 -0.18498855829238892
0.0531182624399662 0.40036481618881226 0.0042065829038619995
0.03356258198618889 0.26459622383117676 -0.4020121395587921
-0.27939239144325256 0.013105878606438637 0.34112972021102905
0.40420570969581604 -0.28384584188461304 0.1353754699230194
0.09318871051073074 -0.6226149797439575 -0.09438765048980713
-0.34900811314582825 0.335917204618454 -0.4049871563911438
0.23376290500164032 -0.38109496235847473 0.2624680995941162
-0.12092605978250504 0.2296753078699112 0.34742826223373413
0.2875877320766449 -0.3829427659511566 0.21968959271907806
0.2089557945728302 0.06794161349534988 0.4668698012828827
-0.056778885424137115 -0.10351981222629547 -0.3373471796512604
-0.09925146400928497 0.24089163541793823 0.3776572048664093
-0.1279437243938446 0.09484840929508209 -0.4044266641139984
-0.5552014112472534 0.38005733489990234 -0.3933367133140564
0.1256713718175888 -0.6223710179328918 -0.13682638108730316
-0.1664910763502121 0.04383057728409767 -0.40338385105133057
-0.5333803296089172 0.08484160155057907 -0.3250158429145813
-0.5734112858772278 0.0768217146396637 0.06604667007923126
-0.20789000391960144 -0.3800174593925476 -0.08317611366510391
0.39150092005729675 0.0027392166666686535 -0.13357320427894592
0.3327588140964508 0.17682327330112457 0.4149761199951172
-0.2769395112991333 -0.0002776309847831726 0.05566783249378204
0.08259053528308868 0.002509291283786297 0.24344037473201752
0.22829848527908325 0.03998794034123421 -0.4026899039745331
-0.17888328433036804 -0.04348114877939224 0.1731102615594864
-0.15231165289878845 -0.14319264888763428 -0.26017317175865173
0.4950372576713562 0.00297666247934103 0.04340146481990814
-0.2374863177537918 0.38941025733947754 0.3468707203865051
-0.3668026626110077 0.17913420498371124 0.34516435861587524
-0.3943832218647003 0.4001155197620392 0.12868382036685944
-0.5790418982505798 0.0024379626847803593 -0.22192268073558807
0.2744796872138977 -0.6295074820518494 0.1306983381509781
0.4360382854938507 -0.3690057694911957 -0.09864000976085663
0.579957902431488 0.2146114706993103 -0.37622684240341187
-0.44628867506980896 0.04978969693183899 -0.40508145093917847
0.4414539039134979 -0.28013455867767334 0.030025053769350052
0.12869223952293396 -0.6255254745483398 -0.011747298762202263
-0.5777758359909058 0.09856156259775162 -0.30968278646469116
0.5850844383239746 0.2879849970340729 -0.14244328439235687
0.23663882911205292 0.3769000172615051 0.34172800183296204
0.35618308186531067 -0.3755924105644226 0.16247998178005219
0.13901300728321075 -0.6236435174942017 -0.22986480593681335
-0.2330361008644104 -0.08406444638967514 0.06383603066205978
-0.3098772466182709 0.40115439891815186 0.30220791697502136
0.0748228207230568 0.28415581583976746 0.467937707901001
-0.5751720666885376 0.048385150730609894 0.09391336888074875
0.4434855878353119 -0.22053785622119904 -0.0754079520702362
0.10729867219924927 -0.37087902426719666 -0.368124783039093
-0.17504258453845978 0.0013056639581918716 -0.12062112241983414
0.440956175327301 -0.07099376618862152 -0.08451130241155624
-0.23073728382587433 -0.3671249747276306 0.03794476389884949
-0.1782730370759964 0.4012865126132965 0.015142157673835754
-0.0030333742033690214 -0.37084686756134033 -0.3475716710090637
0.26898130774497986 0.39963001012802124 0.07585489004850388
-0.5136461853981018 0.09784232825040817 0.23872745037078857
-0.46757397055625916 -0.11212565004825592 -0.10018927603960037
-0.025887729600071907 0.27555781602859497 0.3522484004497528
0.09557275474071503 0.46418026089668274 0.44222429394721985
0.2898644506931305 -0.44776320457458496 0.1903224140405655
0.2866365611553192 0.0004172567278146744 0.3282301127910614
-0.13740576803684235 -0.3199968636035919 -0.2737404704093933
-0.3763924241065979 -0.061151523143053055 0.044152650982141495
-0.06527210772037506 -0.6214143633842468 -0.023562856018543243
0.29883116483688354 0.08180806040763855 0.4586811363697052
0.24027952551841736 0.3157081604003906 0.4684065282344818
-0.1578264683485031 -0.6570553779602051 0.04404149204492569
-0.1657407283782959 -0.06447232514619827 0.1875597983598709
0.30899739265441895 0.0009459219872951508 -0.30909982323646545
0.21471157670021057 0.0029235209804028273 0.08058763295412064
0.2064686268568039 -0.643547534942627 0.20920979976654053
-0.4753287136554718 0.1090799942612648 0.035668157041072845
0.5289876461029053 0.10706758499145508 0.3432197570800781
-0.45176276564598083 0.3964851498603821 -0.018757732585072517
0.28901177644729614 0.0002686833031475544 -0.3088899552822113
-0.10225645452737808 -0.38340091705322266 -0.2586195170879364
0.42467623949050903 -0.00047906232066452503 0.10719117522239685
0.1734832376241684 0.0020828871056437492 -0.20031504333019257
-0.36877402663230896 0.051308877766132355 0.028851570561528206
-0.40697768330574036 0.08220331370830536 0.3213901221752167
0.23680564761161804 0.39701905846595764 -0.3846077620983124
0.4339013993740082 0.009367569349706173 0.3332144320011139
0.4118039906024933 0.0009217999177053571 0.06933116912841797
0.4431643784046173 -0.09557532519102097 0.03431624174118042
0.18485088646411896 0.09994673728942871 0.46545925736427307
-0.5750100016593933 0.02940421551465988 -0.14799553155899048
-0.07376307249069214 0.0020229397341609 -0.17954155802726746
-0.49127426743507385 0.3926013112068176 -0.01741854101419449
0.5786214470863342 0.38756880164146423 0.11956914514303207
-0.5629127621650696 0.37632501125335693 0.02842523716390133
0.3066089451313019 0.3450091779232025 -0.4062054455280304
-0.010724015533924103 0.0008274978026747704 0.15775756537914276
0.03832084685564041 -0.0334596186876297 0.46399956941604614
-0.11118066310882568 0.010916528292000294 -0.39630573987960815
0.1413702368736267 -0.6239045262336731 -0.15058007836341858
-0.20485514402389526 -0.05771484971046448 -0.17749515175819397
0.27069661021232605 0.40010198950767517 -0.16646310687065125
0.18456505239009857 -0.31107452511787415 0.30445200204849243
0.5637716054916382 0.006355779245495796 -0.09947504848241806
0.17200349271297455 -0.03181304782629013 0.4653172492980957
0.26100635528564453 -0.3797153830528259 -0.2983958423137665
-0.5056682229042053 0.39452049136161804 -0.07134309411048889
-0.0009295000927522779 -0.6328684687614441 -0.25258657336235046
0.2242726981639862 -0.0256054550409317 0.31065040826797485
0.36618420481681824 -0.0920514166355133 0.19004903733730316
-0.10421724617481232 -0.6417046189308167 -0.17350974678993225
0.29618149995803833 0.1734943687915802 0.3458823263645172
0.27906087040901184 -0.26878219842910767 -0.32843658328056335
0.31854501366615295 0.01381570566445589 -0.40238156914711
0.3438052535057068 -0.0015109172090888023 0.2534450888633728
-0.23459576070308685 -0.0031971782445907593 0.04986386001110077
-0.24193120002746582 0.40188920497894287 0.2552095651626587
-0.5359443426132202 -0.08816522359848022 0.018461646512150764
0.3912452757358551 -0.33780738711357117 -0.2232876420021057
0.14005523920059204 -0.400247186422348 0.26596954464912415
-0.43736910820007324 0.34122970700263977 0.34377986192703247
0.04176352173089981 0.0009979112073779106 0.2889557480812073
0.023317355662584305 -0.38983267545700073 0.257955938577652
0.44296300411224365 0.3984197974205017 0.14046798646450043
0.5829260349273682 0.1351836770772934 -0.26054030656814575
0.45103737711906433 -0.028366314247250557 -0.020102083683013916
0.35545557737350464 0.19687026739120483 0.34675702452659607
0.281070739030838 -0.6205240488052368 -0.08163753896951675
0.19082942605018616 -0.37612077593803406 -0.3405473232269287
-0.5365109443664551 0.001995042897760868 0.09835000336170197
-0.08916780352592468 0.002505331300199032 -0.01636243797838688
-0.5774355530738831 0.3388355076313019 -0.3283843994140625
-0.0660291314125061 -0.006552310660481453 -0.3188719153404236
0.22317051887512207 0.3930305540561676 0.3256877660751343
-0.5078428983688354 0.04619123041629791 -0.4053666591644287
0.5322368741035461 0.11392202228307724 0.3375397324562073
0.19558818638324738 0.2786951959133148 0.34560486674308777
0.03291178494691849 0.37832677364349365 0.4552469253540039
-0.5651558637619019 0.37756916880607605 -0.08158385008573532
-0.0010852591367438436 0.40195319056510925 0.2929736077785492
-0.5815984010696411 0.16578137874603271 0.05744476243853569
-0.5686152577400208 -0.01589399203658104 -0.13131779432296753
-0.4296657145023346 -0.10307423025369644 -0.3323705494403839
-0.13639314472675323 0.40103861689567566 0.02291887067258358
0.036321572959423065 -0.2110515534877777 0.3053106963634491
-0.4597151577472687 0.000884275883436203 -0.27604812383651733
0.23411297798156738 -0.6247091889381409 -0.04758059233427048
0.5765643119812012 0.3937065899372101 0.22840078175067902
0.05681052431464195 0.002793954685330391 -0.35354170203208923
-0.1678757667541504 -0.6504287719726562 -0.10201495885848999
0.20002593100070953 -0.6277233958244324 -0.21937337517738342
0.5157565474510193 0.40180304646492004 -0.21937201917171478
0.5800846219062805 0.18431851267814636 0.16597025096416473
0.10752154141664505 -0.4915452301502228 0.2615649998188019
0.5826565027236938 0.19810132682323456 -0.3086031675338745
0.3587072789669037 -0.42028796672821045 0.10593848675489426
0.2616993188858032 0.40084150433540344 0.29747244715690613
0.08763551712036133 0.4007716774940491 0.10672087967395782
0.25538018345832825 0.3939685821533203 -0.38395217061042786
-0.5783849358558655 0.09739956259727478 0.18566706776618958
-0.1650165617465973 -0.5160074234008789 0.07551044225692749
0.18101413547992706 -0.6210290789604187 0.054060786962509155
-0.06542190909385681 -0.15535931289196014 0.2725837230682373
0.39112067222595215 -0.019821837544441223 -0.22305792570114136
-0.4895820915699005 0.19103239476680756 0.34242960810661316
0.32265809178352356 0.363282710313797 0.3438587784767151
-0.5760740637779236 0.1319900006055832 0.18558967113494873
0.21424567699432373 0.002817826811224222 0.2195286601781845
0.22066865861415863 -1.1300668120384216e-05 -0.3401060402393341
-0.3328686058521271 0.36556029319763184 0.022275812923908234
-0.11324780434370041 0.27372753620147705 0.346904993057251
0.3240678012371063 0.25834932923316956 -0.4058171212673187
0.3084176182746887 -0.08706671744585037 0.41444337368011475
0.5361643433570862 0.4020683169364929 -0.1121266707777977
-0.01164991408586502 -0.10326561331748962 -0.35671427845954895
-0.4442659914493561 0.3927914798259735 -0.3935774266719818
-0.07962628453969955 -0.6232522130012512 0.029447315260767937
0.12988977134227753 0.0012360934633761644 -0.36551007628440857
0.21124203503131866 -0.6222817301750183 -0.13895709812641144
0.06757308542728424 0.4030948281288147 0.34418708086013794
-0.34233608841896057 0.396548330783844 -0.007885439321398735
0.2734139561653137 0.3728898763656616 0.4630434513092041
0.5847135782241821 0.10018796473741531 -0.17048890888690948
0.2628546357154846 -0.30091723799705505 0.27541568875312805
-0.36312517523765564 0.00207070866599679 -0.3382268249988556
0.22792232036590576 -0.6260901093482971 0.1599321812391281
0.009717450477182865 0.23606348037719727 -0.4050526022911072
0.4912838339805603 0.28413715958595276 -0.3999013304710388
-0.07169384509325027 0.00034922827035188675 -0.12479988485574722
0.4789285957813263 0.2457321137189865 -0.4057508409023285
-0.20508423447608948 0.40375903248786926 0.07356230914592743
0.2705957293510437 -0.07468537986278534 -0.3295706510543823
0.028469953685998917 -0.18585096299648285 0.30593907833099365
-0.40272408723831177 0.005560908000916243 0.3361671268939972
0.1754915565252304 0.0014415760524570942 -0.23673339188098907
-0.5745498538017273 0.0683484897017479 -0.13248470425605774
0.2352442741394043 -0.5063578486442566 -0.28761813044548035
-0.5730298757553101 0.008982278406620026 0.03644219785928726
-0.2220737636089325 -0.04381217062473297 0.08941491693258286
-0.5268492698669434 0.38250455260276794 -0.1005186215043068
0.30078789591789246 0.35184159874916077 0.4604935944080353
0.3472289741039276 0.2326425015926361 0.3469127118587494
0.025745989754796028 -0.646515965461731 0.21188774704933167
0.3158303499221802 0.08169157058000565 0.4525972306728363
0.08828700333833694 -0.6211907863616943 0.2080785036087036
0.12985609471797943 0.13164082169532776 0.46807369589805603
-0.5763872861862183 0.3502388298511505 0.053917139768600464
0.17199064791202545 0.2775745689868927 -0.4056012034416199
0.2472381740808487 -0.29516077041625977 0.28253504633903503
0.0198553204536438 0.28527793288230896 0.3705839514732361
0.5792319774627686 0.36580517888069153 0.12508255243301392
0.3143187463283539 -0.19818279147148132 -0.30549341440200806
0.14190511405467987 0.0015701092779636383 -0.1748216599225998
-0.4338166117668152 0.00323616829700768 -0.4035244584083557
0.16936831176280975 0.39711993932724 0.3261944651603699
0.4420340061187744 -0.18675597012043 -0.07742302864789963
-0.5255701541900635 -0.09055592864751816 -0.1769220232963562
-0.1716986447572708 0.0005723354406654835 -0.1935362070798874
-0.020054586231708527 0.006909362506121397 0.3349899351596832
0.3209957480430603 0.3990475833415985 -0.1574639081954956
0.32637840509414673 0.09795183688402176 0.4253809452056885
-0.5847213268280029 0.2086518108844757 0.28279659152030945
-0.37394288182258606 -0.007344784215092659 -0.39967456459999084
0.013666932471096516 0.40113240480422974 -0.05505937710404396
0.02406991459429264 0.34613433480262756 -0.4056600034236908
-0.25346851348876953 0.12556876242160797 0.34512510895729065
0.5757361650466919 0.34685218334198 0.3384872078895569
-0.005193346180021763 0.28459906578063965 0.4028964936733246
-0.4191175699234009 -0.0958603098988533 0.12072136253118515
-0.21372005343437195 0.4018590748310089 -0.019898811355233192
0.24595995247364044 0.0030558924190700054 0.09621908515691757
0.07737081497907639 -0.6295555830001831 0.2545677125453949
-0.37450864911079407 0.39995989203453064 0.07959011942148209
0.24441970884799957 0.40393203496932983 0.2733820080757141
-0.3388259708881378 0.018871791660785675 -0.399653822183609
0.35511910915374756 0.2659040093421936 -0.4065569043159485
-0.07263696193695068 -0.30366095900535583 -0.3302953541278839
-0.5835530161857605 0.248522087931633 -0.06759834289550781
0.004471470136195421 -0.6236189603805542 0.1576496809720993
0.5810074806213379 0.38356462121009827 -0.1326759159564972
0.16361859440803528 -0.6417827606201172 -0.3119250535964966
-0.5195394158363342 0.0014205574989318848 -0.2615610361099243
0.1350758969783783 -0.3871757388114929 0.2716130316257477
0.0001681596040725708 -0.1773132085800171 -0.3594400882720947
0.17331653833389282 -0.09001240879297256 0.3986841142177582
-0.3589418828487396 -0.019438570365309715 -0.33663955330848694
-0.19317178428173065 0.0003324337303638458 -0.2737385332584381
0.37083864212036133 -0.4540866017341614 0.0762036070227623
0.5718428492546082 0.20269079506397247 0.33899837732315063
0.3538566827774048 0.0031271157786250114 0.0831657201051712
-0.1704949587583542 0.0018031690269708633 -0.06220906227827072
-0.09011562913656235 -0.2788183093070984 0.2585790455341339
0.13111695647239685 -0.6202027797698975 -0.15525230765342712
0.06813807040452957 -0.36751511693000793 -0.3711985647678375
-0.1730867177248001 -0.5250065326690674 0.05275380611419678
0.2045029103755951 -0.62284916639328 -0.25873076915740967
0.10861345380544662 -0.47303542494773865 -0.32083824276924133
-0.1048143059015274 0.0016976408660411835 0.13853110373020172
-0.21064065396785736 -0.07110123336315155 0.10647138208150864
-0.1851334422826767 0.12894606590270996 -0.4046460688114166
-0.5248246192932129 0.002990288659930229 -0.04721234366297722
0.12687501311302185 0.002323464723303914 -0.1459130197763443
-0.24226340651512146 0.0006774934008717537 0.24360734224319458
0.48634064197540283 0.4012798070907593 0.2625366151332855
-0.0998557060956955 0.0006306050345301628 0.174673393368721
0.07206451892852783 0.0028523490764200687 0.07880822569131851
-0.4723784625530243 0.39570534229278564 -0.18594428896903992
0.3437371551990509 -0.6464077234268188 -0.14725837111473083
-0.10901006311178207 0.178860604763031 -0.404139906167984
-0.04875482991337776 -0.1971411108970642 0.27970290184020996
0.36300748586654663 0.2896267771720886 0.34449252486228943
0.07981503009796143 0.0024634506553411484 0.0376187264919281
0.12376107275485992 -0.37906134128570557 0.3033168613910675
0.4264255166053772 0.3990902900695801 0.21545015275478363
0.17956703901290894 0.1283186376094818 -0.40320852398872375
0.2533741295337677 -0.05544927343726158 0.3239365518093109
-0.5083325505256653 0.26684820652008057 -0.4055388271808624
0.5777247548103333 0.13108791410923004 0.22255370020866394
0.18074458837509155 0.4006780982017517 -0.3111760914325714
-0.5817264914512634 0.1858510673046112 -0.05061744898557663
-0.46423813700675964 0.4091847240924835 -0.09127982705831528
-0.0433046817779541 0.23045827448368073 -0.40571072697639465
0.019227348268032074 -0.6234853267669678 -0.021367346867918968
0.2201000601053238 0.0021009899210184813 -0.24206393957138062
-0.3104153275489807 0.18005049228668213 -0.40705767273902893
-0.47109532356262207 0.20948220789432526 -0.40274643898010254
0.10888756811618805 0.2829178273677826 0.46756061911582947
-0.28612449765205383 0.002018863568082452 0.2934546172618866
-0.13516803085803986 0.34063634276390076 0.34536227583885193
-0.18479913473129272 -0.09681607782840729 -0.21912872791290283
0.1222788468003273 0.0032287994399666786 0.1481093317270279
-0.005247457418590784 0.0014767656102776527 -0.34408116340637207
0.23880407214164734 0.002626650035381317 -0.12025026232004166
-0.5528792142868042 0.38632720708847046 0.26220592856407166
