0.5717052221298218 0.18765515089035034 -0.39208897948265076
0.06595728546380997 0.023149482905864716 0.46346378326416016
-0.5656965970993042 0.34340015053749084 0.3353809714317322
-0.1825633943080902 -0.5277267694473267 -0.008374908939003944
0.06292545795440674 -0.6173162460327148 0.0964568704366684
0.577744722366333 0.35758110880851746 0.04975982755422592
0.4191119372844696 0.3989031910896301 -0.3046855032444
0.07920792698860168 -0.20339952409267426 -0.37351930141448975
0.04724833741784096 -0.13936108350753784 0.308338463306427
0.25134024024009705 0.22906771302223206 -0.40334564447402954
0.02049911394715309 0.0021780526731163263 -0.3195466995239258
-0.0360206700861454 -0.26375171542167664 0.2852481007575989
-0.2317354679107666 -0.16072699427604675 0.049038998782634735
0.005882184952497482 0.0017708414234220982 -0.292448490858078
-0.5738717913627625 0.25733670592308044 0.19398806989192963
0.5719146728515625 0.3967759609222412 0.037180811166763306
0.0028537584003061056 0.0012283353134989738 0.14225946366786957
0.21464109420776367 0.0026674862019717693 -0.021089768037199974
0.25321605801582336 -0.6180415153503418 0.06363976746797562
-0.5739601850509644 0.1081576868891716 0.05935504287481308
0.42166653275489807 -0.38007399439811707 -0.1405838429927826
0.07115010172128677 0.0010717844124883413 -0.21365681290626526
-0.5201285481452942 0.0019543105736374855 0.12073670327663422
0.5805366039276123 0.1373877376317978 0.0005786009132862091
0.05345793440937996 0.39891722798347473 -0.12003245204687119
0.5774976015090942 0.35060620307922363 -0.11777359247207642
-0.5727056860923767 0.060217492282390594 0.16745439171791077
0.2447170466184616 -0.44578492641448975 -0.28013572096824646
0.13722410798072815 0.39916059374809265 -0.19978691637516022
-0.3791833519935608 0.00559570174664259 0.03559277951717377
0.3784894645214081 0.4024614095687866 0.11738400906324387
0.011152411811053753 -0.4131075143814087 -0.30055758357048035
-0.22213129699230194 -0.0020592231303453445 0.05925273522734642
0.49698108434677124 0.0012295027263462543 -0.3140484690666199
-0.48052653670310974 0.40128612518310547 0.1783432960510254
0.017819054424762726 0.0010700933635234833 0.2606053352355957
-0.2347533255815506 -0.0028970923740416765 0.04778935760259628
-0.4858483076095581 -0.10607131570577621 -0.29291632771492004
-0.07819829881191254 0.3623308539390564 -0.39973917603492737
-0.052577532827854156 0.0017363026272505522 0.09487098455429077
0.16425453126430511 -0.30907100439071655 -0.36565473675727844
-0.5722278356552124 -0.0019610109739005566 0.27224695682525635
0.04958219453692436 -0.2396022528409958 -0.3673156499862671
-0.5734544396400452 0.09916224330663681 -0.24584034085273743
-0.44345447421073914 -0.10027417540550232 0.27960866689682007
-0.5770375728607178 0.10447511821985245 -0.2907960116863251
0.10101268440485 -0.1677955985069275 -0.3714463412761688
-0.40733736753463745 0.41073036193847656 -0.15005216002464294
-0.5764410495758057 0.021200353279709816 -0.0915866568684578
0.25419825315475464 0.20880165696144104 -0.4021078646183014
0.04151426628232002 0.3076569736003876 -0.400498628616333
0.23490330576896667 -0.6501612663269043 0.19121971726417542
0.32650306820869446 0.056872591376304626 0.3856261372566223
-0.5132221579551697 0.05419003590941429 -0.3978632390499115
0.04571736231446266 -0.5556164979934692 0.2525598108768463
-0.08111012727022171 -0.5765513181686401 -0.24881842732429504
-0.45261237025260925 0.3977382481098175 0.18614880740642548
0.5590335726737976 0.3866700828075409 -0.3832932710647583
0.48537546396255493 0.3997349441051483 -0.07534128427505493
-0.13593646883964539 -0.5256286859512329 -0.18448308110237122
0.26171165704727173 0.0016604568809270859 0.1566074937582016
0.2277650237083435 0.3996296525001526 0.17005452513694763
0.3211904764175415 -0.6258964538574219 -0.11648745089769363
0.11198954284191132 -0.0023028450086712837 0.3261520266532898
0.5817036032676697 0.09370893985033035 -0.0020499222446233034
0.5754616260528564 0.32909539341926575 0.33633333444595337
0.24527952075004578 0.3999042809009552 -0.09670285135507584
-0.40064945816993713 -0.07849043607711792 -0.31433865427970886
0.1429472714662552 0.021107256412506104 -0.3947537839412689
-0.5077207088470459 0.4004676938056946 0.3034460246562958
-0.5074948668479919 0.3802376985549927 -0.03370806574821472
0.29399383068084717 0.45608118176460266 0.3590511977672577
-0.07680585235357285 0.12887267768383026 -0.40201103687286377
-0.3982352018356323 0.40003588795661926 0.25557994842529297
0.25017380714416504 -0.480875700712204 -0.2789671719074249
-0.3299066126346588 0.005086070392280817 0.21608181297779083
0.039342623203992844 -0.026082374155521393 0.3477126657962799
-0.10513575375080109 0.0010122040985152125 -0.26054829359054565
0.3873366713523865 0.40490540862083435 0.19255010783672333
0.17217408120632172 0.3910525143146515 0.46308478713035583
0.10098046809434891 -0.08889058232307434 0.40119725465774536
0.09733326733112335 -0.0007780399173498154 0.27032703161239624
-0.00643578264862299 0.0012577429879456758 0.16250857710838318
-0.4146217703819275 -0.09292548894882202 0.2057272046804428
0.04449615627527237 0.3783777356147766 -0.3973604738712311
0.184304878115654 -0.11945009976625443 0.3060024082660675
-0.4214805066585541 0.0003235677722841501 0.29089435935020447
-0.39260292053222656 0.3979554772377014 0.14514203369617462
-0.13664861023426056 0.0019326014444231987 0.05979452654719353
-0.0850997343659401 0.0021049855276942253 -0.26476871967315674
0.2812157869338989 -0.37730520963668823 -0.27753782272338867
0.08452092111110687 0.39987191557884216 0.1268954873085022
-0.116954006254673 0.2723267078399658 -0.3998655676841736
-0.4170882999897003 0.00323320459574461 0.0338665135204792
-0.10279708355665207 -0.618954062461853 -0.08177995681762695
0.1935727596282959 0.2934151291847229 0.34246259927749634
-0.0648667961359024 -0.07592328637838364 -0.3287360370159149
-0.5574364066123962 0.38344907760620117 -0.009027969092130661
-0.12727835774421692 -0.520412802696228 -0.19323864579200745
0.3519185483455658 -0.11944858729839325 0.2053622603416443
0.2960963249206543 0.001837458461523056 0.0664307028055191
-0.15920135378837585 -0.004406646825373173 0.2135351151227951
0.580683171749115 0.025335263460874557 -0.07789035141468048
-0.016339674592018127 -0.14802728593349457 -0.3501869738101959
0.5752585530281067 0.29082009196281433 0.02663223072886467
-0.4009155333042145 0.08030374348163605 0.09248940646648407
-0.13073290884494781 -0.4189273715019226 0.14405524730682373
0.5717048645019531 0.23467755317687988 -0.39255914092063904
-0.5495543479919434 0.07302410155534744 -0.004450306762009859
0.287822425365448 0.003484414890408516 -0.05937465652823448
-0.1600213497877121 -0.10900832712650299 -0.25294095277786255
-0.42087191343307495 0.10546906292438507 0.10313408821821213
0.06244342029094696 0.0015836169477552176 0.11061082035303116
0.3070729672908783 0.002444568555802107 0.12356970459222794
0.1870855838060379 -0.6176365613937378 0.24270367622375488
0.42028024792671204 0.07128918915987015 -0.4044651389122009
0.3868139386177063 0.002558451145887375 -0.13719315826892853
0.31017744541168213 0.0034402464516460896 -0.15451298654079437
0.3066839873790741 0.39901629090309143 -0.33519256114959717
-0.1367325633764267 -0.5222837328910828 -0.1873333603143692
0.5796643495559692 0.26314330101013184 -0.061265069991350174
-0.025305457413196564 0.26605480909347534 -0.39977511763572693
-0.5087277889251709 0.09733446687459946 -0.11176878213882446
0.14844496548175812 -0.6180928945541382 -0.12561529874801636
-0.2227035015821457 0.0032459041103720665 -0.23092670738697052
-0.18925870954990387 0.0030781421810388565 -0.1341235339641571
0.11852594465017319 -0.6192378401756287 -0.12146013230085373
0.1505098193883896 0.13852587342262268 0.3397562801837921
-0.5163360834121704 0.39466527104377747 0.03454314544796944
-0.18235547840595245 -0.6325079798698425 -0.042228493839502335
0.03726506233215332 0.0017799120396375656 -0.2890280485153198
0.17845027148723602 -0.6179551482200623 0.12063828855752945
0.3853400945663452 -0.42153701186180115 -0.09451203048229218
0.478866308927536 0.401979923248291 -0.13260242342948914
0.5806832313537598 0.05543849244713783 -0.24616454541683197
0.10279466211795807 -0.6182077527046204 -0.13953405618667603
-0.5127286314964294 0.11516403406858444 -0.026440797373652458
0.16830572485923767 0.3497743010520935 0.3408370018005371
0.0457276850938797 0.39070892333984375 0.3429785370826721
-0.5702074766159058 0.010360656306147575 -0.0012652422301471233
-0.3685011863708496 0.33071020245552063 -0.40166136622428894
-0.22098828852176666 0.39624372124671936 0.3304063677787781
-0.3711087107658386 -0.026974260807037354 0.0068912748247385025
0.04853919893503189 -0.4089033603668213 0.2512838542461395
0.11766501516103745 -0.10333695262670517 -0.3702443540096283
-0.019059928134083748 0.0027828970924019814 0.0037453901022672653
0.5694260597229004 0.257154643535614 -0.38768741488456726
0.44611236453056335 -0.24678358435630798 0.016684580594301224
-0.35421642661094666 2.3663043975830078e-05 -0.21186140179634094
-0.5021524429321289 -0.03518297150731087 0.34990718960762024
-0.184645876288414 -0.6032713055610657 0.004772363696247339
0.30714455246925354 0.3322698473930359 0.39911624789237976
-0.1087803915143013 0.0007690691854804754 -0.29266557097435
-0.4163705110549927 0.23346851766109467 0.34110596776008606
-0.4376049339771271 0.10023607313632965 -0.3360247015953064
0.2749316096305847 -0.5307919383049011 -0.26241278648376465
0.5790729522705078 0.320528119802475 0.0916789174079895
0.37167784571647644 0.002991100773215294 0.041245751082897186
-0.018484212458133698 0.045736394822597504 -0.3967181146144867
0.0381627231836319 -0.617240846157074 0.10405444353818893
-0.576116144657135 0.12182769924402237 0.03524569049477577
0.5718583464622498 0.02312578074634075 0.3348006010055542
-0.10536082088947296 -0.5800300240516663 0.1739991158246994
-0.05021771043539047 0.28362637758255005 -0.3998071551322937
0.05057630315423012 -0.17218419909477234 -0.366822749376297
0.23789849877357483 0.17603188753128052 -0.4019814729690552
0.5089352130889893 0.1596570611000061 0.3390999436378479
0.5368617177009583 0.0029912779573351145 -0.3575134575366974
0.19954295456409454 -0.003708075964823365 0.303396075963974
-0.06602874398231506 0.02977350354194641 -0.3969399333000183
0.29548922181129456 0.003297957591712475 -0.15760718286037445
0.01780906319618225 0.40157437324523926 -0.0723767951130867
-0.08185805380344391 -0.6482515335083008 0.17059479653835297
0.06362549215555191 0.0012047053314745426 -0.06641180068254471
-0.1504390835762024 -0.6394304037094116 0.0966285765171051
-0.45117318630218506 0.10763295739889145 0.12018436938524246
-0.576562225818634 -0.002129022963345051 0.2960532605648041
-0.10570093989372253 -0.6381449699401855 -0.21998076140880585
-0.5409087538719177 0.38993048667907715 -0.21115520596504211
0.2988619804382324 -0.030601412057876587 0.25054019689559937
0.4118346869945526 0.3675627112388611 -0.39945489168167114
-0.4259595572948456 0.005866204854100943 -0.3660162091255188
0.17918619513511658 0.003549461252987385 -0.08062171936035156
0.10145683586597443 0.1695736050605774 -0.40053755044937134
-0.5268659591674805 0.16981709003448486 0.3391491770744324
0.20265035331249237 -0.6159132719039917 0.06542956829071045
-0.14443989098072052 -0.3960953652858734 -0.17738167941570282
0.08812040835618973 0.0012243303935974836 -0.10869576036930084
0.5825306177139282 0.31170007586479187 -0.021223831921815872
0.34372514486312866 -0.5854231715202332 0.11898715794086456
-0.03572267293930054 0.32473722100257874 0.34234818816185
0.5838861465454102 0.31617864966392517 -0.3156338334083557
0.25590428709983826 -0.5239083766937256 -0.2800883650779724
-0.20884422957897186 0.26848849654197693 0.34915363788604736
0.5724501013755798 0.009859026409685612 0.2887052595615387
-0.23543448746204376 -0.22364121675491333 0.01754314824938774
-0.05153246968984604 0.0017851078882813454 -0.08425663411617279
-0.01800735667347908 0.28560641407966614 -0.3982168138027191
-0.14181090891361237 0.0010581312235444784 0.01899844966828823
0.3403133153915405 0.4013189375400543 -0.1322631686925888
0.3238646388053894 -0.5815984606742859 0.1501346081495285
-0.416360467672348 -0.09438762813806534 -0.06140966713428497
0.5710539221763611 0.014017477631568909 -0.07729311287403107
0.39983224868774414 0.20363181829452515 0.3419431746006012
-0.22514644265174866 -0.1706116944551468 -0.1390189230442047
-0.27755850553512573 0.30318036675453186 0.34206274151802063
0.5382682681083679 0.0040990374982357025 -0.2804575562477112
0.06424263119697571 -0.611028254032135 -0.31544652581214905
-0.5800215005874634 0.24551625549793243 -0.11261206120252609
0.007048971485346556 0.0026038391515612602 -0.03180582821369171
0.4515269994735718 0.00059560127556324 0.22488877177238464
0.28320789337158203 -0.5350519418716431 -0.2547864317893982
0.1811632215976715 -0.04656527191400528 -0.36491119861602783
-0.33748659491539 0.08454704284667969 0.33892878890037537
0.0017746305093169212 -0.6189588308334351 -0.09945371747016907
-0.40373778343200684 0.19831417500972748 0.34058645367622375
0.21017448604106903 0.17093823850154877 -0.4016394019126892
0.5576872229576111 0.0025694463402032852 -0.20136325061321259
-0.0435328334569931 -0.616287350654602 0.04044799506664276
-0.22311125695705414 0.40325304865837097 0.2498151808977127
-0.3322494626045227 0.3261467516422272 0.3408609926700592
-0.045879192650318146 -0.6184991002082825 -0.09884336590766907
0.051839008927345276 -0.20581701397895813 0.3096592128276825
0.44473356008529663 -0.10698830336332321 -0.05336105078458786
0.18161830306053162 0.00266205333173275 -0.18131108582019806
0.5377723574638367 0.0025519640184938908 -0.10511963814496994
0.31743472814559937 0.4272768497467041 0.44504085183143616
0.16860422492027283 -0.0182342492043972 0.31142619252204895
0.16967527568340302 0.4005291759967804 0.2278021275997162
0.19083064794540405 -0.6190245747566223 -0.13235226273536682
0.3688551187515259 -0.5016241669654846 0.08954428881406784
0.010706598870456219 -0.15560220181941986 0.30147069692611694
0.12947431206703186 0.17129535973072052 0.340348482131958
-0.14700765907764435 0.0036074165254831314 -0.08680175244808197
-0.019426392391324043 0.2945285737514496 0.3492099344730377
0.38498660922050476 -0.5370570421218872 -0.021576689556241035
0.1254982054233551 0.0027430104091763496 0.09664513170719147
0.397855281829834 -0.20418821275234222 0.1453092396259308
-0.21190451085567474 -0.25729259848594666 0.10572466999292374
-0.5723416805267334 0.17730194330215454 -0.14786945283412933
-0.5716608166694641 0.042152658104896545 -0.2698480188846588
0.300241619348526 0.002425726968795061 0.19437111914157867
-0.4389115869998932 0.10501601547002792 0.04486045986413956
0.5735476016998291 0.007618761155754328 -0.21108995378017426
0.28471454977989197 -0.3706400990486145 0.23840342462062836
0.24509039521217346 -0.6314366459846497 0.16425199806690216
0.24440768361091614 0.05447164177894592 0.34126171469688416
0.2859809398651123 0.24338066577911377 0.4635867178440094
-0.09098058193922043 0.15404890477657318 0.3467721939086914
-0.3082185685634613 0.2450147569179535 0.34273961186408997
-0.35554832220077515 -0.002677932847291231 0.26315560936927795
-0.33253949880599976 0.014333808794617653 -0.3949519693851471
-0.021321726962924004 0.401047021150589 0.16195449233055115
0.1209196224808693 -0.5318899154663086 -0.3161695897579193
0.16827718913555145 -0.6213599443435669 -0.0285139549523592
-0.08587456494569778 0.39925986528396606 -0.17278142273426056
0.32864314317703247 0.0021019261330366135 -0.3195020854473114
0.2126235067844391 0.002401139121502638 0.22433219850063324
0.5775400996208191 0.26463446021080017 -0.3214700222015381
0.5753435492515564 0.04394538700580597 -0.15236224234104156
0.06546998023986816 0.37372955679893494 -0.3986881375312805
0.2379278987646103 0.40292608737945557 0.2955933213233948
-0.06713654100894928 -0.5155625343322754 0.2006157636642456
0.5354230999946594 0.004306375980377197 0.06983794271945953
0.05694114416837692 -0.6183546781539917 -0.0198373980820179
0.4901951849460602 0.2086784690618515 0.34083181619644165
0.237831711769104 -0.3610210716724396 0.2816224694252014
-0.5583567023277283 -0.05532558262348175 0.08902286738157272
-0.33482372760772705 0.0029099490493535995 -0.1794847995042801
0.0994781032204628 0.39763954281806946 -0.3684350550174713
-0.4993349015712738 -0.03905363008379936 0.3565492033958435
-0.0016713447403162718 0.0017573144286870956 -0.12698131799697876
0.19860202074050903 0.002402046462520957 0.04455230012536049
-0.12346868216991425 0.0006574112921953201 -0.3355252146720886
-0.08856312930583954 0.3998243510723114 -0.18396134674549103
-0.02519545704126358 -0.6179355382919312 0.12798701226711273
0.0479714572429657 0.20748355984687805 -0.39985087513923645
0.31975579261779785 0.2591138184070587 0.40466171503067017
0.5789130330085754 0.01869126781821251 -0.22821933031082153
0.22865760326385498 -0.6182361245155334 -0.16872337460517883
-0.051053278148174286 -0.16030925512313843 0.27415892481803894
-0.22966162860393524 -0.28937196731567383 -0.14600108563899994
-0.43936094641685486 0.029553653672337532 0.35064437985420227
0.051670681685209274 0.001173175871372223 0.19857236742973328
0.07891925424337387 -0.1445464938879013 -0.37124329805374146
-0.26041823625564575 0.21589501202106476 -0.4016619622707367
-0.04803982749581337 0.0014881598763167858 -0.04394182935357094
0.3117091655731201 0.29168152809143066 0.4638579487800598
0.25709301233291626 -0.1275886595249176 0.2747708261013031
-0.16200783848762512 -0.5025254487991333 -0.1424560546875
0.37081262469291687 -0.4038298428058624 0.08409461379051208
0.2601642906665802 0.0028464659117162228 -0.0440952405333519
0.5775368213653564 0.24079692363739014 -0.2739809453487396
0.11308054625988007 -0.6241505146026611 -0.2696208953857422
0.011179027147591114 -0.6270130276679993 0.23753096163272858
-0.45101234316825867 -0.0063364747911691666 0.3504529297351837
-0.23582008481025696 -0.34160465002059937 -0.001107513322494924
0.08185659348964691 -0.06099456548690796 0.3172163963317871
0.024900104850530624 0.0017861966043710709 -0.10983653366565704
-0.5443864464759827 0.0034126355312764645 -0.3233448266983032
-0.27758023142814636 0.003515142947435379 0.14041411876678467
-0.395555704832077 0.10999627411365509 -0.39537981152534485
-0.1166871190071106 -0.6198226809501648 0.05541801452636719
-0.29819074273109436 0.16231031715869904 0.34191688895225525
0.14650364220142365 -0.022107906639575958 -0.37359821796417236
0.012780130840837955 0.25454264879226685 0.39792290329933167
-0.5714909434318542 0.07609038054943085 0.024914508685469627
-0.2550361752510071 0.0028562135994434357 -0.18087247014045715
-0.572979211807251 -0.004275349900126457 -0.1258412003517151
-0.5756568312644958 0.32370060682296753 -0.1696779876947403
-0.16998191177845 -0.36422282457351685 -0.2080489993095398
-0.24018199741840363 -0.08569762110710144 -0.011615435592830181
0.18934780359268188 -0.6476513147354126 -0.29280051589012146
0.14000055193901062 0.0012051016092300415 0.06715822219848633
0.29678237438201904 0.4501928985118866 0.3604851961135864
0.1887790858745575 0.012330461293458939 0.33502456545829773
0.3339008092880249 0.0028814501129090786 -0.14006462693214417
-0.1204836443066597 0.2181275635957718 0.34532326459884644
0.20230990648269653 0.02300623059272766 -0.3997298777103424
0.04685213044285774 -0.6185201406478882 -0.12486355006694794
0.18640509247779846 0.29072704911231995 0.4615476727485657
0.5630473494529724 0.3997877836227417 -0.05275486409664154
-0.06565283983945847 0.1531531661748886 0.39570626616477966
-0.24444179236888885 0.34086981415748596 -0.3992789387702942
-0.45337677001953125 0.3727758824825287 0.012750674970448017
-0.23902711272239685 -0.288325697183609 -0.07400678098201752
0.17080213129520416 0.0018410627963021398 -0.22027871012687683
0.38715317845344543 -0.41626307368278503 -0.01132303848862648
0.5839512348175049 0.3195088505744934 -0.256308376789093
0.2623099982738495 0.2952460050582886 0.34224775433540344
-0.22380824387073517 0.20428292453289032 0.34110578894615173
0.41823840141296387 -0.208821639418602 0.10213490575551987
-0.4694114923477173 0.1148979514837265 -0.2977602779865265
0.09235670417547226 0.11594083160161972 -0.40004846453666687
-0.06540603935718536 0.17761826515197754 -0.40277159214019775
-0.2917567491531372 0.3729712963104248 -0.06074659153819084
0.004757535643875599 0.0029267584905028343 -0.254243940114975
-0.05553823336958885 0.398799866437912 0.2871871590614319
0.29764536023139954 0.0033214446157217026 0.08319804817438126
0.23284047842025757 0.22301959991455078 0.4645148515701294
-0.12027915567159653 0.2682061791419983 -0.39954856038093567
-0.16231857240200043 -0.05556046962738037 0.1846511960029602
-0.21458576619625092 0.0021558713633567095 -0.3201979994773865
0.027492467314004898 0.40085458755493164 0.2306816428899765
-0.19503243267536163 -0.21763573586940765 -0.19850416481494904
-0.3071451783180237 0.3591647744178772 -0.03398274630308151
0.12629075348377228 -0.6491424441337585 0.24738448858261108
-0.37695664167404175 0.027640921995043755 0.22500501573085785
-0.5799814462661743 0.01892193593084812 0.23118387162685394
0.21772459149360657 0.2431863695383072 0.34004566073417664
0.33929359912872314 -0.5294402837753296 -0.19837051630020142
0.02928600087761879 0.06412351131439209 0.3931117057800293
-0.5753515362739563 0.022008394822478294 -0.35965681076049805
0.34120896458625793 0.0002755234017968178 0.2295088768005371
-0.5274038910865784 0.3962557315826416 0.15880675613880157
0.48953598737716675 0.3993915021419525 -0.2939281761646271
0.17155252397060394 0.1258196383714676 0.34115713834762573
-0.14973802864551544 -0.11437853425741196 0.19667695462703705
-0.3718516230583191 -0.0467836856842041 0.08029206842184067
-0.27921491861343384 0.00046765152364969254 0.052429404109716415
-0.15295593440532684 0.07056311517953873 0.3405209183692932
-0.2672368884086609 0.39842692017555237 -0.26328644156455994
0.4223654270172119 -0.06027624383568764 -0.1625775843858719
0.3652527630329132 0.39974743127822876 -0.2297210395336151
0.3952927589416504 -0.12386178225278854 0.1495605707168579
0.21213333308696747 -0.21137863397598267 -0.3527512848377228
-0.504899263381958 0.4002344012260437 -0.26774200797080994
0.2747618854045868 0.004137987270951271 0.10067950189113617
0.3183406889438629 0.05667954683303833 0.44214093685150146
-0.5488672852516174 0.3837335407733917 -0.39691078662872314
-0.22864504158496857 0.0044087981805205345 0.313260555267334
-0.18559254705905914 -0.6233473420143127 -0.017221955582499504
0.3987477421760559 0.000579451909288764 0.07972291111946106
0.11311973631381989 0.40138742327690125 0.17954443395137787
-0.36124518513679504 -0.021379519253969193 0.07505063712596893
-0.5757858157157898 0.15587152540683746 -0.23729276657104492
0.06292039901018143 0.0009490987285971642 -0.09641575068235397
0.445357084274292 -0.12711472809314728 -0.057123906910419464
0.27762776613235474 0.0026803305372595787 -0.21279416978359222
0.3530043065547943 0.00039160437881946564 0.18162743747234344
-0.12058001011610031 -0.6404680013656616 0.134120374917984
-0.24264442920684814 0.0022776592522859573 0.27416902780532837
-0.47835513949394226 0.11690199375152588 0.34338587522506714
0.138907790184021 0.3940432071685791 0.46552956104278564
-0.026475507766008377 -0.6180317997932434 0.0870361328125
0.4738868176937103 0.0006573563441634178 -0.018397871404886246
-0.5150311589241028 0.0017377128824591637 0.01726520247757435
0.3113074004650116 0.2060805708169937 0.3901565372943878
-0.3506300747394562 0.0019423766061663628 -0.2966628968715668
0.11542685329914093 -0.6212177872657776 -0.02370951883494854
0.22166532278060913 -0.3658183515071869 0.28573378920555115
-0.44272708892822266 -0.09791391342878342 0.15315492451190948
-0.3973815143108368 -0.08467645943164825 0.14009475708007812
0.03778678923845291 0.24089458584785461 0.4441134035587311
0.10200545936822891 0.1529952436685562 -0.3998907506465912
0.4393012821674347 -0.2660141885280609 0.021165622398257256
0.13458633422851562 -0.6221515536308289 0.07551302015781403
-0.4970966875553131 0.1972944289445877 -0.3997851014137268
0.44494935870170593 -0.35532519221305847 -0.020926568657159805
0.5816930532455444 0.06243265047669411 -0.32843586802482605
0.3418411612510681 -0.6303648352622986 0.12956205010414124
-0.43542352318763733 0.1188487634062767 -0.01237420178949833
-0.5570783615112305 0.35044366121292114 0.33189839124679565
-0.5299338698387146 0.38050949573516846 -0.08335858583450317
0.030331842601299286 -0.03908565267920494 0.3587890863418579
0.5424973964691162 0.39955848455429077 -0.14323216676712036
0.34701088070869446 0.013370340690016747 -0.4008949398994446
0.14830060303211212 -0.2967606782913208 -0.3700109124183655
-0.31005820631980896 0.002364765852689743 -0.016114776954054832
0.5746475458145142 0.16273273527622223 -0.2975887954235077
-0.4971840977668762 0.04264523833990097 0.35241377353668213
0.3858528137207031 0.355670303106308 -0.40198004245758057
0.38641276955604553 -0.44803586602211 0.022765062749385834
-0.4220508337020874 0.10558661818504333 -0.15810756385326385
0.5797087550163269 0.32661962509155273 -0.12525038421154022
0.44780662655830383 -0.00307545717805624 0.018871834501624107
0.5783628225326538 0.065033920109272 -0.06380513310432434
0.20736931264400482 0.15581372380256653 0.4655517041683197
0.3534775376319885 -0.37138035893440247 -0.23905985057353973
-0.027480266988277435 0.0013071694411337376 0.0657653734087944
0.35159847140312195 -0.6476702690124512 0.0067335558123886585
0.5768414735794067 0.12716986238956451 -0.37475061416625977
0.10457590967416763 0.0029506939463317394 0.24144352972507477
0.07863392680883408 0.401716411113739 0.18820104002952576
-0.298637717962265 0.11190800368785858 0.3407004773616791
0.33619925379753113 -0.3711824119091034 0.19076843559741974
-0.27492472529411316 0.0027409340254962444 0.15181930363178253
0.3726489841938019 -0.2782726287841797 -0.2475482076406479
-0.08666366338729858 0.19310225546360016 -0.40238454937934875
0.19164088368415833 -0.20237357914447784 0.2999627888202667
-0.5618500709533691 0.3532235622406006 0.3362703025341034
0.2884690761566162 0.40002089738845825 0.16412852704524994
0.2165590524673462 0.0036934157833456993 -0.004090234637260437
-0.11169370263814926 0.24044248461723328 0.3747346103191376
-0.5100900530815125 0.37171471118927 -0.11752015352249146
0.5797081589698792 0.37134918570518494 -0.10257590562105179
0.36468061804771423 -0.0004671327769756317 0.18791615962982178
-0.5642929077148438 0.0025901980698108673 -0.1408514827489853
-0.47112250328063965 -0.10802935063838959 -0.08031627535820007
0.24988825619220734 -0.6431342363357544 0.20675833523273468
0.5687475800514221 0.005462254397571087 -0.35042473673820496
-0.02342233434319496 -0.6575564742088318 0.20615708827972412
0.1131138876080513 0.05196632817387581 -0.40076419711112976
-0.04108642041683197 0.0034697838127613068 0.10657947510480881
-0.13950662314891815 -0.5771216154098511 -0.18256573379039764
-0.3506131172180176 0.004223797935992479 -0.08204299956560135
0.5344401597976685 0.1978970766067505 0.3402992784976959
-0.18750198185443878 0.28267356753349304 -0.40051791071891785
-0.16827073693275452 -0.6327574253082275 -0.12564389407634735
0.4413939118385315 0.39914748072624207 0.005179259460419416
0.118197500705719 0.4000968635082245 -0.2367437332868576
-0.13903523981571198 0.4017009735107422 0.1049598976969719
0.2463262528181076 0.1362171322107315 -0.4017468988895416
0.14792956411838531 -0.6178317070007324 -0.12453725188970566
0.4545883536338806 -0.006803729571402073 -0.007978895679116249
-0.4316937327384949 -0.09861521422863007 -0.3377813398838043
0.5157787799835205 0.40015628933906555 -0.20317822694778442
0.38077056407928467 0.14630025625228882 -0.4034196436405182
-0.11908943206071854 -0.624119758605957 -0.13075058162212372
-0.49902278184890747 0.09990151971578598 -0.062295496463775635
-0.11261984705924988 -0.01901337131857872 0.23663799464702606
-0.35253193974494934 0.29056835174560547 -0.3981318175792694
-0.38117465376853943 0.06508606672286987 -0.02155570685863495
-0.081295907497406 -0.5310203433036804 0.19043239951133728
0.33329471945762634 -0.0014958586543798447 0.11938472092151642
-0.4327299892902374 0.0047503504902124405 -0.29510968923568726
-0.5724809169769287 -0.017078634351491928 0.19326616823673248
0.4399299621582031 -0.2774406373500824 0.04258204251527786
-0.4213452935218811 0.3974098265171051 -0.21549831330776215
0.05931463837623596 0.402977854013443 0.2097800076007843
0.03142678365111351 0.0028481371700763702 -0.27050676941871643
-0.502262532711029 -0.09804300963878632 -0.3372509181499481
-0.20446448028087616 -0.0015722999814897776 0.06292746216058731
0.018107589334249496 -0.21787434816360474 -0.3574112057685852
-0.07520073652267456 0.00040520858601666987 0.22888976335525513
0.18632972240447998 -0.648949146270752 -0.2923200726509094
-0.4730021357536316 0.09122129529714584 0.3418892025947571
-0.2502874732017517 0.0017316628945991397 -0.1900755912065506
0.3889874815940857 -0.487705796957016 -0.07916354387998581
0.003379788715392351 -0.4260038733482361 0.2392735481262207
0.08050858974456787 0.0016414867714047432 -0.22170667350292206
0.34264418482780457 0.0030524805188179016 0.09982367604970932
-0.18629591166973114 0.3924120366573334 0.3393457233905792
-0.3806985914707184 0.0469859354197979 -0.24309125542640686
-0.5054208040237427 -0.07269428670406342 -0.40175437927246094
0.5783544778823853 0.2000664621591568 0.03540876880288124
-0.06465823203325272 0.0029187314212322235 -0.15681155025959015
0.06791137158870697 -0.22499021887779236 0.31185445189476013
0.16537494957447052 0.04162389412522316 0.4637511372566223
-0.580479621887207 0.2664768695831299 -0.06940332800149918
-0.3956766128540039 -0.07709486782550812 -0.1054951399564743
0.16748902201652527 0.003302091732621193 -0.12092490494251251
0.0075604552403092384 -0.29988783597946167 -0.3577122390270233
0.27762946486473083 -0.3752756118774414 0.22196149826049805
0.19128189980983734 0.40037381649017334 -0.12227283418178558
-0.04097488150000572 0.06948918849229813 -0.39820602536201477
0.44127321243286133 -0.32106125354766846 -0.08294635266065598
-0.021101072430610657 0.31119105219841003 -0.39940568804740906
-0.575545072555542 0.06656944751739502 -0.34683695435523987
0.25611576437950134 -0.6243013143539429 0.12332835793495178
0.18235929310321808 0.002209186088293791 0.25910326838493347
-0.5151679515838623 -0.08982767909765244 0.3236817419528961
-0.4061819016933441 0.0879373550415039 -0.3955408036708832
-0.08676376938819885 -0.621797502040863 -0.1101486086845398
-0.17359991371631622 0.0025520706549286842 -0.0760345458984375
-0.3573348820209503 0.39860427379608154 -0.3678334355354309
0.5522981286048889 0.0040940833278000355 0.2656875550746918
0.19703315198421478 0.19719453155994415 0.465469628572464
-0.2683759927749634 0.3392556607723236 0.3435693681240082
-0.28132739663124084 0.3955041766166687 -0.09305352717638016
-0.14051394164562225 -0.4187391996383667 -0.18006962537765503
0.5809373259544373 0.20229430496692657 0.05076483637094498
-0.1473153829574585 -0.3769848048686981 -0.23058222234249115
0.29920488595962524 -0.26997843384742737 -0.31033530831336975
0.29551398754119873 0.24849703907966614 -0.40190282464027405
0.2681211829185486 0.0021122079342603683 -0.08548077940940857
-0.3741712272167206 0.1256636381149292 0.3405841886997223
-0.5425198078155518 0.06646956503391266 -0.21750858426094055
-0.0811045840382576 0.0013427091762423515 -0.2253170758485794
0.4439944624900818 0.16051797568798065 0.3406009078025818
-0.57602858543396 0.05115033686161041 0.25635281205177307
-0.18163125216960907 0.0026213955134153366 -0.24562348425388336
0.048647038638591766 0.39957568049430847 0.028756598010659218
0.2036839723587036 -0.6510902643203735 -0.28205928206443787
0.32821741700172424 0.16538241505622864 0.45278674364089966
0.026678791269659996 0.3025290071964264 0.3814970552921295
0.2660805284976959 -0.08329950273036957 0.2777235805988312
-0.25788700580596924 0.08062020689249039 0.3395363390445709
0.08149365335702896 0.3990509510040283 -0.180771604180336
0.5790774822235107 0.30170708894729614 0.010431824252009392
0.35009631514549255 -0.6345415711402893 -0.051222145557403564
0.39112961292266846 -0.46151202917099 -0.07440472394227982
0.341854989528656 -0.5163922309875488 0.13399919867515564
-0.49389535188674927 0.10267951339483261 -0.054571934044361115
0.4311069846153259 0.3984850347042084 0.014299100264906883
-0.18415531516075134 0.3878115117549896 0.3407030701637268
-0.18445008993148804 0.40080150961875916 -0.07649536430835724
0.39651942253112793 -0.3954015374183655 -0.0479150265455246
0.20442022383213043 -0.620843768119812 0.13202950358390808
-0.07753019779920578 0.0022438550367951393 -0.13567855954170227
-0.16123464703559875 0.0018476452678442001 -0.26073408126831055
-0.577100932598114 0.22075937688350677 -0.37555673718452454
-0.17105531692504883 0.3999596834182739 -0.02333730459213257
-0.31421297788619995 0.0013089785352349281 -0.18297503888607025
0.1156773716211319 0.39935049414634705 0.07098904997110367
0.001205930602736771 -0.09105823934078217 0.2971782088279724
0.3647269606590271 -0.488614946603775 -0.15759479999542236
0.3304808437824249 0.3495861291885376 0.448398232460022
0.036949291825294495 0.37543484568595886 0.4464949667453766
-0.5369759798049927 0.0027667186222970486 0.0024050879292190075
-0.04315732792019844 -0.5684386491775513 0.22061526775360107
0.2579089403152466 -0.02724752575159073 0.3230198621749878
0.5783534646034241 0.09232291579246521 0.19665619730949402
0.18867293000221252 0.11010082811117172 -0.40023452043533325
-0.16435162723064423 0.39943644404411316 0.021493131294846535
0.23942510783672333 0.25372597575187683 0.46574634313583374
-0.16320273280143738 0.07600805908441544 0.34267377853393555
-0.41449201107025146 0.39690133929252625 -0.3030012249946594
0.287788063287735 0.0011174008250236511 -0.2960706651210785
0.09315856546163559 0.0014622854068875313 0.11744397133588791
0.44368231296539307 -0.0010714968666434288 0.1769528090953827
-0.47682419419288635 0.393364280462265 -0.12358388304710388
-0.5783008337020874 0.12494789808988571 0.008116938173770905
-0.08533555269241333 -0.14372922480106354 -0.31450873613357544
-0.4132026135921478 0.0013875446747988462 0.34290361404418945
-0.20448926091194153 0.0016975774196907878 -0.16040857136249542
-0.4299940764904022 0.4003065228462219 -0.33040574193000793
-0.5398108959197998 0.3914884328842163 -0.1994623988866806
-0.5337013602256775 0.29071730375289917 0.3395344614982605
-0.5492966175079346 -0.00010338518768548965 -0.0693652406334877
0.4471034109592438 -0.10061422735452652 -0.03759055584669113
0.2627454400062561 -0.6268419623374939 0.15011778473854065
0.3839942216873169 -0.3675532937049866 -0.2177886664867401
0.2414151132106781 -0.6289407014846802 0.215306356549263
0.2309941053390503 -0.13925285637378693 0.2879643142223358
-0.1865481287240982 0.2134753167629242 -0.39814504981040955
-0.18685585260391235 -0.12195669859647751 0.15286265313625336
0.3958381712436676 -0.000144719029776752 0.11300564557313919
0.3154338300228119 -0.25810566544532776 -0.3033991754055023
-0.05840513855218887 0.0015372028574347496 0.18558837473392487
-0.1211252436041832 0.3997069001197815 0.1439322531223297
-0.23473314940929413 0.10508707165718079 -0.3980526626110077
0.36846739053726196 -0.4336721897125244 -0.1490955352783203
0.0018345728749409318 0.40008655190467834 0.003395302686840296
0.11437835544347763 0.3999519944190979 0.09614154696464539
0.132695272564888 0.46296313405036926 0.43850594758987427
0.1371053010225296 0.002608906477689743 -0.020643411204218864
-0.4709186851978302 0.39984217286109924 -0.3241446912288666
0.2765493094921112 0.2864339053630829 0.34329310059547424
0.0520673468708992 0.37658560276031494 0.33936259150505066
-0.4121904671192169 -0.0850934386253357 -0.3891523778438568
0.3372350037097931 -0.4615149199962616 -0.20063447952270508
0.5812908411026001 0.31711438298225403 0.2400318831205368
0.05163755267858505 -0.5391767621040344 -0.3127938210964203
-0.29319697618484497 0.09567782282829285 -0.3972441256046295
-0.14768335223197937 -0.0013656709343194962 -0.08337963372468948
0.39789238572120667 -0.2539340853691101 0.14550240337848663
-0.3553805649280548 0.4099881052970886 -0.027488593012094498
-0.5360350608825684 0.3852636516094208 -0.39329132437705994
0.08337808400392532 0.001929787453263998 0.08312907814979553
-0.056447356939315796 -0.618951678276062 -0.03892860189080238
0.08347706496715546 -0.6207073330879211 -0.04643099382519722
0.33011260628700256 -0.5139846205711365 -0.21099373698234558
-0.4608958959579468 0.09496072679758072 -0.2716308534145355
-0.26430386304855347 0.006396535784006119 0.3296085298061371
-0.27136245369911194 0.4006050229072571 0.13255110383033752
-0.23842042684555054 -0.1378597468137741 -0.07551726698875427
0.330048531293869 0.002616443671286106 0.008112702518701553
0.4121135473251343 -0.2738396227359772 -0.18084996938705444
0.061703313142061234 0.3999950587749481 0.07258190214633942
0.577792763710022 0.021630344912409782 0.05848096311092377
-0.17914147675037384 0.33605584502220154 0.340840220451355
0.3196142613887787 -0.06004615128040314 0.4272060990333557
-0.5655714273452759 0.04521601274609566 0.10382476449012756
-0.16563540697097778 -0.5145028829574585 0.07974959164857864
0.32878005504608154 0.2702406942844391 0.3677475154399872
0.21362827718257904 0.002392382128164172 0.14683884382247925
-0.5487591028213501 0.08049045503139496 0.07808081805706024
0.07962346822023392 0.15137726068496704 0.46500062942504883
0.4630352854728699 0.4015481173992157 -0.06587354093790054
-0.3639621138572693 0.007126559503376484 -0.19548097252845764
-0.0396956205368042 0.38593438267707825 -0.3940570652484894
0.2541740834712982 0.4727896451950073 0.439863383769989
0.521388590335846 0.13506533205509186 -0.40463799238204956
-0.09048493951559067 0.09564761072397232 -0.398902952671051
0.33030104637145996 -0.03255367651581764 0.4554122984409332
0.1505921483039856 0.31655070185661316 0.34131789207458496
-0.5738619565963745 0.043978411704301834 0.3187922537326813
-0.07101458311080933 -0.15077592432498932 -0.32500556111335754
0.16481375694274902 -0.6209818720817566 -0.13675564527511597
0.132216677069664 0.002165713347494602 -0.29312705993652344
-0.5738909244537354 0.07106035947799683 -0.06110336631536484
0.33819472789764404 0.002479697111994028 -0.18650896847248077
0.37656259536743164 0.0011800052598118782 0.14419376850128174
-0.05160542577505112 0.39876788854599 -0.17497318983078003
0.13354326784610748 -0.6548975706100464 -0.2954227328300476
-0.12743912637233734 -0.5951929688453674 -0.20675203204154968
0.3340909481048584 0.0659521073102951 0.4182003140449524
0.5753255486488342 0.02867068350315094 -0.3902127146720886
-0.07690135389566422 -0.16303469240665436 -0.32879140973091125
-0.13763883709907532 -0.07258211821317673 0.21670635044574738
0.3373947739601135 0.05621955171227455 0.4174191951751709
0.28431805968284607 -0.0011075204238295555 0.24449780583381653
-0.21736647188663483 -0.07403971999883652 0.09597694873809814
-0.23618313670158386 -0.008188946172595024 -0.061407409608364105
0.582304060459137 0.03532898426055908 -0.35079485177993774
0.1116994097828865 -0.005713955033570528 0.31940925121307373
0.09041446447372437 0.001761463936418295 0.1393086463212967
-0.38989540934562683 0.00042129820212721825 -0.3970600664615631
0.17379888892173767 0.4653536081314087 0.41366568207740784
-0.21509093046188354 -0.07434878498315811 0.09242492914199829
-0.1442129909992218 -0.6289059519767761 0.02550702728331089
-0.25899800658226013 0.0026839543133974075 0.21002770960330963
-0.37418031692504883 -0.058451175689697266 0.19916868209838867
-0.4850793480873108 0.007195752114057541 -0.3366837501525879
0.20538656413555145 0.39918261766433716 -0.25206929445266724
0.01032744999974966 -0.6210732460021973 -0.14006437361240387
-0.06590978056192398 -0.4594725966453552 -0.268612265586853
0.029568519443273544 0.345358669757843 0.43092119693756104
-0.28167885541915894 0.14029738306999207 0.3408961296081543
-0.5735902190208435 0.045479562133550644 0.0929897278547287
0.3912755846977234 -0.36932289600372314 0.12872429192066193
0.584124743938446 0.2563351094722748 0.3074122369289398
-0.22058410942554474 0.008500643074512482 -0.40001967549324036
-0.07780007272958755 -0.39203327894210815 0.19830411672592163
-0.5405879020690918 0.385938435792923 -0.377396821975708
-0.20250403881072998 0.002859921660274267 -0.168617844581604
-0.5311835408210754 0.003326009027659893 0.16787369549274445
0.03352188691496849 -0.39356786012649536 0.24676156044006348
-0.4402034282684326 0.3916396200656891 -0.3949195444583893
-0.3723309338092804 -0.05415375903248787 0.3349307179450989
-0.049690455198287964 -0.6221941709518433 -0.026176780462265015
-0.15113051235675812 0.0014782659709453583 -0.22362859547138214
-0.09690826386213303 0.3995687961578369 0.11901667714118958
0.3623550236225128 -0.2286752462387085 -0.2651344835758209
-0.4486042261123657 0.3907351493835449 0.3375825881958008
-0.1359025090932846 -0.5263922810554504 0.13095861673355103
0.3541100025177002 -0.5678489804267883 0.10117153078317642
0.4234379231929779 0.400235652923584 0.2825862467288971
0.2986689507961273 0.36778724193573 0.3430229723453522
-0.04799823462963104 0.14696072041988373 0.3950563371181488
0.26485323905944824 0.0005492605268955231 -0.28009021282196045
-0.09295295178890228 0.0030365996062755585 0.13997571170330048
0.06173111870884895 0.0024446439929306507 0.15617884695529938
-0.24612462520599365 -0.013379779644310474 -0.053215835243463516
0.25386303663253784 -0.3796984553337097 -0.28643086552619934
-0.32219621539115906 0.0025197032373398542 0.019566664472222328
0.5815099477767944 0.27732330560684204 0.060107190161943436
-0.20141227543354034 -0.007757022976875305 0.11607832461595535
0.5544390678405762 0.395763099193573 -0.15927915275096893
0.28503742814064026 -0.6273940801620483 0.11109231412410736
0.39512521028518677 -0.30667445063591003 0.1466197520494461
0.033697277307510376 0.3802650570869446 0.44711729884147644
0.10423552244901657 -0.6331433057785034 -0.26756682991981506
0.555692732334137 0.2281695157289505 -0.4008784890174866
-0.2842419147491455 0.003046325407922268 0.23370811343193054
0.5779185891151428 0.21758022904396057 0.09204250574111938
-0.5425544381141663 0.006006808951497078 0.01748204231262207
0.23414964973926544 0.4001181125640869 0.1929638683795929
-0.24110208451747894 -0.28419941663742065 -0.006755742710083723
-0.17729762196540833 0.00138174369931221 -0.05922156944870949
0.3823797106742859 -0.34936514496803284 -0.22902420163154602
-0.26985907554626465 0.39729517698287964 -0.1468760371208191
-0.3645718991756439 0.13534142076969147 -0.39722830057144165
0.333019882440567 0.39960625767707825 -0.041809700429439545
0.17447695136070251 0.3607756495475769 0.4671500027179718
0.19790956377983093 0.3994629979133606 0.014331330545246601
0.2726486921310425 -0.24113717675209045 0.2684681713581085
-0.5804290175437927 0.21088548004627228 0.18829640746116638
-0.5709012150764465 0.044914573431015015 -0.31075718998908997
0.2355930060148239 0.0035795019939541817 0.19425077736377716
-0.37034010887145996 0.2674976885318756 -0.3997058570384979
-0.38400280475616455 0.22502079606056213 -0.4005160629749298
0.4890938699245453 0.10923787951469421 -0.4053427577018738
0.44285714626312256 0.40070009231567383 -0.06947603076696396
-0.009263874962925911 -0.5134667158126831 -0.29469022154808044
-0.3607273995876312 -0.020397759974002838 -0.08718174695968628
0.1840617060661316 0.1589137613773346 0.46435320377349854
0.04532767832279205 -0.6197590827941895 -0.19959880411624908
-0.36213329434394836 0.00967388041317463 -0.01312317419797182
0.3771204352378845 -0.37118300795555115 0.12974685430526733
-0.18232320249080658 0.3990170359611511 -0.00029253691900521517
0.23465077579021454 0.0027388143353164196 0.15467624366283417
-0.07801176607608795 0.048767223954200745 0.34378692507743835
0.36495155096054077 -0.02013920247554779 -0.24441054463386536
-0.5696436166763306 0.06589948385953903 0.32857048511505127
0.5798713564872742 0.16402876377105713 -0.020026735961437225
0.42251208424568176 0.005036947783082724 0.29059940576553345
0.5818272829055786 0.27829310297966003 0.31360331177711487
-0.5791115164756775 0.17492984235286713 -0.035264115780591965
0.0009238644270226359 0.268241286277771 -0.39910635352134705
-0.5279955863952637 -0.08383893221616745 -0.08200185745954514
0.4769729971885681 0.39947521686553955 -0.32216453552246094
-0.498666912317276 -0.0011143181473016739 -0.29746997356414795
-0.35487037897109985 0.0224238783121109 -0.0965718999505043
0.39645662903785706 0.07664784789085388 0.3413240313529968
0.29533106088638306 -0.07498381286859512 -0.3165404200553894
0.412098228931427 0.39947310090065 -0.04669435694813728
0.2297409176826477 -0.6202729940414429 -0.1375046819448471
-0.14014898240566254 -0.6322789788246155 -0.012743407860398293
0.3666601777076721 -0.3019620180130005 -0.25438010692596436
-0.5754462480545044 0.00561101408675313 0.2696414589881897
0.2658114731311798 0.40150129795074463 -0.14570172131061554
-0.5161298513412476 0.39447489380836487 0.05994275212287903
-0.12441104650497437 0.007459364831447601 0.324238657951355
0.14392440021038055 -0.18192782998085022 -0.3716752827167511
0.1593131422996521 -0.44406965374946594 -0.3156999945640564
0.11473380774259567 0.09016301482915878 0.3448296785354614
-0.1659306436777115 -0.4928760826587677 0.08020558953285217
-0.21568532288074493 -0.19779202342033386 -0.16761349141597748
-0.26321426033973694 0.39620524644851685 -0.16571353375911713
-0.37237489223480225 -0.059004198759794235 0.01840047538280487
0.028097203001379967 0.3001530170440674 0.3451355993747711
0.006381005048751831 -0.5044314861297607 0.24607107043266296
0.4478202760219574 -0.06018226221203804 -0.021015428006649017
0.20796579122543335 0.3926485776901245 -0.3881673514842987
0.37235918641090393 -0.6247043013572693 -0.13070324063301086
-0.3271118998527527 0.2803064286708832 -0.39932918548583984
0.16877400875091553 -0.6214577555656433 0.03771970793604851
-0.4308341443538666 0.1291857361793518 -0.3963940739631653
0.22197331488132477 -0.26808762550354004 0.295148640871048
-0.22521540522575378 0.0023210542276501656 0.2769176959991455
0.028472311794757843 0.10000791400671005 0.35416311025619507
0.24142983555793762 0.004088444635272026 0.1070677638053894
0.5804685950279236 0.2441621720790863 -0.3555133044719696
0.32013601064682007 0.39002829790115356 -0.3906131982803345
0.5813809037208557 0.2268146574497223 0.0647071897983551
0.016337787732481956 0.3610522150993347 0.341913640499115
0.13675294816493988 0.4003911316394806 -0.23810285329818726
-0.3668387234210968 0.02548055350780487 -0.1433880776166916
-0.5143997073173523 0.1032768040895462 0.2374265342950821
-0.0921773612499237 0.0024073696695268154 -0.040276382118463516
0.3592739999294281 0.3999590575695038 -0.04066760838031769
0.07808363437652588 -0.6190649271011353 -0.14328661561012268
-0.16428938508033752 -0.6528301239013672 0.0438518226146698
-0.47899019718170166 0.364657998085022 0.34202054142951965
0.4499282240867615 -0.3506646454334259 -0.012871170416474342
0.29531073570251465 0.0015336237847805023 -0.00952831283211708
-0.0892585963010788 -0.6177642345428467 -0.011832132935523987
-0.5256702303886414 0.0973871573805809 -0.2978244125843048
-0.4863928556442261 0.3966994285583496 0.33159923553466797
-0.18306121230125427 0.3932919502258301 0.33491647243499756
0.3418453335762024 -0.0008833669126033783 0.1588687300682068
0.38054150342941284 -0.6547093987464905 -0.036582157015800476
0.4962828755378723 0.0003678188659250736 0.1519225537776947
0.16055655479431152 0.4025724530220032 0.3373786211013794
-0.38325732946395874 0.06928584724664688 -0.1448715776205063
-0.5620774626731873 0.09861359745264053 -0.3925442397594452
0.13195890188217163 0.401805579662323 0.34530746936798096
0.28023210167884827 -0.6255193948745728 -0.18017053604125977
0.36761605739593506 -0.45580410957336426 -0.14881160855293274
0.11405736207962036 -0.09423486143350601 0.32675108313560486
