-0.17096541821956635 -0.5475051999092102 -0.03509238734841347
-0.19029703736305237 -0.019581815227866173 0.18429066240787506
0.280555784702301 0.03718164563179016 0.46899881958961487
-0.5670292377471924 0.14580769836902618 -0.39297357201576233
-0.5725000500679016 0.05381214618682861 0.1572151482105255
-0.4948587417602539 0.15558995306491852 -0.3989820182323456
0.4463558793067932 -0.2067689746618271 -0.11411905288696289
-0.5564041137695312 -0.007902652025222778 0.2144649475812912
0.24383722245693207 0.39903512597084045 0.0811510980129242
0.39542025327682495 1.5050172805786133e-06 -0.09464453160762787
0.34371811151504517 -0.605137825012207 -0.17596042156219482
-0.19046500325202942 -0.4943358600139618 -0.05552835389971733
0.5735335946083069 0.05790933594107628 -0.2188788801431656
-0.007068092934787273 -0.27627086639404297 0.2866494357585907
0.09801768511533737 -0.6165931224822998 0.11275048553943634
0.050415925681591034 0.0025878697633743286 0.08591318875551224
0.08678127825260162 0.45788881182670593 0.40466034412384033
-0.09274908900260925 -0.38611188530921936 0.23128727078437805
-0.2982509136199951 0.40731266140937805 -0.3727816343307495
-0.4216316342353821 0.028006745502352715 0.33813032507896423
-0.4521830081939697 -0.0007472388679161668 -0.1018703505396843
-0.1902049481868744 -0.37599432468414307 -0.09362387657165527
-0.028871800750494003 -0.0006913812831044197 -0.3440984785556793
-0.21888716518878937 0.40435752272605896 -0.03841099515557289
0.3261989653110504 0.3978537619113922 0.3935004770755768
0.38099315762519836 -0.0011161714792251587 -0.21903455257415771
-0.5674191117286682 0.01501993928104639 0.27204015851020813
-0.4858713150024414 0.3885970413684845 0.012884720228612423
-0.22121229767799377 0.03783418610692024 -0.3908972442150116
-0.28301042318344116 0.002412043511867523 0.21157169342041016
0.2502208650112152 -0.03506544977426529 0.3193318247795105
0.3412276804447174 -0.03288711607456207 0.21228617429733276
0.210597425699234 0.002924814820289612 -0.10453804582357407
-0.4897570013999939 -0.04851670563220978 -0.3937169909477234
0.2813870906829834 0.45777714252471924 0.4331739544868469
-0.32028666138648987 0.3708515763282776 -0.19077226519584656
-0.10065712034702301 0.042024239897727966 -0.39163973927497864
0.2773379385471344 -0.06463784724473953 0.3184826672077179
-0.3608923554420471 0.03440200164914131 0.1602282077074051
0.08100729435682297 0.0002468964084982872 -0.340830534696579
0.1551027148962021 0.41065841913223267 -0.052740514278411865
0.5810521841049194 0.14343726634979248 -0.061460863798856735
0.16090212762355804 0.1130833551287651 0.3395785093307495
-0.17372259497642517 -0.5532912015914917 0.023658201098442078
-0.3785453736782074 0.377963662147522 0.023830724880099297
0.04412034898996353 -0.5329422354698181 -0.31040942668914795
-0.399505078792572 0.022588837891817093 -0.39416658878326416
-0.5579509139060974 0.0635913610458374 0.07602410018444061
-0.2654482126235962 0.043845050036907196 0.33871468901634216
-0.15749308466911316 0.0005882494151592255 -0.3305293023586273
0.43917739391326904 0.3885182738304138 -0.22392727434635162
-0.18841637670993805 -0.4818352162837982 0.03480697423219681
0.2657299041748047 -0.09209559112787247 0.27449214458465576
0.31885701417922974 -0.18568094074726105 0.23538841307163239
-0.38292592763900757 -0.06528331339359283 -0.08010640740394592
-0.11869177222251892 0.00025540217757225037 0.22377900779247284
-0.3693285882472992 -0.027313001453876495 -0.31968972086906433
0.31439656019210815 0.0018259696662425995 -0.12107116729021072
0.10335575044155121 -0.25950756669044495 0.3164227306842804
-0.35582059621810913 0.0002492018975317478 -0.22884710133075714
0.2529699504375458 -0.36917954683303833 -0.3198109567165375
-0.24181561172008514 0.39210161566734314 -0.2844339907169342
0.14326190948486328 0.22826987504959106 0.47137653827667236
0.4230019748210907 -0.1185130625963211 0.12243722379207611
-0.06762617826461792 -0.44581541419029236 -0.2609219253063202
-0.44472604990005493 -0.0942440778017044 0.281146764755249
0.2005256563425064 0.293935090303421 0.34022030234336853
-0.5481463670730591 0.09613639861345291 0.030012380331754684
0.18337102234363556 -0.25882047414779663 0.3122698962688446
-0.41655242443084717 0.40381839871406555 -0.3009980022907257
-0.4202693998813629 0.00922764465212822 0.2744913399219513
-0.19520974159240723 -0.3036618232727051 -0.20468401908874512
0.2536565959453583 0.3935103416442871 0.4384257197380066
-0.04358702525496483 -0.6349912285804749 -0.23568201065063477
-0.29044049978256226 0.0029015373438596725 0.09337836503982544
-0.5749056935310364 0.19409498572349548 -0.09489301592111588
0.36612728238105774 -0.011201373301446438 0.18209677934646606
0.10097602754831314 -0.0010864334180951118 0.11528819054365158
0.38576221466064453 -0.5426532626152039 0.05581076815724373
0.5261233448982239 0.004327142611145973 0.2797200381755829
-0.1494704782962799 -0.2795373201370239 -0.28515076637268066
0.37281209230422974 0.0011082207784056664 -0.0944591611623764
-0.4461200535297394 0.40238893032073975 0.1175818219780922
-0.3979954421520233 0.07960543781518936 -0.25557470321655273
0.24989710748195648 0.002016156679019332 -0.1540897786617279
0.1411052644252777 0.4089566171169281 0.14461490511894226
0.06817880272865295 0.0031836209818720818 -0.1933402717113495
0.36457598209381104 0.0010094468016177416 -0.08433865010738373
0.16966433823108673 0.07144096493721008 0.4617439806461334
0.15983885526657104 -0.6285973191261292 0.1594424992799759
0.3889530301094055 -0.23558348417282104 -0.21456101536750793
-0.02675490826368332 0.3263883888721466 -0.4005154073238373
0.4235651195049286 0.10136599838733673 0.3458276093006134
0.32078099250793457 -0.19323499500751495 -0.29897427558898926
0.21792247891426086 0.30136770009994507 0.4603371322154999
0.3721485435962677 0.0025706524029374123 0.21831537783145905
0.025042353197932243 -0.6278067231178284 -0.14247411489486694
0.5893397927284241 0.35246071219444275 -0.34078893065452576
-0.5610165596008301 0.0023024692200124264 -0.12325814366340637
0.26483431458473206 -0.0015290661249309778 0.35040825605392456
0.27664560079574585 0.455288290977478 0.419537216424942
0.11233838647603989 0.001438656821846962 -0.21068012714385986
0.4349599778652191 0.4071098268032074 0.1932762712240219
-0.4452287554740906 0.09917978942394257 -0.3589215576648712
0.41774067282676697 -0.3075092136859894 0.13092005252838135
-0.3945300579071045 -0.002991645596921444 -0.08117345720529556
-0.5438796281814575 -0.0874585434794426 -0.3368815779685974
0.09029041230678558 0.39492911100387573 0.30953967571258545
0.3154727816581726 0.28955620527267456 0.4067833721637726
0.080463707447052 0.0021894616074860096 -0.2416927069425583
0.32220345735549927 0.3916277289390564 0.3183528780937195
-0.5788909792900085 0.04467841610312462 0.30277565121650696
0.4801132082939148 0.29286110401153564 -0.40710484981536865
-0.3376609981060028 0.22179946303367615 0.34594717621803284
-0.5874172449111938 0.1453184187412262 0.18205416202545166
-0.398499995470047 0.3693382441997528 -0.2029549479484558
-0.572003960609436 0.21825994551181793 0.2555234730243683
-0.3835618495941162 -0.08861044049263 -0.2338995635509491
0.23459351062774658 -0.108399897813797 -0.3548303246498108
-0.5846571326255798 0.30475595593452454 0.3289308547973633
0.5905760526657104 0.15352408587932587 0.09551649540662766
-0.2613345682621002 0.19651639461517334 0.34421128034591675
0.42446020245552063 -0.17489057779312134 -0.14676406979560852
-0.46094653010368347 0.055887848138809204 0.34730756282806396
-0.2334671914577484 0.39423486590385437 0.3271963894367218
0.48374438285827637 0.4095323979854584 -0.10669311881065369
0.02862980030477047 0.0019034473225474358 0.2564331591129303
0.3787955045700073 -0.3832853436470032 -0.23540565371513367
-0.0595385767519474 0.4017646610736847 0.11469849199056625
-0.5783263444900513 0.049916159361600876 -0.12781603634357452
0.07487814128398895 -0.6136296391487122 0.10485602915287018
-0.014765976928174496 -0.4270237982273102 0.24374698102474213
-0.4961148798465729 0.0936480388045311 0.30107927322387695
0.5253590941429138 -0.0015190280973911285 -0.10230162739753723
-0.27824363112449646 0.38879555463790894 0.0482698492705822
0.40492480993270874 0.3870999217033386 -0.3404252529144287
0.19706963002681732 -0.619916558265686 -0.009585748426616192
-0.5547438263893127 -0.06237870827317238 0.3479346036911011
0.09723280370235443 0.43238383531570435 0.4372381865978241
0.12245337665081024 0.03320489078760147 0.46025463938713074
0.3608185350894928 -0.5840882062911987 -0.14986272156238556
-0.19380496442317963 -0.19873102009296417 -0.166695237159729
-0.08387232571840286 0.0022662924602627754 -0.0781458392739296
0.44959595799446106 -0.05878826975822449 -0.026064256206154823
0.3343612551689148 -0.632193386554718 -0.07966424524784088
0.18737898766994476 -0.6194077134132385 0.10901285707950592
-0.19532907009124756 -0.3103771209716797 0.1494230479001999
-0.005451673176139593 0.2884541451931 0.3427656888961792
-0.5739782452583313 0.018710609525442123 0.029314404353499413
0.25272151827812195 0.24063006043434143 0.34106990694999695
0.23841603100299835 -0.13985095918178558 0.2909530997276306
-0.581803560256958 0.02674728073179722 -0.354533314704895
0.4493430554866791 0.29674768447875977 -0.4058990180492401
-0.2098405510187149 0.0011827684938907623 0.3166957199573517
0.3178381621837616 -0.6239351630210876 -0.029369594529271126
0.30955007672309875 0.4012213349342346 0.03644249588251114
-0.40071940422058105 0.3727808892726898 0.047587670385837555
-0.056951966136693954 -0.5635426640510559 0.1937108337879181
0.2616519033908844 0.0018832548521459103 0.13728418946266174
0.10351052135229111 0.001109975390136242 -0.29244619607925415
-0.08802375942468643 -0.06365884095430374 0.24619242548942566
0.42673203349113464 -0.2882169187068939 -0.1353919506072998
0.0710940882563591 -0.1604594737291336 -0.35698679089546204
0.2033035010099411 0.05622979998588562 -0.4063117802143097
0.32729893922805786 0.2807024121284485 -0.402351975440979
0.5427827835083008 -0.0006586918607354164 0.2795587182044983
0.5636821389198303 0.3939090371131897 -0.16909214854240417
-0.39586663246154785 0.4008193910121918 0.02663888968527317
0.018989887088537216 0.2838054299354553 0.4590493142604828
0.36999979615211487 -0.577303946018219 -0.14550864696502686
0.580772340297699 0.01593789830803871 0.2290472835302353
0.18332482874393463 -0.5209662318229675 -0.29844897985458374
0.09903593361377716 0.36501598358154297 0.3488740026950836
0.23177409172058105 0.002840280532836914 -0.10270078480243683
0.27271512150764465 -0.24640120565891266 -0.32991552352905273
-0.2314811795949936 -0.28586187958717346 -0.1521052122116089
0.2779260575771332 0.4547712206840515 0.4408099353313446
-0.5009067058563232 -0.11209818720817566 0.34516701102256775
-0.14256621897220612 0.0030653681606054306 -0.11494051665067673
0.10485807061195374 -0.08994778245687485 0.35885342955589294
-0.06333687901496887 0.26792624592781067 -0.3894200921058655
0.24523623287677765 0.3913251459598541 0.3532554805278778
0.41185295581817627 0.028941724449396133 -0.40236592292785645
0.0145802590996027 0.03816906362771988 0.40367835760116577
0.16741377115249634 0.40503454208374023 -0.3970549702644348
0.12364094704389572 -0.05988667160272598 0.3148513436317444
-0.12065137177705765 -0.0724550411105156 0.24096301198005676
0.20176930725574493 0.0022678347304463387 0.03318367525935173
-0.18847627937793732 0.4049542248249054 -0.12864476442337036
-0.433622807264328 0.38290315866470337 -0.1944272518157959
-0.43807151913642883 -0.10456033051013947 -0.07458295673131943
-0.35058727860450745 0.2565862536430359 0.3457292914390564
-0.3673616349697113 0.05982839688658714 -0.2971363067626953
0.16873273253440857 0.30189669132232666 -0.4040365219116211
-0.15481162071228027 -0.4502187669277191 0.08984987437725067
0.20834453403949738 -0.6247739791870117 0.07991865277290344
-0.19247248768806458 -0.3786306381225586 0.033011943101882935
-0.0355171374976635 -0.6271952986717224 0.10463067144155502
0.4950088560581207 -0.00011865794658660889 0.22068510949611664
-0.5737903118133545 0.06963353604078293 0.2027306854724884
-0.2356564849615097 -0.0281817726790905 0.015978055074810982
-0.05617400258779526 0.3893835246562958 -0.29302486777305603
0.07602038234472275 0.2722979187965393 -0.4052567481994629
-0.3355725407600403 0.008397094905376434 -0.32706308364868164
-0.13613943755626678 0.01770530641078949 -0.39892205595970154
0.3185464143753052 0.08415956050157547 0.4150440990924835
0.3992142081260681 -0.4534725546836853 -0.04391365498304367
0.10056152194738388 0.3938504755496979 0.24223768711090088
0.10037864744663239 0.00256030960008502 0.09764492511749268
0.2547614872455597 0.39500439167022705 -0.3235056698322296
-0.10939564555883408 -0.1627824455499649 -0.3080286681652069
0.3210647404193878 -0.06938400864601135 0.4364258050918579
0.1589455008506775 0.44564709067344666 0.4482952654361725
0.5699244141578674 0.01014985702931881 -0.10853925347328186
-0.0943642407655716 0.00617844145745039 -0.3835635781288147
-0.46866488456726074 -0.09404236823320389 -0.10966303944587708
-0.5787348747253418 0.34702616930007935 0.24660281836986542
-0.4870183765888214 0.007465488277375698 -0.15617986023426056
-0.5715007185935974 0.3598419725894928 0.34059256315231323
0.526022732257843 0.39435675740242004 -0.31407809257507324
-0.4126271903514862 -0.0576004758477211 0.3283422887325287
0.40161848068237305 -0.00011770293349400163 -0.08833927661180496
0.4517187476158142 -0.16411380469799042 -0.03996771574020386
0.27627331018447876 0.0584222748875618 0.4630984663963318
-0.11750604212284088 -0.0015132995322346687 0.2308640331029892
0.37836921215057373 -0.6238058805465698 -0.0012123482301831245
-0.040625106543302536 0.00010081101208925247 0.007627798244357109
0.19063721597194672 -0.09365513920783997 0.3324771225452423
0.3628951609134674 -0.0005241921171545982 0.08178535103797913
0.4809894263744354 0.3920042812824249 -0.20402438938617706
0.3038167655467987 -0.5160704255104065 -0.2391340732574463
-0.04952404648065567 0.0020256517454981804 0.020151056349277496
-0.15855860710144043 -0.48503345251083374 -0.176302969455719
-0.162419855594635 0.39540255069732666 -0.09526560455560684
0.38588109612464905 -0.4112752676010132 -0.12428143620491028
-0.18097718060016632 -0.513828456401825 -0.04449727013707161
-0.14037205278873444 -0.6559698581695557 -0.052097659558057785
-0.22017498314380646 -0.17319844663143158 -0.17246708273887634
0.3998076915740967 0.04902859404683113 0.35097748041152954
-0.042424701154232025 -0.6270987391471863 -0.0831228643655777
-0.16619057953357697 -0.23862020671367645 0.1683865785598755
-0.15372894704341888 -0.21700799465179443 0.18303540349006653
0.08723419904708862 0.44070473313331604 0.4445086121559143
-0.058503586798906326 -0.019735869020223618 -0.3298836052417755
0.20700843632221222 0.04161391034722328 0.4563716948032379
-0.5861685276031494 0.060055818408727646 -0.36788493394851685
0.5712173581123352 0.19603295624256134 0.16713382303714752
-0.03618689998984337 0.003499615006148815 -0.04815853014588356
-0.5086273550987244 0.41164255142211914 -0.1867029070854187
0.2482922375202179 0.457894504070282 0.42910072207450867
0.11803408712148666 0.0028504058718681335 -0.016513662412762642
0.4314965605735779 0.044326502829790115 0.34741079807281494
0.18217580020427704 -0.6253815293312073 -0.2318134903907776
-0.058624573051929474 0.003235149197280407 0.1265859752893448
-0.5838744640350342 0.13407039642333984 -0.15375150740146637
0.5751528143882751 0.0959010049700737 0.2724602520465851
0.2836723029613495 -0.6315969824790955 -0.09697044640779495
-0.14555680751800537 -0.17439648509025574 0.19063922762870789
-0.5764212608337402 0.15361648797988892 0.019503237679600716
-0.5028731226921082 -0.11491228640079498 0.21849387884140015
-0.049039896577596664 0.3000088632106781 -0.40161722898483276
-0.10558154433965683 0.39834359288215637 -0.17306073009967804
0.2061777561903 0.46395355463027954 0.38824549317359924
0.5396982431411743 0.25420865416526794 0.3378064036369324
-0.37968409061431885 -0.05650394782423973 -0.06437736749649048
-0.3096354603767395 0.3513011038303375 -0.17541691660881042
0.20979154109954834 -0.6176728010177612 0.05094247683882713
0.028867704793810844 0.38536977767944336 0.2203768789768219
-0.5282856225967407 0.34549400210380554 -0.10387258231639862
0.04552317410707474 -0.001030721701681614 0.17758353054523468
0.574999213218689 0.12965355813503265 -0.15461377799510956
-0.03349396958947182 -0.05391967296600342 0.2861591875553131
-0.46557262539863586 0.382461816072464 0.33552852272987366
-0.4491378962993622 0.3962722718715668 0.3167247474193573
-0.5289977788925171 -0.057991012930870056 0.3322354853153229
-0.5833053588867188 0.09481247514486313 0.24226468801498413
0.5844534039497375 0.39560890197753906 0.12428160011768341
0.18887768685817719 -0.6155393123626709 0.1943083554506302
-0.42001697421073914 -0.009098145179450512 -0.07588144391775131
0.45494958758354187 0.3901039958000183 -0.058646705001592636
0.46027153730392456 0.39675965905189514 -0.11824008822441101
0.4278581440448761 -0.2339155375957489 0.075788713991642
0.2636086046695709 0.11683932691812515 0.4614061415195465
-0.042900439351797104 0.0009782658889889717 -0.2901538908481598
0.15388251841068268 -0.6417825818061829 0.254297137260437
0.2816055715084076 -0.10613594204187393 0.26222890615463257
0.5651289820671082 0.3979410231113434 0.15006868541240692
-0.17741450667381287 -0.0850524827837944 -0.21468093991279602
-0.13832053542137146 0.33871006965637207 -0.4080575704574585
-0.34148821234703064 0.0011209775693714619 -0.28810179233551025
0.1966971457004547 0.4563751220703125 0.3822614550590515
-0.14988268911838531 -0.133500874042511 -0.25610798597335815
-0.1575087606906891 -0.5479715466499329 0.09214775264263153
-0.14020410180091858 0.3899424076080322 0.22981178760528564
-0.07035286724567413 0.0014100907137617469 0.23670807480812073
-0.01832265593111515 -0.001375691033899784 -0.3540506660938263
0.19282600283622742 0.008491294458508492 -0.39592668414115906
0.35330280661582947 0.0015687337145209312 -0.11851929128170013
-0.5201318264007568 0.007645563222467899 0.3378360867500305
-0.4407840967178345 -0.007314738351851702 -0.17729933559894562
0.12813326716423035 0.3947778642177582 -0.24798987805843353
0.5776432752609253 0.23869559168815613 -0.26593974232673645
-0.43344756960868835 0.0929756909608841 -0.0830128937959671
0.29472339153289795 0.0012038163840770721 0.10132425278425217
-0.2725379765033722 0.3812658190727234 -0.10803765803575516
-0.24032746255397797 -0.33573463559150696 -0.06429533660411835
0.4406895339488983 -0.3406933546066284 -0.043850336223840714
0.34717220067977905 -0.5462132096290588 0.13395069539546967
-0.22394998371601105 -0.13953250646591187 -0.15038971602916718
0.2749841809272766 -0.3951089084148407 -0.2684279978275299
-0.5656683444976807 0.07308358699083328 -0.03323373198509216
-0.09179828315973282 0.3927329480648041 0.010796570219099522
-0.056979987770318985 -0.6373748183250427 0.16933086514472961
0.19115930795669556 0.4713078737258911 0.4024760127067566
0.23880405724048615 0.1407676339149475 -0.39411038160324097
0.21935708820819855 0.3959040641784668 0.2774025797843933
-0.5507435202598572 -0.06411217153072357 -0.3097737431526184
0.03969261050224304 0.3895622491836548 -0.10483007878065109
0.41544097661972046 0.40946057438850403 0.08037980645895004
0.14869432151317596 0.0039588334038853645 -0.09386756271123886
0.4359482228755951 -0.30411720275878906 -0.044138353317976
0.5831330418586731 0.1474270522594452 0.2783505320549011
-0.04736735299229622 -0.6301887631416321 0.04460595175623894
-0.47602611780166626 -0.11725685745477676 -0.1008438989520073
-0.44727006554603577 0.10389886796474457 0.16228576004505157
-0.5722702741622925 0.01983931101858616 -0.3195050358772278
-0.3375895917415619 0.18371374905109406 -0.39426350593566895
0.08907406777143478 0.4667448401451111 0.3880898058414459
0.5753024816513062 0.36198297142982483 -0.31703099608421326
-0.16095508635044098 -0.44422030448913574 -0.15377254784107208
0.1335395723581314 -0.6291548013687134 -0.17433926463127136
-0.4461319148540497 0.40352362394332886 -0.18930767476558685
-0.1996006965637207 -0.006259145215153694 -0.16635194420814514
0.2647116780281067 -7.529184222221375e-05 -0.33042314648628235
-0.27451592683792114 0.08129414170980453 0.34844258427619934
-0.532189130783081 0.021374300122261047 0.34479427337646484
-0.01604706607758999 0.001741234678775072 -0.14058765769004822
-0.2285832166671753 0.3874627351760864 0.2144833356142044
0.28926971554756165 -0.38653507828712463 -0.30162572860717773
0.5787109136581421 0.25561168789863586 -0.185804083943367
-0.5808781981468201 0.3091968297958374 -0.1254754513502121
-0.38305166363716125 -0.051500119268894196 0.13296206295490265
-0.5775502920150757 0.1868370622396469 -0.05229311063885689
0.22751635313034058 -0.15396153926849365 0.3009752929210663
-0.3066217601299286 0.15133383870124817 -0.4006894826889038
-0.45670974254608154 -0.005341363605111837 -0.32927000522613525
0.12076452374458313 0.003648442216217518 -0.19873516261577606
0.12196178734302521 0.3868294656276703 -0.39020299911499023
0.48431456089019775 0.0043279146775603294 0.2308899313211441
-0.350143700838089 0.0066971988417208195 -0.212767094373703
0.1276007741689682 0.28124403953552246 -0.3942706286907196
-0.3738913834095001 -0.053188495337963104 -0.20634853839874268
0.508940577507019 0.1760307103395462 0.3369167447090149
-0.08655489236116409 0.15593822300434113 0.38229164481163025
0.23073214292526245 4.070065915584564e-05 0.08734311908483505
0.47855743765830994 0.38592344522476196 -0.25088825821876526
-0.16295619308948517 0.0011086277663707733 0.21113793551921844
0.5690410137176514 0.2568291425704956 -0.4017641246318817
0.13295558094978333 0.002648676745593548 0.09616734832525253
-0.5106552839279175 0.4087126553058624 -0.3017675578594208
0.4116881489753723 -0.18168674409389496 0.12886640429496765
0.4528139531612396 0.0027589183300733566 -0.16865050792694092
0.3271447718143463 -0.08594396710395813 -0.29681894183158875
-0.369809627532959 0.0016677617095410824 -0.0986192598938942
0.18062734603881836 0.0028229441959410906 0.03501506522297859
-0.4871303141117096 0.41034793853759766 -0.33224254846572876
-0.039723023772239685 0.39266321063041687 0.07371494174003601
-0.5208073854446411 -0.004772240296006203 0.2637909948825836
0.0572541281580925 -0.6249279379844666 0.043122243136167526
0.16025036573410034 -0.07934433966875076 -0.36277663707733154
-0.5022438168525696 0.0545206293463707 0.3433927595615387
0.33915531635284424 0.004577028565108776 0.18137118220329285
-0.41286158561706543 0.140886127948761 0.3384838402271271
-0.16417866945266724 0.0023183580487966537 -0.20831874012947083
0.25729846954345703 -0.5994914770126343 -0.2653195559978485
0.09298644959926605 0.0025769034400582314 -0.08365483582019806
0.034191399812698364 -0.6181120872497559 -0.05288829654455185
0.03674507886171341 0.000913699739612639 -0.3258513808250427
0.2092801332473755 0.0021690987050533295 -0.169198676943779
0.014813846908509731 -0.629141628742218 0.2030051201581955
-0.1498168706893921 0.004235469736158848 -0.22767893970012665
0.2709667384624481 -0.6393515467643738 -0.2236792892217636
-0.032259099185466766 -0.6258143782615662 0.1392728090286255
0.5859909057617188 0.1334574967622757 -0.06342414766550064
0.05302535742521286 -0.5731719732284546 0.2610722780227661
-0.24747802317142487 -0.016986912116408348 -0.09526950865983963
0.20436041057109833 -0.03718015179038048 0.4709061086177826
0.2505476176738739 0.00331193208694458 -0.05506407096982002
-0.1770058274269104 0.07725635915994644 -0.3922978341579437
0.5842258930206299 0.32885926961898804 0.2069077342748642
-0.0022276195231825113 0.00013232138007879257 0.18065206706523895
0.08208056539297104 0.37531983852386475 0.3396407663822174
0.16935695707798004 -0.09378888458013535 0.38062795996665955
-0.51444411277771 0.26982152462005615 0.34511470794677734
0.5904951691627502 0.03725013509392738 0.22482144832611084
-0.3768247961997986 0.27554574608802795 0.3439560532569885
0.03514746576547623 -0.005020375829190016 0.46079522371292114
-0.4070832431316376 0.39532554149627686 -0.025898830965161324
0.01180671900510788 0.40368926525115967 -0.13186579942703247
0.2524750530719757 0.08379951119422913 0.3390335738658905
0.29666396975517273 0.002162710763514042 -0.13145822286605835
-0.4303761124610901 -0.09225144982337952 -0.3172215521335602
0.248570054769516 0.002265527844429016 0.06411571055650711
-0.3655244708061218 -0.039399534463882446 -0.38026362657546997
-0.2416176050901413 -0.1080801859498024 -0.03918980062007904
0.449331134557724 -0.12284580618143082 -0.05610016733407974
-0.20684771239757538 0.0002384493127465248 -0.2770569920539856
0.5796849131584167 0.006368543021380901 0.21297985315322876
-0.055624667555093765 -0.5652386546134949 -0.2677755355834961
0.27175673842430115 -0.6352580785751343 0.134039044380188
-0.5373154282569885 -0.10081210732460022 -0.012488446198403835
-0.35076162219047546 0.003984716720879078 0.056978266686201096
0.45364731550216675 -0.06727733463048935 -0.02512076124548912
-0.5440053939819336 0.3982997536659241 0.24936385452747345
-0.2098057121038437 0.003167083952575922 -0.007348452694714069
0.5688316822052002 0.0521695539355278 -0.3516814112663269
-0.12836670875549316 0.001172293908894062 -0.009210722520947456
0.1573958545923233 0.40837422013282776 -0.23620332777500153
0.3177942633628845 -0.3003961443901062 -0.2898719906806946
-0.3895476758480072 0.39823049306869507 0.21196570992469788
-0.06736897677183151 0.0038219960406422615 0.03931567817926407
0.28443124890327454 -0.15317568182945251 -0.31703469157218933
-0.44806843996047974 -0.11374273151159286 -0.18619753420352936
0.08206009864807129 0.46848922967910767 0.4269569218158722
-0.21964889764785767 -0.08199039846658707 -0.1027030199766159
0.5733680129051208 0.3679042160511017 0.13560514152050018
-0.2111634463071823 0.0027733445167541504 -0.06204843521118164
-0.31787529587745667 -0.0020159371197223663 -0.22664345800876617
-0.5747484564781189 0.10326982289552689 -0.24499765038490295
0.25813740491867065 0.002746324520558119 -0.062134355306625366
-0.30399078130722046 0.35175105929374695 -0.15385398268699646
0.2613637447357178 -0.6235593557357788 -0.12202185392379761
0.11181547492742538 0.4102533161640167 0.1325182467699051
0.04191723093390465 -0.08237254619598389 0.33503761887550354
0.2099318653345108 -0.3878239095211029 -0.31046950817108154
-0.33145612478256226 0.36138054728507996 -0.158262237906456
-0.4789453446865082 0.17286984622478485 0.3462839424610138
0.19127656519412994 0.258401483297348 -0.402656614780426
0.48827800154685974 -0.001583159901201725 0.19508486986160278
0.48158973455429077 0.35634082555770874 0.34069445729255676
-0.42137983441352844 0.10386234521865845 -0.3351057171821594
-0.07168605178594589 0.21030837297439575 0.41149160265922546
0.2829909324645996 0.39742329716682434 0.3324461877346039
0.26019954681396484 -0.000524966511875391 -0.33879902958869934
0.2931987941265106 -0.6344893574714661 0.13705989718437195
0.1872878521680832 -0.28599995374679565 -0.3499373495578766
-0.4505923092365265 -0.09404348582029343 -0.3488994538784027
-0.09901830554008484 0.000403011217713356 -0.31552746891975403
-0.3833552896976471 -0.04932481795549393 -0.11446220427751541
0.21939878165721893 0.09294040501117706 0.46546700596809387
-0.5181388854980469 0.38994520902633667 0.26663732528686523
-0.43743011355400085 0.4043494760990143 0.05948413163423538
0.5824458599090576 0.30603185296058655 -0.3259129524230957
0.09945182502269745 0.0022917715832591057 0.03715905174612999
-0.4368267357349396 0.11267735064029694 -0.25048041343688965
0.2839069664478302 0.41037142276763916 0.29129254817962646
-0.5195546746253967 0.10400144755840302 -0.05061197280883789
0.3075605630874634 -0.0017181485891342163 0.06314831972122192
-0.05468855798244476 0.003366701304912567 0.15967528522014618
-0.34087392687797546 0.1300305277109146 0.3465454578399658
0.5678690671920776 0.02609848603606224 -0.2891736328601837
0.577876627445221 0.339042067527771 0.02438920922577381
-0.12013790011405945 -0.6502429842948914 0.08328365534543991
0.24078893661499023 0.08575790375471115 -0.38965731859207153
0.22422121465206146 -0.6224215626716614 -0.0668511912226677
-0.06608808040618896 0.3907853662967682 0.019669774919748306
-0.483003169298172 0.10838346928358078 -0.11754202097654343
0.1099763959646225 -0.033452123403549194 0.31844714283943176
-0.23100176453590393 0.4079575836658478 -0.35076215863227844
-0.5716756582260132 0.2948266267776489 -0.23213429749011993
-0.3574053645133972 0.002052235184237361 -0.2695428133010864
0.5733408331871033 0.29894793033599854 0.32040637731552124
-0.5266201496124268 0.03816588595509529 -0.39895379543304443
0.29638639092445374 0.426016628742218 0.40272486209869385
0.3255078196525574 0.38598689436912537 -0.019448252394795418
-0.5755106210708618 0.12743723392486572 -0.22749899327754974
0.08841156959533691 -0.6409007906913757 -0.2952658236026764
-0.14339137077331543 -0.2192545235157013 0.21691381931304932
-0.35543879866600037 0.053381193429231644 -0.14355722069740295
-0.4296427071094513 0.38806748390197754 -0.032120734453201294
-0.5776622295379639 0.18135486543178558 0.23353160917758942
-0.44322922825813293 0.18515926599502563 -0.40442946553230286
0.2795892357826233 -0.06868010759353638 0.31123605370521545
-0.10120624303817749 -0.33037152886390686 0.24364539980888367
-0.1911585032939911 0.0036676349118351936 0.04132292792201042
0.1937517672777176 0.2853964567184448 0.4623228907585144
-0.33555272221565247 0.33568230271339417 0.34203702211380005
0.17183415591716766 -0.607206404209137 0.25255483388900757
-0.5659422278404236 0.22789224982261658 -0.27055516839027405
0.42074015736579895 -0.00047371815890073776 -0.004882195498794317
0.194644957780838 -0.0525045283138752 0.3280681073665619
-0.17838694155216217 0.002760821720585227 -0.2112453132867813
-0.010351566597819328 0.002780128503218293 0.3297828435897827
0.12594085931777954 0.3979644775390625 0.005728535819798708
0.37978172302246094 -0.504706859588623 0.04175242409110069
0.395209401845932 -0.5083115696907043 -0.009020031429827213
-0.0780775398015976 -0.19354034960269928 -0.32156726717948914
0.25814396142959595 0.0017451168969273567 0.1133219301700592
-0.08462761342525482 0.3076801896095276 -0.39532530307769775
0.33253344893455505 -0.231669619679451 -0.2838365435600281
0.20190969109535217 0.0029598125256597996 0.042366284877061844
-0.5649946331977844 0.3733670711517334 0.0025437308941036463
0.11780133843421936 0.4598252475261688 0.4071941673755646
-0.3762000799179077 -0.030890505760908127 -0.09992291033267975
-0.20578351616859436 0.002051784424111247 0.053718142211437225
0.14681240916252136 -0.41132092475891113 -0.3135961890220642
-0.384785532951355 -0.07868413627147675 0.01906657963991165
0.5718003511428833 0.2859925329685211 0.33166784048080444
-0.5565146207809448 -0.005385390482842922 -0.1843644082546234
-0.24320797622203827 -0.26294106245040894 -0.06797213852405548
0.13727964460849762 0.40364739298820496 0.1700008064508438
0.07769505679607391 0.4278823137283325 0.3893517553806305
-0.48243772983551025 0.0075678653083741665 -0.009869198314845562
0.31672871112823486 0.30638372898101807 0.4618997275829315
0.3665827512741089 0.3969271183013916 0.3004578948020935
-0.31988009810447693 0.1359861195087433 -0.3974745571613312
0.11631190776824951 0.3900150656700134 0.09279264509677887
0.31296077370643616 0.0003788094036281109 0.19182196259498596
0.13321611285209656 0.4041191637516022 0.3285681903362274
-0.40700826048851013 0.0075734383426606655 -0.05990681052207947
-0.07831044495105743 -0.5797988772392273 -0.24342840909957886
0.45479652285575867 -0.24724146723747253 -0.029614591971039772
-0.5824315547943115 0.33799782395362854 0.0229850634932518
-0.42277538776397705 0.17503058910369873 -0.4066241979598999
0.40158629417419434 -0.3776335120201111 -0.013851743191480637
-0.07607655227184296 0.0022603331599384546 -0.13159136474132538
-0.06371716409921646 0.39718252420425415 -0.38076430559158325
0.1406678706407547 0.0024393426720052958 -0.12963135540485382
0.09896313399076462 -0.6243578791618347 0.09086091071367264
-0.3574008643627167 -0.033041857182979584 0.030576998367905617
-0.20993271470069885 -0.26023152470588684 0.12221912294626236
-0.06894293427467346 -0.2485245019197464 -0.3237167298793793
0.12075906246900558 0.4633674621582031 0.39056625962257385
-0.4020748734474182 0.34963226318359375 0.34513360261917114
0.2543976604938507 0.21472637355327606 0.4684225916862488
0.06903267651796341 0.409579873085022 0.3698213994503021
-0.44902241230010986 0.38452285528182983 0.2046632319688797
-0.3235468864440918 0.006869104690849781 0.2585594654083252
0.18881431221961975 0.0010979585349559784 -0.022200342267751694
-0.5464441776275635 0.0754043459892273 0.26523032784461975
0.316599577665329 -0.015145721845328808 0.3331421911716461
-0.48862317204475403 0.23759260773658752 0.3451705873012543
-0.4989950954914093 0.2656779885292053 -0.40368252992630005
-0.20386949181556702 0.39160364866256714 0.3189985156059265
0.24317249655723572 -0.6284974813461304 -0.07187077403068542
0.3329516053199768 -0.023605283349752426 0.3537636399269104
-0.1858358085155487 -0.2999395430088043 0.1685645431280136
0.17040160298347473 -0.6273542046546936 -0.05844426527619362
0.42795330286026 -0.12176554650068283 0.045130614191293716
-0.31021803617477417 0.3962588608264923 0.3033675253391266
-0.017897577956318855 -0.6294809579849243 -0.03475498780608177
-0.5897102355957031 0.0953221321105957 0.19501687586307526
0.03296416252851486 0.3436746895313263 0.356880784034729
-0.3205871880054474 0.4085310101509094 0.1975788027048111
-0.5721251368522644 -0.002781504299491644 -0.1383853256702423
0.43195703625679016 0.00018625613301992416 -0.24802649021148682
-0.3656461834907532 0.028512759134173393 -0.16679757833480835
0.18992216885089874 -0.08965933322906494 0.3067057430744171
0.1406095176935196 -0.07654443383216858 0.40675443410873413
-0.42503970861434937 -0.098914735019207 -0.10240683704614639
0.4674425423145294 0.0010648416355252266 0.18542848527431488
-0.4472707211971283 0.10161877423524857 0.10735224932432175
-0.16506987810134888 0.4092334806919098 0.27615219354629517
-0.07099749892950058 -0.6223659515380859 -0.11953899264335632
-0.23712943494319916 -0.3187403082847595 -0.075246661901474
-0.5676087141036987 0.34620609879493713 0.2800138294696808
-0.3713817894458771 -0.06725474447011948 0.24615684151649475
0.36259925365448 -0.4942237436771393 -0.15022388100624084
-0.0700145736336708 0.3953116238117218 -0.22781570255756378
-0.4500364661216736 0.4060560166835785 -0.0852973461151123
0.06163633614778519 -0.3907560110092163 0.2733752429485321
-0.11584793031215668 0.002831756602972746 -0.16992652416229248
0.49942392110824585 0.38476258516311646 -0.03136572241783142
0.13365890085697174 -0.631194531917572 -0.13315388560295105
-0.5390920639038086 0.030937111005187035 0.34619516134262085
0.035247113555669785 0.002897129859775305 0.021179884672164917
0.25771304965019226 -0.14970728754997253 -0.32859158515930176
0.24767926335334778 0.3915030062198639 -0.028073972091078758
0.19262002408504486 0.1507156938314438 0.45670440793037415
0.3793109059333801 0.0016365470364689827 0.0696810930967331
0.3186294138431549 -0.5351724624633789 0.16500698029994965
0.1536058783531189 -0.556091845035553 -0.3141445815563202
-0.5746737718582153 -0.04914635419845581 -0.3435248136520386
0.28149178624153137 -0.00045988336205482483 0.10115569084882736
-0.42097440361976624 -0.08190009742975235 0.05339767038822174
-0.13379307091236115 0.00039769895374774933 -0.3609916567802429
-0.5703375935554504 0.15788857638835907 -0.18112705647945404
-0.38576218485832214 -0.0749780610203743 -0.32660073041915894
0.5803369283676147 0.2972920835018158 -0.3471553921699524
-0.3968562185764313 -0.005313391797244549 0.271876722574234
-0.5080110430717468 0.11284539103507996 0.10526429861783981
0.3938635289669037 0.11569232493638992 0.3381880223751068
0.29783111810684204 -0.05040311440825462 -0.3197875916957855
-0.02375859022140503 0.004826318472623825 -0.15568208694458008
-0.44418051838874817 -0.11673185229301453 0.3418278098106384
-0.10551745444536209 -0.4425339102745056 -0.23080624639987946
-0.5720865726470947 0.06855826079845428 -0.18654127418994904
0.15337660908699036 0.0026510879397392273 -0.08314824849367142
-0.2028065323829651 0.004578183405101299 0.33586910367012024
0.003530801273882389 -0.15075574815273285 0.30535194277763367
0.20575010776519775 -0.3313419818878174 0.30916720628738403
-0.2807652950286865 0.298246830701828 0.33994007110595703
-0.445342093706131 -0.002092998242005706 0.029226936399936676
-0.37513092160224915 0.004725430626422167 -0.28867530822753906
-0.43081867694854736 0.37867623567581177 -0.40403100848197937
-0.5926545858383179 0.2442406415939331 0.34342461824417114
0.4995557367801666 0.176122784614563 -0.3908979296684265
0.060108691453933716 -0.6233236789703369 -0.21907223761081696
-0.3845865726470947 0.4028536379337311 0.34299182891845703
0.5224574208259583 0.2531396448612213 0.3405984044075012
-0.39517301321029663 -0.07403358817100525 -0.29429975152015686
-0.40757912397384644 0.10152695327997208 0.11799295246601105
-0.13059401512145996 0.40630170702934265 -0.17849090695381165
0.44756996631622314 -0.3419613540172577 -0.06077895686030388
0.3383139371871948 0.001780097372829914 -0.03938502073287964
-0.5665947794914246 0.006460621487349272 0.25461873412132263
-0.01888141967356205 0.16989919543266296 -0.40026500821113586
-0.08067745715379715 0.25306305289268494 0.3815614581108093
0.21394182741641998 -0.4171634912490845 0.23969052731990814
-0.45827198028564453 0.4004347622394562 0.24865248799324036
0.253364622592926 0.40635451674461365 0.19858916103839874
-0.4348958432674408 0.40108218789100647 0.17948701977729797
-0.01373638492077589 0.0036233877763152122 -0.271421879529953
0.07751909643411636 -0.6194542646408081 0.018917571753263474
-0.08597899973392487 -0.002194151282310486 -0.2843661606311798
0.20136427879333496 0.26534831523895264 0.46554338932037354
0.23119507730007172 -0.6287318468093872 -0.17104898393154144
0.4106822609901428 -0.059318456798791885 0.13410978019237518
0.057485271245241165 -9.100884199142456e-06 -0.30935829877853394
0.3602416217327118 -0.6210154294967651 -0.05703701823949814
0.14302560687065125 -0.06900791823863983 0.35142961144447327
-0.577217698097229 0.12937508523464203 -0.3682360351085663
0.2162449210882187 -0.619552493095398 0.10772906988859177
-0.07745929807424545 -0.5085434317588806 0.19945620000362396
0.5150640606880188 0.39134758710861206 0.2801450490951538
-0.421365886926651 0.3977314233779907 0.20558272302150726
-0.517898678779602 0.09536437690258026 0.27189168334007263
0.406681090593338 -0.0008004354313015938 -0.17999938130378723
0.2931361794471741 0.41831308603286743 0.35065826773643494
-0.5632347464561462 -0.03248247504234314 -0.020021915435791016
-0.005586810410022736 0.3912401497364044 0.017720837146043777
0.573275625705719 0.029411207884550095 0.16802531480789185
0.1811044067144394 0.14900317788124084 0.46384602785110474
-0.18776550889015198 0.002421402372419834 0.08234937489032745
-0.030851751565933228 -0.6301034688949585 0.011395992711186409
0.5727740526199341 0.3289094865322113 -0.22170056402683258
0.49670925736427307 -0.0011692065745592117 -0.10064546018838882
0.3590967655181885 0.3984055817127228 -0.30081403255462646
-0.22158320248126984 -0.3122592270374298 0.022305943071842194
-0.3747738003730774 -0.0020394972525537014 -0.09310775995254517
-0.0701325461268425 0.0025580953806638718 0.06732604652643204
-0.5007331371307373 -0.08058223128318787 -0.39471176266670227
0.2257567197084427 0.00251657422631979 -0.10812590271234512
-0.4074245095252991 0.38773512840270996 0.33980533480644226
0.32717612385749817 0.3941704034805298 0.38350510597229004
0.2749668061733246 -0.6230491995811462 -0.18356455862522125
0.1570678949356079 0.004022181965410709 -0.08010021597146988
0.11069031059741974 -0.07231000810861588 0.4463382959365845
0.020182058215141296 0.38651686906814575 -0.24255190789699554
0.5203707218170166 -0.000588864553719759 -0.225879967212677
0.2230408787727356 0.38371312618255615 0.30190110206604004
-0.32674193382263184 0.3914826214313507 -0.04111868515610695
0.003406803123652935 0.4111410975456238 -0.23598897457122803
0.5762922167778015 0.2586361765861511 0.2985652983188629
0.01917184516787529 0.36916738748550415 -0.39225587248802185
-0.36878877878189087 0.07820596545934677 -0.212088480591774
0.19398801028728485 -0.6325714588165283 0.23106560111045837
0.4525952935218811 0.40298447012901306 -0.002740316791459918
-0.05843352898955345 -0.04615122452378273 0.26470762491226196
-0.1052842065691948 -0.39123111963272095 0.2106369584798813
0.20749586820602417 -0.09549537301063538 0.38258126378059387
0.22722278535366058 0.12185168266296387 0.34113970398902893
0.18722578883171082 0.4490521252155304 0.44175228476524353
0.1908917874097824 0.12232732027769089 0.33801963925361633
-0.5804478526115417 0.021445831283926964 -0.354952335357666
0.589428186416626 0.22448639571666718 0.11866223067045212
-0.5307071805000305 0.3930532932281494 0.1306370347738266
-0.5623723864555359 -0.010829117149114609 -0.2250436693429947
0.5689902901649475 0.020156418904662132 -0.07573134452104568
-0.21336670219898224 0.38456228375434875 0.2622380256652832
0.08330333977937698 -0.6226793527603149 -0.13100872933864594
-0.09463131427764893 -0.02995825931429863 0.2610151171684265
0.45302972197532654 0.31527382135391235 0.34081071615219116
-0.040776629000902176 0.3944953680038452 0.26211437582969666
0.07202140986919403 -0.41184818744659424 0.2715502381324768
0.06747458875179291 -0.13967350125312805 -0.3696291446685791
-0.21180321276187897 0.000941169448196888 0.1756879836320877
-0.4915045499801636 0.0044357492588460445 -0.35511359572410583
-0.14076489210128784 -0.4469360411167145 0.14558951556682587
-0.019471870735287666 -0.06263557076454163 0.2921162545681
0.19754570722579956 0.0017388984560966492 0.12868954241275787
0.38760828971862793 -0.0004469016566872597 0.19015377759933472
-0.3824259340763092 0.40270519256591797 -0.2723252475261688
0.3507044017314911 0.19298386573791504 -0.39520424604415894
0.1688232570886612 0.0025323801673948765 -0.14182578027248383
-0.15460242331027985 0.4047706127166748 0.3367619812488556
-0.20291075110435486 0.40115734934806824 -0.0788685753941536
-0.5268219113349915 0.3087015151977539 0.34142735600471497
-0.1880379468202591 0.40044134855270386 0.2800518274307251
-0.04858962818980217 -0.36995184421539307 -0.317302405834198
0.019368208944797516 0.0013739615678787231 -0.022150933742523193
-0.5238336324691772 0.2312934696674347 -0.394021213054657
0.29212215542793274 0.0014682463370263577 0.3217153549194336
0.36740508675575256 -0.2774115800857544 0.1860685646533966
-0.45919132232666016 0.09626966714859009 -0.08885004371404648
-0.38446784019470215 0.04183100536465645 -0.3116781413555145
-0.18161427974700928 0.3855457007884979 -0.33412015438079834
0.1277560293674469 0.026479056105017662 -0.38947051763534546
0.15082982182502747 -0.20332089066505432 -0.363388329744339
-0.43029794096946716 0.28982141613960266 0.3491693437099457
0.09171117097139359 -0.6304444670677185 0.03390277549624443
0.07670878618955612 -0.6301952004432678 -0.04461139440536499
-0.1760450005531311 0.40501198172569275 0.14083334803581238
0.5707165002822876 0.32789143919944763 -0.0530695915222168
-0.5281053781509399 0.08672516793012619 -0.13356168568134308
-0.024849532172083855 0.28024354577064514 0.3648165464401245
0.07409397512674332 -0.33616822957992554 -0.3685215711593628
-0.2128199189901352 0.37146303057670593 -0.39029738306999207
0.13857154548168182 0.0007073605665937066 -0.3116559386253357
-0.4999845325946808 0.12023543566465378 0.147101491689682
-0.5725619792938232 0.28564220666885376 0.0468718595802784
0.04118507727980614 0.36460086703300476 0.45172056555747986
-0.05588734149932861 -0.15840046107769012 0.28827953338623047
0.3432686924934387 -0.36161091923713684 -0.25946497917175293
0.2349853515625 -0.05720877647399902 -0.35336625576019287
-0.44506388902664185 0.3544803261756897 0.34371891617774963
-0.5303846597671509 0.3827257752418518 0.23282212018966675
0.1924847811460495 0.0077461497858166695 -0.39387401938438416
0.33225032687187195 -0.0689082145690918 -0.27315419912338257
0.3058169186115265 -0.6204971075057983 0.03954643756151199
-0.19560131430625916 -0.08142732083797455 -0.16720962524414062
0.2943323850631714 -0.512164294719696 -0.25031620264053345
0.3525536060333252 0.0006442731246352196 0.06618376076221466
-0.21809928119182587 0.31916868686676025 0.3438740074634552
-0.5732282400131226 0.06569738686084747 -0.04945863038301468
0.05576768517494202 -0.5485544800758362 0.2489660233259201
0.5855832099914551 0.25514447689056396 -0.3826768696308136
0.3032229244709015 -0.5277787446975708 0.18571235239505768
-0.12443937361240387 -0.3468097150325775 -0.26173514127731323
-0.46483373641967773 0.008547773584723473 0.24820241332054138
-0.023249393329024315 0.2871216833591461 0.34380456805229187
0.10567134618759155 -0.2581121623516083 -0.36693689227104187
-0.5047745108604431 0.11661908775568008 -0.2557397782802582
0.07107371836900711 0.3984031081199646 0.23224906623363495
0.32840973138809204 0.3469279408454895 0.45143213868141174
-0.5548021793365479 0.0021720926743000746 -0.3876378536224365
0.2499167025089264 -0.6232864856719971 -0.14083056151866913
-0.5683350563049316 0.047342415899038315 -0.05290953814983368
0.5617658495903015 -0.00042374501936137676 -0.3454890847206116
-0.14217674732208252 -0.41811463236808777 0.12069335579872131
0.5862529873847961 0.06029951199889183 0.20540069043636322
0.03690457344055176 0.01867390237748623 0.38303858041763306
0.43663665652275085 0.29689842462539673 -0.3927856981754303
-0.07700633257627487 -0.6272141337394714 0.011472422629594803
-0.21361231803894043 0.10655580461025238 0.34041815996170044
0.16611234843730927 -0.5608586072921753 -0.30379414558410645
0.362926185131073 -0.630766749382019 0.0731174498796463
-0.03480677679181099 0.2929515838623047 0.40538835525512695
-0.4739920198917389 -0.10730648040771484 -0.3661513924598694
0.45595845580101013 0.003855067305266857 0.29208502173423767
0.5164430737495422 0.39354968070983887 -0.14899125695228577
0.09689164906740189 0.09545472264289856 0.34365925192832947
-0.4724782407283783 -0.10000632703304291 0.3308100402355194
0.1873123198747635 0.0027063428424298763 -0.11969821155071259
0.20516635477542877 0.001766636036336422 -0.26186618208885193
-0.07681643217802048 -0.23610110580921173 -0.3210318088531494
0.35857468843460083 -0.22787266969680786 -0.25470519065856934
0.262233704328537 -0.6309289336204529 0.1638651043176651
0.35813456773757935 0.0010522063821554184 -0.1511191874742508
0.05620390549302101 -0.012679092586040497 0.3088182210922241
0.005883126053959131 0.007406328339129686 -0.39426055550575256
0.5707767605781555 0.010311521589756012 -0.09295286238193512
-0.4973604381084442 0.22900544106960297 0.3439435362815857
-0.17882785201072693 0.4059475064277649 0.05981237441301346
-0.33611464500427246 0.008970167487859726 -0.32673922181129456
0.1607685685157776 -0.629117488861084 0.015911990776658058
-0.09755901992321014 -0.1501883566379547 -0.3127795159816742
-0.06596603989601135 0.39785292744636536 -0.2736694812774658
-0.07973331958055496 -0.6142870187759399 -0.08456973731517792
-0.3773697316646576 -0.0032767076045274734 -0.20434588193893433
0.3302629292011261 0.0027585048228502274 -0.35836589336395264
-0.17712417244911194 -0.3843844532966614 0.15008170902729034
-0.47098496556282043 0.03697540611028671 0.35182300209999084
-0.500472903251648 -0.010551806539297104 -0.050044335424900055
0.44087013602256775 -0.0008163957390934229 0.2699345052242279
0.27709484100341797 -0.11808805167675018 -0.32101893424987793
0.11711480468511581 0.035631973296403885 -0.39106321334838867
-0.15133927762508392 -0.3829837441444397 -0.19983161985874176
-0.42433562874794006 0.006470455788075924 -0.3752429187297821
0.4220670461654663 -0.2359236478805542 -0.15020853281021118
0.14474040269851685 0.002168109640479088 0.17930708825588226
-0.42220190167427063 0.14732453227043152 0.34358176589012146
