-0.18117904663085938 0.4048450291156769 -0.3111087381839752
0.042357198894023895 0.271928071975708 0.4475654661655426
0.20083437860012054 -0.62435382604599 -0.031454868614673615
-0.58571857213974 0.13708458840847015 0.04997481778264046
0.1532510221004486 -0.6264132857322693 -0.1065744012594223
-0.49244385957717896 -0.11543398350477219 0.2323862612247467
0.4567544162273407 -0.22617241740226746 -0.008943184278905392
-0.4656987488269806 0.03688689321279526 -0.4041423499584198
-0.05016452819108963 0.0015884110471233726 0.16575729846954346
-0.5722636580467224 0.14708779752254486 0.21953675150871277
0.5161747336387634 0.0008104229345917702 0.15764908492565155
0.10318747162818909 -0.21723783016204834 -0.36803337931632996
0.15342064201831818 -0.4972773492336273 -0.30383214354515076
0.33916032314300537 -0.18009498715400696 0.20944622159004211
0.3961195945739746 0.3915260434150696 0.3105343282222748
0.27645108103752136 0.01183205284178257 -0.3943023681640625
0.030589299276471138 0.01754642277956009 0.33985280990600586
0.4029759466648102 0.17175643146038055 -0.40965574979782104
0.3176162540912628 0.4011155664920807 0.23357002437114716
-0.05482073500752449 -0.6384401917457581 -0.2695034444332123
0.12964002788066864 0.0013034893199801445 0.26469123363494873
0.5670046210289001 0.30844494700431824 -0.2837313413619995
-0.5680705904960632 0.06041695177555084 -0.27569669485092163
0.28209248185157776 -0.6214727163314819 -0.13990545272827148
0.09401199966669083 -0.620165228843689 0.024478400126099586
0.10499244183301926 0.393974244594574 -0.20130126178264618
0.2282073199748993 0.3918776214122772 -0.39347782731056213
-0.026067178696393967 0.12053811550140381 -0.39621099829673767
0.011805343441665173 -0.08344599604606628 0.3135397732257843
0.17615024745464325 0.0021101711317896843 0.16015741229057312
-0.5755231380462646 0.2400374710559845 0.12270139157772064
-0.4089335799217224 -0.0781288668513298 -0.21516942977905273
-0.573178231716156 0.18047945201396942 0.2911790907382965
0.4120023250579834 -0.00027640664484351873 0.05332902446389198
0.012799968011677265 0.000990730943158269 -0.35603785514831543
0.2835572063922882 0.4007526636123657 0.2706916928291321
0.28036049008369446 0.3991483151912689 0.03251935914158821
-0.0678991973400116 -0.1798917055130005 0.2715969681739807
-0.4406670928001404 0.005072602536529303 -0.03752453625202179
0.510033130645752 0.0021126773208379745 -0.14203374087810516
0.28600266575813293 0.0006672292947769165 -0.019380712881684303
-0.5871784687042236 0.19880923628807068 -0.14906801283359528
-0.08895651996135712 -0.047663964331150055 -0.31506654620170593
-0.5792457461357117 -0.03542673960328102 -0.08978584408760071
-0.0804666131734848 -0.378557026386261 0.23700571060180664
0.04347768798470497 0.00725936982780695 -0.39292263984680176
0.079266257584095 -0.6448525786399841 -0.3096264600753784
0.18133611977100372 -0.6271898150444031 -0.2039543092250824
-0.46167507767677307 -0.09618104994297028 -0.15163275599479675
0.31467297673225403 0.39497169852256775 0.14468315243721008
0.39779213070869446 -0.33014869689941406 -0.16703951358795166
0.03399689868092537 -0.614656388759613 0.19694884121418
-0.356559157371521 -0.028788719326257706 -0.359493225812912
-0.16872289776802063 -0.6449586153030396 -0.11795563995838165
0.1933378428220749 -0.01226765662431717 0.46424782276153564
-0.43171462416648865 0.11290863156318665 0.24950677156448364
0.5621801018714905 0.40121161937713623 0.10050974041223526
-0.01354895532131195 0.0007081618532538414 -0.34783318638801575
0.2007967084646225 0.00010949652642011642 -0.25081753730773926
-0.4887390732765198 0.3846046030521393 0.34667277336120605
0.5177676677703857 -0.00020378734916448593 -0.04372112825512886
0.03008449450135231 0.000730265979655087 -0.05598687380552292
-0.19668608903884888 0.401682585477829 0.3124900460243225
0.18455274403095245 0.24168096482753754 -0.3946548402309418
-0.1944546401500702 -0.27043628692626953 0.14154690504074097
0.41712069511413574 0.26168006658554077 -0.3913779854774475
0.43803805112838745 0.0015168208628892899 -0.298121839761734
0.3480771780014038 0.40219011902809143 0.17195014655590057
-0.2926579415798187 0.37389832735061646 -0.0650419071316719
-0.027404364198446274 -0.631658673286438 -0.0875210240483284
0.5749194025993347 0.0026092836633324623 -0.06647578626871109
0.27116677165031433 -0.617739737033844 0.06364227831363678
-0.5751355290412903 0.005644484423100948 0.26191237568855286
0.047416336834430695 0.26007822155952454 -0.4113694429397583
-0.5226837396621704 -0.006354434881359339 0.03003552183508873
-0.5177457332611084 0.10642650723457336 -0.03993929550051689
-0.42693427205085754 0.010680043138563633 0.3471928834915161
0.5661728978157043 0.2389010488986969 -0.378330796957016
0.20341195166110992 0.4027522802352905 -0.04978261515498161
0.15243829786777496 0.39870384335517883 0.2534337639808655
-0.4858497083187103 0.07814712077379227 -0.4006147086620331
0.5610896348953247 0.0025515202432870865 -0.27785220742225647
-0.5555076003074646 -0.08068565279245377 -0.12083026766777039
-0.3571641445159912 0.004433590918779373 -0.11542798578739166
-0.5288305282592773 0.004053668584674597 0.17533184587955475
-0.5853134989738464 0.15715962648391724 0.11113912612199783
0.24377787113189697 -0.47719499468803406 0.2291705161333084
-0.1370392143726349 -0.001087285578250885 0.03996613621711731
0.2810572683811188 -0.062061917036771774 0.45573338866233826
-0.22929662466049194 0.32835277915000916 0.34763556718826294
-0.11825437843799591 -0.6362200379371643 -0.0857810378074646
0.07480566203594208 -0.6310707330703735 -0.19106081128120422
0.3595688045024872 0.12830603122711182 -0.3976571559906006
0.5630785822868347 0.3873004913330078 0.2568911910057068
0.30233681201934814 -0.14990338683128357 0.25500813126564026
-0.1399705708026886 0.405288428068161 -0.18510951101779938
-0.5796153545379639 0.14127488434314728 0.2881581783294678
0.06991284340620041 0.3996083438396454 0.2061646282672882
-0.5776051878929138 0.004249159712344408 0.12345196306705475
-0.3496745526790619 0.005841968581080437 -0.376772403717041
-0.0535418763756752 -0.6328210830688477 0.20241564512252808
-0.056495875120162964 0.4019511342048645 0.03796626999974251
-0.2828693091869354 0.17608144879341125 0.34759050607681274
0.24104014039039612 0.0013284999877214432 -0.05609731748700142
0.35026177763938904 0.3936312794685364 0.048500631004571915
-0.5861773490905762 0.3382364511489868 0.05435388535261154
-0.22044485807418823 -0.20512041449546814 0.06386720389127731
-0.06360557675361633 -0.008103050291538239 0.269059956073761
-0.003095689695328474 -0.48942992091178894 0.23072980344295502
0.3822280466556549 -0.5844425559043884 -0.06650277972221375
-0.18547996878623962 0.0010239826515316963 0.08508683741092682
0.43048545718193054 0.018456434831023216 -0.397590309381485
0.07387728989124298 0.3940366506576538 -0.1306515485048294
0.08297955244779587 0.0006287582218647003 -0.2435363233089447
-0.26351556181907654 0.39531370997428894 0.20077012479305267
0.06917191296815872 -0.20979180932044983 0.31226837635040283
-0.1636633425951004 0.40309369564056396 -0.20165671408176422
-0.05215802788734436 0.0008390143048018217 -0.07305404543876648
0.05187906324863434 -0.6225715279579163 -0.05267319828271866
-0.44439923763275146 -0.0977388247847557 -0.21525146067142487
0.2707778513431549 0.0013110375730320811 0.46004730463027954
0.48913154006004333 0.19346974790096283 0.34410008788108826
0.15438801050186157 -0.4318144917488098 -0.3097051978111267
-0.19843462109565735 -0.0019009122624993324 0.1651313751935959
0.3816608786582947 0.3564296364784241 0.3443705439567566
-0.3031158745288849 0.32549452781677246 -0.39488381147384644
0.2173299491405487 -0.6240009069442749 -0.09880220890045166
0.4188748002052307 -0.2355637103319168 -0.14026416838169098
0.10301200300455093 0.1597435176372528 -0.40904325246810913
-0.543402910232544 -0.08482129126787186 0.06786409765481949
-0.45417898893356323 -0.09286901354789734 -0.34984880685806274
-0.5669702887535095 -0.03514348343014717 0.16301342844963074
-0.307119220495224 0.18458662927150726 -0.40360766649246216
-0.5910695791244507 0.16909827291965485 -0.1524534821510315
0.22991397976875305 -0.2137002944946289 -0.3635375499725342
-0.5920625925064087 0.022555390372872353 -0.24519944190979004
0.1247667521238327 -0.6125336289405823 0.261544793844223
-0.16160081326961517 0.4002459943294525 -0.3331381380558014
-0.00958666019141674 -0.6031915545463562 -0.2940008044242859
0.3509129583835602 -0.46725091338157654 0.11052334308624268
-0.3444385230541229 3.6422163248062134e-05 0.18216834962368011
0.05250687524676323 -0.6368827223777771 -0.26089075207710266
0.15588794648647308 0.2527230679988861 -0.40585777163505554
-0.385222464799881 0.0052642254158854485 -0.3759011924266815
0.237741619348526 0.2119673639535904 0.4636291265487671
0.5593186020851135 0.00322791188955307 0.16733774542808533
-0.016601497307419777 0.19021832942962646 -0.4079682230949402
-0.3887780010700226 -0.06933844834566116 -0.3159322142601013
-0.44562828540802 0.09646633267402649 0.27050575613975525
0.5657327175140381 0.28480181097984314 0.34191322326660156
0.04266196861863136 0.13436272740364075 0.34868118166923523
-0.5923655033111572 0.22267824411392212 -0.08052763342857361
-0.3945903182029724 -0.05885978043079376 -0.07276502996683121
0.1791096329689026 0.06432721763849258 0.345746785402298
0.4850482642650604 0.0022095227614045143 -0.33752089738845825
0.43904179334640503 -0.18538600206375122 0.07459767162799835
0.5785796642303467 0.009661216288805008 0.2981443405151367
-0.5814575552940369 0.0038185445591807365 -0.16250570118427277
0.4125162363052368 -0.26225581765174866 -0.19267016649246216
-0.417338103055954 -0.07053210586309433 -0.05999608337879181
0.23159945011138916 -0.6431820392608643 0.23062863945960999
0.5694924592971802 0.14197152853012085 -0.3289759159088135
0.22234642505645752 -0.0016441447660326958 -0.23751555383205414
0.3178938627243042 0.3991309106349945 -0.21431253850460052
-0.46507617831230164 0.0017499446403235197 0.038107044994831085
0.23007647693157196 0.04515485838055611 -0.398130863904953
0.5762116312980652 0.021276719868183136 0.2857849597930908
0.3740857243537903 -0.445295125246048 0.09678032249212265
0.3274291157722473 0.3363199830055237 0.3469048738479614
-0.5165796875953674 0.3975650370121002 0.06301077455282211
-0.1979767233133316 0.0009223846718668938 -0.07599639892578125
0.3258041739463806 -0.000546320341527462 0.19763034582138062
0.13442672789096832 0.20395877957344055 0.34178176522254944
0.5137426257133484 0.0013722823932766914 -0.2422855645418167
0.2632339298725128 0.03947445750236511 0.45864278078079224
0.19656607508659363 -0.6332200765609741 -0.2954975962638855
0.2351902276277542 -0.00011588446795940399 -0.07074298709630966
0.26578694581985474 0.36902058124542236 -0.40691226720809937
-0.5489160418510437 -0.07482905685901642 0.08239545673131943
0.08207478374242783 0.0006980733014643192 -0.03470698371529579
-0.21473005414009094 0.0023614922538399696 -0.14892104268074036
-0.4469220042228699 0.0960688367486 -0.06641512364149094
0.26656126976013184 0.39704635739326477 -0.24554365873336792
0.3944558799266815 0.11712681502103806 0.3434327244758606
0.05660132318735123 -0.33722713589668274 -0.3595191240310669
-0.16146355867385864 -0.27502530813217163 0.2072625458240509
-0.46841174364089966 0.3997243642807007 0.25544214248657227
0.44567015767097473 -0.36611485481262207 -0.14733700454235077
-0.04931560531258583 0.2944924235343933 -0.40905189514160156
0.42162013053894043 -0.0003632658626884222 -0.2905998229980469
-0.1596309095621109 -0.016408808529376984 -0.26061156392097473
-0.5944849848747253 0.25811734795570374 0.2743242383003235
0.4305499196052551 -0.06530169397592545 -0.10721947252750397
-0.0018567770021036267 -0.14522264897823334 -0.3671613335609436
-0.5259507298469543 0.032923661172389984 -0.40067508816719055
0.04468498006463051 0.002453531138598919 0.1817287802696228
-0.09486296027898788 0.30809450149536133 0.34123629331588745
0.4288003444671631 9.568821405991912e-05 -0.15486708283424377
0.11288388073444366 -0.02864794433116913 0.323215126991272
-0.5829969048500061 0.37058359384536743 -0.12593752145767212
-0.18372943997383118 -0.549842119216919 0.0015244457172229886
-0.4773295223712921 0.40351831912994385 0.10699158161878586
0.03149348124861717 -0.6488287448883057 -0.2861400544643402
0.37795397639274597 0.39980554580688477 0.3079545795917511
0.17217615246772766 -0.37997695803642273 0.25652065873146057
0.26951050758361816 -0.0015010498464107513 -0.20384244620800018
0.0905577763915062 -0.6260435581207275 0.05815313756465912
0.28162094950675964 -0.623391330242157 -0.2556135654449463
0.4344182014465332 0.1402348279953003 -0.4097019135951996
0.13688889145851135 -0.042940765619277954 0.45744743943214417
0.08065157383680344 -0.20447507500648499 0.31529614329338074
0.05343085154891014 0.23771584033966064 0.4655333161354065
0.19383782148361206 0.19996388256549835 -0.4053967297077179
-0.23562251031398773 -0.27418053150177 -0.08410784602165222
0.2710414230823517 -0.3635934591293335 -0.3205571472644806
0.01439644768834114 -0.45711883902549744 0.25514113903045654
0.10655426234006882 0.002667738124728203 0.043283168226480484
-0.5198655724525452 -0.014663039706647396 0.34982573986053467
0.18686671555042267 0.40049901604652405 0.22526238858699799
0.024548212066292763 0.35225990414619446 0.43998202681541443
0.3294965922832489 -0.50123131275177 -0.21962618827819824
-0.18300175666809082 0.3932614326477051 -0.06249518692493439
-0.10047247260808945 -0.6327021718025208 -0.15839430689811707
0.09420166164636612 -0.00019131414592266083 -0.18074601888656616
0.3017629086971283 0.21766331791877747 0.34525564312934875
-0.583572506904602 0.20227953791618347 -0.2896510064601898
0.436397910118103 0.3960171341896057 0.2196965217590332
0.5939388871192932 0.3873089849948883 -0.13526183366775513
-0.5292718410491943 0.10500933974981308 0.22558732330799103
0.5762948989868164 0.11454787850379944 0.19054313004016876
0.4294843375682831 -0.001305251382291317 -0.0027800481766462326
-0.43825995922088623 -0.05178800970315933 0.3548797070980072
-0.07510852068662643 0.39696672558784485 -0.1396479606628418
0.2663399577140808 -0.29565560817718506 0.2686767578125
0.0018710895674303174 0.4028037190437317 0.13659271597862244
-0.10927066951990128 0.3921092450618744 0.34409594535827637
-0.4049290418624878 0.4007880389690399 0.047157611697912216
-0.35215041041374207 0.3972003757953644 -0.1721392571926117
-0.11842148005962372 -0.005940426141023636 0.2415524423122406
0.27551499009132385 -0.2344019114971161 -0.3269714415073395
0.5319293141365051 0.3974587023258209 -0.2471717894077301
0.40331289172172546 -0.06537146866321564 -0.20925813913345337
0.5830405354499817 0.21963626146316528 -0.12273958325386047
0.394087016582489 -0.003257748670876026 0.15180933475494385
0.2281114012002945 0.4613565504550934 0.4304375648498535
-0.5759716629981995 0.10726970434188843 -0.2158895581960678
-0.44603636860847473 0.009529046714305878 0.34891292452812195
0.4394116699695587 0.4030524790287018 -0.16437478363513947
-0.5839418172836304 0.07344746589660645 -0.31457167863845825
0.2859657108783722 0.0008870188612490892 -0.13105903565883636
0.34369608759880066 -0.6420116424560547 -0.03114011511206627
-0.5336609482765198 0.33616676926612854 0.3496173620223999
-0.2122010737657547 0.37351927161216736 -0.40810513496398926
-0.42601341009140015 0.023013070225715637 -0.39641982316970825
-0.465695321559906 -0.11698103696107864 -0.2461264431476593
0.18917116522789001 0.40020838379859924 -0.18467646837234497
-0.08346498757600784 -0.026875590905547142 -0.3103916645050049
0.5556517839431763 0.11916492134332657 0.33455732464790344
-0.2859456539154053 0.37694308161735535 -0.06557653099298477
-0.37452933192253113 -0.016224296763539314 0.19782821834087372
0.3075341582298279 0.478230744600296 0.39308586716651917
0.3500172793865204 -0.6571861505508423 -0.06471539288759232
-0.36146387457847595 0.012896410189568996 0.09060594439506531
-0.3941473066806793 0.08302544057369232 0.1561112105846405
-0.19391968846321106 -0.3298446536064148 -0.16880351305007935
-0.27520686388015747 0.26380354166030884 0.3493134677410126
0.19792230427265167 0.46180713176727295 0.3766210377216339
-0.13952746987342834 -0.6538645029067993 -0.12926505506038666
0.1800682246685028 0.37540796399116516 0.46069735288619995
0.3265717923641205 0.0022670794278383255 0.044198308140039444
-0.3120650351047516 0.3952358365058899 -0.38889577984809875
-0.006135163828730583 -0.5977343916893005 0.23956553637981415
0.041554614901542664 0.0017028162255883217 0.13604335486888885
0.3343314528465271 -0.5038976073265076 -0.18710817396640778
-0.3669913411140442 -0.0033586365170776844 -0.2404719889163971
0.34464338421821594 -0.3491409122943878 -0.25415387749671936
0.45262518525123596 -0.3535131514072418 -0.07540230453014374
0.5694705843925476 0.271612286567688 -0.3948250412940979
0.3245619535446167 0.05048319324851036 0.3902263641357422
-0.570193886756897 0.12184985727071762 -0.2341458648443222
0.07450341433286667 0.3988926112651825 0.2481730580329895
-0.09987003356218338 -0.3765399754047394 0.16851316392421722
-0.22047890722751617 -0.23479095101356506 0.08219866454601288
-0.11509045213460922 0.3948921263217926 0.06625836342573166
-0.5864139199256897 0.269308477640152 -0.3855714499950409
0.5775516033172607 0.331280916929245 0.33768248558044434
0.1963866651058197 0.09690630435943604 -0.4054223597049713
0.18611012399196625 -0.25372105836868286 0.30181246995925903
-0.5889196395874023 0.1114351898431778 0.006363940890878439
0.331349641084671 -0.6235355138778687 -0.11099588125944138
0.05800493806600571 0.000371336005628109 0.029063820838928223
0.09739843755960464 0.0016659842804074287 0.0426742248237133
-0.5710648894309998 -0.00294889765791595 0.019244061782956123
0.34519946575164795 -0.002238050103187561 0.2677868902683258
-0.10606955736875534 -0.5774878263473511 0.15986596047878265
0.27818426489830017 -0.44100677967071533 0.19846278429031372
-0.5026105046272278 -0.11188937723636627 -0.05937700718641281
-0.12379802018404007 -0.196681946516037 -0.2891680896282196
-0.579460620880127 0.12203685194253922 0.33147677779197693
0.42234259843826294 -0.17122042179107666 0.0853746086359024
0.5739443898200989 0.3958655297756195 0.2516266405582428
-0.036840591579675674 -0.07328350096940994 0.29890674352645874
-0.5658552050590515 0.32491064071655273 0.24727453291416168
0.04977354779839516 0.16213376820087433 0.35168954730033875
0.25925418734550476 0.1202026829123497 0.46306878328323364
-0.15722811222076416 -0.5158928036689758 0.08468350768089294
0.4363572895526886 -0.0012385239824652672 0.2690628468990326
0.004365658387541771 0.4058963358402252 0.15651147067546844
0.43858158588409424 -0.35667428374290466 -0.11272244900465012
-0.11746226996183395 0.26979538798332214 0.34472787380218506
0.4478086233139038 -0.3740611672401428 0.032562799751758575
-0.45787501335144043 0.0018249147105962038 0.0750507265329361
-0.5202948451042175 0.2952626347541809 0.34972190856933594
-0.5728718638420105 -0.056139636784791946 -0.34844812750816345
-0.46471962332725525 -0.11205669492483139 0.14943890273571014
0.49232107400894165 0.007586421445012093 -0.38296836614608765
-0.08863624185323715 -0.350736141204834 0.25857120752334595
-0.48157840967178345 0.11869983375072479 -0.31534308195114136
0.03725627437233925 -0.004674711264669895 0.2984880208969116
0.3533457815647125 -0.4245302975177765 -0.1863514482975006
-0.5414883494377136 -0.06875097751617432 -0.2997889518737793
0.10672052949666977 0.30507203936576843 0.341738760471344
0.4757359027862549 0.0034457766450941563 0.3277992010116577
-0.34919992089271545 0.002245401730760932 0.2840888500213623
-0.452799528837204 0.390503466129303 0.18570812046527863
0.32606828212738037 0.20589691400527954 0.3621709942817688
-0.4720260500907898 0.09388202428817749 0.270426869392395
-0.5721518993377686 0.07760626822710037 -0.14076033234596252
0.12505602836608887 -0.6230355501174927 -0.010793539695441723
0.002243736991658807 -0.34193259477615356 -0.35745757818222046
-0.02245446853339672 -0.0028415024280548096 -0.24940285086631775
0.09707411378622055 0.00023655768018215895 -0.15650132298469543
-0.011994878761470318 -0.6241704821586609 0.04661569371819496
-0.5269365906715393 0.0724085196852684 -0.3500837981700897
-0.5933769345283508 0.27647683024406433 -0.0730157345533371
-0.5642033815383911 0.06302185356616974 -0.04621335491538048
-0.5033600926399231 0.004330101888626814 0.05688291788101196
0.13180290162563324 0.001825748709961772 -0.36493581533432007
0.0942259281873703 -0.6216726899147034 -0.05190987139940262
-0.06704748421907425 -0.4082941710948944 -0.26950803399086
0.5417224764823914 0.3922574818134308 0.23176473379135132
0.33774328231811523 -0.31795793771743774 0.23141734302043915
-0.11532127857208252 -0.1455797255039215 -0.30448010563850403
0.5773118734359741 0.06522855907678604 0.13663211464881897
-0.44260308146476746 0.11266856640577316 -0.29561635851860046
0.3822828531265259 -0.0390830859541893 -0.26140958070755005
0.13535702228546143 0.30214613676071167 0.46075233817100525
-0.5115829706192017 -0.11116346716880798 0.14684946835041046
-0.11335206776857376 -0.5062299966812134 -0.22018998861312866
0.5294228792190552 0.036412857472896576 -0.38640373945236206
0.0961269810795784 -0.6197999715805054 -0.2499377578496933
0.039055489003658295 0.0010027880780398846 0.009125837124884129
-0.10478764772415161 0.36390239000320435 -0.389824241399765
-0.362933486700058 -0.04398944228887558 0.22175155580043793
-0.019760984927415848 -0.6329205632209778 -0.021335341036319733
-0.5881931185722351 0.21599236130714417 -0.3215959966182709
-0.07646265625953674 -0.5873435735702515 0.19322291016578674
0.5764882564544678 0.05537506565451622 0.1337674856185913
-0.16125477850437164 -0.6478247046470642 -0.06897156685590744
-0.07857313007116318 -0.00028422102332115173 -0.3355436623096466
-0.41404929757118225 0.08822447061538696 0.262267529964447
-0.17036738991737366 -0.05347643047571182 -0.24499137699604034
0.025274354964494705 0.1640210747718811 0.35173606872558594
-0.5666689872741699 0.027001501992344856 0.2053106278181076
-0.49616193771362305 0.30431869626045227 0.35057634115219116
0.25590816140174866 0.0168652031570673 0.3420437276363373
0.34197667241096497 0.31282809376716614 0.3421913683414459
-0.5811141133308411 0.1770387440919876 0.11728352308273315
-0.39049094915390015 0.06694122403860092 0.28234702348709106
-0.11291632056236267 0.00033620093017816544 -0.1449619084596634
-0.39361053705215454 0.08961720019578934 -0.2916583716869354
0.3625200390815735 -0.11314789205789566 0.19727832078933716
-0.17529511451721191 -0.2341972142457962 0.17428719997406006
0.1568174660205841 0.0002711443230509758 -0.18044866621494293
-0.030720077455043793 0.00011804606765508652 0.11679002642631531
-0.34650465846061707 0.4067865014076233 0.3154705762863159
0.11415299773216248 0.2853904962539673 -0.4065077602863312
-0.267426997423172 0.004230290651321411 -0.12570668756961823
0.27173149585723877 0.30719512701034546 0.3457265794277191
-0.39366430044174194 0.39441877603530884 0.11583218723535538
0.545160710811615 0.1456659734249115 0.3425595462322235
-0.39615359902381897 0.273885041475296 0.33913254737854004
0.4297860264778137 0.07224257290363312 0.3440225422382355
0.3939746022224426 0.15721534192562103 -0.3993338346481323
-0.06566990911960602 0.14288227260112762 -0.4043040871620178
0.037732068449258804 -0.0006424933671951294 0.25165024399757385
-0.21585962176322937 0.38967838883399963 -0.3950716257095337
-0.5667726993560791 0.30517467856407166 0.25934532284736633
-0.49553635716438293 0.2254834771156311 0.34615203738212585
-0.5871742963790894 0.14796285331249237 -0.07087090611457825
-0.4069027006626129 0.34994542598724365 0.3425818383693695
0.12265834212303162 0.0005640941672027111 0.25237157940864563
0.5897929072380066 0.33312034606933594 0.19416241347789764
-0.36100292205810547 0.39826780557632446 0.32848337292671204
-0.4369639456272125 -0.0002860781387425959 0.033294353634119034
-0.11179926246404648 -0.4425504505634308 -0.22667287290096283
0.45235592126846313 0.3945932388305664 -0.05802065506577492
0.10462776571512222 -0.03843550384044647 0.3073234558105469
0.5759205222129822 0.08427928388118744 0.007664991542696953
-0.47750771045684814 0.40100353956222534 -0.2514953017234802
0.5897791385650635 0.3826555013656616 -0.17830303311347961
-0.18424569070339203 -0.4294213056564331 -0.09088142216205597
-0.5652557611465454 0.06494872272014618 -0.08447328209877014
-0.3372255563735962 -0.0008964166045188904 0.25099945068359375
0.18068842589855194 0.16094844043254852 0.46328774094581604
0.44250816106796265 -0.34629011154174805 -0.07890179008245468
0.439990371465683 -0.08014556020498276 -0.13683073222637177
0.03855518251657486 3.514625132083893e-05 -0.17452874779701233
0.2608576714992523 -0.0006682046223431826 -0.33515238761901855
0.4450644552707672 0.25345122814178467 -0.40970155596733093
0.566972017288208 0.38740378618240356 -0.39072173833847046
0.22255092859268188 0.40020328760147095 0.2728358805179596
0.11084853857755661 0.46612778306007385 0.3776322901248932
-0.3950800597667694 0.39553916454315186 -0.20942476391792297
0.43966808915138245 0.14721831679344177 -0.4011186361312866
-0.17058467864990234 0.00167127326130867 0.2654527723789215
-0.05306033045053482 0.0006125164218246937 -0.07900603115558624
0.3438769578933716 -0.0007538087666034698 -0.15075023472309113
-0.0698813796043396 0.0032123448327183723 0.10592000186443329
-0.12481815367937088 0.14694702625274658 0.3481851816177368
-0.3769457936286926 0.02630361169576645 -0.3187209963798523
0.05312136188149452 -0.405678391456604 -0.3170553147792816
-0.2432321161031723 -0.2488452047109604 -0.09532095491886139
-0.01879950612783432 -0.6371724605560303 -0.24583834409713745
-0.5721178650856018 0.32596123218536377 0.02699091099202633
0.07346440851688385 0.000945965526625514 -0.010749232955276966
-0.3495829403400421 0.0007031523855403066 -0.33762526512145996
0.13139739632606506 -0.20368854701519012 0.3123263120651245
-0.09193145483732224 0.0952208936214447 -0.4074496924877167
-0.07833005487918854 0.18283739686012268 0.41162022948265076
-0.5625565052032471 -0.0807267352938652 -0.15732942521572113
-0.5244952440261841 0.4046316146850586 -0.3036966919898987
0.5753232836723328 0.3714493215084076 -0.008465783670544624
-0.20005308091640472 -0.026624180376529694 -0.17151179909706116
0.31115904450416565 0.3762454390525818 -0.39250078797340393
0.042561888694763184 0.0010430710390210152 0.11244841665029526
-0.039129532873630524 0.0014247542712837458 0.08346941322088242
0.37755143642425537 0.214166522026062 0.3417453169822693
0.4340386390686035 0.004761063493788242 0.17140504717826843
-0.40160536766052246 0.34230414032936096 -0.3935360014438629
-0.196781724691391 0.16064678132534027 0.34705454111099243
-0.5811700820922852 0.1396007388830185 0.14974355697631836
-0.5247917771339417 -9.145773947238922e-05 -0.3064909875392914
0.07817184180021286 0.0017584022134542465 0.22866208851337433
0.5215314626693726 0.0077169123105704784 -0.39750936627388
0.11957045644521713 -0.5158101320266724 0.25356578826904297
0.38676977157592773 -0.4923217296600342 -0.06379014998674393
-0.040882520377635956 -0.6209540367126465 -0.2012246549129486
-0.0643208846449852 0.39568498730659485 -0.3869268000125885
-0.13362620770931244 0.0859496146440506 0.34708431363105774
-0.09301643073558807 0.0006712554022669792 -0.15508905053138733
-0.18455496430397034 -0.0007002744823694229 0.10573048889636993
0.12016397714614868 -0.09015700966119766 0.34219789505004883
0.03965733200311661 0.2486032396554947 0.43025028705596924
0.1311226189136505 -0.6462634801864624 0.22351323068141937
0.3579528331756592 7.607671432197094e-05 -0.10923954844474792
0.27231234312057495 -0.37718114256858826 -0.32792824506759644
-0.003947937861084938 -0.631218671798706 0.24016320705413818
0.5817593932151794 0.09060422331094742 0.0102065559476614
-0.14950528740882874 0.0856529101729393 -0.4044775068759918
-0.027736198157072067 -0.3743049204349518 -0.32478615641593933
0.34838876128196716 -0.4178619980812073 0.13763241469860077
0.2804206311702728 0.25045961141586304 -0.40556061267852783
-0.006688619963824749 0.3966803550720215 -0.383332759141922
-0.32586777210235596 0.0004792553372681141 -0.09017517417669296
0.38293465971946716 0.21096694469451904 -0.3940698802471161
0.03620660677552223 -0.0668586939573288 -0.3706291615962982
0.22999712824821472 7.534201722592115e-05 -0.19066764414310455
0.13064166903495789 -0.5834844708442688 0.26503992080688477
-0.550020694732666 0.07527044415473938 0.09622947871685028
0.4816286861896515 0.38911667466163635 -0.39374759793281555
0.5241248607635498 0.3999170660972595 0.040744222700595856
-0.42963463068008423 0.4001556932926178 -0.2524884045124054
-0.5748370289802551 0.004043268039822578 -0.03026622347533703
-0.10436706990003586 -0.5298135876655579 -0.23483170568943024
0.36035630106925964 0.04947726055979729 -0.39191606640815735
-0.3896547257900238 0.4055655002593994 -0.16179461777210236
-0.36363837122917175 0.02594614401459694 0.14173102378845215
0.23791243135929108 0.011027483269572258 0.34253665804862976
-0.05718328431248665 0.13969597220420837 -0.40032392740249634
-0.00938646961003542 -0.01921221986413002 -0.3600808084011078
0.11531832814216614 0.3960705101490021 0.1792600452899933
0.015289872884750366 -0.631466805934906 -0.039521850645542145
0.22319771349430084 0.017299478873610497 0.34141820669174194
0.4332428574562073 -0.3479238748550415 0.021961063146591187
-0.576753556728363 0.2158731371164322 0.03247123956680298
0.16494964063167572 -0.6320946216583252 0.012994498014450073
-0.0872577652335167 -7.787533104419708e-05 0.3214414715766907
0.565180778503418 0.08071650564670563 0.05663231760263443
0.3083679676055908 0.13248252868652344 -0.40640804171562195
-0.12119778245687485 0.2040397971868515 -0.3971048891544342
0.3079761862754822 -0.28756240010261536 -0.3132264316082001
0.04629356041550636 0.00010140985250473022 -0.13622628152370453
-0.27735090255737305 -0.0020632902160286903 -0.03867404907941818
0.5496659278869629 0.007673770189285278 0.22224196791648865
0.07656093686819077 -0.36749592423439026 -0.3744521141052246
-0.4751181900501251 0.1641574651002884 0.34243276715278625
-0.06455129384994507 -0.21463219821453094 0.27491649985313416
-0.28831130266189575 0.369400292634964 -0.09183884412050247
0.042415063828229904 -0.02302977629005909 0.35537973046302795
-0.14863519370555878 0.3176952600479126 -0.41065341234207153
0.3790000379085541 -0.11375359445810318 -0.23350735008716583
0.0949845165014267 -0.2920808792114258 -0.36819544434547424
0.15627653896808624 0.4010632336139679 -0.2530629634857178
-0.5329030752182007 0.08299270272254944 -0.4006979465484619
0.2877707779407501 -0.5193912386894226 0.19823528826236725
0.30119606852531433 -0.09472555667161942 -0.3127458989620209
0.07464560866355896 -0.06838157773017883 0.3202716112136841
-0.2246924489736557 -0.3485095798969269 0.065017931163311
0.42153650522232056 0.40108051896095276 0.068834587931633
-0.2418937236070633 0.1176672950387001 -0.39925849437713623
0.39582014083862305 -0.3912549912929535 0.004520079120993614
-0.4397529661655426 0.40286269783973694 0.039362311363220215
-0.46858251094818115 -0.09348881244659424 0.2973369359970093
0.28656110167503357 0.37514564394950867 -0.38905927538871765
0.48454755544662476 0.0032578101381659508 -0.20707125961780548
0.16001500189304352 -0.6333693861961365 0.1765773743391037
-0.21551959216594696 0.1954851895570755 0.3486860990524292
0.5678342580795288 0.2748977243900299 0.3421867787837982
-0.13610607385635376 0.19831706583499908 0.3493881821632385
-0.5899684429168701 0.040190428495407104 -0.04272502660751343
0.2003706693649292 -0.1485113799571991 -0.34692201018333435
0.5808497071266174 0.03836536779999733 -0.167231947183609
0.027833154425024986 0.40069305896759033 0.20458540320396423
0.5917201042175293 0.35692209005355835 0.2555460035800934
0.03612632676959038 0.16736485064029694 -0.4092647433280945
-0.3809836208820343 -0.03181115537881851 0.20532533526420593
0.32011812925338745 0.3955777585506439 -0.20389921963214874
-0.2471245527267456 -0.17157527804374695 0.040165819227695465
-0.2353440672159195 0.08949156105518341 0.3430495858192444
-0.5771670937538147 0.21124368906021118 0.19746138155460358
-0.4842340648174286 0.402267187833786 0.1094684973359108
-0.3754352331161499 0.17988911271095276 0.3446669578552246
-0.1112334132194519 0.40020254254341125 -0.37361058592796326
0.04753689840435982 -0.638607382774353 -0.26168695092201233
0.14493277668952942 -0.06722403317689896 -0.36350321769714355
0.16425494849681854 -0.0391545295715332 -0.35494887828826904
-0.1515434980392456 -0.3963046669960022 0.1229080930352211
-0.267456591129303 0.3986765742301941 -0.15450122952461243
0.2867892384529114 -0.08724977821111679 0.33204272389411926
-0.3540986180305481 0.0038126129657030106 0.023391123861074448
-0.3535105586051941 0.0014614069368690252 0.030245618894696236
0.578987181186676 0.16557037830352783 0.2466099113225937
-0.04932429641485214 -0.1892155557870865 0.27623501420021057
-0.20501695573329926 -0.30269473791122437 0.0997878909111023
0.03742166981101036 -0.5705443620681763 0.2584276497364044
-0.36483657360076904 0.0014583428855985403 0.06852325052022934
0.5871304869651794 0.24237029254436493 -0.1846708208322525
0.37835264205932617 -0.0005016811192035675 0.13507603108882904
0.13172297179698944 -0.12534832954406738 0.31637710332870483
-0.03911711275577545 0.4027479887008667 -0.04317408800125122
0.1732761561870575 -0.43431058526039124 -0.30406686663627625
-0.22809016704559326 0.14586395025253296 0.34646323323249817
-0.3227122724056244 0.3004104495048523 0.3491629958152771
-0.25641849637031555 0.39381280541419983 -0.03362328186631203
-0.0177552942186594 0.0020319996401667595 0.1723928600549698
0.4177839159965515 -0.0006221495568752289 0.025083668529987335
0.27584323287010193 0.39552631974220276 0.45675206184387207
-0.557922899723053 -0.04559129849076271 -0.3874274492263794
0.23845146596431732 -0.4102928936481476 -0.2923928201198578
-0.08429902791976929 -0.3143154978752136 -0.32463598251342773
0.5951488018035889 0.31413450837135315 0.04973651096224785
0.5797041058540344 0.34826934337615967 -0.08450596779584885
0.29291507601737976 0.2737484276294708 -0.39729782938957214
0.5772289633750916 0.20873074233531952 0.31554386019706726
-0.024354690685868263 -0.312589168548584 0.28005510568618774
0.3000888526439667 0.14252802729606628 0.45897364616394043
0.27134770154953003 -0.6217881441116333 -0.18541111052036285
0.2031676024198532 0.4058716595172882 0.2294595092535019
0.5699363350868225 0.09411650896072388 0.25050368905067444
-0.015569181181490421 0.000729489023797214 -0.11179248988628387
-0.10477164387702942 0.0013754470273852348 -0.10490778088569641
0.2667478322982788 3.6132289096713066e-05 0.24146921932697296
0.14535711705684662 0.0014399297069758177 0.03183383494615555
0.4106709659099579 0.10929358750581741 0.339166522026062
0.017804939299821854 -0.6212126016616821 -0.023761479184031487
0.5665950775146484 0.2246180921792984 -0.12953254580497742
0.25207358598709106 -0.6506380438804626 0.19383879005908966
0.3506772518157959 0.40246984362602234 -0.0026916731148958206
-0.22345004975795746 -0.2946030795574188 -0.1729707419872284
0.15575173497200012 -0.6188559532165527 0.14193668961524963
-0.05386338755488396 0.4064193665981293 -0.20597419142723083
0.523901104927063 0.3597613573074341 -0.4066935181617737
-0.5611649751663208 0.043914951384067535 -0.06019272655248642
0.23233023285865784 -2.858066000044346e-05 -0.2778366804122925
-0.01279371790587902 -0.041330933570861816 -0.35363250970840454
0.3764648735523224 -0.6045188307762146 0.05292318016290665
-0.399777889251709 -0.08570870012044907 0.0671994760632515
0.08170480281114578 0.0002574000391177833 -0.1422853171825409
-0.20251856744289398 -0.038995519280433655 0.1226760521531105
0.2798749506473541 -0.6506515145301819 0.17273317277431488
0.021538157016038895 -0.6271010041236877 -0.036266326904296875
0.17037342488765717 -0.21800492703914642 -0.35932114720344543
0.43608343601226807 0.3995162546634674 -0.35828641057014465
-0.4176056981086731 0.10238204896450043 -0.16251009702682495
0.3963729441165924 0.40500408411026 -0.18163706362247467
0.3280961513519287 -0.5813530683517456 0.14853008091449738
-0.533171534538269 -0.08188923448324203 -0.26996129751205444
-0.05069214478135109 0.4032355546951294 0.15453658998012543
0.0967862457036972 0.0002027628943324089 0.24964971840381622
-0.5621213912963867 0.37112918496131897 -0.06473583728075027
-0.3108701705932617 0.0012879599817097187 0.04986953362822533
0.30008453130722046 -0.6135677099227905 -0.24028608202934265
0.18656441569328308 -0.47322356700897217 -0.2994512915611267
-0.44836974143981934 -0.10512805730104446 0.09537966549396515
0.24651393294334412 -0.1212858110666275 0.27397945523262024
0.4597947895526886 0.006911707576364279 0.18319940567016602
-0.4250045418739319 -0.003531712107360363 -0.39920347929000854
0.2697421908378601 0.002242544200271368 0.03447926416993141
-0.40740180015563965 0.04250505566596985 0.34774813055992126
0.5755406618118286 0.11156002432107925 -0.35967373847961426
0.3045412600040436 0.27889081835746765 0.4600652754306793
0.47596558928489685 0.40285226702690125 -0.1942869871854782
0.4364299476146698 0.3907517194747925 -0.40525537729263306
-0.5875769853591919 0.12490183860063553 0.04815699905157089
0.35332822799682617 0.0017797676846385002 -0.04872414097189903
-0.5823351740837097 0.0026678559370338917 0.32981953024864197
-0.07383261620998383 -0.6298422813415527 0.0007774670957587659
0.32382288575172424 0.17800043523311615 0.4396679401397705
-0.0075329942628741264 0.39623573422431946 -0.24976228177547455
0.5158876776695251 0.0038990527391433716 -0.15967914462089539
-0.10214348882436752 -0.34498918056488037 -0.29304271936416626
0.29414504766464233 -0.028962455689907074 0.32458776235580444
-0.5808729529380798 0.01730504259467125 -0.20530037581920624
0.17409160733222961 0.22800685465335846 0.3462974429130554
-0.4784073829650879 0.14657287299633026 -0.3907264769077301
0.29089969396591187 -0.09254609793424606 0.31137821078300476
-0.1583123654127121 -6.42118975520134e-05 -0.12640346586704254
-0.5209633111953735 0.10296309739351273 -0.23408569395542145
-0.13413704931735992 0.3313026428222656 0.34733882546424866
-0.4195009768009186 0.0923483744263649 0.2701050937175751
-0.570983350276947 0.2890576720237732 0.26094362139701843
-0.1512131243944168 -0.5152343511581421 -0.13909445703029633
-0.567706823348999 0.028462547808885574 0.24843111634254456
-0.5414807200431824 -0.007628465071320534 -0.3142428696155548
-0.10779217630624771 -0.6405141353607178 0.10604718327522278
0.5216841101646423 0.0020851707085967064 0.05180749297142029
-0.593947172164917 0.16400527954101562 0.25266093015670776
0.25540396571159363 0.0003097141161561012 0.24317097663879395
-0.35465091466903687 0.003463965840637684 0.16235516965389252
-0.29237136244773865 0.0028009989764541388 0.22350578010082245
0.24175933003425598 -0.27931609749794006 -0.34973451495170593
-0.015544533729553223 0.0013066143728792667 -0.003578189993277192
0.06773245334625244 0.0017202859744429588 0.23474086821079254
-0.06079602241516113 -0.02588207647204399 0.27680259943008423
-0.4162946045398712 0.09402403980493546 0.003361758077517152
0.30797940492630005 -0.6428504586219788 -0.16293206810951233
0.4371027648448944 0.0008853855542838573 -0.148204043507576
0.012812696397304535 0.00240550609305501 0.18809981644153595
0.18187789618968964 0.38595983386039734 0.4633733332157135
-0.3712022006511688 0.40103283524513245 -0.030962802469730377
-0.010992164723575115 0.28769588470458984 0.40695512294769287
-0.2623668909072876 0.03114244155585766 -0.3954436182975769
-0.4539541006088257 0.11727005988359451 0.17546866834163666
-0.20684383809566498 -0.2282230705022812 0.10173384100198746
-0.18859122693538666 -0.4745175242424011 -0.03256979584693909
-0.305240273475647 0.3675292432308197 -0.11707358062267303
0.2603171765804291 0.14119179546833038 0.4597940444946289
0.06704642623662949 0.4141363799571991 0.3744666874408722
0.2763262093067169 -0.6223118305206299 -0.028257885947823524
0.35674723982810974 0.39412692189216614 -0.02472289651632309
0.39702874422073364 0.3976033627986908 -0.22609853744506836
0.3642992377281189 0.1788162887096405 0.34229356050491333
0.03970838710665703 0.08551330119371414 0.4553779661655426
0.10468921810388565 0.14373326301574707 -0.3908807039260864
0.5747582912445068 0.35484519600868225 -0.11167286336421967
-0.5708649754524231 0.3261498808860779 -0.1685197949409485
-0.189326211810112 0.4014694094657898 -0.379197359085083
0.2109631448984146 -0.5598519444465637 -0.3006296157836914
0.3679015338420868 0.00028405897319316864 -0.1960303634405136
-0.007827476598322392 -0.21172811090946198 0.286227822303772
-0.11959394067525864 0.0014439646620303392 -0.10700113326311111
0.45184943079948425 0.21619199216365814 0.34620487689971924
-0.21473224461078644 -0.1510767638683319 0.13587583601474762
0.09216073900461197 0.001766301691532135 0.08930514007806778
-0.21918214857578278 -0.19341836869716644 -0.13842274248600006
0.10211160778999329 -0.2716089189052582 0.3191642761230469
0.1087966188788414 0.04129042103886604 -0.406791627407074
-0.560752272605896 0.03977886587381363 -0.3269433379173279
0.5506542325019836 0.006044544279575348 -0.1628798395395279
-0.5837158560752869 0.10175417363643646 0.3443266749382019
0.2511932849884033 0.3373053967952728 0.34635746479034424
0.3030727803707123 -0.31665244698524475 0.2544313669204712
0.1722131073474884 -0.09200285375118256 0.3346237242221832
-0.29916277527809143 0.2907039523124695 -0.39225584268569946
-0.4782251715660095 0.09414133429527283 -0.06114143505692482
0.39089837670326233 0.40215322375297546 -0.07535278052091599
-0.5695392489433289 0.08000144362449646 -0.26196008920669556
0.3593505024909973 -0.2746923863887787 -0.2594373822212219
-0.5557538866996765 -0.006216634064912796 -0.38371020555496216
-0.11403965204954147 -0.1066659465432167 0.24749855697155
0.1966049075126648 0.33480387926101685 0.46123942732810974
-0.022372659295797348 -0.17821156978607178 0.30122533440589905
0.33253657817840576 -0.4489537179470062 0.1483290046453476
-0.13609570264816284 -0.24644941091537476 0.21859151124954224
0.32090499997138977 0.2227325290441513 0.45146748423576355
0.0838659480214119 0.0016026860103011131 0.15571115911006927
-0.5789692401885986 0.1958097517490387 -0.3492445647716522
0.09470991045236588 0.02599601447582245 -0.4053013026714325
0.5844849944114685 0.3802753686904907 0.329752653837204
-0.48088493943214417 -0.10991637408733368 0.08954907953739166
0.20666009187698364 0.17906565964221954 0.3447795510292053
0.10508865863084793 -0.6264183521270752 -0.16819795966148376
0.13386785984039307 -0.07882535457611084 0.3234553635120392
-0.016956791281700134 0.190848708152771 0.39523255825042725
0.16158489882946014 0.026677945628762245 -0.405073344707489
0.07251662760972977 0.40078386664390564 0.1824805587530136
-0.298807829618454 0.3998985290527344 -0.3718024790287018
0.412821888923645 0.0003510499373078346 0.0821295902132988
-0.5728365778923035 0.020493190735578537 0.04970993101596832
0.3315264880657196 -0.6319079995155334 -0.09986056387424469
0.3209872841835022 -0.40533149242401123 -0.2043410688638687
-0.16274075210094452 0.00010891072452068329 -0.252292275428772
0.5731624364852905 0.3874238431453705 -0.2020360380411148
0.3878086805343628 -0.515565812587738 -0.12379441410303116
-0.12676149606704712 -0.12135884165763855 0.23511317372322083
0.00870243739336729 -0.2644740343093872 -0.3591592013835907
-0.06409239023923874 -0.04392363503575325 0.26655590534210205
-0.12494498491287231 -0.17878831923007965 0.23335863649845123
0.016261829063296318 0.0013631926849484444 0.20073366165161133
-0.26248735189437866 0.19043192267417908 0.340786337852478
-0.0758867859840393 -0.16438651084899902 -0.3367142379283905
0.13837513327598572 -0.09619554132223129 -0.3665027916431427
0.3525829613208771 0.001079378416761756 0.028978031128644943
0.594946026802063 0.23454239964485168 0.08892786502838135
0.09589353203773499 -0.2780219316482544 -0.37316909432411194
0.03561194986104965 0.29084569215774536 0.4398711919784546
-0.3724087178707123 0.26968109607696533 -0.4075002074241638
-0.14677082002162933 -0.37327539920806885 -0.22415928542613983
0.40551358461380005 0.4033215343952179 -0.05339943245053291
0.42114585638046265 -0.3950631320476532 -0.10007081925868988
-0.03219379857182503 8.03917646408081e-05 -0.35258039832115173
0.12661944329738617 0.014305917546153069 0.339522123336792
0.04181438311934471 -0.05013646185398102 0.3599432110786438
0.33400624990463257 -0.0007593058981001377 0.1949864774942398
0.0782499685883522 -0.05565844476222992 -0.38279515504837036
0.06354431807994843 -0.6421722769737244 -0.2776692807674408
0.23180165886878967 0.399306058883667 0.04620106890797615
-0.4270310699939728 0.40745246410369873 -0.027386080473661423
-0.30561891198158264 -0.0017752829007804394 -0.17736311256885529
0.2037678360939026 -0.07419756054878235 0.30172836780548096
0.21856804192066193 0.002062865998595953 -0.3733859956264496
0.3903583288192749 -0.23190446197986603 -0.20212268829345703
-0.42054125666618347 0.2013130486011505 0.34894248843193054
0.35853004455566406 -0.5131872892379761 -0.13605637848377228
0.4804357886314392 0.3754749000072479 0.34077200293540955
0.571658730506897 0.024037141352891922 -0.16704866290092468
0.08593785017728806 -0.653916597366333 -0.2913205623626709
-0.3758639395236969 -0.023594774305820465 -0.23468054831027985
-0.054606419056653976 0.0024531669914722443 0.048934780061244965
0.4900369346141815 0.29205960035324097 -0.39709123969078064
-0.34691935777664185 -0.016152508556842804 -0.14741483330726624
-0.5298781991004944 0.3943309187889099 0.018590476363897324
0.433592289686203 -0.03428342565894127 -0.11669155210256577
-0.0415676049888134 -0.31090521812438965 -0.33864834904670715
-0.25080063939094543 0.22012095153331757 0.3440781533718109
0.19808286428451538 -0.6168147325515747 0.08612458407878876
0.159031942486763 0.2250085473060608 -0.4023827314376831
0.42307305335998535 0.0536896288394928 0.34548625349998474
-0.3810386657714844 0.13881105184555054 0.3492741286754608
-0.5418606400489807 -0.07010534405708313 -0.30132657289505005
0.38500189781188965 0.22777307033538818 -0.41035962104797363
-0.44002610445022583 0.03575822710990906 0.34305745363235474
0.5926861763000488 0.31894782185554504 0.2657933831214905
0.37704652547836304 -0.6535066366195679 0.029272982850670815
-0.1717468947172165 -0.4176900088787079 -0.09308473765850067
0.15143808722496033 0.00413164496421814 0.18288204073905945
-0.1687183529138565 -0.2367696762084961 -0.23696213960647583
-0.5603343844413757 0.08793137222528458 -0.3956555724143982
-0.019663088023662567 -0.3324125111103058 0.2861260771751404
0.3157089054584503 -0.0013215793296694756 -0.31091487407684326
-0.2299971878528595 -0.11135709285736084 0.08911575376987457
0.01853865198791027 0.35128623247146606 0.35587766766548157
-0.2615602910518646 0.002789297141134739 0.18747559189796448
0.5637953877449036 0.049927957355976105 0.045005250722169876
-0.5881490111351013 0.0732979029417038 0.1740187704563141
-0.549404501914978 0.3488672077655792 0.347319096326828
-0.20982475578784943 0.0008489700849168003 0.2341659814119339
0.5760851502418518 0.09018119424581528 -0.3968448042869568
0.2157723307609558 -0.6253612041473389 -0.2879785895347595
-0.39181607961654663 0.04040263593196869 0.3470621109008789
-0.15245342254638672 0.08202622085809708 -0.40254026651382446
0.01369507983326912 0.0016382327303290367 0.20816324651241302
-0.5882329344749451 0.07728347927331924 0.20779196918010712
-0.566091775894165 0.04492849111557007 0.19330736994743347
-0.18976816534996033 0.0010087350383400917 -0.15258337557315826
-0.58680260181427 -0.007375133223831654 0.032166291028261185
0.3177642524242401 0.10568290203809738 0.3669452369213104
0.5671365261077881 0.3014596402645111 -0.3596227169036865
-0.4561627507209778 -0.008297605440020561 0.3619319498538971
-0.175160214304924 -0.576131284236908 0.0051500434055924416
0.02315174601972103 -0.6341066956520081 -0.1919502466917038
