0.052539560943841934 -0.6206749081611633 -0.14084726572036743
-0.15108202397823334 -0.0012080641463398933 -0.2445719689130783
-0.38851261138916016 -0.056645575910806656 0.3390940725803375
-0.5019659996032715 0.24361011385917664 -0.40216562151908875
0.43262162804603577 -0.10594182461500168 -0.11691457033157349
-0.582123339176178 0.24064218997955322 0.1426214873790741
0.5821877717971802 0.2599865198135376 -0.10938437283039093
-0.579341471195221 0.3371308445930481 0.056918032467365265
0.5376722812652588 0.0005348394624888897 0.2332734763622284
-0.3866300582885742 0.0664045438170433 -0.2762000560760498
0.02156112715601921 0.0011273990385234356 -0.22183270752429962
0.24226881563663483 0.0010685576125979424 -0.15906530618667603
-0.18951553106307983 -0.3382374346256256 0.15483951568603516
-0.5820759534835815 0.04140263795852661 -0.2073078602552414
0.28134191036224365 0.001507394015789032 0.18701033294200897
0.05119878798723221 0.31404101848602295 0.4655528664588928
0.5822840929031372 0.12104152888059616 -0.12465102225542068
-0.15647682547569275 -0.34074273705482483 -0.25793370604515076
0.04306766763329506 0.00033185165375471115 0.12286955863237381
0.5066347718238831 0.37587234377861023 -0.4029879868030548
0.24301251769065857 0.3996506333351135 -0.19806839525699615
-0.5767862796783447 0.3719579577445984 0.27032309770584106
-0.08271948993206024 0.3989691138267517 -0.01774412766098976
0.17500965297222137 -0.6220259666442871 0.19996237754821777
0.5783675312995911 0.05304568633437157 -0.3864390254020691
-0.03109123557806015 0.2569321095943451 -0.4026753902435303
0.1572226732969284 0.30849114060401917 0.4675886631011963
-0.046543337404727936 0.001576427835971117 0.16865766048431396
0.0947691947221756 -0.4534667432308197 0.26391923427581787
0.4213196039199829 0.3998703062534332 -0.004684080369770527
0.011740275658667088 -0.0015290775336325169 0.27969834208488464
-0.04302963614463806 0.0015434380620718002 -0.1882821023464203
-0.18946611881256104 -0.4045781195163727 -0.061726637184619904
-0.07476048916578293 -0.5681065917015076 -0.2611599266529083
-0.5714367628097534 -0.02059207670390606 0.3159564137458801
0.4566933810710907 0.39813491702079773 -0.3659519851207733
-0.3907165825366974 0.10154147446155548 -0.39974749088287354
-0.14616751670837402 -0.3776170015335083 -0.23426039516925812
-0.45111387968063354 0.0023062690161168575 -0.040767114609479904
-0.3671201765537262 0.3997291326522827 0.0645178034901619
0.5084467530250549 0.0003303414850961417 0.05192815884947777
0.11850545555353165 -0.21449081599712372 0.3179509937763214
-0.15258289873600006 -0.6090346574783325 0.10688856989145279
0.27431708574295044 0.2184068113565445 0.34772732853889465
0.24387754499912262 -0.6201035380363464 0.1264200657606125
-0.3111971616744995 0.0014489274471998215 -0.01246339175850153
0.423230916261673 0.253450483083725 0.34784436225891113
-0.4509454667568207 0.1103476732969284 0.02422875352203846
-0.3642122447490692 -0.019248995929956436 -0.3534439504146576
-0.4732469618320465 0.11329465359449387 -0.0007526198169216514
-0.25431379675865173 0.0020304438658058643 0.30524662137031555
-0.242529958486557 0.3991037607192993 0.05845438316464424
-0.4774214029312134 0.3992050886154175 0.0361487939953804
0.44090887904167175 -0.23112541437149048 -0.09743189066648483
0.5824300646781921 0.3226187527179718 -0.13141953945159912
0.23271161317825317 -0.6205525994300842 -0.1201682835817337
-0.5433632135391235 0.38734135031700134 -0.37243109941482544
-0.40280595421791077 0.24635255336761475 -0.4032638370990753
0.4228351414203644 -0.06386294215917587 0.10632561147212982
0.4672852158546448 0.010486293584108353 -0.39417439699172974
0.5812147259712219 0.023898502811789513 0.03932194784283638
-0.17744256556034088 -0.37568217515945435 -0.17927290499210358
-0.1277444213628769 -0.6575145125389099 0.1172657459974289
-0.24366788566112518 -0.19023658335208893 -0.019722022116184235
0.45875871181488037 0.0017512175254523754 0.3009732961654663
0.5264313220977783 -7.75547232478857e-05 0.2739603519439697
0.3148375153541565 0.29359573125839233 0.34761056303977966
-0.49532192945480347 -0.10392830520868301 -0.19023364782333374
0.34231868386268616 -0.21377895772457123 0.22258004546165466
-0.5031073093414307 0.15763084590435028 0.3434318006038666
-0.4298509359359741 -0.0005283216014504433 0.02209436520934105
-0.4731648564338684 0.39816921949386597 -0.20682542026042938
-0.12700630724430084 -0.5405765771865845 0.14594058692455292
-0.09685038775205612 -0.36518585681915283 0.24782781302928925
-0.5010536313056946 0.40163666009902954 -0.27148735523223877
-0.3173232078552246 0.00011687999358400702 0.1958247572183609
0.3566795289516449 0.16423889994621277 0.34923049807548523
-0.3311765193939209 0.39999109506607056 -0.2557598650455475
0.251740962266922 -0.6204959154129028 0.1517445594072342
-0.3816753029823303 0.06694567203521729 0.08629237860441208
0.3128223121166229 -0.04658832401037216 0.459239661693573
0.3536577522754669 -0.5888727307319641 0.1181907132267952
-0.43391159176826477 0.3008054196834564 0.34336596727371216
0.20929817855358124 0.4016340970993042 0.24431782960891724
0.46175315976142883 0.3590697944164276 -0.4040493071079254
-0.5778983235359192 0.14247700572013855 -0.22076135873794556
-0.5826273560523987 0.2616328299045563 -0.24084694683551788
-0.5681829452514648 0.07136248052120209 0.06433331221342087
0.32715970277786255 0.04296216368675232 0.44457417726516724
-0.18920111656188965 -0.5439172983169556 -0.047518178820610046
0.3353603184223175 0.0014386114198714495 0.14091965556144714
-0.581800103187561 0.12444113940000534 -0.2941720187664032
-0.5638553500175476 -0.05322408676147461 -0.08782313019037247
-0.18009881675243378 0.40144461393356323 -0.04625985771417618
-0.4198155701160431 0.006367476191371679 0.3476014733314514
0.28105729818344116 0.3505828082561493 -0.40268340706825256
0.027473237365484238 -0.0007998831570148468 -0.3494938611984253
-0.02766112983226776 -0.0006790934130549431 -0.33537164330482483
0.3060976564884186 -0.05934179574251175 0.45029589533805847
0.20077908039093018 0.00015474582323804498 0.00964440405368805
-0.49728628993034363 -0.10158036649227142 -0.2537257969379425
0.5172674059867859 0.004131303168833256 0.05632523447275162
-0.16934122145175934 -0.25746116042137146 -0.24659793078899384
0.11375143378973007 -0.29136452078819275 0.31836631894111633
-0.08546388149261475 -0.3680184483528137 0.2494562417268753
0.13128334283828735 0.47002723813056946 0.40292614698410034
-0.5251187682151794 -0.08510186523199081 -0.14860041439533234
-0.32193607091903687 0.3968382477760315 -0.1527787744998932
0.4086892008781433 -0.25576329231262207 0.13938242197036743
-0.5379256010055542 -0.06549937278032303 -0.403295636177063
-0.031748585402965546 -0.6190963983535767 0.0031911456026136875
-0.535692572593689 0.1012674942612648 -0.10362806916236877
-0.3928670287132263 0.07627703249454498 -0.21048015356063843
0.05163537338376045 -0.5428793430328369 -0.31638556718826294
0.3579954504966736 0.0026074955239892006 0.3443165421485901
0.25062087178230286 0.3845348358154297 -0.3954369127750397
-0.4896571934223175 -0.10622058063745499 -0.12387114018201828
0.0760161280632019 -0.0013697817921638489 -0.0930994525551796
0.2622237801551819 0.401372492313385 0.275654673576355
-0.0636821836233139 -0.5610312819480896 0.20494045317173004
0.2172359675168991 0.4001550078392029 -0.2476850301027298
0.3906077742576599 0.001057513989508152 -0.08960539102554321
0.5689343214035034 0.0061307623982429504 0.07190612703561783
-0.575211226940155 0.07838303595781326 0.3335437774658203
-0.3424142003059387 -0.001401110552251339 0.28463470935821533
-0.2444787472486496 -0.0012288345023989677 0.1853794902563095
0.0371478796005249 0.4012924134731293 -0.1561986654996872
0.07421144843101501 -0.6206698417663574 0.17359961569309235
0.34825921058654785 -0.013289117254316807 0.21790534257888794
-0.03237609192728996 0.2834746241569519 0.356918066740036
0.42808762192726135 -0.1784244328737259 -0.14551261067390442
-0.0036182189360260963 0.2796592116355896 0.35729506611824036
0.08067257702350616 -0.25874802470207214 -0.3714141547679901
0.5827176570892334 0.11668765544891357 0.154159814119339
0.23080500960350037 -0.0005081687122583389 0.2451591193675995
0.2503284215927124 0.0004712054505944252 -0.14096106588840485
-0.5063245296478271 0.10022465139627457 0.10442713648080826
0.06582354754209518 -0.6233476996421814 -0.04310343787074089
-0.5215076208114624 -0.08783397078514099 -0.10117397457361221
-0.4102140963077545 0.39827293157577515 -0.22277431190013885
0.37080636620521545 0.0024834834039211273 0.09578502923250198
-0.3854478597640991 -0.06875620037317276 0.0728965774178505
0.07097377628087997 0.4019187390804291 0.17195947468280792
0.4494388997554779 -0.19320067763328552 -0.05709366872906685
-0.32187139987945557 -0.0006525716744363308 -0.2529042065143585
-0.5847651362419128 0.22780370712280273 -0.1441085785627365
0.03599599748849869 -0.0037375118117779493 0.3284975290298462
0.20413799583911896 0.0013117361813783646 0.04113002121448517
-0.4531608521938324 0.10653559863567352 0.2650059163570404
-0.5737115144729614 0.03463814780116081 0.014081072062253952
0.2424698770046234 0.3985777199268341 0.1327030211687088
0.12667816877365112 0.0892670676112175 0.4665648341178894
0.07914014905691147 0.17166642844676971 0.34909969568252563
0.3321976363658905 -0.6247768402099609 -0.006541969254612923
0.4215501844882965 -0.0006077149882912636 -0.11767136305570602
-0.028667690232396126 -0.6258996725082397 -0.22169668972492218
-0.28581503033638 0.06537739187479019 -0.40053534507751465
0.18300631642341614 -1.955777406692505e-08 -0.04063018783926964
-0.012705078348517418 -0.059338077902793884 0.29379621148109436
0.334674209356308 0.3989095389842987 -0.35023021697998047
0.366639643907547 -0.47459688782691956 -0.14083297550678253
-0.10203451663255692 -0.6299828886985779 0.09809555858373642
-0.11113090813159943 0.0016090957215055823 0.10902653634548187
0.10613852739334106 -5.783280357718468e-06 -0.23539131879806519
0.15795038640499115 0.07853317260742188 -0.4014156758785248
-0.2721250355243683 0.4000217318534851 -0.37021785974502563
-0.5434226393699646 0.15678450465202332 0.34208160638809204
-0.35629868507385254 0.009879985824227333 0.3371261656284332
-0.19091227650642395 0.40102633833885193 -0.2532918155193329
-0.049524515867233276 0.39971405267715454 0.28773951530456543
-0.38644322752952576 0.059884607791900635 -0.32763606309890747
-0.015515327453613281 0.11635216325521469 -0.4029887914657593
-0.5671494603157043 0.059692781418561935 0.026214543730020523
0.18668462336063385 -0.61966472864151 -0.161616250872612
0.5844467878341675 0.28465402126312256 0.06887217611074448
0.38763731718063354 -0.4992298483848572 -0.08959498256444931
-0.17965303361415863 -0.6413784623146057 -0.0495721772313118
0.3017275035381317 -0.4804054796695709 0.1847999393939972
-0.2387438714504242 0.08890797942876816 0.3439739942550659
0.25376591086387634 0.38991832733154297 0.46144920587539673
-0.5437356233596802 0.39265772700309753 -0.1961527019739151
0.2571283280849457 0.08690226823091507 0.345920592546463
-0.5479982495307922 -0.07229436188936234 -0.23451142013072968
0.34414252638816833 0.0014890318270772696 -0.12734420597553253
0.22011299431324005 -0.0005091680213809013 0.1101796105504036
0.22052691876888275 0.41524362564086914 0.45661503076553345
0.3875499665737152 -0.486200749874115 0.03439905494451523
0.1713312715291977 0.0008042624685913324 0.2042338103055954
0.3976712226867676 -0.385638028383255 -0.06868410855531693
-0.3580436408519745 0.005035539157688618 -0.17143547534942627
0.5837722420692444 0.30346372723579407 0.1386810690164566
-0.11492187529802322 0.07738414406776428 -0.40123307704925537
0.28175583481788635 0.3577554523944855 0.4640098810195923
-0.09862823784351349 -0.41794341802597046 -0.24278905987739563
-0.5167554616928101 0.005933241453021765 0.31258425116539
0.3901645541191101 -0.4669962525367737 -0.07742441445589066
0.1308058202266693 0.0023015737533569336 0.12744449079036713
-0.4598286747932434 -0.07386677712202072 0.34582945704460144
-0.0681719109416008 -0.17152172327041626 -0.33466219902038574
0.5831075310707092 0.14718906581401825 -0.35815033316612244
-0.08292301744222641 -0.6211162209510803 -0.028002340346574783
0.5853989124298096 0.2864876687526703 0.17247925698757172
-0.15549394488334656 0.1988954395055771 -0.40344372391700745
-0.15755416452884674 -0.5597332715988159 -0.15809749066829681
-0.43406274914741516 0.1118846908211708 -0.2205922156572342
0.036998722702264786 0.40192222595214844 -0.07199888676404953
0.5827116370201111 0.1248077005147934 -0.19904585182666779
0.028470320627093315 0.4001920223236084 -0.23330971598625183
0.2541249990463257 0.3987351059913635 0.1676323264837265
-0.5131623148918152 0.14287333190441132 -0.4015635550022125
0.16274291276931763 -0.6212370991706848 0.1824895739555359
0.3432745635509491 -0.5899607539176941 0.12367653846740723
-0.3956919312477112 0.39948132634162903 0.15094871819019318
-0.5713728666305542 0.007150148041546345 -0.37163683772087097
0.14731766283512115 -0.38037312030792236 -0.3449845314025879
-0.1304483562707901 -0.6415967345237732 -0.11977870017290115
0.5817963480949402 0.24032162129878998 0.10662607848644257
-0.06790709495544434 -0.4776243567466736 -0.2658275365829468
-0.582417905330658 0.2571277916431427 -0.21519441902637482
0.25901174545288086 -0.6207731366157532 -0.16227664053440094
0.22439350187778473 -0.6239856481552124 -0.09122345596551895
0.2196202427148819 0.0018122363835573196 -0.07990209013223648
0.35922008752822876 0.0013623926788568497 0.13859525322914124
0.0755765289068222 -0.5170090794563293 -0.3177299499511719
0.5792707800865173 0.3860567808151245 0.26183179020881653
0.5433056354522705 0.0018711371812969446 0.11400444060564041
-0.3003998398780823 0.4004325866699219 0.09623277932405472
-0.06320930272340775 -0.4856451153755188 0.20811480283737183
-0.5762683749198914 0.05958152189850807 0.3019979000091553
0.01219711173325777 -0.6188842058181763 -0.137014240026474
-0.32272472977638245 0.21045531332492828 0.34488445520401
-0.459602415561676 -0.10981657356023788 -0.027814729139208794
0.12387683987617493 0.40167558193206787 0.1534808874130249
-0.27031710743904114 0.00831122137606144 0.34164494276046753
-0.37748339772224426 0.17769969999790192 0.3439227044582367
0.17878754436969757 -0.3719673752784729 -0.3492678999900818
0.38986051082611084 -0.11197149008512497 0.16966351866722107
0.4496494233608246 0.3313157260417938 -0.4047631025314331
-0.5818498134613037 0.31075990200042725 0.12330364435911179
-0.5519303679466248 0.3874998986721039 -0.014239187352359295
-0.582324743270874 0.2807546854019165 -0.024364959448575974
-0.1344422996044159 -0.5423632264137268 0.14163486659526825
-0.16790448129177094 0.0020761461928486824 0.26733648777008057
0.47170913219451904 0.3980405032634735 0.24359627068042755
0.20159727334976196 -0.6214529275894165 0.0072233108803629875
-0.35067716240882874 -0.001943119801580906 -0.24770167469978333
-0.06605162471532822 -0.5100910663604736 -0.26406821608543396
0.18121401965618134 -0.6224002242088318 -0.06787282228469849
0.5829116106033325 0.20443406701087952 -0.1301150619983673
-0.025361407548189163 -0.623111367225647 0.04186096042394638
0.037683211266994476 -0.6242177486419678 -0.24024713039398193
0.16440293192863464 0.47530269622802734 0.3921799957752228
-0.3987928032875061 0.08641716092824936 -0.24916493892669678
0.10121021419763565 0.001038786955177784 0.28544366359710693
-0.08198859542608261 0.15878720581531525 0.38995400071144104
0.19763027131557465 -0.620873749256134 0.04971310496330261
0.13122470676898956 -0.6228886246681213 0.00716555118560791
0.08346296846866608 0.4209499955177307 0.3843223452568054
0.14705820381641388 0.07986913621425629 0.3478611409664154
0.1095537319779396 -0.6163253784179688 -0.3200345039367676
0.2523585259914398 -0.456948459148407 0.22477860748767853
0.448608934879303 -0.18926385045051575 0.030557991936802864
-0.5825631618499756 0.2333328127861023 0.015127534046769142
-0.10106165707111359 -0.15497659146785736 -0.31271395087242126
0.10008399188518524 -0.5226162672042847 0.2623674273490906
-0.5229184031486511 0.10418780893087387 -0.28789955377578735
0.13006281852722168 -0.457491934299469 0.2603928744792938
-0.5713829398155212 0.0151549456641078 0.06727609783411026
-0.5734596252441406 0.010858379304409027 -0.34264734387397766
0.10756588727235794 -0.5726805925369263 -0.3156878650188446
-0.0730084478855133 -0.624910295009613 -0.14171555638313293
0.2574060559272766 -0.42763805389404297 -0.277532160282135
-0.5315176844596863 0.0032005084212869406 -0.3457084596157074
-0.42244991660118103 0.41145050525665283 -0.13201777637004852
-0.30078503489494324 0.39337947964668274 -0.201824352145195
-0.38448235392570496 0.40156039595603943 0.04711192473769188
0.383374959230423 -0.6119543313980103 -0.10505387932062149
0.14067059755325317 0.28380367159843445 -0.4038825035095215
0.021454565227031708 0.0010282937437295914 -0.04113342612981796
0.23477846384048462 0.3919071853160858 0.3512102961540222
-0.42010563611984253 0.39824578166007996 -0.381989449262619
-0.17109206318855286 -0.002413972280919552 0.20157279074192047
0.39219748973846436 0.0003407173790037632 -0.13754720985889435
-0.36966076493263245 0.06579983979463577 -0.36079517006874084
0.3206101357936859 0.30560144782066345 0.4478116035461426
0.5402728319168091 0.16898010671138763 -0.3994249105453491
0.07227426767349243 0.05103833228349686 0.34943756461143494
0.06583891063928604 -0.12661299109458923 -0.37048840522766113
0.32623645663261414 0.01116897352039814 -0.3966907262802124
0.1312512904405594 0.0008475044742226601 0.19341854751110077
0.29452890157699585 0.4589438736438751 0.43389084935188293
-0.016190579161047935 0.4011267125606537 0.13212308287620544
-0.5736797451972961 0.050333715975284576 0.10319723188877106
-0.15661382675170898 -0.14770273864269257 0.19760367274284363
0.20721429586410522 -0.0005311258137226105 -0.017347967252135277
-0.5678248405456543 0.05586836859583855 0.1466076374053955
0.3542228639125824 0.0006551286205649376 0.11629456281661987
0.1296481043100357 0.43503236770629883 0.366752028465271
0.37428855895996094 0.4003317058086395 0.20231658220291138
0.5834724307060242 0.23800985515117645 -0.3190476894378662
-0.5760045647621155 0.26770004630088806 -0.13840116560459137
0.37850916385650635 0.07731619477272034 -0.40113264322280884
0.15412043035030365 0.25571781396865845 0.46366921067237854
-0.5068088173866272 0.3667198717594147 -0.020119378343224525
-0.03854525089263916 0.3991551399230957 -0.04151024669408798
0.5357391834259033 0.3975628614425659 0.10215016454458237
-0.5752854347229004 0.07042036205530167 -0.05997339263558388
-0.5068840384483337 0.040528133511543274 0.34802374243736267
0.0906265377998352 -0.6192522644996643 -0.09969358891248703
-0.06005609780550003 0.0017594005912542343 -0.1416589319705963
0.47993308305740356 0.00035034073516726494 0.21876128017902374
0.03332335501909256 -0.00013450277037918568 -0.04540958255529404
0.2986658215522766 0.0011643229518085718 -0.029009882360696793
0.15736092627048492 -0.0422961451113224 0.31882768869400024
0.026096485555171967 0.23934033513069153 0.3887348175048828
-0.46698668599128723 0.001756854820996523 -0.24353431165218353
-0.4253770411014557 -0.09000001102685928 0.33511579036712646
-0.2653583586215973 0.034135036170482635 0.34012362360954285
0.5802789330482483 0.09620510041713715 -0.0834239199757576
-0.36614227294921875 0.04459109157323837 -0.4001104533672333
-0.20547640323638916 -0.01953173615038395 -0.17468924820423126
0.08978477865457535 -0.4431123733520508 0.2632143795490265
0.07229847460985184 -0.07882112264633179 0.4198070764541626
0.43415510654449463 -0.29732251167297363 -0.12891103327274323
-0.18640658259391785 0.4023590087890625 -0.08825301378965378
-0.5305174589157104 -0.0830320492386818 -0.28093022108078003
0.10358686000108719 0.06080763414502144 0.46747592091560364
0.3546241819858551 0.40125444531440735 0.2265603393316269
-0.577023446559906 0.015351105481386185 0.26236435770988464
-0.16478508710861206 -0.5277736783027649 -0.13529784977436066
-0.5780982971191406 0.02485613152384758 0.294982373714447
-0.04552218317985535 0.001971842721104622 0.10209359973669052
0.1523667573928833 -0.6204115152359009 -0.07255280762910843
0.10840239375829697 -0.023997502401471138 0.3262060880661011
-0.2864932715892792 0.4020812213420868 0.24592211842536926
-0.5794540643692017 0.1837269812822342 0.22068674862384796
-0.5765573978424072 0.282770037651062 -0.22503314912319183
-0.0010014304425567389 0.15965616703033447 0.3524366021156311
-0.1438109427690506 -0.38608014583587646 0.1662106066942215
-0.4454997479915619 -0.09971447288990021 -0.3844450116157532
-0.5677710771560669 0.37896376848220825 0.2557339668273926
-0.45115551352500916 0.03990626335144043 0.3468410074710846
-0.06324286013841629 0.002042369917035103 -0.06555463373661041
0.23295773565769196 0.0039180489256978035 -0.24162930250167847
0.1774747222661972 -0.006170958746224642 0.46395963430404663
-0.033420998603105545 0.017350737005472183 0.3415977656841278
0.27512648701667786 0.1928461790084839 0.46499237418174744
0.04768193140625954 0.00029460579389706254 -0.22061969339847565
0.2359399050474167 -0.6234845519065857 0.08793135732412338
0.3494446277618408 -0.6476244330406189 -0.15429462492465973
-0.5793196558952332 0.004339173436164856 -0.28027141094207764
0.048234205693006516 -0.07432318478822708 0.3465629518032074
-0.2803345024585724 0.4015451967716217 0.1861875206232071
0.367546409368515 0.33360975980758667 -0.40400218963623047
0.09177323430776596 -0.07677104324102402 -0.371846467256546
-0.3904706835746765 0.3322964608669281 0.3482184410095215
0.583534300327301 0.2872961461544037 0.03077187016606331
-0.17562563717365265 -0.0815448984503746 -0.23943419754505157
0.3370121717453003 0.3295705020427704 0.3644620180130005
-0.24476681649684906 0.39029818773269653 0.33656105399131775
0.3409172594547272 0.33482879400253296 0.349703311920166
-0.4492877721786499 -0.10773522406816483 0.3097645938396454
-0.32160088419914246 0.41198140382766724 -0.06131292134523392
0.11174143105745316 -0.005532089155167341 0.32699519395828247
0.3949357867240906 0.40090593695640564 0.0314536988735199
-0.37061554193496704 0.09554500132799149 -0.400270015001297
0.29283422231674194 0.3628544807434082 0.35165536403656006
-0.02266743779182434 -0.6194949150085449 0.017052609473466873
0.4145438075065613 -0.3739294111728668 0.09022163599729538
0.022890496999025345 0.3427364230155945 0.43324515223503113
-0.1711636334657669 -0.5449361801147461 0.07105932384729385
-0.4974043369293213 0.34523433446884155 -0.004576819017529488
0.4322924017906189 -0.367948055267334 0.044667888432741165
-0.5113387703895569 0.10683263093233109 -0.09041640162467957
0.41796988248825073 -0.12762810289859772 -0.16903838515281677
-0.056632447987794876 -0.32215559482574463 0.27734214067459106
-0.38156357407569885 0.029880071058869362 -0.3990551829338074
0.27339428663253784 -0.07971636950969696 0.40224096179008484
0.3320524990558624 -0.6386041045188904 -0.13611774146556854
-0.5771718621253967 0.3314681947231293 -0.37315189838409424
0.4031725227832794 -0.3826901316642761 -0.09384433180093765
-0.28623315691947937 0.0015722615644335747 -0.24293141067028046
0.343588650226593 -0.0007479323539882898 -0.21804828941822052
-0.2715422213077545 0.12692791223526 0.34500882029533386
0.17796172201633453 0.14576561748981476 0.3474609851837158
0.4486680328845978 -0.22067901492118835 -0.08019757270812988
0.23150579631328583 0.0020199278369545937 -0.1494981348514557
0.01823611557483673 -0.048802219331264496 0.30772119760513306
-0.44532105326652527 0.05192843824625015 -0.4022895097732544
0.25122588872909546 0.2113301157951355 0.34590715169906616
0.29338786005973816 0.4013890326023102 -0.23935766518115997
0.3357395827770233 -0.6502026319503784 0.09946143627166748
0.579281747341156 0.26616060733795166 0.33835962414741516
0.15376369655132294 -0.20926086604595184 -0.37078583240509033
0.47255170345306396 0.23339061439037323 -0.40357986092567444
-0.2624998390674591 0.009816340170800686 0.3435051739215851
-0.3052603602409363 0.004486351273953915 0.20107199251651764
0.5750449299812317 0.3920173943042755 0.18726029992103577
0.06880620121955872 -0.6195160150527954 -0.1092744767665863
0.2501886785030365 0.46535152196884155 0.37571099400520325
-0.5775303244590759 0.14165599644184113 0.1673188954591751
-0.5185168981552124 0.0024395501241087914 -0.182016059756279
-0.22793389856815338 -0.0016165394335985184 0.05856262892484665
0.20040810108184814 -0.1633634716272354 0.30396220088005066
-0.3480027914047241 0.40055590867996216 0.0008783434750512242
-0.36420339345932007 0.3978119194507599 -0.25209999084472656
-0.36983785033226013 -0.04861566796898842 0.03149041533470154
0.03027319349348545 0.0020539150573313236 -0.36758309602737427
0.2274571806192398 -0.31966879963874817 0.2961559295654297
0.4385633170604706 -0.36890414357185364 0.030512796714901924
-0.5815749764442444 0.2561696171760559 -0.3005739748477936
-0.5792028903961182 0.332735151052475 -0.3833126723766327
0.143907830119133 -0.62040114402771 -0.20303130149841309
0.2909856140613556 -0.08253894001245499 0.39741840958595276
0.23037269711494446 -0.00536450557410717 0.30009493231773376
-0.1305469572544098 -0.19948145747184753 -0.2843337059020996
0.4711762070655823 0.4000932276248932 0.18000775575637817
-0.5117709040641785 0.006938030943274498 0.27990567684173584
-0.11696182191371918 -0.016948986798524857 -0.3002163767814636
0.18174470961093903 0.0011673429980874062 0.2833735942840576
-0.5791073441505432 0.25258421897888184 -0.31016916036605835
-0.42297202348709106 0.0030590426176786423 0.2572399973869324
-0.5629382729530334 0.3657000660896301 0.3411028981208801
-0.35952484607696533 0.01161847822368145 -0.19338053464889526
-0.06493451446294785 -0.003685392439365387 -0.3241901099681854
0.22058862447738647 -0.6192187070846558 -0.07013846188783646
0.3182015120983124 -0.6368581652641296 0.09659552574157715
-0.5703670978546143 -0.028691692277789116 0.14917336404323578
-0.20430439710617065 0.0007263068109750748 0.1122635155916214
0.034802213311195374 0.0006377147510647774 0.11810263246297836
0.4227285087108612 0.0012501906603574753 -0.17966318130493164
0.4231373965740204 -0.1491323858499527 0.10143716633319855
0.3723262846469879 0.0006528727244585752 0.0019447100348770618
0.3220987319946289 0.42581140995025635 0.35806646943092346
-0.332272469997406 0.0011489897733554244 0.2517661452293396
0.07569164037704468 -0.48543891310691833 0.2586689889431
0.3262821435928345 0.08788999170064926 0.3485553562641144
0.2651950418949127 -0.3341670334339142 -0.3318982422351837
0.44646620750427246 0.147504061460495 0.34854012727737427
0.2209744155406952 -0.6209600567817688 -0.23595190048217773
0.33559325337409973 0.3313058912754059 0.41112643480300903
-0.3772808313369751 -0.06420579552650452 -0.00942692719399929
0.21597857773303986 0.42971548438072205 0.36611801385879517
-0.27479860186576843 0.4013616740703583 0.2504151165485382
-0.5827909111976624 0.13826194405555725 -0.15254084765911102
0.1861780732870102 -0.6247066855430603 -0.03699711337685585
-0.47290244698524475 -0.10780949145555496 -0.10606428980827332
0.09386534988880157 0.00395673792809248 -0.3159638047218323
-0.1924627423286438 -0.03131157532334328 0.15200550854206085
0.40004467964172363 0.3719237744808197 -0.4022423326969147
0.392336368560791 -0.49476075172424316 -0.05126476287841797
-0.21651549637317657 0.40326133370399475 -0.22344255447387695
-0.07729558646678925 0.0027173608541488647 0.0151161327958107
-0.3266199827194214 0.21722722053527832 0.344553142786026
-0.5820998549461365 0.1422986388206482 -0.20129959285259247
0.3237544000148773 0.40142714977264404 -0.12475854158401489
0.138602152466774 0.0002802247181534767 0.18787719309329987
-0.580204963684082 0.03952045738697052 -0.1222357228398323
-0.06913971900939941 0.28039515018463135 0.39743199944496155
-0.31949883699417114 0.272228479385376 -0.40145978331565857
0.263461172580719 0.40061891078948975 -0.17213281989097595
0.3891344368457794 -0.001869402127340436 -0.2507072687149048
0.1771983802318573 -0.6209256649017334 -0.16495949029922485
-0.5753772854804993 0.08019685745239258 -0.09802711755037308
-0.2679399251937866 0.4009745419025421 0.11108013242483139
-0.4398975074291229 0.20913952589035034 0.3445063829421997
0.37945324182510376 0.0014497973024845123 0.009957712143659592
-0.4640774726867676 0.10250242799520493 -0.26481112837791443
0.11208702623844147 0.33912456035614014 0.46557459235191345
-0.23348619043827057 0.0007934614550322294 -0.13360202312469482
0.37096503376960754 0.00056148023577407 0.27299273014068604
-0.13469034433364868 0.0028004785999655724 -0.10588306188583374
-0.06180359423160553 -0.2646026015281677 0.2781693935394287
0.223680317401886 -0.027227574959397316 0.31168439984321594
0.49806201457977295 0.3983350098133087 0.001460409490391612
-0.4060787856578827 0.036569125950336456 0.34688040614128113
-0.1405244916677475 0.39684751629829407 -0.3786465525627136
-0.25026705861091614 0.004972320050001144 0.3316575884819031
-0.4697333872318268 -0.049541205167770386 0.3512679934501648
0.16058877110481262 -0.087679922580719 0.3617485463619232
0.41034644842147827 -0.12401781231164932 0.1401655524969101
-0.002447717823088169 -0.6194332838058472 -0.11448661983013153
0.4222323000431061 0.2618234157562256 0.34721532464027405
-0.4128778576850891 0.07237875461578369 -0.3965410590171814
-0.5722120404243469 0.0720377266407013 -0.23262491822242737
0.345134437084198 -0.38580596446990967 0.1326979100704193
-0.46275874972343445 0.4024941027164459 0.21470116078853607
0.33777061104774475 -0.6371331810951233 0.0708325132727623
0.39145711064338684 -0.000869120005518198 -0.3182103931903839
-0.5598342418670654 0.0025427695363759995 -0.19300617277622223
-0.40762531757354736 0.3923426568508148 0.01886339671909809
-0.3028864860534668 -0.0001621246337890625 -0.24392180144786835
0.3130105137825012 0.4600766599178314 0.4152942895889282
-0.07557348161935806 0.2768738269805908 0.3879893720149994
0.34651634097099304 -0.6292794346809387 -0.04394340515136719
0.13102923333644867 -0.619519054889679 -0.1768764704465866
-0.014514032751321793 -0.5336514115333557 0.23664717376232147
-0.19868187606334686 -0.03557683899998665 -0.2088295966386795
0.2677026689052582 -0.23871031403541565 -0.3307977616786957
0.544275164604187 0.14548546075820923 0.3441351652145386
-0.08305356651544571 0.0009062802419066429 -0.2220611870288849
-0.18588730692863464 -0.49668172001838684 -0.00652901828289032
-0.48018738627433777 -0.1018422544002533 0.0067737349309027195
-0.27709251642227173 0.00013472465798258781 -0.05916553735733032
0.5827946066856384 0.35306623578071594 -0.1362827569246292
0.27936112880706787 0.46831756830215454 0.38581666350364685
-0.38429638743400574 0.0025316299870610237 0.26068493723869324
-0.5442063808441162 0.31715574860572815 0.34414249658584595
0.1395920217037201 -0.11390359699726105 -0.3717212975025177
0.2837667763233185 0.39992791414260864 -0.2318856120109558
-0.09714055061340332 -0.6236256957054138 0.08143864572048187
0.012027480639517307 0.10606221109628677 0.35155513882637024
0.5772261619567871 0.034096039831638336 -0.09315653145313263
-0.443467378616333 0.1422269195318222 -0.3972178101539612
-0.1044284924864769 -0.548042356967926 -0.2359778881072998
-0.17780116200447083 0.006834984757006168 0.33800217509269714
0.5840597152709961 0.2869771718978882 -0.22367797791957855
0.5021206736564636 0.3000093400478363 -0.3993324041366577
-0.0760808065533638 0.0010956767946481705 -0.23317231237888336
0.21952147781848907 0.07582073658704758 -0.40220117568969727
-0.11449085921049118 -0.0009813089855015278 -0.28807419538497925
-0.5625424385070801 0.23834171891212463 0.341135710477829
0.26671743392944336 0.0027579450979828835 -0.32120904326438904
-0.13885632157325745 -0.0003058686852455139 -0.3428807258605957
-0.46160951256752014 0.044538456946611404 0.34984052181243896
0.394954651594162 0.001980396918952465 0.21747387945652008
0.5546506643295288 0.399238646030426 -0.210595041513443
-0.05442264676094055 -0.5348451733589172 -0.2699085772037506
-0.01102372258901596 0.21376115083694458 0.40532904863357544
0.12831538915634155 0.0013726679608225822 -0.34975549578666687
-0.3749968707561493 0.0034617469646036625 0.13310249149799347
-0.3915844261646271 -0.08141776919364929 0.10845951735973358
0.07443791627883911 -0.6203949451446533 0.011940267868340015
0.016880052164196968 0.20008669793605804 0.4140706956386566
0.2210618406534195 0.001980617642402649 -0.1658022403717041
0.25734296441078186 0.4023903012275696 0.2741297781467438
0.10551521927118301 -0.6192212104797363 -0.16492752730846405
-0.23391762375831604 -0.1788806915283203 -0.12047050148248672
0.29692167043685913 0.3996448218822479 0.13198764622211456
0.21016016602516174 -0.4341030418872833 -0.3022761344909668
0.35019347071647644 -0.38148897886276245 0.13425709307193756
-0.28514963388442993 0.17761589586734772 0.3439579904079437
-0.17348675429821014 -0.044305797666311264 0.1815715879201889
0.2955699861049652 0.1980796605348587 0.35098642110824585
-0.35856008529663086 0.4008950889110565 0.2008565068244934
0.03801210969686508 0.40237414836883545 0.30067625641822815
-0.010160190984606743 3.4936703741550446e-05 -0.20606264472007751
0.21161772310733795 -0.6214959621429443 0.03367704898118973
-0.5724892616271973 0.010423283092677593 0.1634950041770935
-0.412731409072876 -0.08520101010799408 -0.3885549306869507
0.35950949788093567 -0.15507756173610687 -0.2640930414199829
0.3116869628429413 -0.30394017696380615 -0.3034771978855133
0.1878967583179474 0.0008590333163738251 0.1164572611451149
-0.5342890620231628 -0.08720862865447998 -0.1469055712223053
0.49310874938964844 -0.0022022163029760122 0.13445647060871124
-0.24291376769542694 0.22363485395908356 0.3455513119697571
0.3684540390968323 -0.3956547975540161 -0.14897674322128296
0.1154346689581871 -0.2817320227622986 -0.37473753094673157
0.23591622710227966 0.01966835930943489 0.3420751988887787
0.08790846168994904 -0.22571121156215668 -0.37336859107017517
-0.5742793679237366 0.1497069001197815 0.33427175879478455
-0.21166950464248657 -0.026865379884839058 0.10843095928430557
-0.09096356481313705 -0.6260892152786255 -0.0279014240950346
0.03073260746896267 0.026367541402578354 0.4560425579547882
0.010738987475633621 0.044607967138290405 0.3510386347770691
-0.23863905668258667 -0.08959527313709259 0.020900141447782516
-0.10547071695327759 0.39960235357284546 0.11936914920806885
0.08945541828870773 0.4009534418582916 -0.02053520455956459
-0.17449352145195007 0.3938273787498474 -0.38579681515693665
0.5826701521873474 0.2287442982196808 0.14640659093856812
-0.4100331664085388 -0.09249495714902878 -0.22465366125106812
0.29097262024879456 -0.6166199445724487 0.06977415084838867
0.10702595114707947 0.40018975734710693 -0.2935279905796051
-0.11561060696840286 -0.6269863843917847 0.15831919014453888
0.5858020186424255 0.27870577573776245 -0.23298723995685577
0.3166269361972809 -0.017744850367307663 0.24945305287837982
-0.015993770211935043 -0.4634026288986206 -0.29354020953178406
0.5771591663360596 0.013918867334723473 -0.043275561183691025
-0.5283370018005371 -0.0824284628033638 -0.2800498604774475
-0.5716881155967712 0.3141353130340576 -0.39649268984794617
-0.05015849322080612 -0.5102310180664062 -0.27720049023628235
0.5813304781913757 0.1036883145570755 0.15338344871997833
-0.18634037673473358 -0.4382931888103485 -0.04972635209560394
0.1779564470052719 0.17073220014572144 0.467384397983551
0.20868688821792603 0.40154218673706055 -0.10920615494251251
0.3967113494873047 0.21075224876403809 -0.39817413687705994
0.08421522378921509 0.00010455772280693054 0.0016662203706800938
-0.5831923484802246 -0.01425202190876007 -0.28212156891822815
0.18723849952220917 -0.321239709854126 -0.3666408658027649
0.20119066536426544 -0.0024540103040635586 0.3022686243057251
0.03159567713737488 0.3954255282878876 -0.3858775496482849
-0.016155680641531944 -0.6211197376251221 0.10790855437517166
0.44468435645103455 -0.04467972368001938 0.03075111284852028
0.03136683627963066 0.4002794325351715 0.09090104699134827
0.23872941732406616 0.048041146248579025 0.46522802114486694
0.5166486501693726 -0.0001260833814740181 -0.2083394080400467
-0.2855864465236664 0.4004516899585724 0.1156124547123909
0.3582119047641754 0.26024797558784485 0.34955617785453796
-0.15319298207759857 -0.6264845728874207 -0.16561506688594818
-0.37560030817985535 -0.057873908430337906 0.005493853706866503
-0.3705589473247528 0.04632353410124779 0.1727694422006607
-0.4840097725391388 0.3821415901184082 -0.1095515713095665
0.5747668147087097 0.3815828263759613 -0.3836596608161926
-0.5740925669670105 0.011130983941257 0.23376458883285522
0.014096293598413467 -0.6455062031745911 0.1988624781370163
0.17733228206634521 0.12654004991054535 0.34835389256477356
0.31849005818367004 -0.5891168713569641 0.15777646005153656
0.3324788212776184 -0.6256173849105835 -0.015560596249997616
-0.420833945274353 0.40099242329597473 0.30908510088920593
0.11195578426122665 0.1346522718667984 0.3467090129852295
-0.008675018325448036 0.40016603469848633 0.17604562640190125
-0.44532373547554016 0.0929875299334526 -0.4003601372241974
-0.026656776666641235 0.001554141752421856 0.2390565723180771
0.12116081267595291 0.3994302749633789 -0.12304079532623291
-0.28379178047180176 0.40068191289901733 0.13225507736206055
0.3291510343551636 -0.20421114563941956 -0.2892584204673767
0.44376569986343384 -0.11972984671592712 0.04570693150162697
0.17381811141967773 -0.6222127079963684 0.06032354012131691
-0.36919063329696655 0.32575756311416626 -0.4036802053451538
0.0033449146430939436 -0.6169767379760742 -0.17985303699970245
0.3974699378013611 -0.6072002053260803 -0.04405879229307175
0.023588543757796288 -0.43178755044937134 0.2477080225944519
0.17388500273227692 0.00028697121888399124 -0.19938908517360687
0.25358328223228455 0.12733589112758636 -0.40080928802490234
-0.41723188757896423 0.2908383309841156 -0.4033150374889374
-0.09544497728347778 -0.2036195695400238 0.25525766611099243
0.08189220726490021 8.577527478337288e-05 -0.24400071799755096
0.25482186675071716 -0.6485742330551147 -0.24676358699798584
0.44862499833106995 -0.18049751222133636 -0.0024543371982872486
0.30693238973617554 -0.3234005272388458 -0.30518481135368347
0.2725432515144348 -0.3863105773925781 -0.2740834057331085
0.4504513442516327 0.398689866065979 0.1841258555650711
-0.4043380916118622 0.3989552855491638 0.08918868750333786
0.22312317788600922 0.4254167675971985 0.365291953086853
-0.057808391749858856 -0.19444657862186432 0.2793501019477844
0.371688574552536 -0.6477729678153992 -0.037877000868320465
-0.1492980271577835 -0.5187699794769287 -0.16773252189159393
0.1978403925895691 0.4007667899131775 -0.21669751405715942
0.3285484313964844 0.003924543969333172 0.23426246643066406
0.038428112864494324 0.03938046842813492 0.3696095943450928
-0.5774524807929993 0.018328102305531502 0.0001416909508407116
0.4550941586494446 -0.0168909952044487 0.001549296546727419
-0.39911752939224243 0.03709092363715172 -0.40271812677383423
0.0866960734128952 0.1633661389350891 0.34590235352516174
0.39351269602775574 0.13736838102340698 0.34732240438461304
0.15500684082508087 -0.6539204716682434 0.22441083192825317
0.4327908456325531 -0.03983220458030701 -0.14282900094985962
-0.4160647690296173 0.10351037979125977 0.030262168496847153
-0.4850906431674957 0.37486451864242554 -0.10346315056085587
-0.10544834285974503 -0.635594367980957 0.09537661075592041
0.1703767031431198 0.22506599128246307 0.46703794598579407
-0.007890748791396618 0.0004317346028983593 0.1263483464717865
-0.051906488835811615 0.40060505270957947 -0.1914217472076416
0.3012295663356781 -0.6514265537261963 0.1485995054244995
0.5811915993690491 0.24887967109680176 -0.2823851704597473
0.3504014015197754 -0.0014319426845759153 0.25205427408218384
-0.5527670383453369 0.37952756881713867 -0.27284684777259827
0.28177472949028015 0.3983188569545746 0.326729953289032
0.4185978174209595 -0.3501422703266144 0.10775665938854218
-0.3602482080459595 0.017231259495019913 0.06601176410913467
0.09726212173700333 0.4667670726776123 0.44032955169677734
-0.3687514364719391 -0.029528532177209854 -0.32182416319847107
-0.017905237153172493 -0.6205756068229675 -0.1719505786895752
-0.39034900069236755 0.37366899847984314 -0.18622876703739166
0.1683339625597 0.0005813695024698973 -0.33161529898643494
0.32537758350372314 0.4021010398864746 -0.07613109052181244
0.5801804065704346 0.2268725037574768 0.003894070629030466
-0.008164008148014545 0.28380754590034485 0.35821691155433655
0.5841647386550903 0.21026387810707092 0.08892131596803665
-0.1814318299293518 -0.03186161443591118 0.1682782769203186
-0.5089129209518433 0.1767985224723816 -0.4025166928768158
0.12406013906002045 0.22767150402069092 0.3490111231803894
0.3135128617286682 0.10955072939395905 0.3502897322177887
-0.19915570318698883 -0.3128521740436554 -0.19728271663188934
0.45207783579826355 -0.10970348119735718 -0.04446259140968323
-0.2951391935348511 0.2822507917881012 -0.40077200531959534
-0.38027772307395935 -0.06575334817171097 -0.20086854696273804
0.5813729763031006 0.025858551263809204 0.06309352070093155
0.582887589931488 0.15059399604797363 -0.17514504492282867
-0.0211615189909935 -0.6183416843414307 -0.19401836395263672
0.29416245222091675 0.46680545806884766 0.37758320569992065
-0.5352769494056702 0.324581116437912 0.343767374753952
0.13317812979221344 0.08959048986434937 -0.40102988481521606
-0.26025691628456116 -0.002013234421610832 0.08457847684621811
0.5742862820625305 0.3890513777732849 -0.033983390778303146
0.18586941063404083 -0.0005922643467783928 0.09877298772335052
0.509990394115448 0.16886083781719208 -0.39728760719299316
0.38654205203056335 -0.015756525099277496 0.176356241106987
-0.5719680786132812 0.0029253424145281315 0.04825284704566002
0.35410672426223755 -0.6433691382408142 0.09010640531778336
0.5832422971725464 0.3216874599456787 -0.14882265031337738
0.2612970471382141 0.0004623611457645893 -0.026983186602592468
-0.23523807525634766 0.293509304523468 -0.4019967317581177
0.3711842894554138 -0.6123524904251099 -0.13719721138477325
-0.2981451153755188 -0.0014840420335531235 -0.023685703054070473
0.39209645986557007 -0.23370309174060822 -0.21668149530887604
-0.39813387393951416 -0.08376038819551468 0.22958654165267944
-0.18412251770496368 0.398210346698761 0.15668202936649323
0.47409194707870483 0.3881663680076599 0.3438664674758911
0.28655388951301575 0.39717304706573486 -0.36731836199760437
-0.47058895230293274 0.4033040702342987 -0.1194462850689888
-0.3602299988269806 0.008049539290368557 -0.045714784413576126
0.19201041758060455 0.05551661178469658 -0.40053844451904297
-0.5792921781539917 0.1174982339143753 0.19320671260356903
-0.07583159953355789 0.0037767738103866577 0.0783751979470253
0.09830397367477417 -0.0008499231189489365 -0.37189415097236633
-0.2382315844297409 0.21567195653915405 0.3474230468273163
0.44917938113212585 -0.19276531040668488 0.015981972217559814
0.25856122374534607 -0.6197988986968994 0.08714339882135391
0.2378147691488266 -0.16834530234336853 0.2909272611141205
-0.06492356956005096 -0.0002499422989785671 -0.28077036142349243
-0.02582339011132717 -0.28977736830711365 -0.3529791831970215
-0.39490774273872375 0.14294254779815674 -0.4011419117450714
0.3236325681209564 -0.3679722547531128 -0.2873494625091553
-0.39268893003463745 -0.07739946246147156 0.20748522877693176
-0.3610791862010956 0.0037067942321300507 0.1296127885580063
0.14491063356399536 0.2697550356388092 0.4658248722553253
-0.5473040342330933 0.3897090256214142 -0.0867590457201004
0.13033443689346313 -0.6515924334526062 0.24940600991249084
0.29257732629776 0.4360249638557434 0.4451070725917816
-0.5647989511489868 0.36777976155281067 -0.3898671269416809
-0.12006524205207825 -0.6480091214179993 -0.20558948814868927
-0.24885796010494232 0.40023475885391235 0.10903327167034149
0.39545342326164246 -0.3930979073047638 -0.04800896346569061
-0.03715701773762703 -0.6212358474731445 -0.06272800266742706
0.14953285455703735 -0.22203005850315094 -0.3738606572151184
0.4353371560573578 -0.0013738428242504597 -0.05236329883337021
0.32227855920791626 -0.035423360764980316 0.45534875988960266
-0.20992031693458557 0.04635672643780708 0.34569618105888367
-0.38407447934150696 -0.06274844706058502 -0.18180295825004578
-0.35787031054496765 0.3868577182292938 -0.3967399299144745
-0.043315790593624115 0.3986380696296692 -0.08623315393924713
0.29883822798728943 -0.6235864758491516 -0.13585121929645538
-0.36724454164505005 0.02184666506946087 0.16057853400707245
-0.3528158366680145 0.29859301447868347 -0.4007853865623474
-0.32860857248306274 0.38699018955230713 -0.002961504738777876
-0.580960750579834 0.15004810690879822 0.088561050593853
0.2618059813976288 0.027199551463127136 0.46525582671165466
-0.33909180760383606 0.41352105140686035 -0.06141657009720802
0.44750458002090454 0.014547007158398628 -0.39989927411079407
-0.055572837591171265 -0.6174181699752808 -0.1581534892320633
0.16975505650043488 0.46343111991882324 0.43772444128990173
0.210240438580513 -0.627513587474823 0.19094590842723846
-0.3303608298301697 -4.8477668315172195e-05 -0.03051495924592018
-0.008153853006660938 0.06329701840877533 -0.40116795897483826
0.25030311942100525 -0.24343186616897583 0.28572916984558105
0.017075393348932266 0.17340973019599915 0.3888770639896393
0.38382041454315186 -0.06525368988513947 0.18214687705039978
-0.04203135147690773 -0.649441659450531 -0.2569428086280823
0.28782394528388977 0.40121081471443176 -0.03276120871305466
0.2490232139825821 -0.6223528981208801 0.03440377861261368
-0.15025274455547333 -0.3455861508846283 0.20715267956256866
0.13010306656360626 -0.2958950698375702 0.31463176012039185
0.15067152678966522 -0.6169713735580444 -0.12508361041545868
0.14596422016620636 -0.6210543513298035 -0.0050993687473237514
-0.24240157008171082 -0.22066527605056763 0.006569923833012581
0.10602932423353195 -0.4748915433883667 -0.31967294216156006
0.5785105228424072 0.3856225907802582 0.018019622191786766
0.37118422985076904 0.3986944556236267 -0.2653861939907074
0.0211994219571352 -0.6219959855079651 -0.07572203129529953
0.3160518407821655 0.07251355797052383 0.3508186638355255
-0.5825826525688171 0.10548192262649536 -0.29591283202171326
0.32145336270332336 0.001605476252734661 -0.022772574797272682
0.29704800248146057 0.40013182163238525 0.03491633012890816
0.5261656641960144 0.3436459004878998 -0.3980984687805176
0.30588608980178833 0.0008970731869339943 0.11753304302692413
-0.4932129383087158 0.3466387391090393 -0.1498972624540329
-0.19110867381095886 -0.4271959960460663 -0.023327264934778214
0.5479848384857178 0.40009811520576477 0.30050209164619446
-0.5816912651062012 0.2917514443397522 -0.28677698969841003
0.27164605259895325 0.390949547290802 0.34990018606185913
0.3620208203792572 -0.33802491426467896 0.200187548995018
-0.13047131896018982 -0.3694138824939728 -0.27131330966949463
0.2384481281042099 -0.619267463684082 0.005373802036046982
-0.4086581766605377 0.09183648973703384 -0.1350545585155487
-0.15115411579608917 -0.04411155730485916 -0.2609767019748688
-0.04176291078329086 0.0004442725330591202 -0.28881698846817017
-0.29070940613746643 0.32945573329925537 -0.4007279872894287
-0.3440670073032379 -0.0010675648227334023 0.31062036752700806
-0.5295524001121521 -0.08747320622205734 -0.12134774774312973
-0.21200218796730042 -0.02729347161948681 0.10230056196451187
-0.11839108914136887 -0.6565898656845093 0.13600166141986847
-0.23922541737556458 -0.09236254543066025 0.009881515055894852
0.2530421316623688 -0.19483661651611328 0.2844654619693756
-0.2426348179578781 -0.07815154641866684 0.006835459731519222
-0.0696411058306694 -0.6203722357749939 0.038927771151065826
-0.5727023482322693 0.35552746057510376 0.3170478343963623
-0.09793700277805328 0.0005959998816251755 -0.058883704245090485
-0.5047398209571838 0.19206078350543976 0.34393152594566345
-0.37088310718536377 0.036067746579647064 -0.39641809463500977
0.18071921169757843 0.000510108657181263 -0.30205750465393066
0.29977428913116455 -0.6203203201293945 0.08335049450397491
