-0.4376031160354614 -0.09794498234987259 0.32991495728492737
0.40836071968078613 -0.002398323267698288 0.07458172738552094
-0.5624938607215881 0.3909405469894409 0.3114502727985382
0.23073603212833405 -0.3771986961364746 -0.3234475255012512
-0.03893720358610153 -0.15121543407440186 0.2891542613506317
0.009908532723784447 -0.2819044291973114 0.3107518255710602
0.07713034749031067 0.2032332420349121 0.45373570919036865
-0.36238616704940796 0.02440420165657997 0.340396910905838
0.02333482727408409 0.3821055591106415 -0.24695242941379547
0.030799217522144318 -0.08181670308113098 -0.3891276717185974
0.1786338984966278 0.00482354499399662 0.12520046532154083
0.20036599040031433 0.23346592485904694 -0.39841175079345703
-0.3261249363422394 0.3993636667728424 -0.08913647383451462
-0.4675859808921814 -0.10639578104019165 0.203579381108284
0.3350962996482849 0.15746372938156128 0.3453764021396637
-0.4630157947540283 -0.00915705319494009 0.3079298138618469
-0.1260298639535904 -0.0015941904857754707 -0.04897088184952736
-0.1724807322025299 0.34909048676490784 0.35261571407318115
-0.2227439284324646 0.09012675285339355 -0.3973921835422516
0.14826218783855438 0.4044358432292938 -0.33057230710983276
0.3126903474330902 -0.6321765780448914 0.051765669137239456
0.43177348375320435 0.3981288969516754 -0.2547207176685333
0.4375790059566498 -0.011680937372148037 -0.28483518958091736
-0.21429064869880676 -0.1369774043560028 0.10869304090738297
-0.2142607420682907 0.1838955283164978 -0.418552428483963
-0.33735737204551697 -0.02070632204413414 -0.17220133543014526
-0.40179547667503357 0.06067594885826111 -0.1370360106229782
0.3928108811378479 -0.016597330570220947 0.08119816333055496
0.28228238224983215 -0.37787434458732605 -0.31208550930023193
-0.5762036442756653 0.3662673830986023 0.3141329884529114
0.28604182600975037 0.2946452498435974 -0.4005110561847687
-0.008283115923404694 0.2622638940811157 0.37409740686416626
-0.5918964147567749 0.004027588292956352 0.026597924530506134
0.37845146656036377 -0.2909931540489197 -0.23050513863563538
-0.2046056091785431 0.2574906349182129 -0.40996894240379333
0.5786079168319702 0.11207980662584305 -0.2805507183074951
-0.42080622911453247 0.42023229598999023 -0.14477168023586273
0.25761839747428894 0.44749632477760315 0.3938522934913635
-0.08627063035964966 0.034799542278051376 0.332031786441803
-0.029935656115412712 -0.14726050198078156 0.296007364988327
-0.4873031675815582 0.09084451198577881 -0.27166080474853516
0.5655190944671631 0.3091069459915161 -0.3999534845352173
0.2795239984989166 0.1388886719942093 0.46687695384025574
-0.17450293898582458 0.146048441529274 -0.40831702947616577
0.10868743062019348 0.3325071334838867 -0.3967873752117157
-0.26131829619407654 0.00553938839584589 0.10127989947795868
0.1607746183872223 -0.3640460968017578 -0.36828839778900146
0.37735214829444885 0.3908478617668152 0.12052705138921738
0.47168490290641785 0.26872900128364563 0.3393155634403229
0.5400897264480591 -0.015518718399107456 -0.026731744408607483
-0.19226442277431488 -0.0038305213674902916 0.07212556153535843
0.06857658177614212 -0.5750542879104614 -0.31896352767944336
0.5936553478240967 0.26362287998199463 0.20520393550395966
0.30852630734443665 -0.01066487655043602 -0.07861648499965668
-0.36703217029571533 0.17490635812282562 0.3332340717315674
0.3183000683784485 0.00022571301087737083 -0.4127938747406006
0.22243401408195496 -0.013758456334471703 0.11891275644302368
-0.41131946444511414 0.002834671176970005 -0.11789919435977936
-0.39972546696662903 0.1490839719772339 0.35174819827079773
0.04518476128578186 0.0020125964656472206 0.3127598464488983
-0.1416184902191162 -0.675126850605011 -0.02232586219906807
-0.25036004185676575 -0.17421101033687592 -0.08825743198394775
0.10909777134656906 0.38950085639953613 -0.20279665291309357
-0.17112091183662415 -0.43712103366851807 0.10084863007068634
-0.027741940692067146 -0.6424217820167542 -0.10082346946001053
0.20152005553245544 -0.6434117555618286 -0.06359540671110153
-0.0020626946352422237 0.001077820546925068 -0.039708156138658524
-0.36459606885910034 -0.03134521469473839 -0.08690373599529266
-0.4649738371372223 -0.12149464339017868 0.3345212936401367
-1.1016381904482841e-05 -0.6407645344734192 0.24309462308883667
0.4365157186985016 -0.14358946681022644 -0.10656300187110901
0.2419101595878601 -0.06207195669412613 0.4615234136581421
0.22743861377239227 -0.07746004313230515 0.32958653569221497
-0.584373414516449 0.010228900238871574 -0.14312230050563812
0.3080543875694275 0.3637193441390991 0.3290253281593323
-0.5797310471534729 0.00031592510640621185 0.0812075212597847
-0.48782554268836975 0.11489687114953995 -0.4134867489337921
-0.5685022473335266 0.06705208122730255 0.11859006434679031
-0.578994631767273 0.32509928941726685 0.301111102104187
-0.5607155561447144 -0.05911967158317566 -0.3292759656906128
-0.07154718786478043 -0.6223965287208557 0.06074013561010361
0.3955988585948944 -0.4932492673397064 -0.020395830273628235
0.28734123706817627 -0.4510011076927185 0.19627143442630768
-0.5157767534255981 0.09084244817495346 -0.34303152561187744
-0.02574860490858555 0.0039701987989246845 -0.35254067182540894
-0.5740984678268433 0.29464954137802124 0.3484908938407898
0.34607765078544617 0.000735151581466198 0.06940704584121704
0.3695705235004425 0.22206014394760132 0.3485674560070038
-0.34467262029647827 -0.0036271940916776657 0.06766652315855026
0.18610650300979614 0.2670902609825134 -0.4212396740913391
-0.25209495425224304 -0.35380619764328003 -0.051577840000391006
0.587684154510498 0.18211057782173157 -0.4043884575366974
-0.341295450925827 0.006605654954910278 0.3057117164134979
0.4079069495201111 -0.19104239344596863 -0.15895408391952515
-0.23797255754470825 -0.3874863386154175 0.06338389217853546
0.0718560516834259 -0.6329985857009888 -0.33833047747612
0.38087815046310425 0.4060003161430359 0.005828605964779854
-0.3725290894508362 -0.004449762403964996 0.30041730403900146
0.1513500213623047 0.007332079112529755 -0.1406506597995758
0.18063099682331085 -0.6226342916488647 0.13720759749412537
-0.11685735732316971 -0.6025750041007996 -0.222670316696167
0.15543270111083984 0.4599703848361969 0.4218163788318634
-0.5179105401039124 0.3837069869041443 -0.0121185053139925
-0.0793684870004654 -0.015384752303361893 -0.2392292022705078
0.08434617519378662 -0.5067539811134338 -0.3359070420265198
-0.4104543924331665 0.0659814104437828 0.0371183305978775
0.33189108967781067 -0.0017662588506937027 -0.34785735607147217
0.16514094173908234 0.3063572645187378 0.3480086922645569
-0.5638542771339417 -0.07093822211027145 -0.29334139823913574
-0.06327946484088898 -0.0031379428692162037 -0.22685813903808594
0.16482697427272797 -0.3856143653392792 -0.37114566564559937
-0.5073944926261902 0.0032989447936415672 0.20313864946365356
-0.48060062527656555 -0.10496366769075394 -0.14221085608005524
-0.06343281269073486 0.08419547975063324 -0.41549208760261536
-0.5755501985549927 -0.07403523474931717 -0.38753876090049744
-0.15247808396816254 -0.25321534276008606 0.1841331422328949
-0.09455016255378723 0.3878592252731323 -0.10695743560791016
0.16717208921909332 -0.008801274932920933 -0.08423680067062378
-0.23470991849899292 0.0019496316090226173 0.030581558123230934
-0.5655307173728943 -0.004478207789361477 0.28826314210891724
0.388444185256958 -0.4654458165168762 -0.03790052607655525
0.3625389635562897 -0.08771935105323792 -0.2661862373352051
0.2943660616874695 -0.6490650773048401 0.1783849596977234
-0.5535968542098999 0.058013562113046646 -0.21890299022197723
-0.5921165347099304 0.34112483263015747 -0.16794797778129578
-0.36630281805992126 0.028288718312978745 -0.22386787831783295
0.05201742425560951 -0.6247787475585938 -0.13245898485183716
0.13823248445987701 -0.0029163211584091187 0.4562852680683136
0.3168022334575653 -0.013206353411078453 0.15631720423698425
-0.4951000213623047 -0.00830322876572609 -0.13304361701011658
0.11942745745182037 -0.08120468258857727 0.30041205883026123
0.22301703691482544 -0.6367683410644531 -0.2241070717573166
-0.18482744693756104 -0.5605373382568359 -0.0433809794485569
-0.4596363604068756 0.07654288411140442 0.335004597902298
-0.10226080566644669 0.222330242395401 -0.41894230246543884
0.413114070892334 -0.015470923855900764 0.09382281452417374
-0.34793856739997864 0.0052469586953520775 0.2700880765914917
-0.16578437387943268 -0.3935260474681854 -0.25086086988449097
0.40250739455223083 0.39767563343048096 0.278288871049881
0.5904642343521118 0.21697096526622772 -0.3796420991420746
0.2081403136253357 -0.34723177552223206 0.3101590871810913
0.019534897059202194 -0.643430233001709 0.06604801118373871
-0.44855228066444397 -0.11782500892877579 -0.3484307527542114
0.5916237831115723 0.07976973056793213 -0.2529975473880768
0.05562650039792061 -0.6468863487243652 0.08624213933944702
-0.3323364853858948 0.3372187912464142 -0.3948949873447418
0.4069947302341461 -0.20799769461154938 -0.19060398638248444
0.3681276738643646 0.38018855452537537 -0.2964819669723511
-0.4658719599246979 -0.024631250649690628 -0.39735978841781616
-0.18307024240493774 -0.2608283758163452 0.16771851480007172
-0.08600280433893204 -0.6484770178794861 -0.01353299617767334
0.2689901292324066 -0.6469132900238037 -0.1633652150630951
0.033235348761081696 -0.0009972257539629936 -0.3361009657382965
0.07015984505414963 -0.376564621925354 0.3111366331577301
-0.5755755305290222 0.0008937418460845947 0.2595350742340088
0.03795406222343445 -0.006309265270829201 0.21041998267173767
0.16990166902542114 0.30765828490257263 0.3522418737411499
-0.5778365135192871 -0.021416470408439636 0.31248220801353455
0.296807199716568 -0.012787645682692528 0.3231566846370697
-0.5831027030944824 0.2659550905227661 -0.0006759152747690678
0.21834468841552734 -0.20172712206840515 -0.3676704466342926
0.1013006940484047 -0.011489851400256157 -0.22814106941223145
0.2674351930618286 -0.005319644697010517 -0.220770001411438
0.12689559161663055 -0.3792577385902405 -0.37949228286743164
0.39469289779663086 -0.5683342814445496 -0.057303428649902344
-0.5578374862670898 -0.016803085803985596 -0.3207930326461792
0.5304805040359497 -0.0193923432379961 -0.3827158510684967
0.07779169827699661 -0.4997820258140564 0.2543109655380249
-0.10575344413518906 -0.3566213548183441 -0.2978450655937195
-0.19370704889297485 -0.3821949064731598 0.13686884939670563
0.0745195746421814 -0.4481099247932434 -0.31958770751953125
0.28004586696624756 -0.6219139695167542 -0.05525777488946915
0.5815533399581909 0.14575952291488647 0.13005277514457703
0.008792998269200325 -0.11691052466630936 -0.3801918625831604
0.4490961730480194 -0.36605003476142883 -0.08620559424161911
0.3403109908103943 -0.005438566207885742 0.14932703971862793
0.5311430096626282 0.1640247255563736 0.34299731254577637
-0.5943003296852112 0.05596146732568741 0.23602403700351715
0.22695618867874146 0.006148956716060638 -0.31696534156799316
0.5937235951423645 0.3967123329639435 -0.11560788005590439
-0.09405653178691864 -0.135269895195961 -0.3095497190952301
-0.2078520804643631 -0.1429135799407959 -0.15540368854999542
-0.5585482120513916 -0.05017559230327606 0.10298179090023041
0.37372398376464844 -0.015277712605893612 -0.28653591871261597
0.39678624272346497 0.40030965209007263 0.13134054839611053
-0.30252155661582947 0.3333534598350525 -0.15457265079021454
0.2029953896999359 -0.25686895847320557 -0.35922619700431824
-0.5092524886131287 0.08442703634500504 -0.4191609025001526
0.1784151792526245 -0.6589080691337585 -0.2821454107761383
-0.0008790623396635056 -0.5931941270828247 0.23100055754184723
0.08629585802555084 -0.02453247830271721 0.44969627261161804
-0.4126706123352051 0.3354299068450928 0.02140209451317787
0.06251291185617447 -0.6281878352165222 0.26305443048477173
-0.5629111528396606 0.06077049672603607 -0.13588009774684906
0.2816948890686035 0.004291138611733913 0.025836456567049026
-0.5699639320373535 0.32782071828842163 -0.16056251525878906
0.5624562501907349 0.001768624410033226 -0.1676599234342575
0.010971833020448685 -0.6484449505805969 -0.10922297090291977
0.3654686510562897 -0.3471689820289612 0.17663811147212982
-0.062434908002614975 0.13433267176151276 0.32802814245224
-0.18867343664169312 -0.47937899827957153 0.026441605761647224
0.5899418592453003 0.3796340525150299 -0.16123905777931213
0.3102870583534241 -0.10039617866277695 0.22546376287937164
-0.22951529920101166 -0.27255451679229736 0.03590717911720276
-0.15076373517513275 -0.005797258578240871 -0.1318891942501068
0.32923489809036255 0.08962655812501907 0.4257412552833557
-0.5950353145599365 0.17975859344005585 -0.4197208881378174
0.1247481182217598 -0.18057896196842194 0.29212480783462524
-0.5961487889289856 0.027949152514338493 -0.23383687436580658
0.4249749183654785 -0.371482789516449 0.11751022189855576
-0.2490660399198532 0.3870793581008911 -0.15762580931186676
-0.39743515849113464 0.07176777720451355 0.2950234115123749
0.3830496668815613 0.3844987452030182 -0.04400506243109703
0.5741564631462097 0.3226395547389984 0.2474496066570282
-0.12348878383636475 -0.006034467369318008 0.022157613188028336
-0.35901591181755066 -0.03069435991346836 0.34350481629371643
0.5694231986999512 0.1991560012102127 0.3079732358455658
0.025493530556559563 -0.6254013180732727 0.25368407368659973
0.30534255504608154 0.0071399640291929245 0.17972224950790405
0.41468188166618347 0.0009956704452633858 -0.17732149362564087
0.18961374461650848 0.160426527261734 -0.3986104130744934
0.11609117686748505 0.21311643719673157 0.4559275507926941
-0.4162222146987915 0.007149539887905121 0.3249166011810303
-0.06279263645410538 -0.6724342703819275 0.14697138965129852
-0.20876909792423248 -0.1434621512889862 0.13826382160186768
0.18035291135311127 -0.4583848714828491 0.23411013185977936
-0.06364938616752625 -0.656101405620575 -0.260420024394989
0.05408947914838791 -0.02155011147260666 0.041202984750270844
0.42873117327690125 -0.12281782925128937 -0.10207071155309677
0.14377978444099426 0.3935099244117737 -0.083473801612854
-0.2757003605365753 0.3821560740470886 -0.24075154960155487
-0.25353705883026123 -0.20556101202964783 -0.07883334904909134
0.18318015336990356 0.39280062913894653 0.2687770426273346
-0.3496420085430145 -0.003132792189717293 -0.07887955754995346
0.5701882243156433 0.19192121922969818 -0.10688409954309464
-0.5482030510902405 -0.08812432736158371 -0.07580126076936722
0.22207915782928467 -0.002143275924026966 -0.05157402157783508
-0.5844721794128418 0.018808644264936447 -0.009661821648478508
-0.41089123487472534 -0.09814266115427017 -0.19828881323337555
-0.3623994290828705 0.03413907438516617 -0.3597373962402344
-0.35811227560043335 0.20461294054985046 0.3392268419265747
0.04671312868595123 -0.13168559968471527 -0.3721062242984772
-0.5124427676200867 -0.11074057966470718 0.13697132468223572
-0.5694984793663025 -0.055434007197618484 0.2739231586456299
-0.4138537049293518 0.4045678377151489 -0.29471781849861145
-0.44973084330558777 -0.11931124329566956 0.11871927231550217
0.03579239547252655 0.2168172150850296 -0.4095412492752075
0.16899891197681427 -0.04370002821087837 0.4723333418369293
-0.13287170231342316 -0.6577450037002563 -0.214331716299057
-0.15462715923786163 -0.11063680052757263 0.17995411157608032
-0.5786823034286499 0.3431404232978821 0.06688275933265686
0.043364863842725754 -0.012274190783500671 -0.3887368142604828
0.08066403865814209 -0.6360486149787903 -0.2776521146297455
-0.005243820603936911 -0.12344257533550262 0.3006282150745392
0.3229592740535736 -0.5630754828453064 0.1604979783296585
0.03173336014151573 -0.04025157168507576 0.4291495084762573
-0.002475125715136528 -0.625330924987793 0.13014736771583557
0.04274658113718033 4.7944486141204834e-05 -0.26748043298721313
0.28210172057151794 -0.5617430806159973 -0.26188021898269653
-0.5357828736305237 0.09189746528863907 -0.02864851988852024
-0.4176112711429596 -0.005894405301660299 -0.41408249735832214
-0.42178067564964294 0.39149612188339233 0.08974923193454742
0.3548988103866577 -0.007272741757333279 0.19076786935329437
-0.2552877366542816 -0.04947629198431969 -0.02806200087070465
0.4621736407279968 -0.005305134691298008 -0.19042666256427765
-0.5846179723739624 0.06983679533004761 0.013392729684710503
0.17848922312259674 0.19719615578651428 0.3296721875667572
-0.5196856260299683 0.37353357672691345 0.32912498712539673
-0.17899496853351593 -0.04982665926218033 0.15732315182685852
-0.3007605969905853 0.27711203694343567 0.35046350955963135
-0.5188451409339905 0.1882859617471695 0.3399038314819336
-0.22809192538261414 -0.0024947496131062508 -0.06198152154684067
-0.5145009160041809 0.02062549814581871 0.33493921160697937
-0.2322063148021698 0.38184627890586853 0.15519216656684875
-0.5115600228309631 0.09178661555051804 -0.3956650495529175
-0.5158872008323669 0.3943333625793457 0.04348914325237274
0.555759072303772 0.16512049734592438 0.33599451184272766
-0.18390724062919617 -0.12508565187454224 0.15437720715999603
0.32096967101097107 -0.6227139830589294 -0.024655651301145554
0.1297745704650879 -0.01884017139673233 0.1790383905172348
-0.5840634703636169 -0.004144911654293537 -0.22814318537712097
0.39606091380119324 -0.05683020502328873 0.15535901486873627
0.41547727584838867 -0.23746134340763092 -0.19219088554382324
0.5875150561332703 0.230440154671669 -0.12745529413223267
0.23326696455478668 0.32854053378105164 0.45097634196281433
0.23445682227611542 0.13877978920936584 0.35086625814437866
-0.31583911180496216 0.005247705150395632 -0.40206512808799744
-0.274137943983078 0.21972981095314026 0.3269842267036438
0.44885438680648804 -0.019933078438043594 -0.16927079856395721
0.5755308866500854 0.03248882293701172 0.3403199315071106
0.24764414131641388 -0.39998120069503784 0.2648726999759674
-0.03698844835162163 0.1386912614107132 0.34303784370422363
0.36253583431243896 -0.009917741641402245 -0.231622576713562
0.16607889533042908 -0.38705915212631226 -0.331091970205307
0.22746537625789642 0.39535605907440186 -0.2729469835758209
0.20796149969100952 -0.006945636123418808 -0.21169953048229218
-0.0645635724067688 -0.6038539409637451 0.20846998691558838
-0.10310491919517517 -0.6451871991157532 0.0497945100069046
0.5699715614318848 0.39060893654823303 -0.3613222539424896
0.06394148617982864 0.019893229007720947 -0.42183032631874084
-0.10591484606266022 -0.002709477674216032 -0.36657825112342834
0.0346807986497879 0.2283649742603302 0.3330788314342499
-0.35358726978302 0.41967618465423584 -0.07571929693222046
-0.48991551995277405 -0.10539721697568893 -0.1601453274488449
0.40854036808013916 0.001734912395477295 -0.0570954829454422
-0.21587114036083221 0.2707633674144745 -0.40796777606010437
0.5762913823127747 0.3517441153526306 0.030801214277744293
-0.2588793635368347 0.4045652151107788 -0.37196311354637146
0.35038653016090393 -0.6538687944412231 -0.11609267443418503
-0.2575819790363312 0.38097208738327026 0.242781400680542
0.251859188079834 0.06570940464735031 0.3432062864303589
-0.011630108579993248 0.18915149569511414 -0.4087642431259155
0.4561788737773895 -0.018530569970607758 0.34364059567451477
-0.10501626133918762 0.3887206017971039 0.10624436289072037
-0.22492247819900513 -0.3614095151424408 -0.13309858739376068
-0.13909627497196198 0.14765159785747528 -0.40528473258018494
-0.001979429041966796 -0.010488641448318958 0.27388596534729004
0.0909988060593605 0.12049958109855652 0.4478066861629486
0.08270778506994247 0.26893743872642517 -0.41882410645484924
0.2212987244129181 -0.08670485764741898 0.2720261216163635
0.44418907165527344 0.0004786495119333267 0.19957959651947021
0.281376451253891 -0.5391035676002502 -0.27158504724502563
-0.3233839273452759 -0.020443568006157875 -0.232397198677063
-0.24332234263420105 -0.3382762670516968 -0.1165291965007782
0.3838443458080292 -0.0029173102229833603 -0.02059478685259819
0.3952891528606415 -0.6701910495758057 -0.04103752225637436
-0.5844497680664062 0.12692692875862122 -0.4191381633281708
-0.21931792795658112 -0.14880606532096863 -0.1376088559627533
-0.0655212551355362 -0.6614043712615967 -0.2225746512413025
0.04623139277100563 -0.00832190178334713 0.12504728138446808
0.2174680083990097 0.021060654893517494 0.33958306908607483
-0.5048055052757263 0.38987961411476135 -0.2743114233016968
-0.41482090950012207 -0.002780212089419365 -0.3032616078853607
-0.47615179419517517 -0.004448321647942066 -0.3823978900909424
-0.5552501082420349 -0.09904684871435165 -0.011551778763532639
-0.37338587641716003 0.38061410188674927 0.21290183067321777
0.15884368121623993 -0.0031958436593413353 0.1929546296596527
-0.18272539973258972 0.00646621361374855 0.32414814829826355
-0.5691235661506653 0.1998603194952011 0.35067352652549744
-0.5756618976593018 0.02386591210961342 -0.06898151338100433
-0.4719929099082947 -0.11791281402111053 0.07342811673879623
0.535772979259491 -0.007631070911884308 -0.016129039227962494
-0.1320701539516449 -0.18848127126693726 0.2277948260307312
-0.23321887850761414 -0.3428303301334381 -0.08099436014890671
-0.5967035889625549 0.20350362360477448 0.1094338446855545
0.5072795748710632 0.0009650415740907192 -0.38420483469963074
0.3530166447162628 0.0011097649112343788 0.24637596309185028
-0.4882333278656006 0.39851927757263184 -0.07110907882452011
-0.5850614309310913 0.13352219760417938 0.11231591552495956
0.2650966942310333 -0.5221878290176392 -0.2810065746307373
-0.15865054726600647 0.39398902654647827 -0.22893568873405457
0.17607127130031586 -0.013015802018344402 -0.3331516981124878
-0.3387008607387543 0.18003001809120178 -0.40459144115448
0.03639877215027809 -0.6346926093101501 -0.12642233073711395
-0.1337462216615677 0.2668033540248871 -0.4096111059188843
0.47703036665916443 0.38455522060394287 -0.08842683583498001
0.5820053815841675 0.1277780532836914 -0.07346761226654053
-0.36444854736328125 -0.0195683054625988 0.04714936763048172
-0.29034164547920227 0.3391616642475128 -0.07256390154361725
-0.4102053940296173 -0.0659036636352539 -0.3939930498600006
-0.5941921472549438 -0.03490948677062988 -0.008143478073179722
0.2615281939506531 0.030222777277231216 0.33953943848609924
0.29272449016571045 -0.00018281210213899612 -0.2744082510471344
0.22045941650867462 0.46184873580932617 0.3995911180973053
0.2677343487739563 -0.592729926109314 -0.26668861508369446
-0.5611653327941895 0.0064993966370821 -0.018626049160957336
-0.1457844227552414 -0.019884219393134117 0.0008403998799622059
0.030246516689658165 -0.0038391919806599617 -0.056609928607940674
0.06267397105693817 0.06451645493507385 0.3501965403556824
-0.5756785273551941 0.3018118739128113 0.116426482796669
-0.38043150305747986 0.3987790644168854 0.27480560541152954
0.1913960576057434 0.2842344045639038 0.3515900671482086
0.05889386683702469 -0.5882505774497986 0.23847495019435883
0.33928999304771423 -0.6598972678184509 -0.11939014494419098
-0.003090157173573971 -0.6233007311820984 -0.09218616038560867
0.041799988597631454 -0.008498692885041237 -0.03321594372391701
0.03155098855495453 0.17511731386184692 0.43818536400794983
0.4410143494606018 -0.3674243688583374 -0.1540323793888092
0.3469480872154236 0.39558887481689453 -0.07510893791913986
-0.5926699638366699 -0.041992004960775375 -0.1881159543991089
-0.17006617784500122 -0.017063284292817116 0.006056962534785271
0.5050671100616455 0.38916411995887756 0.2520969808101654
-0.2258816808462143 -0.40319833159446716 -0.014832082204520702
0.031473103910684586 0.40608933568000793 -0.01972796954214573
-0.5319005846977234 0.0961880013346672 0.18492743372917175
-0.5741154551506042 0.37010157108306885 0.019870128482580185
-0.12314240634441376 -0.27422186732292175 0.22937485575675964
0.16778412461280823 0.0002098148688673973 -0.1454170197248459
-0.25764232873916626 0.03766295313835144 -0.4199199974536896
0.30344486236572266 0.045940473675727844 0.32545343041419983
-0.10191737115383148 0.2613324522972107 0.34755954146385193
-0.43686631321907043 0.40610432624816895 -0.14842484891414642
0.1286785751581192 0.39694905281066895 -0.17776522040367126
-0.5188441872596741 -0.006782726384699345 -0.05823010578751564
0.2702879309654236 -0.3811982572078705 0.21489650011062622
-0.18150389194488525 0.008121605962514877 -0.21111874282360077
0.5142144560813904 -0.01647704839706421 -0.3664712607860565
0.361585408449173 -0.16455873847007751 0.18542030453681946
0.22606632113456726 0.3904739320278168 0.3655757009983063
0.18071863055229187 -0.10053062438964844 0.29045701026916504
0.2923198342323303 -0.37224265933036804 -0.32277607917785645
0.298879474401474 0.40473857522010803 0.030323129147291183
-0.4383387267589569 0.06305990368127823 -0.41838571429252625
0.41599467396736145 -0.37314218282699585 0.12270607054233551
-0.5866835713386536 0.31623318791389465 -0.24860544502735138
-0.4764130711555481 0.4016885459423065 0.10149715095758438
-0.4663679301738739 0.09841398894786835 0.24907934665679932
-0.43088215589523315 -0.015238575637340546 -0.3072589337825775
0.3068319261074066 -0.1012168824672699 0.22594201564788818
-0.5459489226341248 0.06485479325056076 -0.004551538731902838
-0.11459481716156006 -0.008221114985644817 -0.39466631412506104
0.5727756023406982 0.33562055230140686 0.18122245371341705
0.12467075139284134 -0.2554236054420471 -0.36649900674819946
0.4378238916397095 0.3013642430305481 -0.3964221775531769
0.09040181338787079 -0.009866920299828053 0.22455035150051117
-0.20298205316066742 0.3792520761489868 0.1443832516670227
0.026440458372235298 -0.013520828448235989 0.13666681945323944
-0.17740243673324585 -0.5163483023643494 -0.12357374280691147
-0.24205738306045532 -0.29282981157302856 0.017027389258146286
0.4316711723804474 -0.27927181124687195 -0.12494823336601257
-0.2530395984649658 -0.3802945911884308 0.031069185584783554
0.10980402678251266 -0.013841334730386734 0.4685911536216736
-0.5703397393226624 0.029178163036704063 0.06300647556781769
0.41044455766677856 -0.20300637185573578 -0.18267953395843506
0.5241631269454956 0.1417049914598465 -0.4072103202342987
-0.2302521914243698 0.3849082291126251 -0.3534584045410156
0.2919151186943054 0.0052847424522042274 -0.0969400480389595
-0.5715633630752563 0.3810780644416809 -0.05875649303197861
0.1445769965648651 0.406912237405777 0.02253992296755314
-0.2170448750257492 -0.18458642065525055 0.1186383068561554
-0.10531894117593765 0.39604082703590393 0.1985011100769043
0.559248685836792 0.40564510226249695 0.2698918282985687
-0.20288389921188354 -0.4476951062679291 -0.06364765763282776
0.24656780064105988 -0.3875582814216614 0.26528698205947876
-0.4169430732727051 0.08729292452335358 0.10200419276952744
0.3167933225631714 -0.09765436500310898 0.37900620698928833
-0.5865896344184875 0.02567087486386299 -0.030581843107938766
-0.5957538485527039 0.13534387946128845 -0.1897292137145996
0.015928547829389572 -0.0035485997796058655 0.1839592605829239
0.20850129425525665 -0.12691150605678558 0.29875802993774414
0.08047837018966675 -0.5889164209365845 -0.31972232460975647
-0.5308466553688049 0.38641002774238586 0.0011168457567691803
0.49336960911750793 -0.010238640010356903 0.17311424016952515
0.10342240333557129 -0.2584448456764221 -0.38148486614227295
-0.5834778547286987 0.29018184542655945 -0.3650222420692444
0.1863451898097992 -0.020116060972213745 -0.21998105943202972
0.08301902562379837 -0.6259030103683472 -0.27021631598472595
0.5957789421081543 0.23607313632965088 0.12002236396074295
0.589720606803894 0.27120429277420044 -0.23857048153877258
-0.3086831867694855 0.4044024646282196 0.11845312267541885
-0.05747605487704277 0.26419228315353394 0.3856891691684723
0.3360237181186676 -0.6832358837127686 0.0745195746421814
0.35661715269088745 -0.31969398260116577 0.18086117506027222
-0.43484434485435486 -0.005036085844039917 0.2714333236217499
0.3348845839500427 0.33351925015449524 0.333275705575943
0.24754667282104492 0.071296326816082 0.3269611597061157
0.152997225522995 0.25176796317100525 0.469673752784729
-0.11507301777601242 0.40116897225379944 -0.10689684003591537
-0.4180068373680115 -0.00408775731921196 -0.029479118064045906
-0.23288235068321228 0.39840903878211975 -0.3106594383716583
-0.151553213596344 -0.01550493948161602 -0.2666986882686615
0.15565656125545502 -0.015017437748610973 -0.11809121072292328
0.12278208136558533 -0.6443920135498047 0.013545188121497631
-0.1616940051317215 -0.44609180092811584 0.09239611029624939
-0.32202473282814026 0.36046645045280457 0.003776948433369398
0.3664245009422302 -0.015286212787032127 -0.23722246289253235
-0.5676841139793396 0.05141130089759827 -0.2327563762664795
0.45860642194747925 0.0572778657078743 -0.4134366512298584
-0.5845407843589783 0.0032379981130361557 0.3215929865837097
0.06682462245225906 -0.6369242072105408 0.13410523533821106
-0.17027178406715393 -0.007974517531692982 0.09703925251960754
0.5787543654441833 -0.0034523941576480865 0.30057308077812195
0.5855230689048767 0.26725420355796814 0.18919409811496735
0.14318245649337769 -0.034532539546489716 -0.3866046965122223
0.4041138291358948 -0.49148380756378174 -0.03137052431702614
-0.4418081045150757 -0.09569399058818817 -0.06852830946445465
-0.0936981737613678 -0.002951208036392927 -0.34877392649650574
-0.21034911274909973 -0.4038286507129669 0.010453075170516968
-0.3974256217479706 -0.09545180946588516 -0.08394427597522736
0.3051382899284363 -0.6625550985336304 -0.18917877972126007
-0.5642913579940796 -0.08833939582109451 0.22790010273456573
0.08402467519044876 -0.3865024745464325 0.28529056906700134
0.31610509753227234 -0.6210801601409912 0.0419754832983017
-0.45203208923339844 0.4210754632949829 -0.09765172004699707
-0.2082996368408203 -0.2850959002971649 -0.1839127242565155
-0.5101410150527954 0.38958480954170227 -0.11901593953371048
-0.010834412649273872 0.3189263939857483 0.3444819450378418
-0.1973801851272583 -0.15397584438323975 -0.22018428146839142
0.1763220727443695 0.006242359057068825 0.03329702839255333
-0.24015311896800995 0.00025499798357486725 0.2631618082523346
-0.5865226984024048 0.014903003349900246 0.19269774854183197
0.45039865374565125 -0.2454576939344406 -0.11775834858417511
0.39300525188446045 0.006797350011765957 -0.11481529474258423
0.05424708500504494 0.3055139482021332 0.4606069326400757
-0.41656461358070374 0.09005536884069443 -0.4000507593154907
0.46329185366630554 0.0581737644970417 -0.4013591706752777
0.19354596734046936 -0.012745342217385769 -0.319245845079422
-0.21187037229537964 0.06404189765453339 0.3248782753944397
0.3758435845375061 0.3883185088634491 0.2819342613220215
0.23589381575584412 -0.19782090187072754 -0.3397374451160431
0.27046477794647217 -0.27070820331573486 -0.33967000246047974
-0.06866943836212158 -0.35787978768348694 -0.35497912764549255
0.56718510389328 0.3123374581336975 -0.31252044439315796
0.320636123418808 -0.00572722963988781 -0.15580026805400848
-0.36830151081085205 0.3803122639656067 -0.2247074693441391
0.3489168584346771 -0.08906907588243484 0.18346142768859863
0.21373718976974487 0.38990792632102966 0.1271289587020874
-0.5338749885559082 0.045120593160390854 0.33314013481140137
0.10106463730335236 -0.6377037167549133 0.10130240023136139
-0.4058493673801422 0.07640758901834488 0.13886387646198273
0.008384675718843937 0.2293190360069275 0.37021225690841675
0.3074406683444977 -0.01064063236117363 0.10392633080482483
0.18189257383346558 0.38427138328552246 -0.19704164564609528
-0.5944851040840149 0.1681029349565506 0.019355550408363342
0.5503374934196472 0.007330606691539288 -0.2050662636756897
0.2381773740053177 0.40811148285865784 -0.025992002338171005
0.2619464695453644 -0.5829942226409912 -0.27559545636177063
-0.3838995099067688 0.020509973168373108 -0.3845132291316986
0.050007548183202744 0.15727607905864716 -0.39224302768707275
0.013907155022025108 -0.26893067359924316 0.2996257245540619
-0.16168628633022308 0.008378597907721996 -0.23603186011314392
0.2946760654449463 0.03579479455947876 0.3487204909324646
-0.07944061607122421 -0.5435446500778198 -0.2777354419231415
-0.05661102756857872 -0.011027932167053223 -0.2710038423538208
0.5743926763534546 0.2188989520072937 -0.34668174386024475
0.03728243336081505 -0.016690950840711594 -0.07072826474905014
0.22129718959331512 -0.0003701215609908104 -0.24344709515571594
0.31943613290786743 -0.5284941792488098 -0.21119876205921173
0.2205132097005844 -0.18861983716487885 0.29753947257995605
0.0575326569378376 0.07755463570356369 0.3265532851219177
-0.2137281447649002 0.23503096401691437 -0.40290385484695435
-0.5802783966064453 0.0015175612643361092 -0.3926992118358612
0.0314626507461071 -0.14880548417568207 0.3132709860801697
-0.4061283469200134 0.0825609341263771 0.06949951499700546
-0.03202937915921211 0.007768025156110525 -0.3700332045555115
0.49625587463378906 0.17111517488956451 -0.39793750643730164
0.04002033546566963 0.3686813414096832 0.4254378080368042
-0.571763277053833 0.045879386365413666 -0.34553176164627075
-0.2509427070617676 0.004710785578936338 -0.22104130685329437
-0.10050755739212036 0.006526387296617031 0.008861211128532887
-0.025788050144910812 0.40245044231414795 -0.01949453167617321
-0.1480749249458313 -0.656230092048645 -0.04325699806213379
0.5009870529174805 0.08751624077558517 -0.4003022015094757
-0.5421333909034729 -0.040744807571172714 0.3299768567085266
-0.13230133056640625 -0.46460649371147156 0.1318855583667755
-0.2723846435546875 0.40467917919158936 -0.28763267397880554
0.12842148542404175 -0.6418271064758301 -0.10643959790468216
-0.4642459452152252 0.34113752841949463 0.006956120021641254
-0.11538146436214447 0.005291176028549671 -0.4023275077342987
-0.029143769294023514 -0.2308853268623352 -0.37006956338882446
0.5759226083755493 -0.018902266398072243 0.34666210412979126
-0.14906923472881317 -0.061549920588731766 0.20339199900627136
0.367238849401474 -0.6582499146461487 0.025133270770311356
0.5367353558540344 0.2113937884569168 0.34319713711738586
0.062202975153923035 -0.0015502125024795532 0.14225012063980103
-0.12342973798513412 -0.012138866819441319 0.10460487753152847
0.025245027616620064 0.0001567583531141281 -0.36506083607673645
-0.5273854732513428 0.1169649288058281 0.3541511595249176
-0.12670285999774933 -0.37258878350257874 -0.3119964301586151
-0.40682452917099 0.08563390374183655 -0.05164499953389168
-0.2011050134897232 -0.1506245732307434 -0.19961418211460114
-0.49987339973449707 0.1029224544763565 -0.1808537393808365
-0.0655130073428154 -0.0038382550701498985 0.21119116246700287
0.08906307816505432 0.10628984868526459 0.46244460344314575
0.585857629776001 0.2049800157546997 0.16495822370052338
0.5785196423530579 0.22896985709667206 -0.07881186157464981
-0.4412023723125458 0.4059015214443207 0.24974782764911652
0.28672465682029724 -0.6486769318580627 -0.09323333948850632
0.03559562563896179 -0.6235824227333069 0.0045031895861029625
0.19155940413475037 0.001872326247394085 0.16270631551742554
0.1553920954465866 -0.048618134111166 0.3338828682899475
-0.036855850368738174 -0.5765693187713623 0.21073660254478455
0.42270004749298096 -0.0741647407412529 -0.169611856341362
0.08072035759687424 -0.6404982805252075 -0.26884332299232483
-0.5798380970954895 0.1850924789905548 -0.12710294127464294
0.3771110475063324 -0.4555233418941498 -0.058276835829019547
-0.31454867124557495 0.02155664935708046 0.3383750319480896
-0.24883466958999634 0.40780696272850037 -0.018649863079190254
-0.07120319455862045 -0.09944454580545425 -0.3304286301136017
0.11344777792692184 0.4537566900253296 0.35766279697418213
-0.16862614452838898 -0.018867457285523415 -0.04193384572863579
-0.5888769030570984 0.03392289578914642 0.2819719612598419
0.4903630316257477 0.31292879581451416 0.3265225291252136
-0.1244131326675415 -0.019244041293859482 0.2016141712665558
-0.525709867477417 0.4013739228248596 -0.029205013066530228
0.0328863151371479 0.4091874957084656 -0.371280312538147
0.282416433095932 -0.386851966381073 -0.2548198401927948
-0.4959426820278168 -0.11506113409996033 0.0934915617108345
0.09487945586442947 -0.22076961398124695 0.29669374227523804
-0.10937914252281189 -0.225380077958107 -0.3068836033344269
0.16247272491455078 -0.12417258322238922 0.2943670153617859
0.32135096192359924 -0.0807935819029808 0.3727598190307617
0.42160043120384216 -0.0106385238468647 0.09283622354269028
-0.41092950105667114 0.09324345737695694 -0.07756221294403076
-0.2674081027507782 0.3931658864021301 -0.2955460250377655
0.3026360273361206 0.4181170165538788 0.4235025644302368
-0.5327329635620117 0.3796708285808563 -0.19514286518096924
0.5109879374504089 0.23296032845973969 -0.4147259294986725
-0.5018818378448486 0.17589658498764038 0.3518780767917633
-0.3494369685649872 0.0033901194110512733 -0.18045111000537872
0.4250122904777527 0.07105088979005814 -0.4006369709968567
0.06562355160713196 -0.6373059153556824 -0.1585342139005661
0.58106929063797 0.3684718608856201 -0.008031693287193775
-0.3204842209815979 0.33759236335754395 0.33383744955062866
-0.11494018882513046 -0.015564731322228909 -0.2930489182472229
0.08105044066905975 0.40389761328697205 0.3428700566291809
0.004735182970762253 -0.01850249245762825 -0.08044251054525375
0.4649897515773773 0.38442447781562805 0.04523603245615959
-0.5759602189064026 0.38921058177948 -0.16058535873889923
0.3522367477416992 -0.37991568446159363 -0.2420424371957779
0.16860978305339813 -0.6299805045127869 -0.2701304852962494
-0.23162640631198883 0.0006931088864803314 -0.22244396805763245
0.12840820848941803 -0.4677315652370453 0.2521156966686249
0.39292317628860474 -0.11139557510614395 -0.23114246129989624
-0.5871358513832092 0.01625925675034523 -0.09313539415597916
0.2872179448604584 0.21497274935245514 0.46200743317604065
0.11401388049125671 -0.4048101007938385 0.260057270526886
0.3222445547580719 -0.004652326926589012 0.08746457099914551
0.25076162815093994 0.07675649225711823 0.3319905400276184
-0.4164334535598755 -0.10407315194606781 -0.2865853011608124
0.1652090698480606 -0.6245720386505127 -0.10732764005661011
0.2224682867527008 -0.6729540824890137 0.21675118803977966
-0.2451193481683731 0.38853609561920166 -0.39997798204421997
0.4252292811870575 0.2264292985200882 -0.39962950348854065
0.19085168838500977 0.3925551176071167 -0.12740473449230194
0.40000391006469727 -0.6401693820953369 0.007588498294353485
0.30059686303138733 -0.008999327197670937 0.44326290488243103
0.007624033372849226 0.3965911269187927 -0.40912386775016785
-0.3411951959133148 0.006090598180890083 -0.36537352204322815
0.3880859315395355 0.4034457802772522 0.18065598607063293
0.03815007582306862 0.3300418257713318 -0.4210017919540405
-0.02497537061572075 -0.400134414434433 -0.32694441080093384
0.32000505924224854 0.4453994631767273 0.4331131875514984
-0.03886058181524277 0.1862124353647232 0.3960586488246918
0.20500804483890533 0.09112600982189178 0.4707861542701721
0.3254128098487854 0.005635347217321396 0.09484756737947464
0.23948338627815247 1.1797063052654266e-05 0.06116194278001785
0.24657626450061798 0.07122812420129776 -0.4105006158351898
0.45521822571754456 -0.063478022813797 -0.09997318685054779
0.0695507824420929 0.16540350019931793 0.34213271737098694
-0.09579028189182281 0.28838688135147095 -0.39400535821914673
0.006620144471526146 0.09422221779823303 -0.39477822184562683
-0.10644883662462234 -0.0008679297752678394 -0.4172430634498596
0.020845718681812286 0.3961780369281769 -0.19481126964092255
0.3774787485599518 -0.1417403370141983 0.16795387864112854
0.21988902986049652 -0.014853782951831818 0.24893459677696228
0.38646718859672546 -0.017580587416887283 -0.02590300515294075
0.38702768087387085 -0.4182441532611847 0.0480111688375473
0.0429251603782177 -0.006883521564304829 -0.1472170352935791
-0.564321756362915 0.062950499355793 0.05318409204483032
-0.03698619082570076 0.36654427647590637 -0.41227027773857117
0.3594425916671753 -0.20527593791484833 0.21207153797149658
-0.07046395540237427 -0.006749660708010197 0.1233312115073204
-0.07968322187662125 -0.6287446022033691 -0.0334964320063591
-0.5850131511688232 0.09211913496255875 0.18059763312339783
-0.56598299741745 0.3590121269226074 -0.17115414142608643
0.3728278875350952 -0.30456289649009705 0.14855706691741943
-0.02503075636923313 -0.010865858756005764 0.12485920637845993
-0.12695182859897614 -0.19905763864517212 -0.29996395111083984
0.3059731721878052 -0.08510570228099823 0.42206060886383057
0.44152727723121643 0.2297738939523697 0.3432009816169739
0.2746972143650055 -0.6435530185699463 0.023096231743693352
0.14416049420833588 -0.0020842785015702248 -0.04546124488115311
-0.5800146460533142 0.3028869032859802 -0.27286410331726074
-0.5788207650184631 0.32761967182159424 -0.08196186274290085
-0.019818902015686035 0.20629416406154633 -0.405241459608078
0.42879530787467957 -0.1259235441684723 0.04778028279542923
-0.08036032319068909 0.0026559270918369293 0.007173534482717514
0.2928466200828552 -0.00875684805214405 -0.02013193443417549
0.0074427928775548935 -0.48386868834495544 0.23258908092975616
0.31030768156051636 0.23143881559371948 0.37940990924835205
-0.04499870166182518 -0.6709600687026978 0.1683044582605362
-0.013798446394503117 0.1414240151643753 0.38272619247436523
-0.21979279816150665 -0.053628530353307724 0.13077996671199799
0.1741248518228531 -0.014721972867846489 0.22266976535320282
0.24313890933990479 0.46999090909957886 0.4242939054965973
0.09916776418685913 0.19455306231975555 0.44825276732444763
-0.41654807329177856 0.09509479254484177 0.08518153429031372
0.16145585477352142 -0.3855878412723541 -0.3600856065750122
-0.5732111930847168 0.37728995084762573 -0.3383859097957611
0.08898504823446274 0.008562799543142319 -0.3229745030403137
0.24871452152729034 -0.012293478474020958 -0.3045021891593933
0.03580079972743988 0.3280775547027588 0.35460156202316284
-0.5850658416748047 0.30411645770072937 0.2912832796573639
-0.29576975107192993 0.36668843030929565 -0.16390502452850342
0.34755951166152954 -0.021371331065893173 0.05761779099702835
0.108108751475811 0.4015389084815979 -0.2861174941062927
0.34144067764282227 0.39534878730773926 0.1827988475561142
0.5426187515258789 0.38302773237228394 -0.30173030495643616
-0.48845383524894714 0.11688429117202759 0.2011740356683731
-0.5781877040863037 0.2975172996520996 0.17426267266273499
0.3195875585079193 -0.2873079180717468 -0.30625438690185547
0.1331811249256134 0.004033802077174187 0.07865452766418457
-0.24295377731323242 -0.31552737951278687 -0.09135016053915024
-0.22030296921730042 0.0025721117854118347 0.33913785219192505
0.400738000869751 -0.4490918219089508 -0.015390662476420403
-0.46519535779953003 0.38270118832588196 0.22301766276359558
0.24106794595718384 -0.07619834691286087 -0.35164958238601685
0.15919359028339386 0.03904451057314873 0.4683792293071747
-0.41712459921836853 -0.07112015038728714 -0.4082117974758148
0.5357621908187866 0.38050347566604614 0.32324162125587463
-0.04413981735706329 -0.6480292677879333 0.08145712316036224
0.4979683756828308 -0.01546395942568779 -0.06286013126373291
-0.3079759180545807 0.23132352530956268 -0.3985443413257599
-0.5785467028617859 0.18721406161785126 -0.3914184868335724
0.4596673548221588 0.04933786764740944 -0.41564980149269104
0.30369430780410767 0.33981019258499146 -0.39200282096862793
-0.5723695755004883 -0.046434950083494186 0.35499340295791626
-0.5569935441017151 0.3719136416912079 -0.24905870854854584
0.21591132879257202 -0.0008750623092055321 0.1404629647731781
0.3008141815662384 -0.2563319504261017 -0.31229618191719055
-0.5952853560447693 0.02968331053853035 -0.20702561736106873
0.07226116955280304 0.4027901291847229 0.11320560425519943
-0.45945119857788086 0.11088797450065613 -0.0408865250647068
0.4001322090625763 -0.632347047328949 -0.08341772109270096
0.3811720013618469 -0.11023518443107605 0.16995930671691895
-0.12279297411441803 -0.010769183747470379 -0.00691772298887372
0.5368293523788452 -0.004904340021312237 0.2247598022222519
0.022454239428043365 -0.43976855278015137 0.23012325167655945
-0.5793792009353638 -0.03730272501707077 -0.29005351662635803
0.34399497509002686 0.06879442185163498 0.3249925673007965
0.5055025815963745 -0.01792343519628048 -0.05731245130300522
-0.12550294399261475 -0.5576488971710205 0.13329187035560608
0.08812890201807022 -0.3148675858974457 -0.37148186564445496
0.2708507478237152 0.35953667759895325 0.47284066677093506
0.2956196963787079 -0.018897587433457375 -0.14738492667675018
-0.3639277517795563 -0.0054571256041526794 0.1654496192932129
-0.4102655351161957 0.04718715324997902 0.3408404588699341
0.06956633925437927 0.39007440209388733 -0.3412521481513977
-0.1111304834485054 0.4073268175125122 0.13596442341804504
0.08081533759832382 0.4078863859176636 -0.2082732766866684
-0.015321841463446617 0.24978548288345337 0.3933629095554352
-0.22955095767974854 -0.23002931475639343 0.008827723562717438
0.5603998303413391 -0.009110626764595509 -0.19862394034862518
0.3971657156944275 -0.14595215022563934 -0.2124842405319214
0.012238791212439537 0.12217795848846436 -0.4078432023525238
-0.4849299490451813 0.39056506752967834 -0.23050449788570404
0.1708473563194275 -0.6211214661598206 0.04500718042254448
0.3685016632080078 -0.00981026142835617 0.24953006207942963
-0.18287011981010437 -0.0008134590461850166 0.26540419459342957
-0.26688626408576965 0.054921217262744904 0.3454184830188751
-0.061321768909692764 -0.6460247039794922 0.14110802114009857
0.5240923762321472 0.030819887295365334 0.3441687822341919
0.37426474690437317 -0.656382143497467 0.021379517391324043
0.5670362114906311 0.02966444008052349 -0.3852612376213074
0.38136327266693115 -0.19370980560779572 -0.22273336350917816
-0.5747519731521606 0.16701020300388336 -0.19607314467430115
0.3332231938838959 0.21309733390808105 0.3987007737159729
0.4177069365978241 -0.37832653522491455 0.09065475314855576
0.5840908885002136 0.17597399652004242 -0.37069693207740784
0.40933549404144287 -0.00824311375617981 0.3059097230434418
-0.381632000207901 0.03745700418949127 0.33129870891571045
-0.556161642074585 0.3795391321182251 0.2702101469039917
0.24821019172668457 0.3720070421695709 0.33380964398384094
0.23209220170974731 -0.0004269517958164215 0.1639987677335739
0.3253026008605957 -0.6281884908676147 0.018939267843961716
0.155815988779068 -0.3888779580593109 0.2977895736694336
0.5815619230270386 0.27660104632377625 -0.23626883327960968
-0.4867364764213562 0.4021874964237213 -0.3209753930568695
0.5814582109451294 0.018855787813663483 -0.28990352153778076
0.14858441054821014 0.3870265781879425 0.3309316039085388
0.1275208443403244 -0.6439882516860962 -0.3126057982444763
-0.2763332426548004 0.005272968672215939 -0.14762908220291138
-0.13119786977767944 -0.0027984646148979664 -0.3380538821220398
-0.5109462738037109 -0.12948112189769745 0.11477778851985931
-0.3176797032356262 0.031069926917552948 0.3465440273284912
0.17648561298847198 -0.6418999433517456 -0.21796169877052307
0.4185841977596283 0.28030985593795776 -0.41995030641555786
-0.05294119194149971 -0.6464105844497681 -0.0796201080083847
-0.48322609066963196 -0.012346822768449783 0.1396707445383072
0.04300178587436676 0.05120272934436798 0.3318115174770355
0.21938873827457428 -0.15320926904678345 0.29904425144195557
0.1217215284705162 -0.5807499289512634 -0.32106316089630127
-0.29845497012138367 0.38964250683784485 -0.32258859276771545
-0.38385891914367676 0.09950471669435501 -0.41188064217567444
-0.24783575534820557 -0.00872302707284689 0.340559720993042
-0.27764254808425903 0.3523237407207489 -0.08082589507102966
-0.3885518014431 0.07458759844303131 -0.3344111740589142
0.5762337446212769 0.18781815469264984 -0.273685485124588
-0.15225128829479218 0.08425022661685944 -0.4047172963619232
-0.10819924622774124 0.4098604619503021 -0.2231328934431076
-0.04665111377835274 -0.35887834429740906 0.26580360531806946
0.10743909329175949 -0.3827645480632782 0.26176750659942627
0.5962076187133789 0.3810650706291199 0.29757261276245117
0.5555394291877747 0.39679354429244995 -0.13300761580467224
-0.1799415796995163 -0.038480259478092194 -0.2035989761352539
-0.24119843542575836 -0.01471682358533144 0.22320178151130676
0.37481313943862915 -0.6119210720062256 0.04716607183218002
0.32328000664711 0.0017310865223407745 -0.23291388154029846
-0.47148647904396057 -0.1059412807226181 0.29013779759407043
0.12715111672878265 -0.6425591707229614 -0.05207874998450279
-0.0782540813088417 0.3910278081893921 0.20748105645179749
