0.10867445915937424 0.0003759288229048252 0.19073103368282318
-0.551507294178009 0.0029165870510041714 0.08258004486560822
-0.36748194694519043 0.40065380930900574 -0.36866238713264465
0.36110755801200867 -0.34887829422950745 -0.25483185052871704
0.22256498038768768 -0.6255295276641846 -0.22583089768886566
0.34170740842819214 -0.0033647106029093266 -0.28119325637817383
-0.04882490634918213 -0.5703273415565491 -0.2765384316444397
-0.577185332775116 0.10128805041313171 -0.03693004697561264
0.3576335310935974 -0.10970938950777054 -0.26144886016845703
0.37535279989242554 0.4013069272041321 -0.008077969774603844
-0.06348225474357605 -0.5900636315345764 0.20422948896884918
-0.3218400478363037 0.006294320337474346 0.3180648684501648
0.3233487904071808 -0.4230915307998657 -0.21708758175373077
0.20577406883239746 -0.08495055884122849 0.3724033832550049
-0.5798609852790833 0.21373975276947021 0.21083664894104004
0.07043729722499847 0.022011354565620422 0.3405112624168396
-0.036348748952150345 0.39207208156585693 0.33374902606010437
-0.4626617431640625 0.3582620322704315 0.024379335343837738
0.04207755625247955 -0.5882318615913391 -0.31333592534065247
-0.0031768272165209055 -0.18395164608955383 -0.3549550175666809
-0.5806083679199219 0.14604558050632477 -0.09040404856204987
0.19212685525417328 0.0034131212159991264 -0.0938955619931221
0.21530970931053162 -0.002477293834090233 0.3040091395378113
-0.028108570724725723 0.19174174964427948 0.4033159911632538
0.14601875841617584 -0.44688865542411804 -0.3199680745601654
0.5395573377609253 -0.00028370972722768784 -0.3524719178676605
-0.06503130495548248 -0.22395934164524078 0.27093687653541565
0.09363286942243576 -0.45701852440834045 -0.31942227482795715
0.25395673513412476 -0.37845996022224426 0.24496355652809143
-0.17756949365139008 -0.4715287387371063 0.03908241167664528
0.3565307557582855 -0.641263484954834 -0.04945020005106926
-0.36737915873527527 -0.019597984850406647 0.19793683290481567
0.36074742674827576 -0.01856525056064129 0.19242432713508606
-0.3869769275188446 -0.06801977008581161 -0.13937489688396454
0.13279862701892853 0.0011207129573449492 0.28552111983299255
0.4029211401939392 -0.3222523033618927 0.14177027344703674
-0.5764626264572144 0.01698281615972519 0.30419546365737915
0.57890385389328 0.06663043797016144 -0.10438750684261322
-0.001434295903891325 0.40269792079925537 -0.012193751521408558
-0.5504632592201233 0.2108735740184784 0.33800816535949707
-0.3368123471736908 0.3986029028892517 -0.2613244950771332
0.5699206590652466 0.39542442560195923 0.16472959518432617
0.1223001629114151 -0.46196749806404114 0.2587926983833313
-0.128470316529274 -0.14370611310005188 0.22484467923641205
0.2870939075946808 -0.6212280988693237 0.05669558048248291
-0.5730310678482056 0.0460793636739254 -0.09509287774562836
0.4169650375843048 0.4016736149787903 0.27990537881851196
0.3966231644153595 -0.0003039650619029999 0.10742859542369843
-0.5336561799049377 0.0029931003227829933 -0.004171442706137896
0.4940512478351593 0.3994072675704956 -0.19553232192993164
0.38974037766456604 -0.48271074891090393 0.013948589563369751
0.013857394456863403 -0.0007474543526768684 -0.1938883513212204
-0.40911149978637695 -0.05383290722966194 0.3438414931297302
0.5838569402694702 0.2785995602607727 0.07118254899978638
0.42858660221099854 -0.14914298057556152 -0.13550853729248047
0.33735960721969604 0.014958854764699936 0.380631685256958
-0.4977927803993225 0.009492284618318081 0.3459389805793762
-0.5529780983924866 0.07191505283117294 0.0033927629701793194
0.5657342076301575 0.007366527803242207 -0.06271923333406448
-0.47528064250946045 0.407194048166275 -0.07834003120660782
-0.4821862578392029 0.05391770973801613 0.34574395418167114
0.13413308560848236 0.002240474335849285 0.033903710544109344
-0.5657497048377991 -0.03984154015779495 0.13861240446567535
-0.0742596834897995 -0.4265943467617035 0.20092475414276123
0.07319363206624985 -0.42464423179626465 -0.32159218192100525
-0.10613168776035309 -0.09008920937776566 0.24393333494663239
0.0127768749371171 0.000527723808772862 0.270367830991745
0.3966856598854065 0.3979778587818146 -0.352739542722702
0.1653510183095932 0.30153369903564453 0.3434299826622009
0.10064280033111572 -0.6241983771324158 -0.17782217264175415
0.5653870105743408 0.3094620406627655 -0.4011753499507904
-0.5702239274978638 -0.005166064947843552 0.09279143810272217
-0.2135232537984848 0.3995216488838196 -0.32778385281562805
0.48771968483924866 0.4004835784435272 -0.11706702411174774
-0.4200875163078308 0.41500842571258545 -0.050502970814704895
0.2994670271873474 -0.6193761825561523 -0.04708800092339516
-0.5812897682189941 0.008288086391985416 -0.34491392970085144
-0.2267235815525055 -0.2714445888996124 -0.14068351686000824
-0.32334479689598083 0.0024239213671535254 0.06762124598026276
0.003950906917452812 -0.44109123945236206 0.24008816480636597
0.22454197704792023 -0.00023227836936712265 0.1756305992603302
-0.30868178606033325 0.4014112949371338 -0.33174610137939453
0.17037855088710785 0.013311851769685745 0.335019052028656
0.45083364844322205 -0.016225095838308334 -0.00856863148510456
-0.32004961371421814 0.002995643764734268 -0.08796088397502899
-0.08873128145933151 0.3990420699119568 -0.307822048664093
-0.25871413946151733 0.2653723359107971 -0.40028437972068787
-0.19304029643535614 0.001447952352464199 -0.20474299788475037
0.14770753681659698 0.01224261149764061 -0.39535725116729736
0.2590440511703491 0.002113539259880781 0.03291882947087288
0.10406481474637985 0.027751535177230835 -0.4008454978466034
0.35530126094818115 0.3986073136329651 -0.31053707003593445
0.11257153004407883 0.2661799192428589 -0.40100112557411194
0.3085569143295288 0.3998906910419464 -0.21607060730457306
-0.5770090222358704 0.036473941057920456 -0.22364282608032227
0.2381921112537384 0.0018347632139921188 0.021479977294802666
-0.15268316864967346 0.00216817669570446 -0.1952909678220749
-0.5188937187194824 0.0037997784093022346 -0.25723278522491455
-0.4796055853366852 0.002854493912309408 0.08116813749074936
0.22230969369411469 0.00478542223572731 0.1933933049440384
0.1162986010313034 0.40240055322647095 0.1815565675497055
-0.10327492654323578 0.27639418840408325 0.34592410922050476
0.09419483691453934 0.002932540141046047 -0.37539443373680115
0.17083410918712616 -0.6500759124755859 -0.28726962208747864
0.044249411672353745 0.20240366458892822 0.46059274673461914
-0.16761773824691772 -0.5412479639053345 0.0727405846118927
0.44640645384788513 -0.015994727611541748 -0.009862609207630157
0.04168858379125595 0.24381284415721893 0.461580365896225
-0.5330590009689331 0.09062530100345612 -0.40019020438194275
-0.1140071377158165 0.00031581195071339607 0.055835843086242676
0.5084133744239807 0.39747190475463867 -0.3466075360774994
0.26270875334739685 0.29559776186943054 0.34403032064437866
-0.026300935074687004 0.0104232681915164 0.3363373875617981
-0.11241121590137482 0.3581911027431488 0.3412627577781677
-0.2233733981847763 -0.022381287068128586 0.08758340775966644
-0.41163361072540283 0.08976864814758301 -0.08439332246780396
0.04085320606827736 -0.06208822503685951 0.4403805136680603
0.22845794260501862 0.3997284770011902 -0.22517500817775726
-0.07775998115539551 0.0012513170950114727 -0.06559599190950394
-0.5752058625221252 0.028028210625052452 0.09236440807580948
0.1029098778963089 -0.22269193828105927 0.31384575366973877
0.43754392862319946 0.0005951044149696827 0.18276308476924896
0.20453014969825745 0.3034942150115967 0.3438626825809479
0.3534647822380066 -0.3786444365978241 -0.23164397478103638
-0.3387039303779602 0.01586061343550682 0.3403944969177246
0.07305902987718582 -0.623904824256897 0.13878639042377472
0.19134032726287842 0.4012041985988617 -0.11563646793365479
0.27447396516799927 0.0015796393854543567 0.12538760900497437
-0.5637919306755066 0.379483163356781 -0.11712300777435303
0.30895817279815674 0.4106522798538208 0.4474327564239502
0.2644231617450714 -0.6233347058296204 0.11102533340454102
-0.01951543428003788 -0.6065075397491455 0.225929856300354
-0.5335965156555176 0.10437558591365814 0.28883466124534607
0.5796642899513245 0.0963069498538971 -0.05784831568598747
-0.06300701946020126 0.4000653922557831 -0.20642852783203125
0.12827812135219574 -0.5649824142456055 0.2582792639732361
0.3988990783691406 -0.008143025450408459 -0.2035486251115799
-0.3910960555076599 0.08570676296949387 -0.39979287981987
0.030129004269838333 -0.625529944896698 0.021137624979019165
-0.22983042895793915 0.1371711790561676 -0.40220320224761963
-0.36392301321029663 0.02295565977692604 0.2338881939649582
0.037022367119789124 -0.46755486726760864 -0.3134094774723053
0.006139237433671951 -0.6208722591400146 -0.025596030056476593
-0.5623393058776855 0.3739549517631531 0.07703634351491928
-0.15093713998794556 -0.5961053967475891 0.09622804075479507
0.5800158381462097 0.10019541531801224 0.2813282012939453
0.564452588558197 0.33310920000076294 0.3433576822280884
0.2507198750972748 0.07852325588464737 -0.4012891948223114
-0.4700562655925751 -0.10720625519752502 -0.2657281756401062
0.3825032413005829 -0.325976699590683 0.17277038097381592
-0.36917704343795776 0.03461664915084839 -0.15063577890396118
-0.13649414479732513 -0.6183305382728577 0.12357881665229797
0.022600803524255753 0.33770203590393066 -0.4019847810268402
0.16020718216896057 0.40069064497947693 -0.186684250831604
0.18251144886016846 -0.025826655328273773 -0.3673383295536041
-0.4344487488269806 -0.10488428175449371 0.2963939905166626
-0.16065144538879395 0.10813014209270477 0.3402711749076843
0.20059780776500702 0.39394861459732056 -0.39100539684295654
-0.18754203617572784 -0.5955567359924316 -0.07064983248710632
0.11989671736955643 0.35545411705970764 0.34243685007095337
0.5818602442741394 0.12039442360401154 -0.053194474428892136
0.3471193015575409 0.40120118856430054 -0.1756618767976761
0.03392787277698517 -0.01074962504208088 0.45562314987182617
0.2931390702724457 -0.2641329765319824 0.26060158014297485
0.3108121454715729 0.39825505018234253 -0.3356526494026184
-0.5780682563781738 0.24616362154483795 0.17879031598567963
0.5580371022224426 0.38156378269195557 0.34601306915283203
-0.3034079670906067 0.00630733510479331 0.31445205211639404
-0.25333234667778015 0.4014102816581726 0.08965394645929337
-0.5012732744216919 0.39393797516822815 -0.013209383003413677
0.579145073890686 0.03723560646176338 -0.35992711782455444
-0.11324428766965866 0.0028416216373443604 -0.013443988747894764
-0.2806808650493622 0.39122623205184937 -0.08315373212099075
-0.5734162926673889 0.08818395435810089 -0.1192510798573494
-0.13207529485225677 0.0017279628664255142 0.06357787549495697
0.09708350896835327 0.0010941866785287857 -0.2147550880908966
-0.20787067711353302 -0.37470054626464844 -0.12124355137348175
0.10853230953216553 0.1887323409318924 0.4642397463321686
0.2210496962070465 0.40012919902801514 -0.07030146569013596
0.18064869940280914 0.0013025212101638317 -0.11826252937316895
-0.07831370830535889 0.36690083146095276 -0.40189534425735474
-0.5681846141815186 -0.024079550057649612 -0.19847816228866577
0.5825228691101074 0.30352553725242615 0.21213005483150482
-0.5710809826850891 0.031275998800992966 0.027501115575432777
-0.5792661905288696 0.10302650928497314 -0.3016870319843292
0.337576299905777 0.39579370617866516 -0.39494940638542175
-0.5548535585403442 -0.06312365084886551 0.24328497052192688
-0.04685569927096367 0.400756299495697 0.05072426795959473
-0.5725381374359131 0.01301906630396843 -0.07094603031873703
0.3122078776359558 0.10037735849618912 0.3445863425731659
-0.32677507400512695 0.39869174361228943 -0.20029745995998383
0.10341488569974899 -0.03927093371748924 0.31397104263305664
-0.39388370513916016 0.0023535743821412325 -0.3973693549633026
0.38751736283302307 -0.41134774684906006 -0.06359327584505081
-0.36114364862442017 0.002696085488423705 0.1646997332572937
0.3724258542060852 -0.3472115397453308 -0.2418738305568695
0.33037301898002625 0.009519740007817745 0.43665385246276855
-0.5642102956771851 0.36597737669944763 0.1385142207145691
0.11459071934223175 -0.37524664402008057 0.29903721809387207
0.2805596590042114 -0.6179981827735901 0.12741129100322723
0.0819908082485199 -0.08566845953464508 -0.3738812208175659
0.1679554432630539 -0.6233648657798767 -0.05507858470082283
0.04215831682085991 -0.23879462480545044 0.3079080283641815
-0.3510586619377136 0.0175422802567482 -0.39835259318351746
0.07168745994567871 -0.524566113948822 -0.3166388273239136
0.2104395627975464 0.40033894777297974 0.15930184721946716
-0.47903522849082947 0.0010309210047125816 0.0688617080450058
0.5695518851280212 0.3867968022823334 -0.3039840757846832
0.5732957720756531 0.022205641493201256 -0.14280350506305695
0.19487762451171875 -0.6245332360267639 -0.1730489879846573
-0.3967627286911011 -0.0760464072227478 0.12822765111923218
0.3545790910720825 -0.39005139470100403 -0.1746140867471695
-0.017255371436476707 -0.0652117058634758 0.2921755611896515
0.29188787937164307 -0.6254535913467407 0.08565273880958557
0.2972410023212433 -0.0833604708313942 0.36655884981155396
0.3892817199230194 -0.5521878004074097 -0.0008670075330883265
0.3578201234340668 0.3997487425804138 0.3099703788757324
-0.4125496447086334 -0.0008926475420594215 -0.3732410669326782
-0.42872166633605957 0.10328111052513123 -0.046294569969177246
-0.44904395937919617 0.3741981089115143 -0.40310466289520264
-0.3561345934867859 0.005243857856839895 0.338993638753891
-0.27506503462791443 0.00019298400729894638 0.041227731853723526
-0.365675151348114 0.4000212252140045 -0.34227657318115234
-0.5779533982276917 0.03325378894805908 -0.31450068950653076
0.194363534450531 0.029689401388168335 -0.40254515409469604
-0.23960302770137787 -0.1455090045928955 -0.053154394030570984
0.3182251751422882 -0.6186977028846741 0.056319307535886765
-0.48476746678352356 -0.10482710599899292 -0.13327127695083618
-0.0927119255065918 -0.36873021721839905 0.23926414549350739
0.38630247116088867 -0.221517413854599 0.1729167252779007
-0.16779454052448273 0.0021187271922826767 0.26595091819763184
0.3691229224205017 -0.6257407665252686 -0.14242689311504364
0.41069328784942627 0.01100093312561512 0.34131017327308655
0.43982842564582825 -0.273926705121994 0.04463504999876022
0.31351128220558167 0.09868188202381134 0.4571320414543152
0.08019006252288818 0.40178754925727844 0.1879095584154129
0.4426589906215668 -0.3548661768436432 -0.09660743176937103
0.2920856177806854 -0.04750139266252518 0.33232662081718445
-0.17205385863780975 0.14449073374271393 -0.4030223488807678
0.23234546184539795 -0.5649029612541199 -0.2881772816181183
0.2821364998817444 0.3984982371330261 0.22069014608860016
0.13141342997550964 -0.3227929472923279 0.31361815333366394
0.10459157079458237 -0.08660972118377686 0.31961682438850403
0.031317610293626785 0.3980311453342438 -0.31854522228240967
-0.2149677723646164 1.3919896446168423e-05 -0.09739767760038376
0.08534236252307892 -0.6220277547836304 0.1169595867395401
-0.5694629549980164 -0.044552531093358994 -0.3417074680328369
0.13845333456993103 0.0028242161497473717 0.05372586101293564
-0.5794521570205688 0.2807883322238922 -0.2552954852581024
-0.502873957157135 0.40048137307167053 -0.2689256966114044
-0.009390773251652718 -0.6048859357833862 -0.28833624720573425
0.17617163062095642 0.003213178366422653 0.2836672067642212
0.44072914123535156 0.11146946251392365 0.3451980948448181
0.5789268612861633 0.19180381298065186 0.23066546022891998
-0.5793704986572266 0.34197771549224854 0.2877439558506012
0.5787712931632996 0.1694585084915161 -0.269755095243454
-0.2257365733385086 -0.0009986329823732376 -0.1500728577375412
-0.36178818345069885 0.08361797034740448 -0.40052518248558044
-0.5116525888442993 -0.0011573145166039467 0.047691475600004196
-0.46243616938591003 0.0015880756545811892 -0.33260080218315125
-0.5422788858413696 0.3903934955596924 -0.16000713407993317
-0.36620572209358215 0.011276713572442532 -0.27074092626571655
0.15872988104820251 0.32330599427223206 0.3419414758682251
0.3054857552051544 0.3502225875854492 -0.40526261925697327
-0.16248206794261932 0.32956036925315857 -0.40098461508750916
0.3930759131908417 -0.4727779030799866 -0.01995069906115532
0.04584067687392235 -0.004067797213792801 0.3056934177875519
-0.4033691883087158 -0.08355272561311722 -0.06263219565153122
0.44038069248199463 0.19640089571475983 -0.40417924523353577
0.3611411452293396 -0.49879908561706543 -0.15727993845939636
0.5792332291603088 0.10254460573196411 -0.1520458608865738
0.36677250266075134 0.0009691882878541946 -0.013914055190980434
0.4216208755970001 -0.3773830533027649 0.03939571604132652
0.1129995733499527 -0.5154582858085632 0.26043206453323364
-0.4059641659259796 0.08965042233467102 -0.07007139921188354
0.21380124986171722 0.13920144736766815 -0.4023335576057434
0.5160636305809021 0.1498049944639206 0.3428771197795868
-0.38046151399612427 0.0002746244426816702 0.2911321818828583
-0.3959200978279114 -0.08192536979913712 -0.03356972336769104
0.3471234440803528 -0.06160294637084007 0.218359112739563
0.1553613692522049 -0.5524416565895081 -0.3146173655986786
-0.15875989198684692 0.0007990682497620583 0.1267833560705185
0.23081964254379272 0.000937165692448616 0.03925638645887375
0.352081298828125 0.2986864447593689 0.344578355550766
0.40892377495765686 -0.002352168783545494 -0.3444146513938904
0.03138098865747452 -0.6229959726333618 0.16149814426898956
0.022820929065346718 0.39840707182884216 -0.3495079576969147
0.2308460921049118 -0.6221675276756287 -0.10200194269418716
-0.16111312806606293 0.0926973968744278 0.34349092841148376
0.08266493678092957 -0.0767715573310852 0.43091467022895813
0.4074442684650421 0.11194826662540436 -0.4033282995223999
-0.5483367443084717 -0.07191701978445053 0.10464673489332199
-0.5707472562789917 0.26300176978111267 0.3332632780075073
0.17487391829490662 -0.6187235713005066 -0.21044011414051056
-0.35389405488967896 0.0040650744922459126 0.04417397454380989
0.09226975589990616 0.002076405566185713 0.22488939762115479
0.4500958025455475 -0.1518389880657196 -0.013564864173531532
0.04914197698235512 0.39126428961753845 0.42482566833496094
0.5504851341247559 0.3913547098636627 -0.39732876420021057
-0.20736396312713623 0.001260438933968544 0.13508282601833344
0.2555716931819916 0.0032999925315380096 0.15626318752765656
0.14704757928848267 -0.6200538277626038 0.018631771206855774
0.03245044872164726 -0.057085417211055756 0.3643033504486084
-0.08242033421993256 -0.6263633966445923 -0.12073306739330292
-0.04884466901421547 -0.6240646839141846 -0.051567208021879196
0.3512817919254303 -0.07568646222352982 0.21514774858951569
0.08805600553750992 -0.22139662504196167 -0.37530770897865295
-0.26413825154304504 0.4016103148460388 0.2348535656929016
-0.4063064754009247 0.0028021258767694235 0.049861934036016464
-0.40362194180488586 0.0018391949124634266 -0.3510455787181854
-0.4696241617202759 -0.10821633040904999 -0.08738252520561218
0.43824416399002075 0.40205347537994385 -0.009681406430900097
0.30682528018951416 0.0030813468620181084 -0.18738552927970886
0.5799456238746643 0.2518680989742279 0.2319728583097458
-0.15203002095222473 0.1866661161184311 -0.40217354893684387
-0.15457414090633392 0.4011889696121216 0.011192834004759789
0.24603311717510223 0.0028802473098039627 -0.09892529994249344
-0.42001909017562866 0.0028575495816767216 0.07829181104898453
0.1035764291882515 0.40057608485221863 0.26572898030281067
-0.27647000551223755 0.013025087304413319 0.3345286250114441
-0.37946388125419617 0.017552681267261505 0.3382161259651184
0.309071809053421 0.0023465901613235474 -0.0872877836227417
-0.4110942780971527 0.08847840130329132 0.039221227169036865
0.34809938073158264 0.39905527234077454 -0.26441431045532227
-0.577034592628479 0.30286964774131775 -0.3291392922401428
-0.32598862051963806 0.07468121498823166 -0.4019693434238434
0.12073888629674911 -0.6234036684036255 0.19352814555168152
0.10042926669120789 0.0014311502454802394 0.008883382193744183
0.36836037039756775 -0.37868553400039673 -0.18194644153118134
-0.14297904074192047 0.18074917793273926 -0.4004145562648773
0.214314267039299 0.39513662457466125 -0.3715100586414337
-0.2571975886821747 -0.0008185510523617268 0.14258737862110138
0.5124261379241943 0.4014962911605835 0.0538669228553772
-0.08171346783638 0.17591096460819244 0.39955195784568787
-0.3568262457847595 0.007998351007699966 -0.3561248481273651
-0.30792009830474854 0.002906341105699539 -0.00793986115604639
0.01490270346403122 -0.4881034195423126 -0.30492183566093445
0.3897607624530792 -0.6272900700569153 -0.06395658105611801
-0.3674316108226776 0.3281843960285187 -0.40299761295318604
-0.3592429757118225 0.24791818857192993 -0.40446221828460693
-0.5532689690589905 0.06738217175006866 -0.19923973083496094
0.39103612303733826 0.1136084720492363 0.34189170598983765
-0.38368096947669983 0.06953979283571243 0.004400810692459345
0.23203925788402557 0.46677887439727783 0.4321974217891693
0.3983197808265686 0.40143951773643494 -0.10261533409357071
-0.0004064934328198433 -0.42065197229385376 -0.29930704832077026
-0.009116007946431637 -0.6253807544708252 0.08877931535243988
-0.40424206852912903 -0.08745045959949493 -0.05556279420852661
-0.24071213603019714 -0.30160680413246155 0.010833456180989742
-0.5717451572418213 0.012396544218063354 0.1633719950914383
-0.38012224435806274 0.07368160039186478 -0.2120395451784134
-0.004998081363737583 0.0006297724321484566 -0.17589667439460754
-0.5784081220626831 0.02964196726679802 -0.17916952073574066
0.03552437946200371 0.401212602853775 0.18011420965194702
0.06653068214654922 0.19302161037921906 -0.4035656154155731
-0.17419373989105225 -0.0004249662160873413 -0.009445929899811745
-0.36458325386047363 0.032588280737400055 0.22747094929218292
-0.2682533264160156 0.34393706917762756 0.34120526909828186
0.2385040670633316 -0.0007556714117527008 0.14711502194404602
0.24169522523880005 -0.12432931363582611 0.2872741222381592
0.2553706169128418 0.004919182043522596 0.3317394256591797
-0.38049980998039246 0.007153266109526157 -0.39731377363204956
0.03678905963897705 4.5530032366514206e-07 -0.19135715067386627
0.13412995636463165 -0.07984484732151031 0.4181317985057831
0.35904332995414734 -0.6529913544654846 0.009283836930990219
0.03709879145026207 -0.6248054504394531 -0.24020349979400635
0.30330750346183777 -0.6576488018035889 -0.2155243158340454
0.15039870142936707 0.4001135528087616 0.03103707917034626
0.45294317603111267 -0.09710748493671417 -0.035254061222076416
0.2609454393386841 0.4635428488254547 0.43946123123168945
0.5797696709632874 0.32722973823547363 -0.04424196481704712
0.36217886209487915 0.0008711144328117371 0.11355926096439362
0.16267290711402893 0.39987432956695557 -0.24148349463939667
-0.48496532440185547 0.11868388950824738 0.052131298929452896
0.4638195037841797 0.3979280889034271 -0.24645060300827026
-0.5756638050079346 0.09820041805505753 -0.2972337305545807
0.14167876541614532 -0.6207277178764343 0.0974503681063652
-0.5658191442489624 -0.0480508990585804 -0.021971119567751884
0.19342339038848877 0.40222302079200745 0.12303672730922699
-0.11436142027378082 -0.32006654143333435 -0.3007550537586212
-0.5185825228691101 0.40038031339645386 -0.3148787319660187
0.02791360579431057 0.11678091436624527 0.3488468527793884
-0.5404067039489746 0.2700953781604767 0.34119197726249695
0.5784732699394226 0.16672253608703613 0.15929944813251495
0.3876418173313141 -0.10777215659618378 0.16609039902687073
-0.5749402642250061 -0.024805819615721703 -0.3767824172973633
0.5703365802764893 0.1976289004087448 -0.397124707698822
-0.09958826750516891 0.3989270031452179 -0.3069142997264862
-0.2264018952846527 0.07137417793273926 0.34142616391181946
-0.5561356544494629 0.3801676630973816 -0.08747877180576324
0.13366486132144928 -0.05515553057193756 0.4580042362213135
0.11558930575847626 0.002704113721847534 0.1245940625667572
0.2179463803768158 0.0009957300499081612 -0.21270433068275452
-0.3969823122024536 0.07628077268600464 -0.0894167572259903
-0.3585265278816223 0.006757291499525309 -0.1399785429239273
0.2670650780200958 -0.623653769493103 -0.11201363056898117
-0.21329866349697113 -0.15737803280353546 0.10953529924154282
-0.12642648816108704 0.3929804861545563 -0.3945951461791992
0.28119948506355286 -0.12335560470819473 -0.32292798161506653
-0.08517292141914368 -0.4315653443336487 -0.25343984365463257
0.14605723321437836 0.2324085682630539 0.34065404534339905
0.19810828566551208 0.0008386895060539246 0.18565461039543152
-0.4424644410610199 0.0015412891516461968 -0.09418061375617981
0.2792418897151947 0.1032051295042038 0.34347212314605713
0.1640421599149704 -0.46994200348854065 -0.3139209449291229
0.005224172025918961 0.0003827244509011507 0.10494436323642731
0.5439390540122986 0.0014724326319992542 -0.23855511844158173
-0.23477619886398315 0.23608899116516113 0.3433268666267395
-0.2920399606227875 0.3551243543624878 -0.02898412011563778
-0.04414079338312149 0.005216042976826429 -0.37988683581352234
-0.05267126485705376 -0.6263939738273621 0.1324044018983841
0.21324215829372406 -0.47659292817115784 -0.29676592350006104
0.2377208024263382 -0.6225508451461792 -0.08350244164466858
-0.44201934337615967 0.08997859060764313 0.3380313813686371
0.5785781741142273 0.20212465524673462 -0.3212146461009979
-0.1852116733789444 0.025331854820251465 0.3399917483329773
0.36237505078315735 -0.32464390993118286 -0.25820648670196533
-0.016894470900297165 -0.26382777094841003 0.2907771170139313
-0.11951185762882233 0.38872820138931274 0.33831140398979187
0.5464900135993958 0.3074493706226349 0.3459817171096802
0.41065847873687744 0.0002729063853621483 -0.30780747532844543
-0.10138540714979172 -0.4887509047985077 0.17400231957435608
0.29442518949508667 0.40111997723579407 0.028007201850414276
0.33448588848114014 0.3982374370098114 -0.31895625591278076
-0.36161425709724426 0.005753729958087206 -0.2517543435096741
0.5107523202896118 0.36376693844795227 0.34422045946121216
0.5298447012901306 0.39911308884620667 -0.15657395124435425
0.5647233128547668 0.39465242624282837 0.2339482456445694
0.15371401607990265 -0.08428436517715454 0.39760711789131165
0.579500675201416 0.11139941960573196 -0.36040449142456055
0.29779401421546936 0.4266580641269684 0.4448041021823883
0.03190995380282402 -0.06836439669132233 0.312359094619751
0.4338727295398712 -0.31483620405197144 -0.13251657783985138
-0.5784329771995544 0.2096915990114212 -0.060131046921014786
0.4087349474430084 0.20955701172351837 0.34366533160209656
-0.5779905319213867 0.34584841132164 -0.1016908660531044
0.12156486511230469 0.3918956220149994 -0.3953472375869751
-0.33720797300338745 0.049390122294425964 0.33391621708869934
-0.030012577772140503 -0.37027302384376526 0.2798086404800415
0.2526533305644989 -0.602331280708313 0.22030895948410034
-0.022853942587971687 -0.6230891942977905 -0.005672407802194357
-0.0029255677945911884 0.2703399062156677 -0.40192073583602905
0.34697026014328003 -0.5911999344825745 0.12646928429603577
0.03870886191725731 0.3998866081237793 -0.37189915776252747
-0.4895657002925873 -0.10417318344116211 -0.09927626699209213
0.003393135964870453 -0.6427057981491089 -0.29569751024246216
0.3271113336086273 0.0946078971028328 0.42580345273017883
0.3532243072986603 -0.4626365900039673 0.12655465304851532
0.02762424759566784 -0.018258586525917053 0.3495229184627533
-0.35060587525367737 0.006306915543973446 -0.39150470495224
-0.0976257175207138 -0.6207227110862732 -0.08365269750356674
-0.13054397702217102 -0.5368894338607788 0.1457642912864685
-0.5108246207237244 0.11202605813741684 -0.027691496536135674
0.36650770902633667 0.40251338481903076 0.2521686851978302
0.13218896090984344 -0.05766468867659569 0.3182116746902466
0.11648464947938919 0.0014965105801820755 -0.15078674256801605
-0.04159272834658623 -0.626655638217926 -0.20903727412223816
-0.23745158314704895 -0.07303876429796219 -0.07689382880926132
0.19245672225952148 -0.08989439159631729 0.3080158531665802
0.26769474148750305 0.002508033998310566 0.1715959757566452
0.49818265438079834 0.001332707004621625 0.24467553198337555
0.33984726667404175 -0.6501525640487671 -0.18523308634757996
-0.10118985176086426 0.18492548167705536 -0.4007870554924011
0.5286544561386108 -0.0018915622495114803 -0.3343193531036377
0.10836804658174515 0.39725589752197266 0.45475196838378906
0.3244631290435791 -0.3813585340976715 -0.24123959243297577
-0.5810400247573853 0.21072548627853394 -0.30024802684783936
-0.22157880663871765 -0.0005614506080746651 -0.22543109953403473
-0.40284058451652527 -0.002510952763259411 0.19388622045516968
-0.5755946040153503 0.09847912192344666 0.2582315504550934
0.35742124915122986 0.4011071026325226 -0.15084469318389893
-0.40440911054611206 0.0031243348494172096 0.22489258646965027
0.5029263496398926 0.06565878540277481 -0.4030495285987854
0.19996997714042664 -0.6220462322235107 -0.09466304630041122
0.24770662188529968 0.4004546105861664 -0.02416791394352913
0.28455767035484314 -0.14333604276180267 0.2628386914730072
0.050573527812957764 -0.6199957728385925 -0.23975931107997894
0.5758920907974243 0.06477814167737961 0.0819140076637268
0.29865601658821106 -0.6176802515983582 -0.04080507531762123
-0.5169204473495483 0.3443772792816162 -0.3988809883594513
0.1786191165447235 0.4003361761569977 0.22936241328716278
0.4304409325122833 -0.13664363324642181 -0.15225742757320404
0.5738270878791809 0.2877521514892578 0.3304014503955841
0.2583681046962738 -0.6219421029090881 -0.16992084681987762
0.4073489308357239 -0.37780702114105225 0.09007148444652557
-0.07534269243478775 0.3988936245441437 0.2721932530403137
0.13686126470565796 -0.12968379259109497 -0.3717041313648224
0.5678890943527222 0.006674801930785179 -0.3331781327724457
-0.5533822178840637 0.3011621832847595 -0.4022287130355835
0.22631560266017914 -0.0019298326224088669 -0.34267765283584595
0.23841829597949982 -0.6387952566146851 -0.23186403512954712
-0.0833093598484993 -0.053273577243089676 0.2622983157634735
0.3133693039417267 0.002276429207995534 -0.17600390315055847
0.5549500584602356 0.3963052034378052 0.23226825892925262
0.046356622129678726 -0.07599611580371857 0.4184570610523224
0.48007845878601074 0.21893343329429626 -0.40068840980529785
0.20168869197368622 -0.08622679114341736 0.3978278338909149
-0.5556398630142212 -0.06470490247011185 -0.3137478232383728
0.5853867530822754 0.08845557272434235 -0.28835371136665344
0.2643778324127197 -0.02812233194708824 0.3253008723258972
0.3313046395778656 0.002272119279950857 0.008448002859950066
-0.5148158669471741 -0.027512619271874428 0.3492683172225952
-0.18816448748111725 0.2991788387298584 -0.40096375346183777
-0.5484947562217712 0.38778549432754517 0.14252616465091705
0.162545844912529 -0.6258501410484314 0.00425127986818552
0.3317759335041046 0.0015940451994538307 0.1513763964176178
0.5796585083007812 0.09846724569797516 0.12492094188928604
0.3573595881462097 0.001387599390000105 0.04302053526043892
0.3870404362678528 -0.4007183313369751 -0.0020493357442319393
0.08289036154747009 0.44661229848861694 0.39185941219329834
0.48292598128318787 0.001951141282916069 -0.15256720781326294
-0.12081896513700485 -0.6382173895835876 0.08974653482437134
-0.0992617979645729 0.4008590877056122 -0.13192643225193024
0.15545432269573212 0.13757482171058655 -0.4021485149860382
-0.08790063858032227 -0.27841684222221375 0.25869423151016235
0.4982954263687134 -0.00041893916204571724 0.1516810953617096
0.06113256514072418 0.39800041913986206 -0.3456646800041199
-0.3524135947227478 -0.0005312783177942038 -0.1654312163591385
-0.40896517038345337 0.09812670946121216 -0.3982169032096863
0.4865081012248993 0.40210768580436707 0.21432843804359436
0.5795957446098328 0.3699236214160919 0.25678810477256775
0.029346555471420288 0.0005922145210206509 -0.19604897499084473
0.2963202893733978 0.0032328087836503983 -0.0996629148721695
0.025217078626155853 0.00450277142226696 0.3255797028541565
-0.36189889907836914 0.00306328060105443 0.19835789501667023
0.5810161828994751 0.20289860665798187 -0.3577350080013275
0.03365178778767586 -0.6235879063606262 -0.1656358540058136
0.4489828944206238 -0.29532676935195923 -0.00043256720528006554
0.4181326627731323 1.5242956578731537e-05 -0.009387905709445477
0.3126567304134369 0.018739981576800346 0.37543800473213196
-0.5695253610610962 0.06407591700553894 -0.3510967195034027
0.037840764969587326 -0.018387340009212494 0.3444228172302246
0.08463472127914429 0.3992268145084381 0.057586658746004105
0.5783345103263855 0.2482469230890274 -0.25931987166404724
-0.024367939680814743 0.399472177028656 -0.25496071577072144
-0.5719425082206726 0.04534683749079704 -0.38917168974876404
-0.25693246722221375 0.24978597462177277 -0.401358038187027
0.2589070498943329 -0.14147411286830902 0.2772357165813446
-0.07852830737829208 0.39898669719696045 -0.3327830135822296
-0.39654216170310974 0.3998402953147888 0.029180608689785004
0.1271371692419052 -0.10666221380233765 -0.3719930648803711
-0.17539046704769135 -0.5326970219612122 -0.12215304374694824
-0.4033283591270447 0.09373074024915695 -0.3796490430831909
0.4191299080848694 -0.31767335534095764 0.10642260313034058
0.4004502296447754 0.3681659698486328 -0.40271663665771484
0.35183775424957275 0.03216041624546051 -0.4038964509963989
-0.17508122324943542 -0.5740153193473816 0.05195889249444008
-0.500163197517395 0.057434581220149994 0.3430697023868561
0.20202839374542236 -0.005796534009277821 0.2964167594909668
0.40710482001304626 0.39953428506851196 0.3139129877090454
-0.5728012323379517 0.07765322178602219 0.18251995742321014
0.3229793310165405 -0.4878123998641968 -0.21758411824703217
-0.5412464737892151 -0.05549914017319679 0.3362542390823364
0.07501538842916489 0.4007340967655182 -0.13018713891506195
0.3280428349971771 -0.001429571770131588 0.2560962736606598
0.14744848012924194 -0.0739348754286766 0.44029203057289124
-0.4770846366882324 0.11037788540124893 0.0329662524163723
0.5441263318061829 0.35833054780960083 -0.40437161922454834
-0.5769748687744141 0.01662430539727211 -0.14396868646144867
0.048484623432159424 0.000557970255613327 -0.03863430395722389
0.15336698293685913 0.4005281627178192 -0.22771386802196503
0.5788773894309998 0.21961577236652374 -0.17929992079734802
0.13171879947185516 -0.3827601969242096 0.27378278970718384
0.21189573407173157 0.4012874364852905 -0.09281352907419205
-0.10818809270858765 -0.3897131085395813 0.17540480196475983
0.3096887767314911 -0.007054945454001427 0.33151280879974365
-0.1470111459493637 -0.6435813307762146 -0.017699111253023148
-0.5820556282997131 0.34001609683036804 -0.10430450737476349
-0.011736035346984863 0.002011856995522976 0.06962871551513672
0.18002501130104065 0.0035749441012740135 -0.34009864926338196
-0.5603404641151428 0.3784627616405487 0.14253804087638855
0.42969810962677 -0.0017797057516872883 -0.05924917384982109
-0.3581992983818054 -0.004216989502310753 0.12108131498098373
-0.2392250895500183 -0.1996479034423828 0.01782301813364029
0.40437063574790955 0.0037639299407601357 -0.322956919670105
0.2668251693248749 0.0016952347941696644 0.1596306562423706
0.06833652406930923 -0.6214403510093689 0.1656423956155777
-0.5728361010551453 0.3306216299533844 0.24833497405052185
-0.5435975790023804 -0.0042485203593969345 0.12739019095897675
0.38924089074134827 0.0021426519379019737 0.2685423493385315
-0.39348265528678894 -0.03552195802330971 -0.3967982828617096
0.5779135227203369 0.04032459855079651 -0.09396973252296448
0.4017404615879059 -0.0002975782845169306 0.06276107579469681
0.3651164770126343 0.4027928113937378 0.12706534564495087
0.34196364879608154 0.4025184214115143 0.19911198318004608
0.5790137648582458 0.13590075075626373 0.20960691571235657
-0.09929186850786209 0.32386383414268494 0.34324249625205994
0.5716578364372253 0.13583317399024963 0.33689582347869873
0.29915300011634827 0.4006803035736084 -0.008822329342365265
0.5773187279701233 0.16307559609413147 -0.2538471221923828
0.21325719356536865 0.0001028645783662796 0.22925838828086853
0.23430541157722473 0.45077091455459595 0.4408418834209442
-0.03019951842725277 -0.377777636051178 0.2402084916830063
-0.10418786108493805 -0.6242085099220276 -0.016423456370830536
0.577915608882904 0.19107091426849365 0.24075832962989807
0.5131025910377502 0.39947301149368286 -0.23629803955554962
0.582055389881134 0.14865556359291077 0.05230295658111572
-0.020265592262148857 0.001878976821899414 0.20398108661174774
0.118109792470932 -0.3947506248950958 -0.3237287998199463
0.22990082204341888 0.24193818867206573 0.4667952358722687
-0.5414587259292603 0.25680869817733765 -0.4024178385734558
0.24933479726314545 0.0017544804140925407 0.07756306976079941
-0.4530263841152191 0.0018828921020030975 -0.03755755349993706
0.318243145942688 -0.08915925025939941 0.23777052760124207
-0.3524242341518402 0.01982978731393814 -0.3950086534023285
-0.2976124584674835 0.17117497324943542 0.3428313136100769
0.01538294181227684 -0.6235527992248535 -0.2226276993751526
0.09508828818798065 0.39892444014549255 0.3213983178138733
-0.18393418192863464 -0.5228222608566284 -0.008133871480822563
-0.46242043375968933 0.06059267744421959 -0.40086379647254944
0.491441935300827 0.39866870641708374 -0.18600228428840637
0.31114381551742554 0.17014144361019135 -0.4039006233215332
-0.2906588315963745 0.35787883400917053 -0.14181210100650787
0.30966916680336 0.0022292109206318855 -0.2887428104877472
0.3004981279373169 0.02138449437916279 0.4630523920059204
-0.014153730124235153 -0.6262431144714355 -0.06507626920938492
-0.1666632890701294 0.007202163804322481 0.33249759674072266
-0.5694544315338135 0.0030909168999642134 0.2134602963924408
0.5729209780693054 0.013509940356016159 0.1157231554389
-0.42935168743133545 0.1181153953075409 -0.3984237015247345
0.4157291650772095 -0.001134900376200676 -0.3287865221500397
-0.49552294611930847 -0.0942719355225563 0.33214840292930603
-0.5784263610839844 0.023885289207100868 -0.3785518407821655
-0.08154700696468353 -0.6191613078117371 -0.15549792349338531
0.21378783881664276 0.0008877644431777298 -0.2686481773853302
0.09258317202329636 -0.336762934923172 0.3111291825771332
-0.36245793104171753 0.41686367988586426 -0.07748719304800034
0.5800296068191528 0.28946271538734436 -0.12832871079444885
0.3350882828235626 0.4009217321872711 -0.09157843887805939
0.24045760929584503 0.2435925155878067 0.34288814663887024
0.26838263869285583 -0.6223388314247131 0.06908897310495377
0.3149709105491638 -0.0004470190033316612 -0.3521997034549713
0.23884175717830658 -0.32726413011550903 -0.3455738425254822
0.0007679625414311886 -0.39055097103118896 -0.30556541681289673
-0.4048098623752594 0.0037869438529014587 0.2761008143424988
-0.36121121048927307 0.03615587577223778 -0.13155433535575867
0.006699159741401672 0.19529004395008087 0.39668601751327515
0.2849520742893219 -0.6222745180130005 -0.11551996320486069
0.26797065138816833 0.07813956588506699 -0.40200740098953247
-0.5508111119270325 -0.06983630359172821 -0.08863939344882965
0.016498535871505737 -0.27105098962783813 -0.3634604513645172
-0.12992815673351288 0.3986496925354004 0.17613007128238678
0.2222369760274887 -0.10445995628833771 0.29424402117729187
-0.22451892495155334 0.0007713134400546551 -0.2627677023410797
0.2535613775253296 0.1288870871067047 -0.4025413990020752
-0.570710301399231 0.007513599004596472 -0.3191068768501282
0.06449335813522339 -0.6111845374107361 -0.3157555162906647
-0.08550568670034409 -0.5796023607254028 -0.2502698004245758
-0.21862371265888214 -0.14376796782016754 -0.15462610125541687
-0.457918643951416 0.39797234535217285 0.024322744458913803
-0.207997664809227 -0.0761105865240097 -0.19374273717403412
-0.5763725638389587 0.07093501836061478 -0.33272141218185425
-0.5268146991729736 0.07902093231678009 -0.27263975143432617
0.26018643379211426 -0.38799113035202026 -0.279933363199234
-0.3311573565006256 0.006862547714263201 0.2332630157470703
0.3208976686000824 -0.5958901643753052 -0.21774087846279144
-0.5705018043518066 0.1793029010295868 0.33031341433525085
0.1762518286705017 -0.6227553486824036 0.14957894384860992
-0.3492281138896942 0.007352696731686592 0.2705284357070923
0.08114568889141083 -0.6240943670272827 -0.1887207180261612
0.5132660269737244 0.004382005892693996 -0.07473355531692505
-0.16928738355636597 0.4007662832736969 -0.009762072004377842
0.20737718045711517 0.0012211897410452366 -0.1274651139974594
0.24564552307128906 -0.3452645540237427 0.2794654369354248
-0.5630849599838257 0.07294723391532898 0.09389226883649826
-0.488308310508728 0.4013347327709198 0.07328835874795914
0.07025214284658432 -0.0021396824158728123 -0.37389180064201355
0.0641610249876976 -0.22580772638320923 0.3109651505947113
-0.5103729963302612 0.36210644245147705 -0.10897521674633026
0.32558202743530273 0.0030690832063555717 -0.1366608887910843
-0.41321077942848206 0.08812515437602997 0.02889837883412838
0.2448827177286148 -0.6243992447853088 -0.17736537754535675
-0.03346287086606026 -0.6244396567344666 0.0030808537267148495
-0.46222662925720215 0.3474980294704437 0.005094027612358332
-0.5809451341629028 0.3402717113494873 0.09628868848085403
0.35934045910835266 -0.0007715160027146339 -0.290861040353775
0.4496326446533203 -0.2971147894859314 -0.048662781715393066
0.5707617402076721 0.011946911923587322 0.06761424243450165
0.5792884826660156 0.34777313470840454 0.3047642111778259
-0.23600758612155914 -0.18862849473953247 -0.005182416178286076
-0.19340933859348297 -0.3511049449443817 -0.20401498675346375
0.5467665791511536 0.14602287113666534 0.3396863639354706
-0.10839437693357468 -0.3197840750217438 -0.297772079706192
-0.06587006896734238 -0.4281749725341797 -0.26626500487327576
0.5259602665901184 0.12673042714595795 -0.4046224057674408
0.28237590193748474 -0.609426736831665 0.19871622323989868
-0.36951547861099243 -0.04277702420949936 0.30619579553604126
0.31849732995033264 0.0018797973170876503 0.0419987253844738
0.08070868998765945 -0.03309319168329239 0.31772008538246155
-0.41618436574935913 -0.04288516566157341 -0.39963099360466003
-0.3538493514060974 0.3999897539615631 -0.333101749420166
0.2610452473163605 -0.6195828914642334 0.12828429043293
0.581738293170929 0.31692975759506226 0.2401430606842041
-0.579167366027832 0.2778063416481018 -0.06142005696892738
-0.0903867557644844 0.40091678500175476 0.059326399117708206
0.01214187778532505 0.004155288450419903 0.21393389999866486
0.3118576407432556 0.4595493674278259 0.36554157733917236
0.3011792004108429 -0.026871133595705032 0.3304233253002167
-0.38468196988105774 0.005246184766292572 -0.04697457328438759
-0.18771518766880035 0.16903844475746155 0.34223446249961853
0.22862283885478973 -0.0004413258284330368 0.19503478705883026
0.379721462726593 -0.08938993513584137 -0.22931547462940216
-0.03787445276975632 0.39826565980911255 -0.1865091472864151
0.5780228972434998 0.33889374136924744 -0.014254014939069748
0.41084203124046326 -0.37759241461753845 0.01736995205283165
0.3165668845176697 0.24039092659950256 0.4253983199596405
-0.07712998241186142 -0.6209900975227356 0.03881246596574783
-0.33466780185699463 0.36558350920677185 -0.18432261049747467
0.3236292898654938 0.002548755146563053 -0.024921761825680733
-0.04802177846431732 0.12844368815422058 -0.40433579683303833
-0.5286359190940857 -0.08604428172111511 -0.01380099356174469
0.3010355532169342 0.0003445213660597801 -0.21638540923595428
0.518887460231781 0.05099762976169586 0.34227001667022705
-0.5753512978553772 0.29329240322113037 0.33142343163490295
0.20320667326450348 0.39927271008491516 0.11702143400907516
-0.5059188604354858 0.09309738874435425 -0.3877754509449005
-0.40169981122016907 0.41798481345176697 -0.0725787803530693
0.5403227210044861 0.003078330308198929 -0.26092398166656494
-0.2120283842086792 0.0029223933815956116 -0.16668273508548737
-0.44459137320518494 0.05114972963929176 -0.4022864103317261
0.5605670809745789 0.3972022533416748 0.2683221101760864
0.01798029989004135 -0.625568151473999 -0.18517905473709106
-0.17549338936805725 -0.3710847795009613 -0.22558285295963287
-0.5590687990188599 0.00480887945741415 -0.04113686457276344
-0.5822476744651794 0.228469580411911 -0.292767733335495
0.09090767055749893 -0.0002649463713169098 -0.022927945479750633
-0.09930191934108734 0.40073639154434204 -0.021838605403900146
0.24221184849739075 -0.6222738027572632 0.004755894187837839
0.4994644224643707 -0.000818722415715456 -0.05570634827017784
-0.18553119897842407 0.0013784319162368774 -0.16943328082561493
-0.15302534401416779 -0.4710295796394348 -0.16081148386001587
-0.22969205677509308 0.22177663445472717 -0.4018143117427826
0.339726984500885 -0.3546196222305298 0.22303643822669983
-0.5477339625358582 0.33457469940185547 -0.4007897973060608
0.03649364039301872 0.0017721084877848625 0.07325451821088791
0.43763411045074463 0.11502595245838165 -0.40388086438179016
-0.17392829060554504 0.40007081627845764 0.3035399317741394
-0.01837523654103279 0.3998735845088959 -0.2715277373790741
-0.3937946557998657 -0.06671597808599472 -0.39546146988868713
-0.49936574697494507 0.003477882593870163 -0.12925459444522858
0.2434394359588623 -0.0035469834692776203 0.2942042350769043
-0.5779394507408142 0.21690577268600464 0.16469989717006683
0.2854743003845215 0.0015719113871455193 -0.21757154166698456
0.36866065859794617 -0.5203993916511536 -0.14608171582221985
0.5220609307289124 0.00019457470625638962 -0.14647170901298523
-0.3569028079509735 0.0034969314001500607 -0.28583788871765137
-0.45481088757514954 0.00096173956990242 -0.1282256543636322
0.2848675847053528 0.0020657647401094437 0.03291400149464607
0.37748733162879944 -0.0016579879447817802 -0.26762405037879944
-0.5438498854637146 0.003969023935496807 0.17030422389507294
-0.5707351565361023 0.004850515630096197 -0.3810577392578125
-0.004084455315023661 -0.626876175403595 -0.22481678426265717
-0.3870033025741577 0.33279135823249817 -0.4012446701526642
-0.3534965515136719 0.006410431116819382 0.11540299654006958
0.43071818351745605 0.08112750202417374 0.3422694802284241
0.39458343386650085 -0.6102433204650879 -0.059204623103141785
0.04017997533082962 0.0003277044743299484 0.1498730480670929
-0.3811018168926239 -0.0036393553018569946 -0.1721435785293579
0.33452677726745605 0.34240034222602844 0.3446265161037445
-0.19177576899528503 -0.32775500416755676 -0.20127636194229126
-0.3904612958431244 -0.05247308686375618 0.33491501212120056
0.29412731528282166 -0.31447848677635193 -0.3156589865684509
0.1459205001592636 0.0011615678668022156 -0.3380183279514313
0.5807446241378784 0.07430162280797958 -0.05006261542439461
0.015045738779008389 -0.0005304012447595596 0.12130583822727203
-0.1654786318540573 -0.36009353399276733 0.18700769543647766
0.3486345708370209 -0.369302898645401 -0.2594927251338959
0.2603473961353302 -0.6260634660720825 -0.1880994439125061
-0.23030191659927368 -0.2901999354362488 -0.14671964943408966
-0.5628854036331177 -0.05522524565458298 -0.1256464570760727
-0.5792274475097656 0.1497807800769806 -0.06799159198999405
0.06737072765827179 -0.622054398059845 0.132992222905159
0.011419079266488552 0.3997783660888672 -0.19650369882583618
0.5793471336364746 0.07905682921409607 0.08046691864728928
-0.2993183434009552 0.0027348161675035954 -0.3433184325695038
-0.40047672390937805 0.09092919528484344 -0.3988630473613739
-0.03716173395514488 0.39978766441345215 -0.24515897035598755
-0.2585413455963135 0.0036453260108828545 -0.37489771842956543
0.08473522961139679 0.0012562423944473267 0.24312959611415863
0.4402959644794464 -0.12725241482257843 0.047622039914131165
0.5685763955116272 0.2622326910495758 -0.4001030921936035
0.05761433392763138 -0.6259198784828186 -0.254163920879364
-0.004635542165488005 -0.6230647563934326 0.07669974863529205
0.2598775327205658 -0.148829847574234 -0.33923521637916565
-0.060363903641700745 0.204988494515419 -0.40360933542251587
-0.18780402839183807 -0.13028977811336517 0.14954769611358643
-0.2915378510951996 0.33060622215270996 -0.40075409412384033
0.2771458327770233 -0.6206943392753601 0.10117929428815842
0.08780772984027863 0.3795398473739624 -0.3986198306083679
0.042221371084451675 0.20487314462661743 0.3479713499546051
-0.39242690801620483 -0.07532819360494614 0.13000202178955078
