-0.4827739894390106 0.11911629885435104 -0.23141784965991974
-0.4979025423526764 0.41174912452697754 0.05386285483837128
0.5831680297851562 0.15666131675243378 0.0497412346303463
0.13531814515590668 -0.17316313087940216 -0.3782176077365875
0.3508976101875305 0.3097308874130249 -0.3951928913593292
0.04434630274772644 -0.6175478100776672 -0.2612452805042267
0.1289973109960556 -0.6070090532302856 0.15242545306682587
0.5945113301277161 0.11562623083591461 -0.05103412643074989
0.24826888740062714 0.3982430398464203 -0.2041933685541153
-0.16491976380348206 -0.005286255851387978 0.16641965508460999
-0.5784391164779663 0.37271878123283386 0.2174554020166397
-0.37640655040740967 0.3869396150112152 -0.3456266522407532
-0.12262675166130066 -0.0063727786764502525 0.06736123561859131
-0.1513669639825821 -0.316732794046402 0.19225560128688812
-0.03900520130991936 0.007440408691763878 -0.1574658304452896
-0.08242597430944443 -0.5935326814651489 0.18605579435825348
0.013548471964895725 0.2539696991443634 0.35646677017211914
-0.3610580563545227 0.01816616766154766 -0.20486460626125336
-0.31303101778030396 -0.0014279233291745186 0.13383391499519348
-0.578468382358551 -0.04802132770419121 0.28458306193351746
0.3381617069244385 -0.0036857845261693 -0.2738564908504486
0.12176500260829926 -0.6122888922691345 0.26557859778404236
-0.5021051168441772 0.40045106410980225 -0.24945619702339172
0.4249940514564514 -0.19461531937122345 0.07358159869909286
0.23421743512153625 0.008035721257328987 0.032042138278484344
0.36792224645614624 -0.007670003920793533 0.19989696145057678
-0.20531903207302094 -0.005468322895467281 0.10118401050567627
-0.4031337797641754 -0.00043709168676286936 0.3358080983161926
-0.5688126087188721 0.09084229916334152 0.04537777975201607
0.15251709520816803 -0.27234992384910583 -0.35746297240257263
0.2193465232849121 0.3947744369506836 -0.35597190260887146
0.04199949651956558 0.18685179948806763 0.45166411995887756
-0.5711444020271301 0.3071921765804291 0.2820110023021698
0.1346605271100998 -0.5590763092041016 0.2674699127674103
-0.524603545665741 0.19609560072422028 0.34732118248939514
-0.0640285387635231 -0.00514821195974946 -0.13020090758800507
0.479365736246109 0.011764232069253922 -0.3696412742137909
0.08998667448759079 -0.02544829621911049 0.3173876404762268
0.08569438755512238 -0.08964450657367706 0.42675963044166565
0.2625364065170288 -0.5473780035972595 0.20788873732089996
-0.5499807596206665 0.36787137389183044 -0.06253381818532944
0.37976589798927307 -0.0012784914579242468 -0.07259832322597504
-0.03690198436379433 0.40586432814598083 -0.1988777220249176
-0.09343723207712173 0.40900981426239014 -0.009148672223091125
0.13944311439990997 -0.2348586916923523 -0.362278014421463
0.3733353316783905 -0.6452323794364929 0.08065132796764374
0.040869735181331635 0.1437056064605713 -0.4079554080963135
-0.19154413044452667 -0.619287371635437 0.006526608485728502
-0.12364895641803741 -0.6382892727851868 -0.11839194595813751
-0.22459855675697327 -0.07745113968849182 0.062184352427721024
-0.27505365014076233 0.4093378186225891 -0.27479541301727295
0.23102624714374542 -0.00946885347366333 0.2905937135219574
-0.2616089880466461 -0.007634809706360102 0.07447192072868347
0.030090967193245888 -0.0025025419890880585 0.23071923851966858
-0.5340114831924438 0.10339092463254929 0.2215512990951538
-0.1662266105413437 0.002034869510680437 0.060958702117204666
0.14660026133060455 -0.002074906602501869 0.06157636269927025
-0.05114276707172394 -0.6593674421310425 -0.2166927456855774
0.46302497386932373 0.24714073538780212 -0.4070049524307251
0.23093900084495544 -0.0008974589873105288 -0.19002646207809448
-0.17529280483722687 -0.40416011214256287 0.06525673717260361
0.050657276064157486 0.2674247622489929 -0.4112890362739563
0.1860331892967224 0.27983608841896057 0.45992183685302734
-0.2055177390575409 0.0020178896375000477 0.22168804705142975
-0.044757794588804245 -0.6351975798606873 0.17186403274536133
-0.2845505177974701 0.39619356393814087 -0.337695449590683
0.02302308939397335 -0.22264167666435242 -0.36458820104599
-0.2381613403558731 0.4011434018611908 0.04393699765205383
-0.5847110152244568 0.3527906835079193 0.27308225631713867
0.1690278798341751 -0.6031493544578552 0.2517688572406769
-0.5878626704216003 0.2418961524963379 -0.22358877956867218
-0.22851863503456116 -0.0158325657248497 0.0544392466545105
0.15687479078769684 0.3541288375854492 -0.404643714427948
0.3678646385669708 -0.001968944910913706 -0.17846444249153137
-0.4485761225223541 0.11396101117134094 0.34060904383659363
0.4273154139518738 0.0016374150291085243 -0.022723963484168053
0.27351415157318115 -0.38955533504486084 -0.31891533732414246
-0.47124335169792175 0.10561204701662064 0.08427722007036209
-0.3017728924751282 0.006657901685684919 0.12599097192287445
0.012465492822229862 0.2219824343919754 0.368358850479126
0.5843017101287842 0.26242494583129883 0.08254505693912506
0.0656079426407814 -0.036182839423418045 0.2979995906352997
0.2933499217033386 0.40647199749946594 0.45129531621932983
0.39900365471839905 0.389088898897171 0.14475810527801514
-0.11259710788726807 -0.006692725699394941 0.08153831213712692
-0.4028724730014801 -0.07817596942186356 -0.36799582839012146
0.020411523059010506 -0.6297934651374817 -0.060837581753730774
-0.06369346380233765 0.14748764038085938 -0.3896768093109131
0.1597231775522232 -0.31637364625930786 0.2946932017803192
0.06169235706329346 -0.20420719683170319 0.3063061535358429
0.04072091355919838 -0.5231260061264038 -0.3020477592945099
-0.1327497363090515 -0.6351685523986816 0.15627627074718475
0.21119152009487152 0.47953400015830994 0.371178537607193
0.32715147733688354 0.3857695162296295 -0.08939146995544434
-0.5857332944869995 0.17322927713394165 0.18640445172786713
-0.11612153053283691 0.4110284745693207 -0.3030531108379364
0.10622981190681458 -0.5586386919021606 0.26220187544822693
0.0029842050280421972 -0.3948972225189209 0.2471930980682373
-0.4802965521812439 0.394578218460083 0.28018325567245483
0.0496743880212307 0.4073750674724579 0.23626840114593506
0.28714731335639954 0.404620885848999 -0.29402267932891846
-0.504500687122345 -0.021351732313632965 0.36682671308517456
-0.5903239250183105 0.15402574837207794 -0.019108721986413002
-0.5867905020713806 0.0237966850399971 -0.2688033878803253
-0.19312523305416107 0.3225308656692505 0.3449651896953583
-0.116537906229496 -0.47623708844184875 -0.2149299532175064
0.5753467679023743 0.3459745943546295 -0.33932632207870483
-0.11120431125164032 -0.0632483959197998 -0.28911641240119934
0.002192164771258831 0.3001089096069336 0.33326926827430725
-0.24620942771434784 -0.003993282560259104 0.21077078580856323
0.2352398931980133 0.0031088623218238354 0.21773004531860352
0.43925315141677856 -0.004235601983964443 -0.03852849453687668
0.40179404616355896 -0.062420688569545746 -0.2080003023147583
-0.4566810131072998 0.3401990830898285 0.350460022687912
0.15752466022968292 0.3989388346672058 -0.3711172640323639
-0.5295078754425049 0.17035964131355286 0.33800986409187317
0.1938799023628235 -0.09474457800388336 0.4185367524623871
0.28361019492149353 0.4017395079135895 0.18597528338432312
-0.27800604701042175 0.3231732249259949 0.3398159146308899
0.29691100120544434 0.008181614801287651 -0.14794138073921204
0.5725484490394592 0.14672094583511353 0.2636072337627411
-0.42785486578941345 -0.09755092859268188 -0.3844214081764221
0.3057277798652649 0.40939533710479736 -0.05592269450426102
0.09874885529279709 -0.6168009638786316 0.18765190243721008
-0.5130990743637085 0.35311025381088257 -0.1085764616727829
-0.5928955674171448 0.21104778349399567 0.07371318340301514
-0.04438057914376259 -0.34944507479667664 0.2717137634754181
0.3808005750179291 -0.00196173507720232 -0.06880763173103333
0.5149012207984924 0.4136189818382263 -0.02299910970032215
0.04957877844572067 0.0025849491357803345 -0.3393230736255646
-0.10054273903369904 -0.29509463906288147 -0.31971293687820435
-0.1853349655866623 -0.06248405575752258 0.14107045531272888
0.06335574388504028 -0.6092373728752136 -0.10053903609514236
0.07115321606397629 -0.6199013590812683 -0.2690243721008301
-0.5405207276344299 -0.07790371775627136 0.2395603507757187
-0.5312516093254089 0.09999637305736542 -0.043015267699956894
-0.4105575680732727 -0.07613151520490646 -0.26970794796943665
-0.1830383837223053 -0.09290573000907898 -0.2208678275346756
-0.56573486328125 -0.03717813268303871 -0.38605204224586487
0.2456938475370407 -0.6087938547134399 0.10714848339557648
-0.5225026607513428 -0.10385164618492126 0.3218536078929901
-0.34877467155456543 0.3042992353439331 -0.3843878209590912
0.17086763679981232 -0.6145866513252258 0.0649791955947876
-0.01970132440328598 0.4073851406574249 -0.04214892163872719
0.3250625729560852 -0.3246144950389862 0.23281753063201904
-0.1390768140554428 -0.4392731487751007 -0.1763368546962738
-0.5868070125579834 0.16469445824623108 -0.1880236566066742
0.01840442419052124 0.1773744821548462 0.4396376609802246
0.02595253847539425 -0.1470733880996704 0.2903403043746948
0.29049524664878845 -0.0033037702087312937 -0.2908715009689331
0.2693121135234833 0.46924132108688354 0.41205522418022156
0.5849881172180176 0.14614272117614746 -0.23115332424640656
0.4300095736980438 -0.381991446018219 0.009006263688206673
0.09746478497982025 0.38717636466026306 -0.1182248592376709
0.1479673683643341 -0.637998640537262 0.23699426651000977
-0.5636282563209534 -0.03823117911815643 0.2412029206752777
0.2503237724304199 0.4804117977619171 0.4572339951992035
0.2965121865272522 -0.3924162983894348 0.2144845724105835
0.5940970182418823 0.1733214557170868 -0.24448052048683167
0.12965820729732513 -0.07193497568368912 0.3976794481277466
-0.005993489176034927 0.41223010420799255 -0.11045532673597336
-0.47527173161506653 0.1125159040093422 -0.0024829511530697346
-0.1093042865395546 -0.21280956268310547 -0.2894655764102936
-0.5364444255828857 7.791572716087103e-05 0.1064983680844307
-0.47736674547195435 0.014866003766655922 0.34751784801483154
0.2551928162574768 0.39789775013923645 0.017229564487934113
-0.09049749374389648 0.33162742853164673 0.3333289921283722
0.5813857316970825 0.14592666923999786 0.21124938130378723
-0.08746051043272018 0.0037308945320546627 -0.006943097338080406
-0.12617123126983643 -0.4415140450000763 0.16890856623649597
-0.5695858001708984 0.00029789796099066734 0.06177529692649841
-0.19972172379493713 0.2947220802307129 -0.4078483581542969
-0.18025079369544983 -0.4172813892364502 0.052058614790439606
0.13198335468769073 -0.0724567174911499 0.4065570533275604
0.37540221214294434 -0.33284878730773926 0.17038454115390778
-0.5780753493309021 0.14078468084335327 0.14762522280216217
0.3268875777721405 0.14490936696529388 0.35125282406806946
-0.47620540857315063 -0.0034688403829932213 -0.2823117971420288
0.27023229002952576 -0.6207987070083618 -0.15912316739559174
-0.22293411195278168 0.38825723528862 -0.1626187264919281
0.5862271785736084 0.1181115210056305 0.32952964305877686
-0.34027767181396484 0.0061011952348053455 0.1391693502664566
0.07223479449748993 -0.04719609394669533 0.4474378526210785
-0.14214685559272766 0.3690066337585449 -0.40250256657600403
0.33569079637527466 -0.6000546216964722 0.12331090867519379
-0.4878252446651459 0.09726735204458237 -0.240523561835289
-0.09401874244213104 -0.6183415055274963 0.09542135894298553
0.5443270802497864 0.01667928695678711 -0.3870389759540558
-0.0279067475348711 -0.62303227186203 0.05177699774503708
0.10035689175128937 0.40277519822120667 -0.02835453860461712
-0.45245712995529175 0.0225084088742733 0.3451754152774811
-0.5097730755805969 0.19369086623191833 -0.3843236565589905
-0.4862532913684845 0.004546578973531723 0.25544610619544983
0.4802407920360565 0.40351250767707825 0.03747241199016571
0.1408788561820984 0.47814881801605225 0.37597066164016724
-0.44976121187210083 0.10584540665149689 -0.3422964811325073
-0.20076151192188263 -0.0368550568819046 0.12113825231790543
0.5698589086532593 0.010915122926235199 0.12678764760494232
0.14950019121170044 -0.0050972881726920605 -0.14690804481506348
-0.018268167972564697 -0.6197729110717773 -0.10764983296394348
-0.08146248012781143 -0.636572003364563 -0.029082100838422775
-0.4307587742805481 0.4014480710029602 0.26911264657974243
-0.41400444507598877 0.08926068246364594 -0.2999209463596344
-0.5273973345756531 -0.05965735763311386 -0.38355252146720886
0.5171356797218323 0.008089853450655937 -0.3053925037384033
0.05789538845419884 -0.6170311570167542 -0.21452979743480682
0.04577057063579559 0.24686428904533386 -0.4023239314556122
0.22118829190731049 -0.6300951242446899 -0.04781606048345566
-0.27253615856170654 0.10435143113136292 -0.3958774507045746
-0.07177064567804337 0.0045513249933719635 -0.15122872591018677
-0.019416263327002525 0.396098256111145 -0.21637658774852753
0.40097904205322266 -0.16287553310394287 -0.21657338738441467
-0.5529310703277588 -0.06623391807079315 -0.22000916302204132
0.3368568420410156 0.1664157211780548 0.346486359834671
-0.48036548495292664 0.013687157072126865 0.3455613851547241
0.10924636572599411 0.0398709774017334 -0.40805327892303467
0.32035064697265625 0.39421316981315613 -0.3331005871295929
0.033341843634843826 -0.006189753767102957 -0.2095983922481537
-0.20952530205249786 0.16211757063865662 0.3283173739910126
0.03995678201317787 -0.6198577284812927 -0.20721152424812317
-0.5919576287269592 -0.014953603968024254 -0.2965308129787445
-0.34038016200065613 0.39774152636528015 -0.29150837659835815
0.4565666615962982 -0.1375606209039688 -0.00037569249980151653
0.5514956712722778 0.01643054001033306 0.32515355944633484
0.19160452485084534 0.18676427006721497 0.3352315127849579
-0.14412319660186768 -0.6676950454711914 0.058118779212236404
-0.30864137411117554 -0.0006391701754182577 0.24928662180900574
-0.4527372419834137 0.10672483593225479 -0.011907937005162239
0.22796311974525452 0.09214212745428085 0.4651699364185333
0.25008243322372437 -0.09277697652578354 0.35755810141563416
-0.5354985594749451 0.08495981246232986 0.33627355098724365
0.05090121552348137 -0.0016411145916208625 -0.28920871019363403
0.31459933519363403 0.0010214680805802345 0.35533958673477173
-0.5180854797363281 0.002631009090691805 -0.3988882005214691
0.3937433958053589 0.0043201083317399025 0.10368940979242325
0.20471830666065216 0.12120020389556885 -0.40234747529029846
-0.03388439118862152 0.41191643476486206 0.3109112083911896
-0.31550735235214233 0.3956412971019745 -0.33454370498657227
0.2030254602432251 -0.6100513339042664 0.005883343517780304
-0.1573331356048584 0.39996254444122314 -0.08857128024101257
-0.16301104426383972 -0.14870035648345947 -0.25981250405311584
0.03410450741648674 -0.0025674402713775635 0.017218107357621193
-0.11540470272302628 0.06429769098758698 0.33436405658721924
-0.41573798656463623 0.08974655717611313 -0.040440164506435394
-0.09435459226369858 -0.6266764402389526 -0.07780051976442337
0.11946406215429306 -0.6212269067764282 -0.10933587700128555
-0.08454782515764236 0.3896242082118988 0.01626710779964924
0.015745870769023895 0.3218306303024292 0.3428468108177185
-0.0071476660668849945 0.4046536386013031 0.34521427750587463
0.3449632525444031 0.29313480854034424 0.3349188566207886
-0.11376555263996124 -0.61909419298172 -0.10154679417610168
0.18152973055839539 -0.6278330087661743 -0.137163907289505
-0.2995518147945404 0.22453579306602478 0.33689138293266296
0.33386895060539246 -0.405693382024765 -0.20594042539596558
0.5616344809532166 0.3846791982650757 -0.1162785068154335
0.1237347275018692 0.38994133472442627 -0.20306183397769928
0.21608883142471313 -0.6259527206420898 0.18134662508964539
-0.5694748163223267 0.05779334530234337 0.0427941232919693
0.018258975818753242 -0.0037588546983897686 -0.1157400906085968
-0.007787022739648819 -0.11734730750322342 -0.35149937868118286
-0.4106210172176361 0.38940247893333435 -0.3120522201061249
-0.025808705016970634 -0.0016795205883681774 0.0717276930809021
0.3777720034122467 -0.5243749022483826 0.09290235489606857
0.24499842524528503 0.0031921067275106907 -0.01667008548974991
0.3254148066043854 -0.03218816593289375 0.24712857604026794
0.2881544530391693 -0.5023571252822876 -0.23513337969779968
0.4252829849720001 -0.3453531861305237 0.05349590256810188
0.5916891098022461 0.09305447340011597 -0.08344320207834244
0.189116433262825 0.3671214282512665 -0.390973299741745
0.23036693036556244 -0.27897900342941284 -0.3497079610824585
-0.323835164308548 0.3970428705215454 -0.24956156313419342
0.2540943920612335 0.39912140369415283 0.08130647987127304
-0.19972571730613708 0.39537081122398376 -0.264594703912735
-0.21350513398647308 -0.370783269405365 -0.10074879229068756
-0.5960515737533569 0.17514409124851227 -0.023396484553813934
0.287040650844574 0.45800378918647766 0.4137536585330963
0.4587135910987854 0.005438704043626785 -0.38207677006721497
-0.08916018158197403 0.15425585210323334 0.38796040415763855
-0.17452242970466614 -0.6122910380363464 -0.11319123208522797
0.09132428467273712 -0.5391377806663513 0.24608680605888367
0.35329169034957886 0.004822953604161739 -0.09797102957963943
0.43519526720046997 0.008934658020734787 0.16250865161418915
0.5324755311012268 0.2735339403152466 0.3532290756702423
-0.18095065653324127 0.4076078236103058 0.17384397983551025
0.4501591920852661 -0.1752919852733612 0.009081317111849785
0.09277714043855667 -0.0027748330030590296 -0.3450896441936493
0.2902916967868805 -0.6200286149978638 -0.18752385675907135
0.1615760624408722 -0.07679630815982819 -0.3553205728530884
0.35494810342788696 -0.13530825078487396 -0.265034556388855
-0.31110870838165283 0.40225085616111755 -0.10847578942775726
0.30757835507392883 0.28385984897613525 0.4657788872718811
-0.48655202984809875 -0.10123562067747116 0.11124134063720703
0.4683516025543213 0.39133384823799133 0.1924048811197281
-0.5507041215896606 -0.055404383689165115 -0.06012033298611641
-0.5680928230285645 0.29014942049980164 0.0978890061378479
-0.5742632150650024 -0.024278810247778893 -0.2528834342956543
0.5470349788665771 0.005041248165071011 -0.36973628401756287
-0.4662891924381256 -0.0039056497626006603 -0.3177189826965332
-0.5628015995025635 0.04687897488474846 -0.02919771336019039
-0.018626129254698753 -6.495241541415453e-05 -0.2721576988697052
0.23199811577796936 0.40389877557754517 -0.1257748305797577
0.13461051881313324 0.002827889285981655 -0.12129457294940948
-0.16659703850746155 -0.5211895704269409 0.09124640375375748
-0.46075543761253357 0.386694073677063 -0.16584743559360504
0.2514132857322693 -0.0951954796910286 0.3332120180130005
-0.5477902889251709 0.07299855351448059 -0.3037213683128357
0.34377193450927734 -0.653433620929718 0.0837576687335968
-0.08098120242357254 0.0006915954872965813 0.25875651836395264
-0.2218698114156723 0.39783337712287903 0.03390869125723839
-0.2166503369808197 -0.0012462094891816378 -0.035009779036045074
0.5471463799476624 0.011340622790157795 0.04892795532941818
-0.23401379585266113 -0.14550107717514038 -0.04502541199326515
0.5126339793205261 0.0031966050155460835 0.18421481549739838
0.10470318794250488 0.0050193266943097115 0.016739502549171448
-0.14785242080688477 -0.12097835540771484 -0.24955344200134277
0.5180263519287109 0.40169966220855713 0.08189767599105835
0.17936763167381287 -0.6138344407081604 -0.22393611073493958
-0.5783137083053589 0.021651942282915115 0.001625706790946424
-0.13135673105716705 -0.005573739297688007 0.007632995489984751
0.05609094351530075 0.006895122118294239 -0.1116737350821495
-0.17517636716365814 -0.567873477935791 -0.09478414803743362
-0.2258567065000534 -0.38882148265838623 -0.004868489224463701
0.35425224900245667 -0.3703422546386719 0.2036394327878952
-0.3487263321876526 0.023256512358784676 0.3310595750808716
0.32697242498397827 0.36682242155075073 0.3578800559043884
-0.5086801052093506 0.3634050190448761 -0.045820657163858414
0.23050376772880554 0.0017561712302267551 -0.05143009126186371
0.4841803312301636 0.0990418791770935 0.3418126106262207
-0.07556813955307007 0.0017598706763237715 -0.30932319164276123
-0.4853252172470093 0.09644191712141037 0.0767989531159401
-0.25521913170814514 0.18391956388950348 0.3348584473133087
-0.014001012779772282 0.04105279594659805 -0.3998568058013916
0.08307377994060516 0.4085855185985565 0.10169646888971329
-0.10227552056312561 -0.37696385383605957 -0.3048126995563507
-0.008951456286013126 -0.0006229882128536701 -0.2516438961029053
-0.5864564776420593 0.2219950258731842 -0.01998838782310486
-0.1845310926437378 0.044708698987960815 -0.3880843222141266
0.18896406888961792 -0.6100546717643738 0.10256659984588623
-0.07061165571212769 -0.527250349521637 0.20084024965763092
0.16933955252170563 -0.49897247552871704 0.23777133226394653
0.17342068254947662 -0.621095597743988 0.24270203709602356
-0.24451607465744019 -0.22369195520877838 -0.055346421897411346
0.4743460416793823 0.4051221013069153 -0.0606568418443203
-0.18913616240024567 0.39879685640335083 0.33026614785194397
0.31054168939590454 0.22663232684135437 0.3348417580127716
-0.5906559228897095 0.012528881430625916 0.23399019241333008
0.19259613752365112 -0.4932318329811096 0.2352418452501297
0.2982074022293091 -0.00843628216534853 0.11060278862714767
0.44430357217788696 0.397072970867157 0.2729478180408478
0.07891809195280075 -0.629482090473175 0.2486739605665207
-0.40996548533439636 0.4066232740879059 -0.09817879647016525
-0.4126276671886444 0.0023922391701489687 0.2638835906982422
0.09086226671934128 0.19143454730510712 -0.3899870812892914
0.5501711368560791 -0.005803345236927271 0.11560506373643875
0.24581222236156464 0.4068584442138672 0.344124972820282
-0.5716639161109924 0.054356325417757034 -0.0727129653096199
-0.2132588028907776 -0.21388360857963562 0.09660762548446655
-0.1923077553510666 -0.39580029249191284 -0.11094414442777634
-0.0014798262855038047 0.005624842364341021 0.14038348197937012
0.15448078513145447 0.019011713564395905 0.4743659794330597
0.5049210786819458 -0.0018111348617821932 -0.17742875218391418
-0.49221327900886536 -0.0010465652449056506 -0.12879344820976257
-0.09266026318073273 0.39239370822906494 0.013238145038485527
0.5077950954437256 -0.0003101073671132326 -0.19674411416053772
-0.3066774308681488 0.3689560890197754 -0.13315267860889435
-0.09088539332151413 -0.007305714767426252 0.05472811684012413
-0.026127168908715248 -0.0002161921001970768 0.06307950615882874
-0.5779774785041809 0.0442800410091877 0.03551353141665459
0.32569676637649536 0.2531730532646179 0.41013672947883606
0.19866937398910522 -0.6310079097747803 -0.038395609706640244
0.022985637187957764 0.009324084967374802 -0.17297562956809998
0.04000256583094597 0.15985867381095886 0.45038551092147827
-0.531534731388092 -0.08013702183961868 -0.02830345369875431
0.45136338472366333 0.4031475782394409 -0.3678925037384033
-0.5845474004745483 -0.01625615358352661 -0.3690265417098999
-0.5488864183425903 0.2064618617296219 0.33700788021087646
0.17962200939655304 -0.14171941578388214 0.3071044683456421
0.1320509910583496 -0.47021356225013733 0.26516762375831604
0.4497584104537964 0.22258657217025757 -0.39625364542007446
0.03156040981411934 -0.00217394158244133 0.43411481380462646
-0.5476285219192505 -0.08956123888492584 0.1540125012397766
0.3148428797721863 0.39983269572257996 0.17501191794872284
0.2368670105934143 -0.27045971155166626 -0.33750081062316895
0.2697445750236511 0.016447197645902634 0.3451504111289978
0.5560839772224426 0.008858911693096161 -0.17259348928928375
0.34710511565208435 -0.3963434398174286 -0.19226622581481934
-0.05012833699584007 -0.24144722521305084 -0.3245241641998291
-0.5130831003189087 0.17863914370536804 0.3412722945213318
-0.5328697562217712 0.23215945065021515 0.3344789445400238
0.5796688199043274 0.11882900446653366 0.18942663073539734
0.26290133595466614 0.3413843512535095 0.45241105556488037
-0.5853581428527832 0.1477554738521576 0.33802497386932373
0.337963342666626 -0.004507347010076046 0.15083180367946625
-0.24204081296920776 0.0019464949145913124 -0.10552673041820526
-0.510189950466156 0.3356485962867737 -0.09543725848197937
0.2590303421020508 0.2800263464450836 -0.4083162844181061
-0.14118421077728271 0.3945753574371338 0.060552533715963364
0.007494410499930382 -0.00294628762640059 -0.2757178246974945
0.06399566680192947 0.00868377648293972 -0.27776721119880676
-0.06688734889030457 0.007425438612699509 0.10814843326807022
0.33625417947769165 -0.2582589089870453 -0.28422898054122925
0.026469649747014046 0.40481945872306824 -0.3420107364654541
-0.42300906777381897 0.4157390892505646 -0.13263939321041107
0.31458696722984314 0.36660295724868774 0.37552326917648315
-0.217503160238266 -0.19946187734603882 -0.18694135546684265
0.03924824297428131 -0.3936382234096527 -0.33223894238471985
-0.5637587904930115 -0.023081036284565926 -0.19330555200576782
0.5700128078460693 0.37571364641189575 -0.3106132745742798
-0.2044055461883545 -0.27804720401763916 0.13752108812332153
-0.5647199749946594 0.3494962453842163 -0.16352275013923645
0.2702564299106598 0.003756246529519558 -0.22474844753742218
0.27434155344963074 -0.6325989365577698 0.08199834823608398
0.2262689620256424 -0.09563387185335159 0.29183876514434814
0.2436579018831253 -0.008391954936087132 0.2557823956012726
0.40661299228668213 -0.3894471824169159 -0.09433864057064056
0.024746280163526535 -0.6172857284545898 0.18701431155204773
-0.4059702754020691 0.2424832284450531 0.33083847165107727
0.11702150106430054 0.0012834137305617332 -0.11492142081260681
0.43641898036003113 -0.10532151162624359 -0.12568910419940948
-0.03489218279719353 0.005764858331531286 0.3004305362701416
0.2382843941450119 -0.21119721233844757 0.28813812136650085
0.350055456161499 -0.6385416388511658 0.09149427711963654
-0.023225873708724976 -0.002937049139291048 0.13070029020309448
0.09118163585662842 -0.37343838810920715 -0.37679770588874817
0.10982121527194977 0.005830935202538967 -0.061537157744169235
0.00399725092574954 -0.002967770677059889 0.08457663655281067
0.35090601444244385 0.40534302592277527 0.07785750180482864
-0.21984824538230896 -0.33900272846221924 0.1299176663160324
-0.18262504041194916 -0.04210382699966431 0.1620790809392929
0.13106375932693481 -0.3000287711620331 -0.3688827455043793
-0.19589602947235107 -0.21601079404354095 0.13701772689819336
-0.5656386017799377 0.013379069045186043 0.2548266053199768
0.2113531082868576 0.26758062839508057 -0.39570146799087524
0.30572208762168884 -0.017043188214302063 0.45301899313926697
0.29253122210502625 -0.6499723792076111 -0.17602743208408356
-0.04787035658955574 -0.18510650098323822 0.29490405321121216
-0.0782746970653534 0.12532050907611847 -0.4118751585483551
0.07551684230566025 -0.3328710198402405 -0.37133288383483887
0.40050873160362244 -0.24913428723812103 -0.22829881310462952
0.22728084027767181 0.14602649211883545 -0.41184523701667786
-0.3850439190864563 -0.0550704300403595 -0.20658725500106812
0.04295788332819939 -0.6109959483146667 0.20330429077148438
-0.3567809462547302 -0.00965326838195324 0.16665005683898926
0.058883216232061386 -0.6347393989562988 -0.1627902388572693
0.5837069153785706 0.37236136198043823 -0.4049026668071747
-0.5273500084877014 0.3996792435646057 -0.38454321026802063
0.01557223591953516 -0.2786344587802887 0.3157499432563782
0.15699487924575806 0.15608623623847961 -0.4022219181060791
-0.22364774346351624 0.23944011330604553 0.32966604828834534
-0.5761452317237854 0.2015828937292099 -0.110749751329422
0.36232879757881165 0.0004322929307818413 -0.334229052066803
0.15727126598358154 0.39210274815559387 -0.2360033094882965
0.26418787240982056 0.41238847374916077 0.2524288594722748
0.12261951714754105 0.4121800661087036 0.14716342091560364
-0.07168951630592346 -0.1703699678182602 -0.3375883996486664
-0.5680159330368042 -0.010655427351593971 -0.310379296541214
0.3763044476509094 -0.6503101587295532 -0.11411850899457932
-0.14044338464736938 -0.45171335339546204 -0.18415610492229462
-0.17425721883773804 0.39947864413261414 -0.33105340600013733
0.07102921605110168 0.27018216252326965 -0.39435088634490967
0.4179806113243103 0.40207749605178833 -0.18273179233074188
-0.0240089762955904 -0.2155555784702301 -0.33374232053756714
0.5797800421714783 0.3911108672618866 0.29839733242988586
0.2146705538034439 -0.6122082471847534 -0.19928748905658722
0.4105992615222931 0.3962065875530243 -0.015618587844073772
-0.042678240686655045 -0.0034160944633185863 0.04651232808828354
0.5671283006668091 0.2992834746837616 -0.11604053527116776
0.5572246313095093 0.37867945432662964 0.3469812870025635
-0.38375747203826904 -0.010451344773173332 0.1551816612482071
-0.04619140550494194 -1.9024591892957687e-05 -0.05349620059132576
-0.1384141743183136 -0.1541510969400406 -0.2839753031730652
-0.40763193368911743 -0.071468785405159 -0.18084748089313507
0.32945409417152405 -0.5862355828285217 -0.22561854124069214
0.5177386403083801 0.001137219718657434 -0.1599990576505661
-0.12393968552350998 0.3803839087486267 -0.4050390124320984
0.2310362458229065 0.14417053759098053 0.3515108823776245
0.5229603052139282 -0.003922587260603905 -0.1709567755460739
-0.1530112475156784 -0.3942514657974243 0.11408933252096176
0.2853076756000519 0.47163939476013184 0.3838667571544647
0.5792340040206909 0.17896828055381775 -0.15504544973373413
-0.4842681884765625 0.06624794751405716 -0.38864463567733765
0.43009018898010254 -0.2765447795391083 0.03764154762029648
-0.47995510697364807 0.10420459508895874 0.2314830869436264
0.5758297443389893 0.18577983975410461 0.2775290906429291
-0.5673049688339233 0.17832766473293304 0.10743171721696854
-0.10175622254610062 -0.348288893699646 -0.2917921245098114
-0.5753194689750671 0.3290680944919586 -0.317676305770874
-0.09760479629039764 -0.1284482181072235 -0.3106439411640167
-0.03534529730677605 -0.4554417133331299 0.20762868225574493
0.554648220539093 0.306145578622818 -0.3882341682910919
-0.21303513646125793 0.17921283841133118 0.347074419260025
0.06157715618610382 -0.004147912375628948 -0.10110320895910263
0.4651913344860077 -0.0009092772379517555 -0.18360260128974915
0.42859014868736267 -0.1281045377254486 0.04677357152104378
-0.2013443410396576 0.195957213640213 0.33135899901390076
-0.0889112651348114 -0.2859083414077759 0.244205504655838
0.23631197214126587 0.008666647598147392 0.05062289535999298
0.11669358611106873 0.007812835276126862 0.2455892711877823
0.4743119478225708 0.38700780272483826 -0.3689285218715668
0.573255181312561 0.3285154402256012 0.019304653629660606
0.21614281833171844 -0.5666846036911011 -0.2901938557624817
0.23130972683429718 0.33700501918792725 0.4539926052093506
0.38902390003204346 -0.47366058826446533 -0.10990938544273376
-0.33880242705345154 0.34591659903526306 0.3386031985282898
0.14171302318572998 -0.0022359206341207027 0.28374290466308594
0.3862041234970093 -0.37325653433799744 -0.21699555218219757
-0.04196590557694435 -0.6238037347793579 0.03138602152466774
-0.4210324287414551 0.07284767180681229 0.3446546792984009
0.12480787932872772 -0.6314448714256287 0.26438838243484497
0.1298898458480835 -0.005021011456847191 0.2938057482242584
0.20865948498249054 0.13578279316425323 0.3581659197807312
0.2432452291250229 0.3745171129703522 0.35525619983673096
-0.14328573644161224 -0.1826498657464981 0.19813866913318634
-0.5942519903182983 0.24958349764347076 0.3341960906982422
-0.42148736119270325 0.035332612693309784 0.34299835562705994
-0.17722055315971375 0.4072380065917969 -0.24813099205493927
-0.1435016691684723 -0.3963926434516907 0.13208992779254913
0.2178376317024231 0.1490478515625 0.45139366388320923
0.050333693623542786 0.0030145226046442986 0.05445323884487152
0.38155925273895264 0.0018538758158683777 0.14818164706230164
0.41446369886398315 -0.39044228196144104 -0.029292460530996323
-0.5848870277404785 0.0663314163684845 0.05039343237876892
0.043872080743312836 0.406284898519516 -0.2545170783996582
0.2325160652399063 -0.1112850084900856 0.2975709140300751
0.33425840735435486 0.08075357973575592 0.3743803799152374
0.11813457310199738 0.39648133516311646 -0.06536418199539185
0.18915723264217377 0.00524005014449358 -0.32259705662727356
0.5648356676101685 0.21107812225818634 0.20849557220935822
-0.13943535089492798 0.0034635220654308796 -0.14324207603931427
-0.09480951726436615 0.008914238773286343 0.15342199802398682
0.16786950826644897 -0.6196138262748718 -0.07250294089317322
0.132671520113945 0.37317779660224915 -0.4045226573944092
0.5763422846794128 0.026208961382508278 0.007485330104827881
0.5806149840354919 0.038829073309898376 0.10708660632371902
0.2988037168979645 -0.6322779059410095 -0.093662790954113
-0.04169285297393799 -0.0002496293745934963 0.2764328718185425
-0.26127734780311584 -0.007489167619496584 0.03342021256685257
0.5619882345199585 0.39640387892723083 0.07288723438978195
0.032651059329509735 -0.6326231360435486 0.03149811923503876
-0.39987340569496155 -0.006653472315520048 -0.2084745615720749
0.036767397075891495 0.3934251368045807 -0.02661779895424843
-0.17831330001354218 -0.003550628200173378 -0.18830430507659912
-0.41691529750823975 0.0026761319022625685 -0.2264796644449234
0.2589244842529297 0.3957325518131256 0.1331723928451538
-0.5872746109962463 0.26620328426361084 -0.15101942420005798
0.5828375816345215 0.22888174653053284 0.2684498727321625
0.14654506742954254 0.4499225318431854 0.4371618926525116
0.4080345332622528 0.3288458287715912 0.3404958248138428
0.4545459747314453 0.3683638870716095 -0.40284740924835205
0.4054914116859436 -0.29367557168006897 -0.17369624972343445
-0.00409561675041914 -0.6127862334251404 0.17981718480587006
-0.5787416100502014 0.04019943252205849 0.27096542716026306
0.49393028020858765 0.4002724885940552 -0.2950398325920105
0.010181287303566933 -0.6231798529624939 -0.014777272939682007
0.20797091722488403 0.013783065602183342 -0.4068059027194977
0.5912510752677917 0.2044849544763565 -0.25768786668777466
-0.37659212946891785 -0.008346621878445148 0.03824828565120697
0.3220539391040802 0.3123747408390045 0.4681503176689148
-0.1965889185667038 0.1799200475215912 -0.39787283539772034
0.16199199855327606 0.02114647999405861 0.3569278120994568
0.3521605134010315 0.38871240615844727 -0.3411822021007538
0.19724011421203613 0.4636545479297638 0.37553104758262634
0.4005464017391205 0.0012428881600499153 0.014408051036298275
0.20490331947803497 -0.0017432065214961767 -0.26931676268577576
-0.5666701793670654 0.31144025921821594 -0.09441840648651123
-0.4142923355102539 -0.03991246968507767 -0.3881077766418457
0.1091957613825798 -0.11424189805984497 -0.3806101977825165
0.33261898159980774 -0.14521996676921844 0.23333513736724854
-0.5130590796470642 0.3633408546447754 -0.0599963553249836
-0.042905040085315704 -0.32203254103660583 -0.3264351785182953
-0.3177404999732971 0.021708648651838303 0.33048298954963684
-0.5936080813407898 0.14811895787715912 0.1454271525144577
-0.392408549785614 0.06519947201013565 -0.06970317661762238
0.1623063087463379 0.401992529630661 -0.05944790691137314
0.3318694233894348 0.3137721121311188 0.44395333528518677
0.1714221090078354 0.0012240586802363396 0.1473752111196518
0.1304081529378891 0.12237126380205154 -0.4006674289703369
-0.11800111830234528 -0.006507332436740398 0.20826154947280884
0.29629555344581604 0.00589919975027442 0.10466153919696808
-0.368407279253006 0.39664939045906067 0.2762986123561859
0.24193638563156128 0.4065118432044983 -0.3084886074066162
-0.4464757740497589 0.09224560111761093 -0.3890475332736969
-0.1121889054775238 -0.6150133013725281 0.007635155227035284
0.13852106034755707 0.04237814620137215 0.337979257106781
0.06127624586224556 -0.006514939479529858 0.16996832191944122
0.31420448422431946 -0.09749900549650192 -0.3144800364971161
-0.5732432007789612 0.24597977101802826 -0.10271274298429489
-0.5587308406829834 0.000555864826310426 -0.06431560963392258
0.5711369514465332 0.15236476063728333 0.23388120532035828
0.29215988516807556 -0.24322693049907684 -0.33203861117362976
0.20455946028232574 -0.6220220923423767 -0.1597292721271515
0.15818080306053162 -0.07022345066070557 0.34150201082229614
-0.5956200361251831 0.3088620901107788 -0.21383894979953766
0.20985473692417145 -0.0009153848513960838 -0.13120196759700775
-0.4991607666015625 0.01991228573024273 -0.38617345690727234
-0.4072997272014618 0.08566316962242126 -0.3441529870033264
0.4521780014038086 -0.17280973494052887 -0.05326184257864952
-0.1824450045824051 -0.2773783504962921 -0.19903092086315155
0.4028818607330322 0.21554657816886902 0.35000157356262207
-0.10889938473701477 -0.07723076641559601 0.2247907966375351
0.5249143838882446 0.000626317341811955 0.2030593454837799
-0.25741085410118103 -0.002375748474150896 -0.2356531322002411
0.45816394686698914 -0.033959947526454926 0.03287478908896446
-0.2691594064235687 0.40050336718559265 0.08570212870836258
-0.5893933773040771 -0.002995203249156475 -0.018000541254878044
-0.03839685767889023 -0.07454468309879303 0.30113327503204346
0.5855425596237183 0.1799950897693634 -0.2323533445596695
0.1150662824511528 0.39014503359794617 0.09567498415708542
-0.1405220478773117 -0.004846443887799978 -0.16749417781829834
0.25739404559135437 -0.07642127573490143 0.43913596868515015
-0.22418245673179626 0.40934982895851135 0.06442411988973618
0.28806355595588684 0.3855382204055786 0.10198664665222168
0.17039944231510162 0.12247319519519806 0.3520546555519104
-0.10894059389829636 0.043324898928403854 0.3379514217376709
0.1563487946987152 -0.0070800334215164185 0.32132405042648315
0.3441242575645447 -0.6510360836982727 -0.12272011488676071
0.13536638021469116 -0.6314908266067505 -0.13881221413612366
-0.4665493667125702 0.3967245817184448 0.2319698929786682
0.585408091545105 0.10985539108514786 -0.3105302155017853
-0.14900879561901093 -0.4823829233646393 -0.18143005669116974
0.14551173150539398 0.46092355251312256 0.4156695008277893
0.42491304874420166 -0.36562106013298035 -0.06089315190911293
0.3986941874027252 -0.5014663338661194 -0.043198082596063614
0.5172568559646606 0.3931632339954376 0.06335657835006714
-0.17203912138938904 -0.03114119917154312 0.16814346611499786
-0.11808106303215027 0.22090061008930206 -0.4076584577560425
0.3922094404697418 -0.616317868232727 -0.011883135885000229
0.518099308013916 0.038728922605514526 0.34947669506073
0.33912143111228943 -0.6368531584739685 -0.13559386134147644
0.03501656651496887 -0.6150318384170532 -0.05476011708378792
0.13781720399856567 -0.6244673728942871 0.20460478961467743
0.3362698256969452 -0.3773462474346161 0.20947296917438507
-0.09480462968349457 -0.638098955154419 -0.029033808037638664
-0.06279702484607697 0.3985605537891388 0.27406027913093567
-0.3800973892211914 0.045206744223833084 -0.3951597511768341
-0.5046990513801575 0.002523677423596382 -0.3831857144832611
-0.3330504894256592 0.1135825514793396 -0.3881814777851105
-0.5341339111328125 0.399149090051651 -0.08326093852519989
0.21331802010536194 0.06173648685216904 0.3381631076335907
-0.42563730478286743 0.030103562399744987 0.34277617931365967
-0.07277753949165344 0.008830276317894459 -0.2375420331954956
0.4525974988937378 -0.15132156014442444 -0.06287533789873123
-0.001956201856955886 -0.6581991910934448 -0.29221606254577637
0.3258691132068634 0.29694509506225586 0.45571380853652954
0.036282606422901154 0.006473595276474953 -0.3728654682636261
0.01566248945891857 -0.39661073684692383 -0.31554901599884033
0.5060716271400452 0.10558032244443893 0.34944283962249756
-0.17953044176101685 0.39271917939186096 -0.3353199362754822
0.2936950922012329 -0.1228685975074768 -0.3245546221733093
-0.26609185338020325 0.38577762246131897 -0.17770464718341827
-0.5067248940467834 0.15797504782676697 0.34185680747032166
0.11828730255365372 0.24601659178733826 0.3493877947330475
-0.4109245836734772 0.0020650355145335197 0.11592428386211395
-0.5901151299476624 0.08806660771369934 -0.2271585315465927
0.4308810830116272 -0.37891918420791626 -0.0941886156797409
0.031624820083379745 0.3189873695373535 0.3298165798187256
0.5859271883964539 0.3209106922149658 0.09258004277944565
-0.5744777917861938 -0.03762590140104294 -0.04090115427970886
0.2670440077781677 0.14547625184059143 -0.3871152102947235
-0.25016653537750244 0.0043500689789652824 -0.18663986027240753
0.21344593167304993 0.037940047681331635 0.3454899191856384
-0.09985576570034027 -0.6547955274581909 0.17198197543621063
0.497772753238678 -0.0008798043709248304 -0.297465056180954
0.3808748424053192 -0.3539119064807892 -0.2459610104560852
-0.3548396825790405 -0.0056805796921253204 -0.03757806494832039
0.44226253032684326 -0.028065988793969154 -0.07807932794094086
0.23293186724185944 0.07928349822759628 0.45936110615730286
-0.39633119106292725 0.008403481915593147 0.003663399023935199
0.12054796516895294 0.09710898995399475 0.46026554703712463
-0.30262839794158936 0.38161757588386536 -0.3900171220302582
0.3966882824897766 -0.4787212908267975 -0.014105631038546562
-0.007038782350718975 -0.004245808348059654 0.11319386959075928
-0.4416619539260864 0.40611112117767334 -0.24210405349731445
-0.449401319026947 0.010889846831560135 -0.25285279750823975
0.1431608945131302 -0.6238389015197754 -0.312055379152298
-0.3806113004684448 0.1256849318742752 0.33886319398880005
-0.4101462960243225 -0.08263745158910751 0.10905914008617401
0.12292759865522385 -0.6300520300865173 0.09929312020540237
0.5667985081672668 0.1567564606666565 -0.10873814672231674
0.07774825394153595 0.10437744855880737 0.33379244804382324
0.47842085361480713 0.002602226100862026 0.13073216378688812
-0.003107386874035001 0.0007842574268579483 0.15262065827846527
-0.05761025846004486 0.005970688536763191 -0.08012408018112183
0.4251636266708374 0.06918276101350784 0.3519589304924011
0.2332114726305008 0.408884733915329 0.0007682458963245153
0.3750234544277191 -0.6473419070243835 -0.050766270607709885
0.5940281748771667 0.1087067648768425 0.1682717651128769
-0.08389570564031601 0.38889360427856445 -0.022982968017458916
-0.0918942466378212 -0.0035186444874852896 0.031810324639081955
-0.4796285331249237 -0.006623252760618925 0.17712600529193878
-0.026366211473941803 -0.006158255506306887 -0.0425201915204525
0.20912301540374756 0.41013404726982117 0.35467222332954407
-0.1611475646495819 -0.3896077871322632 0.1899052858352661
0.4047485291957855 0.4014766812324524 -0.1897209882736206
0.21035437285900116 -0.14082421362400055 0.3061550259590149
-0.5395289659500122 0.16714836657047272 0.3499465882778168
0.4411371350288391 0.0009319311939179897 0.28783974051475525
-0.4265536069869995 0.37839820981025696 0.017375120893120766
0.43752753734588623 0.4040863811969757 -0.26605847477912903
0.37180349230766296 -0.32704928517341614 -0.24375160038471222
-0.3974340558052063 0.3851623833179474 0.19490447640419006
0.5746154189109802 0.2886260449886322 -0.07210541516542435
0.2665279507637024 -0.0030145400669425726 -0.21323342621326447
-0.43725889921188354 -0.004229107405990362 -0.07247641682624817
-0.545784056186676 -0.07332757115364075 -0.07903376966714859
0.1745096743106842 -0.613655149936676 0.10418973118066788
-0.47695761919021606 0.39151766896247864 0.30103132128715515
0.3334651291370392 0.4023354649543762 0.26646891236305237
0.3463413417339325 -0.4650263786315918 -0.1981736272573471
-0.193941131234169 -0.36612245440483093 -0.12090874463319778
0.3897711932659149 -0.1432265341281891 -0.2121778428554535
0.2821493148803711 0.0069241272285580635 0.03247762843966484
-0.2522536814212799 -0.19836978614330292 -0.042843759059906006
-0.22373728454113007 0.3944391906261444 0.2971382141113281
0.06912760436534882 -0.36372408270835876 0.29191455245018005
0.473273903131485 0.16755317151546478 0.33275264501571655
0.3562553822994232 0.393450528383255 -0.07297536730766296
-0.19047841429710388 -0.1276017725467682 0.15419898927211761
-0.4504159688949585 -0.10079529881477356 -0.19829249382019043
-0.196616068482399 0.3887276351451874 -0.3900165259838104
-0.06879477947950363 -0.001766305766068399 -0.19124442338943481
-0.18411441147327423 -0.5382953882217407 0.026911595836281776
0.12866701185703278 -0.6337801814079285 -0.274448961019516
0.24932554364204407 -0.56246417760849 0.22073867917060852
0.09810753911733627 0.19094517827033997 -0.39091038703918457
0.38138777017593384 0.39470890164375305 -0.23070722818374634
0.01603158935904503 0.020532604306936264 0.386639267206192
0.5943108201026917 0.2809195816516876 -0.15181441605091095
0.44374364614486694 0.40238720178604126 0.2780718207359314
-0.40446412563323975 -0.0820937305688858 -0.19356247782707214
0.0012028496712446213 0.010638358071446419 -0.39908692240715027
0.2364540696144104 -0.10842674225568771 -0.3370768427848816
0.5851516127586365 0.015448126941919327 -0.3045222759246826
0.4903632402420044 0.33203426003456116 -0.4105895459651947
-0.2253422886133194 0.41384419798851013 0.03131991997361183
0.5390319228172302 0.41181179881095886 -0.3553985357284546
0.4914211630821228 0.1352088898420334 0.34948185086250305
-0.4069060981273651 0.000643865205347538 0.20895080268383026
0.09777556359767914 -0.38621363043785095 -0.3074485659599304
-0.48583921790122986 0.35516682267189026 -0.03233855590224266
-0.5343960523605347 0.19166891276836395 -0.3933373987674713
0.3526356518268585 -0.27273836731910706 -0.2511212229728699
0.37998706102371216 -0.40475597977638245 0.08320622891187668
0.2097373902797699 0.3887079060077667 0.344799667596817
-0.5661928653717041 0.335894912481308 0.35381439328193665
-0.5858678221702576 0.08661617338657379 0.18211355805397034
0.45223188400268555 -0.06063489615917206 -0.09087315201759338
-0.15431737899780273 -0.6453635692596436 -0.05013788491487503
-0.23198777437210083 0.0039024711586534977 0.3439984917640686
-0.21194182336330414 -0.025057218968868256 0.10971321165561676
0.5058456063270569 0.21318060159683228 -0.41278377175331116
0.05891292914748192 -0.008310886099934578 -0.09162773936986923
-0.09487682580947876 -0.6433449983596802 -0.22579647600650787
-0.025285135954618454 0.19962750375270844 -0.3993012011051178
-0.5692981481552124 -0.05779021605849266 -0.3246471881866455
0.2629358768463135 0.3712787926197052 -0.3864060938358307
0.590864896774292 0.12505395710468292 0.21121633052825928
0.44108134508132935 0.25193333625793457 0.3369213938713074
-0.1297377198934555 -0.010191654786467552 -0.2610505223274231
0.2848000228404999 0.1985386461019516 0.34759509563446045
-0.2745240330696106 0.4057590663433075 0.018792396411299706
-0.4426673650741577 0.07011173665523529 0.3432072699069977
-0.3351474106311798 -0.007010594941675663 -0.11239439249038696
-0.4564193785190582 0.14439862966537476 0.33321526646614075
0.19173698127269745 0.005477366968989372 0.11594394594430923
-0.5090113878250122 0.3659072518348694 0.34334760904312134
0.3525938391685486 -0.2618378698825836 -0.24138593673706055
0.5441952347755432 0.4018189609050751 0.16490012407302856
-0.27180731296539307 0.38700154423713684 -0.043594710528850555
0.37251409888267517 0.4132608473300934 0.23528963327407837
-0.5160995125770569 -0.09321220964193344 -0.3503406047821045
-0.10684067010879517 -0.005819115322083235 -0.08903336524963379
-0.5156626105308533 0.3925359845161438 0.3297688961029053
-0.1582793891429901 0.14042823016643524 0.3531596064567566
0.11207050085067749 0.4036586284637451 0.3551931381225586
0.17995229363441467 0.18115364015102386 -0.4021983742713928
-0.5697245597839355 -0.0002767528058029711 -0.2776784300804138
0.09908515214920044 -0.0018060279544442892 -0.01080152578651905
-0.5286496877670288 0.39934173226356506 -0.3733062148094177
0.30522051453590393 -0.5048779249191284 -0.21985745429992676
0.34095093607902527 0.08503641188144684 -0.4013575613498688
0.3426753878593445 -0.00038121361285448074 -0.26718541979789734
0.3266056180000305 0.3958732783794403 -0.21855983138084412
0.10212629288434982 0.4000934660434723 -0.11461348831653595
0.2467954307794571 -0.43126198649406433 0.22363799810409546
-0.21279267966747284 -0.0528361052274704 0.12800323963165283
-0.345691978931427 0.40715938806533813 -0.4029732644557953
-0.29606300592422485 0.4081718623638153 -0.19450028240680695
0.33937153220176697 0.011229565367102623 0.17976969480514526
0.023139379918575287 -0.001322960015386343 0.26561349630355835
-0.1737367957830429 -0.5302345156669617 -0.0561668761074543
0.26970574259757996 0.3935296833515167 0.053509119898080826
0.010689734481275082 0.23163343966007233 0.4058791995048523
