0.00843127816915512 0.002104756888002157 -0.32044586539268494
0.1672406643629074 -0.08158707618713379 -0.36379706859588623
0.255080908536911 -0.6326296329498291 -0.23474961519241333
-0.015403013676404953 -0.0017235814593732357 0.29492610692977905
0.3782421946525574 -0.38816389441490173 -0.14428940415382385
-0.36056238412857056 0.31649941205978394 0.3413008153438568
0.12944872677326202 0.39763569831848145 0.11533962935209274
-0.03230785205960274 0.16401854157447815 0.40116921067237854
-0.05704948306083679 -0.42311203479766846 -0.27785393595695496
0.14283452928066254 -0.030726134777069092 0.4641689956188202
0.2072104513645172 0.28886014223098755 0.3451826572418213
0.332689106464386 0.0002539055421948433 -0.26515209674835205
-0.07546542584896088 -0.27595096826553345 0.26465746760368347
0.5824416279792786 0.06985998153686523 0.01161484606564045
0.04781348630785942 0.3991691470146179 -0.3743317127227783
-0.3064839243888855 0.3762618601322174 0.3375824987888336
0.3468606472015381 -0.38039278984069824 0.19370774924755096
0.17708298563957214 -0.08524318039417267 0.39112743735313416
0.16938453912734985 0.4643557369709015 0.4434543550014496
0.18845628201961517 -0.621091902256012 -0.028084011748433113
-0.4306508004665375 0.2839215099811554 0.3444756269454956
0.06606890261173248 0.281122088432312 -0.3996903598308563
-0.14783281087875366 0.0012396415695548058 -0.19130294024944305
0.5822886824607849 0.035398125648498535 0.10703281313180923
0.32961636781692505 -0.6227501034736633 -0.038322024047374725
-0.30758777260780334 0.40005528926849365 0.26610544323921204
-0.36129865050315857 0.36548420786857605 -0.20239579677581787
0.3249119222164154 0.4013969600200653 0.38676881790161133
0.3262142837047577 -0.38193216919898987 -0.2421797811985016
0.12280691415071487 0.25766849517822266 0.46244609355926514
-0.02461811527609825 -0.08871631324291229 -0.3489377200603485
-0.10424762219190598 0.002399781020358205 0.12184104323387146
0.3336802124977112 -0.00010301382280886173 -0.2395881563425064
0.0752885490655899 0.07671540230512619 0.3434467911720276
0.07585897296667099 0.15111348032951355 0.4631742238998413
0.5402616858482361 0.2537524998188019 0.3383385241031647
-0.18268582224845886 0.2695567011833191 0.3458419442176819
-0.575590968132019 0.0038916361518204212 0.10773531347513199
0.3502795696258545 -0.6008633971214294 -0.18713529407978058
0.18959029018878937 0.0023575853556394577 -0.18574005365371704
0.3178430199623108 0.19018705189228058 0.3429180085659027
0.5698792934417725 0.2835305631160736 0.3378613591194153
0.04246046394109726 -0.043332796543836594 0.45578381419181824
-0.39143234491348267 0.005549573339521885 0.13144978880882263
-0.22337332367897034 0.006258383393287659 -0.3932337164878845
0.5738211274147034 0.008852892555296421 -0.1807243525981903
-0.16986095905303955 -0.09411492943763733 0.17815077304840088
-0.33206844329833984 0.11785580962896347 0.34302666783332825
0.38889962434768677 0.4004894495010376 -0.04917930066585541
-0.4298593997955322 -0.09579156339168549 -0.28802093863487244
-0.1853596419095993 0.3991171717643738 0.26845765113830566
-0.11763788014650345 0.3466564118862152 -0.40019989013671875
0.025198979303240776 0.10707969218492508 -0.40062132477760315
-0.37082159519195557 -0.017897168174386024 -0.3892377018928528
0.3686109781265259 -0.27341127395629883 -0.2538703978061676
-0.37819769978523254 0.34592339396476746 0.03544946759939194
-0.5703207850456238 0.07181909680366516 -0.2895733118057251
0.3862290680408478 0.4012852609157562 0.1344214230775833
0.16195759177207947 -0.6231569647789001 -0.05735104903578758
0.19039569795131683 0.4014838635921478 -0.33460262417793274
-0.06772269308567047 0.20164717733860016 -0.4039195477962494
-0.03663923591375351 0.4003790318965912 0.037070926278829575
0.3243810832500458 0.3198438882827759 0.3418016731739044
0.012359436601400375 0.40010666847229004 0.008527475409209728
-0.5743306875228882 0.012975442223250866 0.17066331207752228
0.04472390189766884 -0.2222616821527481 -0.3660788834095001
0.2534627914428711 -0.0011025900021195412 0.31402677297592163
0.318692684173584 -0.619983971118927 -0.05874761939048767
0.24841690063476562 0.002280144952237606 -0.29304039478302
-0.15007159113883972 -0.3413817286491394 0.20146246254444122
0.0325252041220665 -0.034814100712537766 0.38428738713264465
0.18581798672676086 -0.3086024522781372 -0.3643656373023987
0.12795265018939972 -0.6201584339141846 -0.16672493517398834
0.020529115572571754 0.20196177065372467 0.4199260473251343
-0.0104549340903759 0.0017000404186546803 0.11642642319202423
-0.07426758110523224 0.0005986141040921211 -0.30172494053840637
0.026919037103652954 0.21443907916545868 0.38925275206565857
0.4371131956577301 -0.22159674763679504 -0.09958695620298386
0.13683868944644928 0.0027069621719419956 0.19514794647693634
-0.12052123248577118 0.0022402293980121613 -0.10211626440286636
0.3760587275028229 0.3954463601112366 -0.3924354910850525
-0.15687349438667297 0.30051323771476746 -0.40016162395477295
0.5807691812515259 0.18576982617378235 0.15607427060604095
0.3393985629081726 0.004549932666122913 0.09061120450496674
-0.06647787988185883 -0.21857990324497223 0.26979103684425354
0.2449684739112854 0.003945368342101574 0.2050819993019104
-0.14536046981811523 0.2517961859703064 -0.4014224708080292
0.055372487753629684 0.262686163187027 -0.39987000823020935
0.26624876260757446 -0.09770257771015167 0.27676329016685486
-0.36765792965888977 -0.012288014404475689 0.13307851552963257
-0.5806832313537598 0.014546570368111134 -0.2860197424888611
0.3879562318325043 -0.21087516844272614 -0.22201986610889435
-0.4257027208805084 0.0015287427231669426 0.036792855709791183
0.2189619243144989 0.3265308439731598 0.4626498520374298
0.027960218489170074 -0.6185407638549805 -0.30618181824684143
0.28242138028144836 0.003921770956367254 -0.030012652277946472
0.14021402597427368 -0.03559315577149391 0.3186335265636444
-0.5491642355918884 0.012593837454915047 -0.4022631347179413
0.338886022567749 -0.6382009387016296 -0.12433132529258728
0.023204904049634933 -0.620968222618103 -0.1775636076927185
-0.11619401723146439 0.004840891808271408 0.2717971205711365
-0.5762903690338135 0.13499946892261505 -0.058941856026649475
-0.05701413005590439 -0.21432830393314362 0.27465543150901794
-0.05135180056095123 -0.655707597732544 -0.2538207769393921
0.27455681562423706 0.004216333851218224 0.1954624205827713
-0.12944811582565308 -0.2624606490135193 -0.2850628197193146
-0.45185860991477966 0.41151583194732666 -0.029204394668340683
-0.20116642117500305 0.18492884933948517 -0.4017162024974823
0.053761836141347885 0.03868730366230011 0.34427115321159363
0.4989575147628784 0.39789143204689026 0.329030305147171
0.44593650102615356 0.006667032837867737 0.2763504385948181
-0.03002792038023472 -0.6204518675804138 0.1062459796667099
0.5489616990089417 0.1718982756137848 -0.39870715141296387
0.2771236002445221 -0.29058799147605896 0.26437100768089294
0.3598681688308716 0.0036871652118861675 0.006022139452397823
0.3698715269565582 0.15514685213565826 0.3416661024093628
0.33995670080184937 0.0040717963129282 -0.15173780918121338
0.14427459239959717 0.4008491039276123 0.028216315433382988
-0.4654048979282379 0.13367615640163422 0.3384571671485901
0.5791231393814087 0.20598237216472626 -0.028635310009121895
0.16981472074985504 0.31409892439842224 0.3403063416481018
0.3676307499408722 -0.651731014251709 0.054334856569767
0.1923505812883377 0.4009782373905182 -0.18185386061668396
0.03055351786315441 0.0027928249910473824 0.04379699379205704
-0.38754481077194214 0.005155486986041069 -0.13234461843967438
-0.5274378657341003 0.10317771881818771 -0.10388938337564468
0.559615433216095 0.39905858039855957 -0.08345648646354675
0.5838522911071777 0.16484589874744415 -0.155962273478508
0.35289451479911804 0.0035389966797083616 -0.13629674911499023
0.3688257038593292 -0.20149318873882294 -0.24266844987869263
0.2811400294303894 0.17078088223934174 0.3419710099697113
-0.5643175840377808 0.3669703006744385 0.2443830817937851
-0.0054979482665658 -0.22290554642677307 -0.35666993260383606
0.5818428993225098 0.11521236598491669 0.2269756942987442
0.3464392423629761 -0.4778977632522583 0.12490451335906982
0.022141149267554283 0.23543746769428253 0.35003000497817993
-0.4712369740009308 -0.10842911154031754 0.12841171026229858
-0.4735985994338989 0.11001188308000565 0.14192457497119904
0.2239716798067093 -0.6206523776054382 -0.18536265194416046
0.3177587687969208 0.39980241656303406 0.03636956959962845
-0.46662718057632446 0.40037333965301514 0.10393399000167847
0.4117424488067627 -0.27968287467956543 -0.17349354922771454
-0.02469785325229168 0.40045425295829773 -0.20755402743816376
0.37741217017173767 0.12438637018203735 0.341823935508728
-0.18658727407455444 -0.31100669503211975 -0.20820322632789612
0.31688520312309265 -0.5595834851264954 -0.22419588267803192
-0.11876460909843445 -0.039001740515232086 0.23125535249710083
0.22881735861301422 0.0011711105471476912 -0.331103652715683
-0.23720060288906097 -0.0027678553014993668 -0.09699410945177078
0.3008708357810974 -0.0824129581451416 0.3395973742008209
-0.44321492314338684 0.0027010072953999043 -0.09457065165042877
-0.1470588743686676 0.1351594626903534 0.34074169397354126
0.06142780929803848 -0.11084000021219254 0.3140140771865845
-0.24834460020065308 0.0013063284568488598 -0.06052388995885849
0.5845330357551575 0.28627467155456543 0.3123619556427002
0.13354720175266266 -0.03880202770233154 0.321428507566452
-0.3709385097026825 -0.041233230382204056 0.03655655309557915
0.12818081676959991 -0.6219648122787476 -0.011872242204844952
-0.33541545271873474 0.3993808925151825 -0.2511322796344757
-0.21728017926216125 -0.37531059980392456 0.04825787991285324
0.2129022628068924 0.058775078505277634 -0.39990973472595215
0.30334198474884033 0.40076878666877747 0.23632031679153442
-0.04100191965699196 -0.3771372139453888 -0.3098934292793274
-0.020943671464920044 0.0024204086512327194 -0.25569164752960205
-0.17814096808433533 -0.5564335584640503 0.006062672007828951
0.3648056387901306 0.20114631950855255 0.3450528681278229
-0.21065707504749298 0.23695239424705505 -0.40081334114074707
0.1700701266527176 -0.5488477945327759 0.24866853654384613
0.19086450338363647 0.00257109384983778 -0.06504887342453003
-0.10842613130807877 0.002505796030163765 0.010343207977712154
-0.017042333260178566 0.4007645845413208 -0.023280713707208633
0.324998676776886 0.04386018589138985 0.4444175362586975
-0.12857642769813538 -0.04958942532539368 -0.2750547528266907
-0.19589708745479584 0.2145407795906067 -0.40163516998291016
-0.39729043841362 0.39850401878356934 0.140602707862854
0.34109923243522644 0.09042328596115112 -0.40072688460350037
-0.5810145735740662 0.27055346965789795 -0.2095331996679306
0.055668026208877563 -0.6198891401290894 -0.09962663799524307
-0.1485573947429657 -0.6433862447738647 0.00562784168869257
0.20835517346858978 -0.619263231754303 0.1503000259399414
0.32106515765190125 -0.20060311257839203 -0.29582878947257996
0.1444779932498932 0.3222118020057678 0.46233198046684265
-0.5623445510864258 -0.029854791238904 0.3335994482040405
-0.40660810470581055 0.08734094351530075 0.22248505055904388
-0.1768624633550644 0.1764022707939148 0.34232190251350403
-0.22351501882076263 0.0032093077898025513 -0.361901193857193
0.38855716586112976 0.40158677101135254 -0.18346057832241058
0.009890256449580193 -0.6195275783538818 0.011545882560312748
0.5081881284713745 0.04638798162341118 0.3394024968147278
-0.004504198208451271 0.0036180391907691956 -0.1690114438533783
-0.15788400173187256 0.003817301243543625 0.28313595056533813
0.36788949370384216 -0.00645833183079958 -0.24524694681167603
-0.09763354808092117 -0.002011922188103199 -0.31458306312561035
-0.19556006789207458 0.0011450664605945349 0.010087654925882816
-0.3564647138118744 0.42097389698028564 -0.10895604640245438
0.22403638064861298 0.3278658390045166 0.4647311568260193
0.16962561011314392 0.015200983732938766 0.33610936999320984
0.2642640769481659 -0.6202028393745422 0.124053455889225
0.27658557891845703 -0.3722529113292694 0.2574736773967743
0.09627333283424377 -0.42241883277893066 0.25974103808403015
-0.5254756212234497 -0.000786835327744484 0.2953167259693146
-0.5043827295303345 0.10980929434299469 -0.07324333488941193
-0.5761831998825073 0.2975572645664215 0.2088891863822937
-0.42795857787132263 0.002711774781346321 -0.09966985136270523
0.09837327152490616 0.0027082927990704775 0.20976804196834564
-0.25226595997810364 0.001553625799715519 0.3015661835670471
0.08632619678974152 -0.6378697156906128 0.2580893337726593
0.08863331377506256 0.0027643784414976835 -0.3477754592895508
0.3932858109474182 0.40015706419944763 0.14500032365322113
-0.5784772634506226 0.3105309307575226 -0.0168963260948658
-0.3555854558944702 0.0019939648918807507 0.32729029655456543
0.28433263301849365 0.46368175745010376 0.41865575313568115
0.2695836126804352 -0.6180516481399536 -0.09217669814825058
0.1542818546295166 -0.5183707475662231 0.24857571721076965
-0.5574160814285278 -0.058443985879421234 -0.21882572770118713
0.30780816078186035 0.22444862127304077 -0.3995139002799988
-0.4986233115196228 -0.09526877105236053 0.32313618063926697
-0.1060011088848114 -0.15557529032230377 0.2421000450849533
0.17797070741653442 -0.621334433555603 -0.2286405712366104
0.5706689357757568 0.009840123355388641 -0.0553995743393898
0.5663924217224121 0.3962450623512268 0.07059409469366074
0.14367085695266724 -0.06967206299304962 0.32166925072669983
-0.11410790681838989 -0.5464476943016052 -0.21899579465389252
-0.5699487924575806 0.04818759486079216 -0.10089868307113647
-0.5678942799568176 -0.0340874083340168 0.12708640098571777
-0.41255953907966614 -0.08744782954454422 -0.2139567732810974
0.00974404439330101 -0.626220166683197 -0.24515976011753082
0.3942318260669708 0.1771606206893921 0.341024786233902
0.15775048732757568 0.003049575723707676 0.19900494813919067
-0.5815879702568054 0.20911726355552673 -0.37724569439888
0.3810249865055084 -0.4941529929637909 0.05091148242354393
-0.3771381676197052 0.000507918419316411 0.3350171446800232
0.5715558528900146 0.02390369586646557 -0.36667972803115845
-0.20624886453151703 -5.1497481763362885e-06 0.15989921987056732
0.011890046298503876 -0.4870968759059906 -0.3015367090702057
0.20531952381134033 0.46112826466560364 0.367938756942749
-0.5681810975074768 0.043766044080257416 0.1766994148492813
-0.09316915273666382 0.4007590413093567 -0.1978522539138794
0.1410100758075714 0.0604875274002552 0.4658809006214142
0.1677239090204239 -0.03546196594834328 -0.36385172605514526
0.34676116704940796 0.3996419906616211 0.0254176277667284
-0.3979106843471527 0.13635332882404327 0.3421052396297455
0.27516239881515503 0.21362295746803284 0.46328920125961304
0.1875852793455124 0.46908292174339294 0.3712834417819977
-0.029691452160477638 -0.01803022064268589 0.2811639606952667
0.3755599856376648 -0.13359571993350983 -0.24015182256698608
0.2253972738981247 0.4021158814430237 -0.07259181141853333
0.14215964078903198 -0.6209500432014465 0.17192046344280243
0.059128183871507645 0.10966761410236359 0.46187642216682434
0.18412768840789795 -0.6208699941635132 0.017160210758447647
-0.029509324580430984 0.4000895619392395 -0.11696933209896088
-0.5780320167541504 0.12888513505458832 -0.017428265884518623
-0.5735798478126526 0.3476523756980896 0.19712337851524353
0.40366095304489136 0.40259602665901184 -0.13742399215698242
0.13594098389148712 0.2508533000946045 0.3400719165802002
0.33058857917785645 -0.57988041639328 -0.2097254991531372
-0.5319146513938904 -0.08137881010770798 0.27608561515808105
-0.3450544774532318 0.3663780987262726 0.02797256037592888
-0.5146042108535767 0.10567199438810349 -0.2509361505508423
0.09493058919906616 0.0027323197573423386 0.25570181012153625
0.2623821198940277 0.011598235927522182 0.3353840112686157
0.24919703602790833 0.004264445509761572 0.054556187242269516
-0.24042144417762756 0.001437133178114891 -0.10495848953723907
0.25689107179641724 -0.0007102533709257841 0.3166072368621826
0.5809255838394165 0.3416425585746765 -0.0505405031144619
-0.4336887001991272 0.41137564182281494 -0.13902078568935394
0.05101103335618973 -0.10817809402942657 0.3145262598991394
0.3083845376968384 0.13326425850391388 0.46102243661880493
0.12675124406814575 -0.37048932909965515 0.3025946021080017
0.1434914916753769 0.0035144092980772257 -0.08363345265388489
0.4960806369781494 0.17204494774341583 -0.40150102972984314
0.05996409058570862 -0.08161252737045288 0.4194529354572296
-0.31683847308158875 0.4010017216205597 0.11097003519535065
0.1515970081090927 0.004918004386126995 0.24533560872077942
-0.5719146132469177 0.009131018072366714 -0.10272358357906342
-0.0485064797103405 -0.22553680837154388 -0.3398434519767761
0.07543578743934631 0.07652096450328827 -0.4010920524597168
0.2433629035949707 0.10674840956926346 -0.39895519614219666
-0.2427944391965866 0.1881730854511261 0.3418614864349365
-0.39890775084495544 0.07665769755840302 -0.21667209267616272
-0.5740578770637512 0.36153674125671387 -0.031102195382118225
-0.05584636330604553 0.17547142505645752 0.40341803431510925
0.23176130652427673 0.0026149488985538483 -0.1860705018043518
0.36773788928985596 0.14063069224357605 -0.40111488103866577
0.3366478979587555 0.0008365190587937832 -0.21371357142925262
-0.5695874094963074 0.10401026904582977 0.3292325735092163
0.41060203313827515 0.0016768202185630798 0.3299964964389801
-0.5077593922615051 0.10774071514606476 0.24544481933116913
0.44579219818115234 -0.30376997590065 -0.03659137338399887
0.19525481760501862 0.0014387592673301697 -0.04361889138817787
-0.47120967507362366 0.3994283378124237 -0.24122850596904755
0.14366836845874786 0.24561533331871033 -0.39894959330558777
-0.10697925835847855 0.0009999247267842293 0.11829793453216553
0.31602805852890015 0.0002169925719499588 -0.33016639947891235
0.2758197784423828 0.0025366349145770073 0.049348652362823486
0.3333149552345276 -0.6430171132087708 -0.18065764009952545
-0.40211454033851624 0.004913938231766224 0.2561543583869934
0.16283784806728363 -0.4299364984035492 -0.31243106722831726
0.5809338688850403 0.3466707468032837 0.32351523637771606
0.31408873200416565 0.40093934535980225 0.19764989614486694
-0.3446429669857025 -0.003476196900010109 -0.16827289760112762
0.2895018756389618 -0.000491611659526825 0.24006503820419312
0.002938289660960436 0.386135458946228 0.33884337544441223
0.31461095809936523 0.04718109592795372 0.4158083498477936
-0.0848623514175415 0.40179523825645447 -0.1844974011182785
0.251065731048584 -0.29738762974739075 -0.34055542945861816
-0.5757346749305725 0.07968483865261078 -0.3082384467124939
0.43386542797088623 -0.05325784534215927 -0.10736986994743347
0.01861358992755413 -0.6215348243713379 -0.027624323964118958
0.4102098047733307 0.4012342393398285 -0.06423678994178772
0.12499349564313889 -0.4183045029640198 -0.32013005018234253
0.09627769142389297 -0.41688379645347595 0.25931403040885925
-0.2212027758359909 -0.3711906969547272 -0.11658838391304016
0.3802371025085449 -0.6314388513565063 -0.025735296308994293
-0.2690964937210083 0.0034255795180797577 -0.12450812011957169
0.33386337757110596 0.40259748697280884 -0.29154548048973083
0.310638964176178 0.022805100306868553 0.340908408164978
0.3166823983192444 0.0019230442121624947 -0.21586857736110687
-0.024724390357732773 -0.6223527789115906 -0.18639031052589417
-0.4083607494831085 0.11701925098896027 -0.4004986882209778
0.3722671568393707 0.0030436599627137184 0.1458556056022644
-0.05758061632514 -0.6228188872337341 -0.059411365538835526
-0.42454835772514343 0.3950934112071991 0.32551515102386475
-0.5037010312080383 0.11281107366085052 0.22431518137454987
0.5180925726890564 0.40295374393463135 -0.32353445887565613
0.2144789695739746 0.0018017617985606194 -0.31156837940216064
-0.3429111838340759 0.3978241980075836 -0.006303075235337019
-0.1462249755859375 -0.15750865638256073 0.20538008213043213
0.07720659673213959 0.0026223044842481613 -0.33332157135009766
0.3939812481403351 0.0031150560826063156 0.031842246651649475
0.09380844235420227 -0.6253822445869446 -0.26947933435440063
-0.1388000100851059 0.0025941673666238785 -0.13791382312774658
0.311960905790329 0.37166258692741394 -0.4010279178619385
0.08476519584655762 0.4026551842689514 0.4382530450820923
0.04288365691900253 -0.619780421257019 -0.048168931156396866
-0.4411533772945404 0.3892063796520233 0.3320082426071167
-0.5677505731582642 -0.020385032519698143 -0.40357980132102966
-0.3915617763996124 -0.06662202626466751 0.0674050971865654
-0.5809314250946045 0.2905036211013794 -0.2862875461578369
0.2411976456642151 0.40139394998550415 -0.27645939588546753
-0.31751519441604614 0.057322558015584946 0.3406653106212616
-0.2244214117527008 -0.04978349432349205 -0.13826337456703186
0.023749688640236855 0.3439609706401825 0.412614643573761
-0.5549300909042358 0.03509737178683281 -0.4029196798801422
-0.5685212016105652 -0.04582030698657036 -0.09116365015506744
0.5212903618812561 0.08180224150419235 0.34175413846969604
-0.06633342057466507 0.2885577976703644 0.3475424647331238
-0.04530283436179161 0.39995986223220825 0.04978015273809433
-0.4011709690093994 0.39978379011154175 -0.2951740026473999
0.37684810161590576 -0.5014130473136902 -0.11537036299705505
-0.3201002776622772 0.20279905200004578 0.341951459646225
-0.31556153297424316 0.4018014073371887 -0.3473360538482666
0.019262049347162247 0.06618916988372803 0.36236363649368286
0.1697145402431488 0.12072249501943588 0.3402971625328064
0.5509932041168213 0.40119850635528564 -0.12210171669721603
-0.14113734662532806 -0.5922511219978333 0.1151161640882492
-0.5794606804847717 0.2674711346626282 0.19346164166927338
0.1556401252746582 -0.03291653096675873 0.31778886914253235
0.3504159450531006 0.29878753423690796 0.34032395482063293
-0.5708329677581787 0.36295726895332336 0.15875926613807678
0.43223172426223755 -0.232487753033638 -0.12641562521457672
0.2892603576183319 0.005382240749895573 0.1261228770017624
0.014983960427343845 0.003174400422722101 0.04644105210900307
0.29291316866874695 -0.5876646041870117 0.19501350820064545
0.3399082124233246 -0.407227486371994 -0.18662960827350616
0.3019790053367615 0.3393664062023163 0.45955172181129456
-0.3624076545238495 0.39747312664985657 0.011837426573038101
-0.11363451182842255 -0.16851793229579926 -0.3004372715950012
-0.255921870470047 0.0028855795972049236 0.07867961376905441
0.47431057691574097 0.0028692176565527916 0.18511167168617249
0.07201128453016281 0.39577430486679077 0.341104656457901
0.5814074873924255 0.033988356590270996 0.033142365515232086
-0.013071423396468163 0.3998061716556549 0.07530383765697479
0.5821980237960815 0.19069500267505646 -0.13026294112205505
-0.4954126179218292 -0.1004905253648758 0.11818582564592361
-0.11170933395624161 -0.3315851092338562 -0.2992851138114929
-0.4951378107070923 0.10457196831703186 0.13818582892417908
0.2777329981327057 0.3205718994140625 0.33941468596458435
0.41518357396125793 0.0022928013931959867 0.21045279502868652
0.26417285203933716 0.3401907980442047 -0.4031718373298645
-0.10339359939098358 0.0007752841338515282 -0.33963441848754883
-0.17769020795822144 0.0025053899735212326 -0.1115826964378357
0.2861180305480957 0.3163608908653259 0.46325960755348206
-0.024979127570986748 0.2222379595041275 0.4038294553756714
-0.4072735905647278 0.006782731041312218 0.1088971197605133
0.5703750252723694 0.39510512351989746 -0.10519514232873917
-0.0794386938214302 0.001623689429834485 -0.22102855145931244
0.20856238901615143 0.3938106298446655 0.3385469913482666
0.01441944856196642 0.002891446929425001 -0.14420412480831146
0.20215831696987152 -0.25946393609046936 -0.3584064841270447
-0.565435528755188 -0.04562702029943466 -0.33429041504859924
0.5839915871620178 0.2365802824497223 -0.2915031313896179
0.11653934419155121 0.0034647053107619286 0.11638370156288147
0.29984161257743835 0.0007234527729451656 -0.3252127170562744
-0.19422012567520142 -0.28624752163887024 0.1362614929676056
-0.11123991012573242 -0.5895738005638123 -0.22373318672180176
0.4718632102012634 0.0905308872461319 -0.4053201675415039
-0.3418276906013489 0.38452157378196716 0.3376847505569458
-0.5787324905395508 0.2575017809867859 -0.06729154288768768
0.2718220353126526 -0.5328248739242554 -0.2631140351295471
-0.5088673233985901 0.06012605130672455 0.34469130635261536
0.027781328186392784 -0.6194124221801758 -0.20274272561073303
-0.40640580654144287 -0.08221131563186646 -0.24478818476200104
-0.10932980477809906 -0.648087203502655 -0.18674613535404205
0.28223133087158203 0.003081786446273327 -0.1824212670326233
-0.19168466329574585 0.3960919678211212 0.32183653116226196
-0.4524478614330292 -0.10410686582326889 0.2304970771074295
-0.5784527063369751 0.2692950665950775 -0.2737441062927246
-0.20602446794509888 -0.29176685214042664 0.11882898211479187
0.2886691093444824 -0.6184872388839722 -0.0031252242624759674
0.16860827803611755 0.4671732187271118 0.370775043964386
0.2070937156677246 -0.6172327995300293 0.06262940168380737
-0.4976796507835388 0.11156843602657318 -0.025526899844408035
-0.3656802177429199 0.004185169469565153 0.12807099521160126
0.02257375419139862 0.2760307490825653 0.3475940227508545
-0.13416926562786102 0.39488697052001953 -0.38486823439598083
0.3451242744922638 0.0017286324873566628 -0.34738031029701233
-0.3806600868701935 -0.05994146317243576 0.1984325647354126
0.22328715026378632 0.0028451529797166586 -0.11465293169021606
0.36513203382492065 -0.1774396300315857 -0.24640749394893646
0.2861303985118866 0.29258328676223755 -0.39894482493400574
0.5807203054428101 0.380928099155426 -0.2798267900943756
-0.05592948570847511 0.21671593189239502 -0.4016683101654053
-0.23251691460609436 -0.2769177258014679 -0.10702269524335861
-0.39219537377357483 0.07569734752178192 -0.02015872485935688
-0.12289290130138397 0.3988012969493866 0.18106864392757416
-0.08790134638547897 -0.00191847188398242 0.2580634653568268
-0.011297124437987804 -0.5273088812828064 -0.2945188283920288
0.5831118822097778 0.25772783160209656 0.25729069113731384
-0.16053831577301025 0.39999788999557495 0.24010270833969116
-0.003948299214243889 0.09191670268774033 -0.3997150957584381
-0.09824977815151215 0.3997715711593628 0.1550537794828415
0.5535929203033447 0.4010584354400635 -0.15853096544742584
0.5173512697219849 0.40204566717147827 0.10811108350753784
0.4403454661369324 0.2053823173046112 -0.4009993076324463
-0.4234379827976227 0.0013353684917092323 0.2120688557624817
-0.26370304822921753 0.21661312878131866 0.34136396646499634
0.46213725209236145 0.40225812792778015 -0.35611969232559204
0.24720226228237152 0.4043685793876648 0.44684529304504395
0.2799903154373169 0.0035260608419775963 -0.11224417388439178
0.5497643351554871 0.08346884697675705 -0.40069299936294556
-0.25825196504592896 0.363835871219635 -0.4009910523891449
0.44344234466552734 0.3998103439807892 0.012227269820868969
0.0007194406935013831 0.0030891848728060722 -0.05264923721551895
-0.1525334119796753 -0.5849500298500061 -0.16944850981235504
0.24223241209983826 -0.28116634488105774 0.28483259677886963
-0.5775561332702637 0.1944272220134735 -0.29751744866371155
-0.1527758687734604 -0.5693713426589966 -0.1635669320821762
-0.5709106922149658 0.06861633062362671 0.0021789357997477055
0.06492188572883606 0.0022937804460525513 -0.28989630937576294
0.4423156976699829 0.09106642752885818 0.34195464849472046
0.30261605978012085 -0.6228281259536743 -0.23085200786590576
0.3063412308692932 0.000702274963259697 -0.29236191511154175
-0.4246264696121216 0.08558803796768188 -0.20527052879333496
-0.582780659198761 0.183639258146286 -0.30431094765663147
-0.37577107548713684 0.00855985190719366 0.1586349457502365
-0.22029277682304382 -0.11524705588817596 0.09390158951282501
0.04571349173784256 0.3971514403820038 0.31990551948547363
-0.03550611436367035 0.0028035833965986967 0.2051118165254593
0.3873292803764343 -0.46767595410346985 -0.04498038813471794
0.0157406534999609 0.4013872444629669 -0.1643332839012146
0.29207929968833923 0.22186338901519775 -0.39921629428863525
0.18185362219810486 -0.0018921596929430962 0.3249049484729767
0.2244447022676468 0.3990265130996704 0.1344970166683197
-0.4755013883113861 -0.106426902115345 -0.3450014889240265
0.39472129940986633 -0.1832537204027176 -0.20993010699748993
0.31738317012786865 -0.623656153678894 0.07069893926382065
-0.5763939619064331 0.15939036011695862 0.1283169835805893
-0.07643165439367294 -0.3273972272872925 0.26601657271385193
0.11530420929193497 0.0010980729712173343 -0.3767511546611786
0.1527947038412094 -0.5639708042144775 0.25351226329803467
0.09454355388879776 -0.47656625509262085 0.25816524028778076
0.3161359131336212 0.4086655080318451 0.4157380163669586
-0.43322059512138367 0.00414151418954134 -0.3102301359176636
-0.4844404458999634 -0.10431952029466629 -0.016371678560972214
-0.29480960965156555 0.36991003155708313 -0.11581335961818695
0.2791461646556854 -0.3734292685985565 -0.31238865852355957
0.5638244152069092 0.36945459246635437 -0.39886149764060974
-0.22819113731384277 -0.3473377227783203 -0.1081295982003212
0.2872978448867798 0.004585558548569679 0.14609235525131226
0.5692521929740906 0.037716176360845566 -0.39390355348587036
0.31283432245254517 -0.025112804025411606 0.4610297679901123
0.5810932517051697 0.17608600854873657 0.20693093538284302
0.23582307994365692 -0.621298611164093 -0.025333859026432037
0.3097561001777649 -0.22851680219173431 -0.30487653613090515
0.23767098784446716 0.003483109176158905 0.25652366876602173
-0.05034088343381882 0.0011065728031098843 0.13539037108421326
-0.31668734550476074 0.004405899904668331 0.10619764775037766
-0.08945422619581223 0.3479749262332916 -0.40066346526145935
0.06793338805437088 -0.1225472241640091 -0.3696243464946747
-0.3910764157772064 0.06983490288257599 0.32460665702819824
0.10938607156276703 -0.6313680410385132 0.2564326226711273
0.3185393214225769 0.2033347636461258 0.35629603266716003
-0.217892125248909 0.03991253301501274 -0.3995484709739685
-0.3022536635398865 0.0003947978839278221 0.01974683254957199
0.44714847207069397 -0.2097657471895218 -0.01623152382671833
-0.4497162699699402 0.10850734263658524 -0.05765170603990555
-0.3683781921863556 0.043826207518577576 -0.4008089303970337
0.49806660413742065 0.13934648036956787 -0.40145695209503174
0.3869204521179199 -0.03946873918175697 -0.22278602421283722
-0.5758380889892578 0.3329644799232483 0.17332999408245087
0.06786306202411652 -0.21039551496505737 0.3113938271999359
0.2559695839881897 0.00998697616159916 -0.39055752754211426
0.03264738619327545 -0.3565457761287689 -0.3643147051334381
0.3687232434749603 -0.09410884976387024 -0.2418394237756729
-0.576041042804718 0.15407860279083252 0.19674529135227203
0.39774423837661743 0.0029247505590319633 0.05610894784331322
-0.12367496639490128 -0.6234931945800781 -0.013268938288092613
-0.5619261264801025 -0.04410560056567192 0.2026272863149643
0.13503897190093994 0.0028958709444850683 -0.007947813719511032
0.027891842648386955 -0.6208342909812927 -0.13008898496627808
-0.5568404197692871 0.38286706805229187 -0.28166326880455017
-0.576931893825531 0.23486998677253723 -0.2713303864002228
0.23540844023227692 0.1830604076385498 0.3406660556793213
0.1866641789674759 -0.07120881229639053 0.44215425848960876
0.4525831937789917 0.40138307213783264 0.17183955013751984
0.3252852261066437 -0.6212980151176453 0.03941241279244423
0.3725138306617737 0.011168953962624073 0.33110761642456055
-0.1696767508983612 0.0021583205088973045 -0.23205959796905518
-0.3571065068244934 0.39355841279029846 0.030910674482584
0.5765451192855835 0.011430621147155762 -0.10204586386680603
0.5801238417625427 0.131607323884964 0.19525113701820374
-0.055690377950668335 -0.3877734839916229 -0.2757979929447174
-0.4732164144515991 -0.10719210654497147 0.028153875842690468
0.31348204612731934 -0.37485232949256897 -0.2817501425743103
-0.07316656410694122 0.002694990485906601 0.05394984036684036
-0.010582857765257359 0.15921561419963837 -0.40048515796661377
-0.11681831628084183 -0.5929474234580994 -0.2203611135482788
-0.2921823561191559 0.004669192247092724 0.07696115225553513
0.26366037130355835 0.4008225202560425 -0.048932645469903946
0.14527717232704163 -0.27107855677604675 0.30949339270591736
-0.5283047556877136 0.036827825009822845 -0.40384960174560547
0.5852183699607849 0.08893421292304993 -0.2893986403942108
-0.38958922028541565 -0.07255840301513672 0.2655890882015228
-0.04318847507238388 0.3994694650173187 0.23434041440486908
-0.546211838722229 0.3890891671180725 -0.3074357509613037
-0.5573704242706299 0.30333399772644043 0.3361458480358124
0.31773802638053894 -0.003142694476991892 0.2403229922056198
-0.453081339597702 0.401241660118103 -0.3186269998550415
0.29379889369010925 0.4017217755317688 -0.11356845498085022
0.04051608219742775 -0.6193708777427673 -0.22987163066864014
0.13333798944950104 0.2317395657300949 0.4641497731208801
-0.10824477672576904 -0.6277696490287781 -0.1518518030643463
0.023892108350992203 0.22320802509784698 0.4115696847438812
0.09620968997478485 -0.6204476952552795 0.012455655261874199
-0.5032764077186584 0.3957909941673279 0.042396724224090576
0.42046821117401123 0.17855362594127655 0.33958977460861206
-0.5525829792022705 -0.06008515506982803 0.21810822188854218
-0.4988069236278534 -0.09774699807167053 -0.11432245373725891
0.32283586263656616 0.01414640061557293 0.34450799226760864
0.36326220631599426 0.0006265188567340374 0.24598552286624908
-0.3015080392360687 0.004503132775425911 0.0003450434887781739
-0.23477819561958313 -0.03832242265343666 -0.08379241824150085
-0.07337099313735962 -0.4138685464859009 -0.25980550050735474
-0.1758243590593338 -0.03557274490594864 -0.22809568047523499
-0.37352216243743896 0.39865490794181824 0.14907856285572052
0.023301536217331886 0.023178577423095703 0.41808179020881653
-0.30406296253204346 0.37388965487480164 0.0013626737054437399
0.3224236071109772 -0.2084345519542694 -0.29063689708709717
0.5816569328308105 0.06889256089925766 0.1457298994064331
-0.22215799987316132 -0.23798969388008118 0.07957302033901215
0.5826524496078491 0.0687236562371254 0.27768993377685547
0.07639850676059723 -0.6209694743156433 -0.1888027936220169
-0.15425626933574677 0.3966410160064697 0.2106664776802063
0.0856957957148552 -0.36930036544799805 0.30461493134498596
0.3756084144115448 0.016254188492894173 -0.3985617160797119
0.049900054931640625 -0.17274951934814453 -0.3679081201553345
-0.4571984112262726 0.11392855644226074 -0.20052936673164368
0.3208981454372406 0.05789341405034065 0.4284836947917938
0.5705792903900146 0.39514756202697754 0.05586310848593712
-0.38646793365478516 -0.06895127892494202 0.06999625265598297
0.5804970860481262 0.11313695460557938 0.0013269234914332628
-0.4110727906227112 0.004481186158955097 -0.14155445992946625
0.5834094285964966 0.26859328150749207 0.20940031111240387
0.37094753980636597 -0.5062410831451416 0.08285301923751831
-0.08017999678850174 -0.6196032762527466 -0.11579923331737518
0.48095378279685974 0.4001818597316742 0.031101712957024574
-0.30100148916244507 0.0039869435131549835 0.32485252618789673
-0.5824822783470154 0.012346956878900528 -0.3166988492012024
-0.4983362555503845 -0.10271721333265305 -0.08990621566772461
-0.46952024102211 0.10381928831338882 0.2673344314098358
0.07376035302877426 -0.567402184009552 -0.3184947371482849
-0.5761224031448364 0.2030419111251831 0.2577240765094757
-0.577096164226532 0.25106295943260193 -0.15718260407447815
-0.3790615499019623 0.2158399373292923 0.34236788749694824
0.05297957733273506 0.0013802628964185715 -0.2964595556259155
-0.25155672430992126 0.0008356282487511635 0.2117694467306137
-0.08322178572416306 0.18311475217342377 0.40053683519363403
0.44185346364974976 0.16015635430812836 0.3477782905101776
-0.42468205094337463 0.08070734143257141 0.34058791399002075
-0.5387423038482666 -0.08146574348211288 -0.20722097158432007
0.24879798293113708 -0.605612576007843 -0.27739328145980835
0.15757118165493011 -0.6183478236198425 0.25212472677230835
0.5539253354072571 0.001689448021352291 -0.26991644501686096
-0.5745028257369995 0.30222028493881226 0.20578020811080933
0.14660651981830597 0.04152543470263481 0.3432060182094574
0.13994182646274567 0.4022276699542999 -0.33854439854621887
0.33022716641426086 -0.4798382818698883 -0.2032421976327896
-0.1849183887243271 -0.41986018419265747 -0.0875181257724762
0.031975992023944855 -0.49573370814323425 -0.3054756820201874
-0.3409113585948944 0.3912496864795685 -0.3991493582725525
-0.08489452302455902 -0.4508765935897827 -0.24756573140621185
0.577279269695282 0.3725531995296478 -0.31158655881881714
0.04406542330980301 0.31583309173583984 0.34228113293647766
0.024732820689678192 0.17613734304904938 0.39334002137184143
-0.2328246533870697 -0.008761863224208355 -0.024251233786344528
0.03761537745594978 0.4017772376537323 -0.25851985812187195
-0.14214760065078735 0.0024359291419386864 -0.13193322718143463
0.2585970461368561 0.24668091535568237 0.4628196954727173
0.11000058054924011 0.011964360252022743 -0.39128419756889343
-0.5733850002288818 0.28459468483924866 0.2142874151468277
0.36344829201698303 -0.44908222556114197 -0.14831702411174774
0.2868831753730774 -0.052404291927814484 -0.3206690847873688
0.3745555281639099 -0.43076515197753906 0.06070604547858238
0.5825254321098328 0.3483247458934784 0.18507111072540283
0.5569488406181335 0.006299011409282684 -0.3894577622413635
-0.11519286036491394 -0.41126611828804016 0.15835478901863098
-0.48664572834968567 0.004172067157924175 0.007821098901331425
0.19192491471767426 0.43294787406921387 0.35459452867507935
-0.3760262131690979 0.3876461982727051 -0.17969635128974915
0.19222679734230042 -0.6448702812194824 0.21096757054328918
-0.32120612263679504 0.39435723423957825 0.3234885632991791
0.32490986585617065 -0.0007812609546817839 -0.26963889598846436
-0.15583772957324982 0.2311534583568573 -0.40177467465400696
-0.3911568224430084 0.07062466442584991 -0.2310500293970108
-0.05495477840304375 0.3981309235095978 0.27552226185798645
-0.0015612768474966288 -0.03134169057011604 0.2906035780906677
-0.5497461557388306 0.22316576540470123 -0.40092477202415466
0.15636560320854187 -0.18544191122055054 -0.3697662651538849
-0.3975219428539276 0.19212540984153748 -0.4033881425857544
0.27801579236984253 0.4013645052909851 -0.02737252414226532
-0.07602541148662567 -0.5529494285583496 -0.2542891502380371
0.3882318437099457 -0.39124828577041626 -0.11178824305534363
0.32644233107566833 -0.5920616388320923 0.15276584029197693
-0.08786886930465698 -0.0030016517266631126 -0.32300713658332825
-0.292146235704422 0.40212482213974 0.15054121613502502
0.07384921610355377 0.003289851825684309 0.15843574702739716
0.39440321922302246 -0.029897311702370644 0.14317694306373596
-0.5775542259216309 0.2755999267101288 -0.3141024112701416
-0.08398675173521042 -0.6231163740158081 0.0054816678166389465
0.57367342710495 0.06041116639971733 -0.3973661959171295
-0.5070467591285706 0.399595707654953 0.28497743606567383
0.292622834444046 0.0006260471418499947 -0.2730743885040283
0.04197707027196884 -0.5962622165679932 0.24733024835586548
0.23463654518127441 -0.6212596297264099 -0.03500440716743469
-0.17034666240215302 -0.001066179946064949 0.19782817363739014
0.22632746398448944 0.39873427152633667 0.18342243134975433
0.43410032987594604 0.10854558646678925 0.3403235971927643
0.3953580856323242 0.40130043029785156 0.02331208437681198
-0.16485624015331268 -0.10672120004892349 0.18283581733703613
-0.5207709074020386 -0.017884861677885056 0.3479718565940857
-0.2137976437807083 -0.20527692139148712 0.10459618270397186
-0.2630690038204193 0.002391184912994504 -0.3382827043533325
-0.5116486549377441 0.3624741733074188 -0.10285280644893646
0.0032489788718521595 -0.6177225112915039 0.13137009739875793
-0.3376433849334717 0.3491818606853485 0.341957151889801
-0.29922381043434143 0.1705973893404007 0.34257739782333374
0.10300985723733902 -0.016584349796175957 0.31795841455459595
-0.580488383769989 0.2620466947555542 -0.22490164637565613
0.42684999108314514 -0.2823605537414551 -0.14130035042762756
0.32372719049453735 0.003948309924453497 -0.36473819613456726
-0.11871752142906189 0.07048863172531128 -0.40033844113349915
0.5704110264778137 0.3980638086795807 -0.1531330943107605
0.13300184905529022 0.4048237204551697 0.34424999356269836
0.2333901971578598 -0.04017579182982445 0.29209208488464355
0.48125022649765015 0.2583393454551697 -0.40086784958839417
0.17111730575561523 0.0012944135814905167 -0.12159144878387451
0.31218963861465454 0.0002604173496365547 -0.2966810166835785
0.4591221511363983 0.0009314236231148243 -0.08124789595603943
0.4125076234340668 0.013862659223377705 0.33647337555885315
0.284018874168396 -0.6194373965263367 0.04157223924994469
-0.3843829333782196 0.06803122162818909 -0.2792799174785614
0.004725675564259291 0.0015440457500517368 -0.2624545097351074
0.39648911356925964 -0.34381189942359924 0.14701449871063232
-0.0019265711307525635 -0.6182164549827576 -0.18982502818107605
0.199537992477417 0.0028513125143945217 -0.10401884466409683
-0.19278757274150848 0.002379842335358262 -0.03908592835068703
0.3502800166606903 -0.6414365768432617 0.036225687712430954
-0.26456698775291443 0.0019520949572324753 0.015206316486001015
0.23813052475452423 -0.6450514197349548 -0.2720239758491516
0.30353718996047974 -0.031148210167884827 0.4624502956867218
0.360711932182312 0.0026595108211040497 0.11945058405399323
0.07032380998134613 -0.6198174953460693 0.10355691611766815
0.12630577385425568 0.4026997983455658 -0.3543192446231842
-0.3405255973339081 0.004825352691113949 0.32609066367149353
0.37620916962623596 0.4011503756046295 -0.14291712641716003
-0.3903060257434845 0.05809115245938301 0.34056344628334045
0.31239357590675354 -0.6193170547485352 -0.03644249588251114
0.011254686862230301 0.0017976660747081041 -0.2693886160850525
0.18567170202732086 -0.6246175765991211 -0.2526613771915436
-0.13932211697101593 0.0027182335034012794 -0.13620567321777344
-0.0918692871928215 0.0023693442344665527 -0.07774483412504196
0.4418390989303589 -0.14349038898944855 0.014470594003796577
-0.07011959701776505 0.3924170434474945 -0.39076346158981323
0.5473813414573669 0.01650225929915905 0.3379049003124237
-0.4954754412174225 0.3699662983417511 -0.054830972105264664
0.5808807015419006 0.20356695353984833 -0.09221404045820236
0.030622387304902077 0.07891184836626053 0.4595246911048889
-0.4576520025730133 -0.10281597822904587 0.19360700249671936
-0.48830360174179077 0.16658209264278412 0.3426295816898346
0.1917521059513092 -0.2968709468841553 -0.35830628871917725
0.24589356780052185 -0.6173700094223022 0.07307688891887665
-0.1782340705394745 -0.20055894553661346 0.16424889862537384
-0.5781571269035339 0.33117595314979553 0.293840229511261
-0.5649082064628601 -0.00035069906152784824 0.15090474486351013
0.09496673941612244 -0.32988426089286804 0.31256452202796936
-0.16863524913787842 0.40058082342147827 -0.13717424869537354
-0.4782106876373291 0.38479912281036377 -0.16822892427444458
0.49612724781036377 0.16312411427497864 0.34318408370018005
0.07843463122844696 0.252170592546463 0.461071252822876
0.4099770486354828 -0.3038206994533539 -0.18063895404338837
0.47244971990585327 0.08101113885641098 -0.4017286002635956
-0.032497305423021317 0.40033528208732605 -0.11596540361642838
-0.18054255843162537 -0.627467155456543 -0.03282824531197548
0.012304209172725677 0.40146660804748535 -0.2708892822265625
0.3079209625720978 -0.35028335452079773 -0.3019860088825226
-0.12545213103294373 0.004571093246340752 -0.38855722546577454
0.029772959649562836 -0.0618947297334671 0.3156488537788391
-0.4437023103237152 0.3984646499156952 0.2621574401855469
0.2332422286272049 -0.2520753741264343 -0.343734472990036
0.2880522608757019 -0.09321226924657822 -0.31767234206199646
0.02781057357788086 0.002969874534755945 0.07807078212499619
-0.0584137886762619 -0.44764983654022217 0.21475762128829956
0.1916312277317047 -0.05548476427793503 0.3252592086791992
-0.568094789981842 0.008270449936389923 0.11144483834505081
-0.4112035930156708 0.41286152601242065 -0.021272189915180206
-0.16678692400455475 -0.5731319785118103 -0.1319611668586731
-0.061502017080783844 0.0021059298887848854 -0.19333399832248688
-0.19400349259376526 -0.04451591894030571 -0.2137027233839035
-0.30958807468414307 0.36408403515815735 -0.005395105108618736
-0.03348059952259064 0.0019112811423838139 0.17555411159992218
-0.44142946600914 0.004344717599451542 -0.27907952666282654
-0.5729144811630249 0.09099827706813812 0.27337872982025146
-0.4003080725669861 0.39434385299682617 -0.2020859569311142
-0.27488651871681213 0.400520384311676 0.04873225837945938
-0.24704772233963013 0.18582426011562347 -0.40062469244003296
-0.26207008957862854 0.3971296548843384 -0.16503918170928955
0.3489542305469513 0.394587904214859 -0.3922794759273529
0.14016568660736084 -0.6219419240951538 -0.02833975851535797
0.03455941379070282 0.3585437536239624 0.46470409631729126
-0.02366883121430874 0.002818743698298931 -0.0020119573455303907
-0.5447817444801331 0.3628861606121063 0.33926576375961304
0.11296668648719788 -0.5462043285369873 0.26169684529304504
-0.5662441253662109 -0.012197582982480526 0.2692500352859497
0.13985048234462738 0.4017471671104431 0.22495579719543457
-0.5477009415626526 0.08757941424846649 -0.3096087574958801
-0.28233715891838074 0.0017263051122426987 0.3052116930484772
-0.12676671147346497 0.001509461086243391 0.23102350533008575
0.32320961356163025 -0.1222085952758789 0.23288880288600922
-0.5177102088928223 0.401911199092865 -0.317760169506073
-0.23795181512832642 0.08805646002292633 0.3411828577518463
0.19461560249328613 -0.0880994126200676 0.30345797538757324
-0.5662975907325745 0.25635457038879395 -0.39935413002967834
-0.40926477313041687 0.004502676427364349 -0.09524853527545929
-0.4873062074184418 0.004490279592573643 0.1290348470211029
-0.15137596428394318 -0.3771238327026367 -0.22681376338005066
0.3345683515071869 0.3050515651702881 0.4039067327976227
-0.47093138098716736 -0.10645881295204163 0.022137708961963654
0.31907498836517334 -0.5282617211341858 -0.2208208441734314
-0.12789978086948395 -0.3453630208969116 -0.28522273898124695
-0.49865400791168213 -0.10140664130449295 -0.31093817949295044
0.029112959280610085 -0.09541598707437515 -0.36443033814430237
0.23135535418987274 0.39296483993530273 0.3292780816555023
0.12801644206047058 -0.652981162071228 -0.30840742588043213
0.4040277302265167 -0.260467529296875 -0.18933923542499542
0.1911969780921936 0.09750552475452423 0.46501725912094116
-0.48656415939331055 0.10354471206665039 -0.19215455651283264
0.37597084045410156 0.0007839072495698929 -0.20091946423053741
-0.05813148617744446 0.0027425966691225767 0.18789130449295044
-0.48369166254997253 0.0037733959034085274 -0.33870598673820496
-0.4228256344795227 0.00185365229845047 -0.11347847431898117
-0.03247879818081856 -0.11300106346607208 0.28622499108314514
-0.573925256729126 0.10595686733722687 0.22219140827655792
-0.21904797852039337 -0.001742614433169365 -0.09896576404571533
0.24409542977809906 0.0034292135387659073 -0.08889374881982803
0.21144209802150726 0.47500425577163696 0.4002458155155182
0.3723672926425934 0.16992926597595215 -0.40061864256858826
0.5696836709976196 0.11663045734167099 0.3332746922969818
0.4372010827064514 -0.015547815710306168 0.07857087254524231
-0.07974562793970108 0.00012232695007696748 -0.30334386229515076
0.39012962579727173 -0.4580545723438263 -0.062064893543720245
-0.4519219696521759 -0.10712301731109619 -0.37336042523384094
0.025522464886307716 0.13137014210224152 0.4577385187149048
-0.029859330505132675 -0.6208502054214478 -0.03820585831999779
-0.38377055525779724 -0.06348692625761032 -0.009141792543232441
-0.40549352765083313 0.0845944732427597 -0.21075932681560516
-0.40249231457710266 -0.08110743016004562 -0.1668165624141693
-0.06794968247413635 0.40042242407798767 0.08009877055883408
-0.1510552167892456 -0.6485528945922852 -0.050790008157491684
0.1369984894990921 -0.047195982187986374 -0.3688960075378418
-0.0038184328004717827 0.07855679094791412 -0.4011537432670593
0.5834895968437195 0.17878249287605286 0.21626673638820648
