0.08217226713895798 -0.007178970612585545 0.32336780428886414
0.22260123491287231 0.0022862274199724197 -0.05478237569332123
0.16618919372558594 -0.6240545511245728 0.06352217495441437
-0.10011248290538788 0.10073122382164001 0.3450929820537567
-0.5276661515235901 0.09651049971580505 0.20591698586940765
0.3228386640548706 -0.37550583481788635 -0.24348753690719604
-0.5151143670082092 0.0009448834462091327 -0.05285682901740074
-0.4668259024620056 -0.10902821272611618 -0.13729363679885864
0.12872910499572754 0.09337975829839706 0.4672199487686157
-0.058561887592077255 0.001273907721042633 -0.08783940225839615
0.1397029459476471 -0.2185092270374298 -0.36969196796417236
-0.574248731136322 0.33733949065208435 0.12716072797775269
0.3178263306617737 0.40202921628952026 -0.1935805380344391
-0.38504984974861145 0.07837161421775818 -0.3269021213054657
-0.1753990352153778 -0.40826526284217834 -0.11804691702127457
0.2323193997144699 0.0006545051001012325 -0.2613471746444702
0.2263955920934677 -0.4684363901615143 0.2349327802658081
0.05234987661242485 0.39873117208480835 -0.3419097363948822
0.24634389579296112 0.3929576575756073 0.34698498249053955
0.2548585832118988 0.4673019051551819 0.40912336111068726
0.09648046642541885 0.055815327912569046 0.46658700704574585
0.03639192879199982 0.3991115689277649 -0.1273595690727234
-0.32138460874557495 0.39653027057647705 0.014446266926825047
0.31289198994636536 0.40104392170906067 0.1412709653377533
0.5787413120269775 0.26545923948287964 -0.07014653086662292
-0.4547346830368042 -0.024706875905394554 -0.39780184626579285
-0.5737605094909668 0.36009785532951355 -0.3778589069843292
0.11844363808631897 -0.29808834195137024 -0.37216976284980774
-0.576812207698822 0.02960660681128502 -0.14715291559696198
0.004846544004976749 -0.5618228316307068 -0.30031341314315796
-0.04284549877047539 -0.6290415525436401 -0.21682900190353394
-0.5779609084129333 0.32984453439712524 -0.10598167032003403
0.1739046573638916 -0.5720563530921936 -0.3098636865615845
0.5684447288513184 0.34309402108192444 0.34128662943840027
0.12268821150064468 -0.6204849481582642 0.10076629370450974
-0.15982384979724884 0.39302778244018555 -0.39075103402137756
0.3307454288005829 -0.013468415476381779 0.40146273374557495
0.23682188987731934 0.001763276057317853 -0.1981213092803955
0.5759096145629883 0.029070299118757248 -0.24028480052947998
0.22226500511169434 0.0023131202906370163 0.05878506228327751
0.07810262590646744 -0.07816790044307709 0.4320763647556305
-0.031398750841617584 0.053272783756256104 -0.3991856575012207
-0.2704734206199646 0.3990701138973236 0.02610863745212555
-0.42342084646224976 0.10114957392215729 -0.31634169816970825
-0.4472760558128357 0.0962570458650589 0.3387812077999115
-0.40721264481544495 -0.001241600140929222 0.20943836867809296
0.2251749187707901 0.33307796716690063 -0.4000369906425476
0.22127975523471832 -0.0011947229504585266 -0.3621003329753876
0.5091977119445801 0.1980794072151184 0.34573665261268616
0.24931751191616058 0.000947936438024044 -0.2461104691028595
-0.5583869814872742 0.3457343876361847 0.34397974610328674
-0.24022388458251953 -0.16908161342144012 0.0007401572074741125
-0.4410543441772461 -0.07901456207036972 0.3473043739795685
0.34478411078453064 0.0016452278941869736 0.09169457107782364
0.07184290885925293 0.40210434794425964 0.35660240054130554
0.5820969939231873 0.19010165333747864 0.1536896824836731
-0.18188753724098206 -0.3566385805606842 -0.21780826151371002
0.11279166489839554 0.3988393545150757 -0.22258839011192322
0.3531358242034912 -0.5878423452377319 0.11483915150165558
0.4471367597579956 -0.28217506408691406 0.014121472835540771
-0.33155569434165955 0.4005240201950073 -0.12451045960187912
-0.3356238007545471 0.39800161123275757 -0.25210949778556824
-0.3911255896091461 0.0778493657708168 -0.08076553046703339
0.515296220779419 0.3341701924800873 -0.40203040838241577
0.1063370630145073 -0.5094261765480042 -0.31533458828926086
0.29778364300727844 -0.6115169525146484 0.1822168529033661
0.050152216106653214 0.0012462548911571503 -0.13485519587993622
-0.014101425185799599 -0.4852639138698578 0.2381591796875
0.292834997177124 -0.002384820021688938 -0.2974053621292114
-0.0722753033041954 -0.5245969891548157 0.20154695212841034
-0.1366899609565735 -0.6405673623085022 -0.15262708067893982
-0.580621600151062 0.10987242311239243 -0.2329181283712387
0.06557450443506241 -0.622438371181488 0.13064628839492798
-0.18429803848266602 -0.0012994511052966118 -0.2102404087781906
-0.4467155933380127 0.40369826555252075 -0.047083672136068344
-0.36535385251045227 0.00868025328963995 0.220819354057312
0.5722689628601074 0.01096361130475998 -0.15624597668647766
-0.19005553424358368 -0.4021679759025574 -0.028176940977573395
-0.33588457107543945 0.39852380752563477 0.1015152856707573
0.5815601944923401 0.28354620933532715 -0.1514708250761032
-0.5352321267127991 0.09796956926584244 0.2960989475250244
-0.13326247036457062 0.004651815630495548 -0.38207757472991943
-0.39986270666122437 0.08033915609121323 -0.23372091352939606
0.44203445315361023 -0.11645443737506866 0.03201194107532501
0.3161311149597168 -0.19213147461414337 0.24301671981811523
0.28499722480773926 0.46822360157966614 0.41361576318740845
0.024314086884260178 0.3990424573421478 0.08976439386606216
-0.1467771977186203 0.3972620666027069 0.20267345011234283
0.16569708287715912 -0.6576996445655823 -0.29336369037628174
0.4257964491844177 -0.0033417129889130592 -0.2853882610797882
-0.23657803237438202 -0.022148828953504562 -0.028339475393295288
-0.04024374485015869 -0.6229482889175415 0.09114983677864075
0.5693911910057068 0.3243032395839691 0.3357068598270416
0.3217054307460785 0.31345540285110474 0.44261282682418823
-0.07979629188776016 -0.6285529136657715 -0.24012278020381927
-0.5592588186264038 -0.00021629640832543373 0.3103867769241333
0.43707117438316345 -0.003722312394529581 -0.13717220723628998
-0.004648013040423393 -0.6325799822807312 -0.24051040410995483
0.5210562348365784 0.39737406373023987 -0.0825190320611
0.22344325482845306 -0.624792754650116 0.16266222298145294
0.27787888050079346 0.13453309237957 0.34508851170539856
0.023512447252869606 0.32435789704322815 0.4252900779247284
0.5729089975357056 0.014147833921015263 0.32222795486450195
0.437288761138916 0.12372376769781113 -0.40089255571365356
-0.16373781859874725 -0.0008796858601272106 -0.16666190326213837
-0.22957222163677216 -0.07676679641008377 0.056127093732357025
-0.3705119490623474 -0.0005354291060939431 0.17582423985004425
0.21993830800056458 0.0018965625204145908 -0.07211751490831375
0.006425085477530956 -0.004274378530681133 0.3225392997264862
-0.22743090987205505 0.3986545205116272 0.33013421297073364
-0.23296009004116058 -0.084932342171669 0.0637911930680275
0.41152068972587585 -0.35122913122177124 0.12714242935180664
-0.43699654936790466 0.3995441496372223 -0.35348746180534363
-0.37139779329299927 0.4000459313392639 0.2540103793144226
-0.5752717852592468 0.3464965224266052 -0.38631051778793335
0.1951659470796585 0.22637683153152466 0.3428572118282318
-0.42509979009628296 0.4095500707626343 -0.1159258484840393
0.24831122159957886 0.3923952579498291 0.3456118404865265
-0.49884650111198425 0.1814659684896469 -0.39954420924186707
-0.5696145296096802 0.24227164685726166 0.3387793004512787
-0.40878307819366455 -0.0883244052529335 -0.014722837135195732
0.07562598586082458 -0.45454877614974976 -0.31405797600746155
-0.24356301128864288 -0.26302826404571533 -0.00020657316781580448
0.4169103503227234 -0.36725375056266785 -0.17339850962162018
0.24048744142055511 0.398788720369339 0.246511310338974
0.2816045582294464 0.004302157089114189 0.26268139481544495
-0.13209614157676697 -0.33334583044052124 -0.28101256489753723
0.3003937900066376 -0.6407874226570129 0.12435706704854965
0.12278051674365997 -0.08835306763648987 0.324855774641037
0.2477605789899826 -0.001732759177684784 0.2854236960411072
0.03880742937326431 0.2738448977470398 0.4611833393573761
-0.550839900970459 0.0030751200392842293 0.21616871654987335
-0.3714918792247772 0.010551429353654385 -0.30856841802597046
0.14612723886966705 -0.09012947976589203 0.37592193484306335
-0.39326947927474976 0.003127668984234333 -0.3955124020576477
0.48863014578819275 0.1722845882177353 0.34590670466423035
0.2584977149963379 -0.05631852149963379 0.28162139654159546
-0.4663941264152527 0.000343365129083395 -0.21760478615760803
-0.25933218002319336 0.0006084265187382698 0.2447359412908554
-0.04372429847717285 0.4012956917285919 -0.05520791560411453
0.1140032708644867 -0.6196127533912659 0.022174205631017685
0.1347140222787857 0.46996355056762695 0.38364076614379883
0.24711644649505615 0.0005049700848758221 0.042130544781684875
-0.5159469246864319 0.39431682229042053 -0.007944268174469471
0.3775375187397003 -0.3815787732601166 0.09067662805318832
-0.0848647803068161 0.1975586712360382 -0.4014786183834076
0.36043184995651245 -0.45202720165252686 0.1103391945362091
0.34182432293891907 -0.4832281172275543 -0.1882365643978119
-0.08784367889165878 -0.623595654964447 -0.0963824987411499
0.22595246136188507 0.0013128714635968208 0.24005302786827087
0.35935184359550476 0.397953063249588 -0.29686909914016724
0.34310469031333923 -0.0022292030043900013 -0.3185676634311676
0.15240688621997833 -0.0005716923624277115 -0.024476196616888046
0.05366528779268265 0.017754632979631424 -0.39348384737968445
0.31978675723075867 0.39789867401123047 0.22690658271312714
-0.2556450366973877 0.0008841236121952534 -0.1589655578136444
-0.43783387541770935 0.3582208752632141 -0.20018166303634644
-0.23890578746795654 -0.10815031826496124 -0.0037642682436853647
0.1578560471534729 0.051430489867925644 0.34419357776641846
0.44832101464271545 -0.35394829511642456 -0.010657028295099735
0.23009707033634186 -0.07469936460256577 0.31699812412261963
0.18969427049160004 0.47037389874458313 0.411395788192749
0.2704000771045685 0.31406551599502563 -0.4009825587272644
-0.5807589292526245 0.08993323147296906 -0.12811525166034698
-0.11601723730564117 0.22137100994586945 0.35561907291412354
0.24447666108608246 -0.6178215146064758 -0.0043916055001318455
-0.052282072603702545 -0.0026621012948453426 -0.31552883982658386
0.31877046823501587 0.4006582796573639 -0.056928325444459915
-0.3983301520347595 0.39770087599754333 -0.23697873950004578
-0.23310767114162445 -0.12703530490398407 0.052844803780317307
-0.41449427604675293 0.09483734518289566 -0.39773571491241455
-0.08590563386678696 -0.6215611100196838 -0.06874962151050568
0.5657581686973572 0.25962841510772705 -0.3948487639427185
-0.1346014440059662 -0.001451452961191535 0.11334127187728882
0.009718798100948334 0.00022050458937883377 0.19285430014133453
0.03235045075416565 0.26135846972465515 0.37183982133865356
0.15993568301200867 0.05490349605679512 0.4632163345813751
-0.5765120983123779 -0.01388588733971119 0.2985697090625763
0.2804199159145355 0.4010939300060272 0.2598379850387573
-0.5306524038314819 -0.09100250899791718 -0.148709237575531
0.056616995483636856 -0.6226673126220703 0.052816301584243774
0.5771971344947815 0.14207591116428375 0.2930033206939697
0.459984689950943 0.40005120635032654 0.3046090304851532
0.13299204409122467 -0.24462756514549255 -0.37288525700569153
0.5795629024505615 0.07422472536563873 -0.0734025314450264
0.3389745354652405 0.01644446700811386 0.3454693555831909
0.3178539276123047 -0.3678630292415619 -0.28661757707595825
0.027524560689926147 0.13843531906604767 0.4537007510662079
-0.359884113073349 0.003668332938104868 -0.017133289948105812
0.26539674401283264 -0.38477611541748047 0.21579879522323608
-0.22087565064430237 -0.0004583250265568495 -0.22465486824512482
-0.17856170237064362 -0.4485911428928375 -0.09545283764600754
-0.318596214056015 0.4014568030834198 0.2235671728849411
0.21572567522525787 -0.00011562742292881012 0.12998032569885254
-0.01683826558291912 0.08065089583396912 -0.40116965770721436
-0.5791212320327759 0.07422848790884018 -0.3341611325740814
-0.2540113627910614 0.0007170815952122211 -0.20402078330516815
0.031124262139201164 0.027893537655472755 0.34528517723083496
0.3090532720088959 0.3342188894748688 0.3648424744606018
0.33323904871940613 0.009155968204140663 0.42731472849845886
0.4362854063510895 -0.2387477159500122 0.0659608393907547
-0.5430164337158203 0.08953794091939926 -0.1322251409292221
-0.3050295114517212 0.004418462514877319 0.20009155571460724
-0.048918481916189194 0.4002397358417511 0.06449797749519348
0.5793607234954834 0.10077807307243347 0.20716872811317444
-0.2190457284450531 -0.022087663412094116 0.09441515058279037
-0.054457470774650574 -0.2455841451883316 -0.33527565002441406
0.2259501814842224 -0.4941915273666382 0.23396119475364685
0.04570809379220009 -0.20574408769607544 0.3112814724445343
0.11788789927959442 0.10569300502538681 0.34459441900253296
0.5734122395515442 0.017635924741625786 -0.3648531436920166
-0.42157182097435 -0.0005205012857913971 -0.10399620234966278
0.27969324588775635 7.546506822109222e-06 -0.14254504442214966
0.4330376386642456 -0.002476328983902931 0.08210691809654236
0.5600261092185974 0.3982316851615906 -0.2871876060962677
0.20215287804603577 0.43146833777427673 0.44322797656059265
-0.1849207580089569 -0.5850932002067566 -0.0910884216427803
-0.16995027661323547 0.3340541124343872 -0.39881327748298645
0.04697715863585472 0.002024395391345024 0.01842314563691616
-0.2908969521522522 0.37574976682662964 -0.11957655102014542
0.0993129089474678 0.05450643599033356 0.34369876980781555
-0.32306817173957825 0.39847204089164734 0.08290303498506546
-0.5728903412818909 0.3204248547554016 0.2421143501996994
0.4373627007007599 0.0006421180441975594 0.19008542597293854
-0.2822181284427643 0.27125903964042664 0.3448242247104645
-0.12492602318525314 0.20236030220985413 0.39908745884895325
0.3430810570716858 -0.35383450984954834 -0.26973918080329895
0.5091877579689026 0.21751978993415833 -0.4026868939399719
0.286162406206131 0.05590003356337547 0.46259909868240356
-0.17234711349010468 0.29628798365592957 -0.399345338344574
-0.5227066874504089 0.2238558828830719 -0.40137016773223877
0.2071046084165573 0.0018655648455023766 -0.11199643462896347
-0.2373252809047699 -0.1327151358127594 -0.018491756170988083
0.3711976110935211 0.4007134437561035 -0.005296399816870689
0.032548584043979645 0.3460564613342285 0.35224786400794983
0.2894567847251892 -0.07123535871505737 -0.316741019487381
0.06262229382991791 0.0018866383470594883 0.15348881483078003
-0.5582640171051025 -0.06999232620000839 -0.2976740002632141
-0.033016934990882874 -0.35751307010650635 0.2863074243068695
0.2461172342300415 0.06066473573446274 -0.3974020183086395
0.5744341611862183 0.2618119418621063 0.3273073434829712
0.5822473764419556 0.13426564633846283 -0.19020304083824158
0.43172207474708557 -0.3694057762622833 -0.13492269814014435
-0.03657659888267517 0.08167073130607605 0.34608161449432373
0.40252038836479187 0.37687161564826965 0.34342852234840393
-0.4510306417942047 0.4106020927429199 -0.08478882908821106
-0.1056491956114769 -0.0026695942506194115 -0.2314610332250595
0.27144673466682434 0.3988529443740845 -0.3167969286441803
0.35494011640548706 0.0013294913806021214 0.09410368651151657
0.15919210016727448 0.4704211354255676 0.4189773201942444
0.2153642773628235 0.336281955242157 0.3429838716983795
-0.42038100957870483 0.3973786532878876 -0.38465961813926697
0.11975385993719101 0.39949777722358704 -0.23529085516929626
-0.07787957787513733 -6.816908717155457e-05 -0.3442307710647583
0.1632106751203537 0.1315949410200119 -0.401174396276474
0.20772778987884521 -0.11653809994459152 0.30327755212783813
-0.15859703719615936 -0.5106188654899597 0.10382107645273209
0.18034933507442474 -0.06962070614099503 0.33156415820121765
0.4116409122943878 0.400832861661911 -0.30883708596229553
0.5654754042625427 0.3941773474216461 0.03744003549218178
0.20038041472434998 -0.6254270076751709 -0.22001740336418152
-0.11203628033399582 0.27066770195961 0.3480902314186096
0.17159618437290192 -0.008148719556629658 -0.3703344166278839
0.5775676965713501 0.2757740020751953 0.20722246170043945
0.44788819551467896 -0.13950107991695404 -0.04473922774195671
-0.14259907603263855 0.39858075976371765 0.12320862710475922
0.2435789704322815 -0.6212313771247864 -0.03420613706111908
-0.4289401173591614 0.09350308030843735 0.3378124535083771
-0.33663085103034973 0.0013735599350184202 -0.3591051697731018
-0.2296150028705597 -0.20513246953487396 -0.12600696086883545
0.0483834333717823 0.39884597063064575 0.16834907233715057
-0.36248505115509033 -0.013355379924178123 0.02257922664284706
0.09681980311870575 0.42528972029685974 0.44873371720314026
-0.45062336325645447 0.1037595123052597 -0.39718419313430786
0.020267264917492867 -0.6393496990203857 -0.3030049502849579
0.15889956057071686 -0.6182987689971924 0.18280264735221863
0.42663145065307617 -0.273916095495224 -0.14879614114761353
-0.5733701586723328 -0.0020008510909974575 0.3303513824939728
-0.417744517326355 0.19432123005390167 -0.3997648358345032
-0.5785261988639832 0.33684784173965454 0.020067483186721802
0.051929838955402374 -0.003906589932739735 0.33013156056404114
-0.5208429098129272 0.10439980030059814 -0.29296764731407166
-0.1821606308221817 -0.38746124505996704 -0.13866977393627167
0.41303569078445435 0.12760066986083984 -0.4011172950267792
0.09434109181165695 -0.6230024695396423 -0.09619057178497314
-0.1283259242773056 -0.5784193873405457 0.14627346396446228
0.20759940147399902 -0.004367515444755554 0.2920123040676117
0.25563812255859375 -0.3994016945362091 -0.2712600529193878
-0.5145756602287292 -0.0966123417019844 -0.043467164039611816
-0.45199358463287354 -0.10755790024995804 -0.008986289612948895
-0.5049911141395569 -0.10273981094360352 -0.3040693700313568
0.43443191051483154 -0.0009490083903074265 -0.30058273673057556
0.5808058381080627 0.2520710825920105 0.047870539128780365
-0.583834707736969 0.20235063135623932 -0.29025739431381226
0.13805563747882843 0.3993866741657257 -0.2502119243144989
0.37566718459129333 0.39661943912506104 0.3194884657859802
-0.055189840495586395 0.0014810481807217002 -0.05422850698232651
-0.44828760623931885 0.35179805755615234 -0.39972394704818726
0.04037468507885933 -0.0009488696232438087 0.1466464400291443
0.08665328472852707 -0.4082290232181549 0.26033151149749756
0.2498905211687088 0.39835280179977417 -0.08347054570913315
-0.21867145597934723 0.006383047439157963 -0.38662460446357727
0.32810500264167786 -0.20557844638824463 -0.28852391242980957
-0.10916285961866379 -0.6553373336791992 -0.18555015325546265
-0.44683536887168884 0.10597047954797745 -0.1471034586429596
0.2284921556711197 0.39852479100227356 0.040872275829315186
-0.16977331042289734 -0.056625284254550934 0.18023404479026794
0.16904349625110626 -0.6227650046348572 -0.10807277262210846
-0.4081386625766754 0.09120798110961914 0.1365540474653244
-0.15225759148597717 -0.3829076588153839 -0.20308756828308105
-0.5024564862251282 0.3545157015323639 -0.13952703773975372
-0.16901302337646484 -0.3593991994857788 0.17840561270713806
0.19712044298648834 0.3977833092212677 -0.33422333002090454
0.13451826572418213 -0.623567521572113 -0.13738244771957397
0.28904101252555847 -0.26819631457328796 0.26352593302726746
0.07947986572980881 -0.08328943699598312 0.3663747012615204
0.3689352571964264 0.3758319318294525 0.34527209401130676
0.29844871163368225 0.002589811570942402 -0.1525922566652298
0.2364935576915741 -0.564868688583374 -0.28293338418006897
-0.23039916157722473 -0.1645330935716629 0.066011443734169
0.07426321506500244 0.00255434587597847 -0.25230133533477783
0.24654076993465424 -0.13532185554504395 -0.34113529324531555
-0.08421751111745834 -0.25790587067604065 0.2641066312789917
0.01316761877387762 0.39841657876968384 -0.34928953647613525
-0.051812827587127686 -0.6252869963645935 -0.04945409297943115
0.4307282567024231 -0.12408729642629623 -0.13109521567821503
-0.519191324710846 -0.000322987325489521 -0.3883315324783325
0.385243684053421 -0.001840067096054554 -0.25451573729515076
0.44723352789878845 -0.19013594090938568 -0.0004781803581863642
-0.2258615344762802 0.39296966791152954 -0.39318594336509705
-0.5780889391899109 0.09936448186635971 0.18096251785755157
0.5345522165298462 0.3987269103527069 -0.18583138287067413
0.25017186999320984 0.3993133008480072 0.33879294991493225
0.5690492987632751 0.390298068523407 -0.19751960039138794
0.09035732597112656 -0.05336920544505119 0.30950728058815
0.29005157947540283 0.3539198338985443 -0.4012884795665741
-0.34865373373031616 -0.0006420530844479799 -0.054104261100292206
-0.16287873685359955 -0.00046707969158887863 -0.12901003658771515
-0.1081046313047409 -0.44128355383872986 -0.22588033974170685
-0.21755661070346832 0.4000098705291748 -0.22184622287750244
0.3148697018623352 -0.0020760688930749893 0.33862578868865967
0.22413647174835205 -0.35656407475471497 -0.34496018290519714
0.5775438547134399 0.24433733522891998 -0.24428361654281616
0.4665273129940033 0.0019675400108098984 -0.15880681574344635
0.16714823246002197 0.40129873156547546 0.015470880083739758
0.5521882176399231 0.3988804519176483 -0.15210239589214325
0.33098286390304565 0.4008774757385254 0.03516960144042969
-0.37951257824897766 0.12666107714176178 0.3455038368701935
0.03721867874264717 -0.03637871518731117 -0.3641127645969391
0.1975243091583252 -0.08430186659097672 0.41221675276756287
-0.523556113243103 0.10126415640115738 0.3249487280845642
-0.5799270272254944 0.23516146838665009 -0.21624153852462769
-0.10910505056381226 0.314134418964386 -0.4001968204975128
0.43311232328414917 -0.29606854915618896 -0.13020829856395721
0.26305070519447327 0.16521722078323364 0.3461694121360779
0.1638348251581192 0.08682113885879517 0.34310853481292725
-0.14207114279270172 0.39329060912132263 -0.38958078622817993
0.3752979636192322 -0.6557462811470032 -0.01836155541241169
0.3750735819339752 -0.5181764364242554 0.06811448186635971
0.06248554214835167 0.31792178750038147 0.4649790823459625
-0.19966895878314972 -0.19664418697357178 -0.19660373032093048
-0.5740867257118225 0.012157263234257698 0.27718377113342285
-0.05585719645023346 0.0010934430174529552 -0.19592559337615967
-0.30290040373802185 0.09673883020877838 -0.3994304835796356
-0.4746016561985016 -0.11061105132102966 -0.04884165897965431
0.3012569546699524 -0.629213273525238 -0.18344315886497498
0.4748755693435669 0.3981841206550598 -0.025413209572434425
0.33669573068618774 -0.28714922070503235 0.2259284108877182
-0.5161179304122925 -0.09820663928985596 0.2725479304790497
0.26127731800079346 0.000204483512789011 0.07076074928045273
0.13530534505844116 -0.0007813917472958565 -0.060494933277368546
0.053562577813863754 -0.6259028315544128 0.193391814827919
-0.06721002608537674 0.10567430406808853 -0.40083229541778564
0.16722944378852844 -0.029961921274662018 0.3268043100833893
0.5790919661521912 0.08905178308486938 0.1878816783428192
0.26231059432029724 0.002984813414514065 0.03940482437610626
0.04870755970478058 0.000657504890114069 -0.3689606785774231
-0.35994696617126465 -0.0053820679895579815 -0.2572873830795288
-0.3825777471065521 0.07100391387939453 0.08611772209405899
0.10149339586496353 0.07417497783899307 0.3461047112941742
0.3912776708602905 -0.5297291874885559 -0.0020841476507484913
-0.5796025991439819 0.01004718616604805 0.15217971801757812
0.31081297993659973 0.003989599645137787 -0.1844611018896103
0.3567369282245636 0.15544791519641876 -0.40392744541168213
-0.3100622594356537 0.02671797014772892 -0.40009209513664246
-0.01579895243048668 0.38252687454223633 0.3411347270011902
-0.35967740416526794 -0.02258552610874176 0.2856922745704651
0.3366117775440216 0.0013068467378616333 0.10176160931587219
0.09465856850147247 0.28772005438804626 0.46399492025375366
0.2934616506099701 -0.3857630789279938 0.19049815833568573
0.14982840418815613 -0.5767462253570557 -0.31352871656417847
0.4003913402557373 -0.13083605468273163 0.148149773478508
0.35629069805145264 -0.625389039516449 0.10854799300432205
-0.5584426522254944 -0.05501757189631462 0.338336706161499
-0.45504501461982727 0.09424242377281189 0.340559184551239
-0.43428316712379456 -0.10174477100372314 0.058203283697366714
0.08983488380908966 -0.3707273006439209 -0.3687244951725006
0.1671377271413803 -0.6240534782409668 -0.1452733874320984
0.329912394285202 -0.5321269035339355 -0.2060384899377823
-0.2385304719209671 -0.15332910418510437 -0.05126044899225235
0.3265945315361023 0.25956299901008606 0.42195025086402893
-0.39632031321525574 0.07829359173774719 0.03005087561905384
0.5776723623275757 0.1501711755990982 0.2730812728404999
-0.5570420026779175 -0.07039353251457214 -0.18981218338012695
0.3163452446460724 0.38982853293418884 0.4372069537639618
0.17818783223628998 0.06073290854692459 -0.39912208914756775
0.3980768918991089 -0.022376343607902527 -0.2069963961839676
-0.3104766309261322 0.4008902609348297 0.11385271698236465
0.36642223596572876 -0.10610426217317581 -0.24470996856689453
0.024344462901353836 -0.061732254922389984 0.31750479340553284
0.2534688115119934 0.3989013731479645 0.28054720163345337
-0.5793265104293823 0.04737546294927597 0.17253661155700684
-0.23053354024887085 -0.3739798963069916 -0.08783193677663803
0.28703364729881287 0.000720614567399025 -0.007639911957085133
-0.2422969937324524 -0.3152776062488556 -0.06326153874397278
0.5048255324363708 0.39688390493392944 -0.08262746036052704
0.1950831562280655 0.20818747580051422 0.3436584174633026
0.5699043869972229 0.3903829753398895 0.12325896322727203
-0.5087706446647644 0.40155908465385437 -0.26561206579208374
-0.5699546337127686 0.3541901409626007 -0.16523438692092896
-0.5781566500663757 0.32781296968460083 -0.2352667599916458
0.26284775137901306 -0.6238721609115601 -0.11281272768974304
0.1462620496749878 0.10340623557567596 0.4636969566345215
0.3512289226055145 -0.6499804258346558 -0.12260420620441437
-0.4433188736438751 0.3935104012489319 -0.3943907618522644
0.006936926860362291 -0.6223034262657166 -0.14030693471431732
-0.2159399539232254 -0.38026002049446106 0.014984130859375
0.5790119767189026 0.059157080948352814 -0.3665136694908142
0.4041909873485565 0.40044093132019043 -0.11501863598823547
0.21158884465694427 0.0010287454351782799 0.25739970803260803
-0.48453035950660706 0.2187320739030838 -0.4016002416610718
0.12388915568590164 0.0002720754127949476 -0.15381211042404175
0.29779717326164246 -0.12404518574476242 0.2549915909767151
0.22153398394584656 -0.2832254469394684 0.29239580035209656
0.32970118522644043 0.07585775852203369 -0.40237733721733093
0.3511389493942261 0.38302814960479736 0.34299105405807495
0.11413679271936417 -0.04782900586724281 0.32131484150886536
-0.5799627900123596 0.2053615301847458 -0.2881231904029846
0.5751472115516663 0.08104073256254196 0.3174458146095276
-0.48609697818756104 0.0038527511060237885 0.2695309519767761
-0.43647998571395874 0.04714628681540489 -0.4022134840488434
0.05355887487530708 0.0010960078798234463 -0.05590929090976715
0.4007192552089691 -0.0009886380285024643 -0.04222869127988815
0.5689191818237305 0.009770439937710762 0.18324121832847595
-0.001047950005158782 0.17269369959831238 0.36693769693374634
0.5620474815368652 0.31142425537109375 -0.3970976173877716
0.20889051258563995 0.05909253656864166 0.46516796946525574
0.167697012424469 0.3985890746116638 -0.3571029305458069
-0.14274059236049652 -0.6470068693161011 -0.11507845669984818
0.07278576493263245 0.3988807201385498 -0.1825890690088272
0.23743362724781036 -0.19309952855110168 -0.34650176763534546
0.0684610903263092 0.2236318290233612 -0.3986455500125885
0.571724534034729 0.3861255943775177 -0.3570616543292999
-0.48747751116752625 -0.10445599257946014 -0.3904913663864136
0.03358190506696701 0.0006810004124417901 0.26063260436058044
-0.3718774914741516 0.017148099839687347 -0.06673538684844971
-0.5807856917381287 0.2293877750635147 -0.17506299912929535
0.37938356399536133 -0.0004068058915436268 -0.11778297275304794
0.5643661022186279 0.3931158781051636 0.29110246896743774
-0.16278088092803955 -0.00033433176577091217 -0.2950896918773651
0.33431336283683777 0.0009548418456688523 0.17799264192581177
-0.5562443137168884 -0.06965573877096176 -0.3638835549354553
0.4270090162754059 0.0636400580406189 -0.40076953172683716
0.3196759521961212 0.001423305831849575 0.13820433616638184
-0.5791491866111755 0.05056765303015709 -0.2492304891347885
0.23139359056949615 -0.4412235915660858 0.23076505959033966
0.14851048588752747 0.39810875058174133 0.0636981949210167
-0.17237958312034607 -0.0033315513283014297 -0.22773826122283936
0.3246725797653198 -0.5883075594902039 0.15944397449493408
-0.19152036309242249 0.3984915316104889 -0.286617636680603
-0.43459761142730713 0.005968749523162842 -0.10740827769041061
-0.04863230884075165 -0.6217984557151794 -0.11377537250518799
0.2693575620651245 -0.23265822231769562 -0.3304191827774048
0.57222580909729 0.2656463384628296 -0.3891150653362274
0.3177069425582886 0.0007568192668259144 0.19818706810474396
0.4060850143432617 0.13731323182582855 0.3425936698913574
0.002960371784865856 -0.6371893882751465 -0.2516981065273285
-0.27014389634132385 3.534718416631222e-05 0.08518897742033005
0.11746396869421005 -0.6225416660308838 0.013925732113420963
-0.45280903577804565 0.2489580661058426 0.3455982506275177
-0.38093915581703186 -0.0650540366768837 -0.09183742105960846
-0.06762070208787918 0.03494943678379059 -0.3988009989261627
0.5691215991973877 0.011818010360002518 -0.0030504956375807524
0.44017717242240906 -0.2683042883872986 0.045547518879175186
0.46705546975135803 0.39867374300956726 -0.03762923181056976
0.038207750767469406 0.16345809400081635 -0.40011316537857056
-0.5273933410644531 -0.09410090744495392 -0.23388220369815826
-0.48344677686691284 0.000488573219627142 -0.25442421436309814
-0.006425449158996344 -0.050309304147958755 0.2996947467327118
-0.08420799672603607 -0.27648189663887024 -0.3188106417655945
0.2778136730194092 0.3979826271533966 0.047810934484004974
-0.13873444497585297 -0.002510201185941696 -0.2808833718299866
0.5270752906799316 0.4011947512626648 -0.26756131649017334
-0.5807170271873474 0.2652926743030548 -0.29198741912841797
0.30993327498435974 0.40058407187461853 -0.34808149933815
-0.5714741945266724 0.0008310605771839619 0.24552913010120392
-0.2321595549583435 -0.3562833070755005 0.039012763649225235
-0.5747441649436951 0.012319151312112808 -0.3427957594394684
-0.3698381781578064 0.04355844482779503 0.28963640332221985
0.3261151611804962 -0.001808300381526351 0.2719363868236542
-0.015286781825125217 0.0010527744889259338 0.25918346643447876
-0.20515026152133942 -0.0006018159911036491 -0.3284028470516205
0.2188284546136856 -0.0026502814143896103 0.29036033153533936
-0.41226738691329956 -0.08905589580535889 0.19708994030952454
0.5757246017456055 0.38509657979011536 0.014363490976393223
0.33843085169792175 -0.0006364627042785287 0.1971302181482315
-0.2570294737815857 0.4010806381702423 -0.20822209119796753
0.23167769610881805 0.2204190045595169 0.3457832932472229
-0.14167089760303497 -0.16022522747516632 -0.2720716595649719
-0.06717981398105621 -0.3534468412399292 0.27205297350883484
0.031007735058665276 0.04857233166694641 0.3466527462005615
-0.0016241420526057482 0.03241175785660744 -0.3980376124382019
0.3130129277706146 -0.029630959033966064 -0.3007824718952179
-0.5805537104606628 0.13402362167835236 0.22115987539291382
0.5772162675857544 0.17332926392555237 0.2241746336221695
0.3860297203063965 -0.07484693825244904 0.16977821290493011
0.34226444363594055 -0.30461421608924866 0.22334975004196167
0.3325708508491516 -0.05040100961923599 0.35751911997795105
-0.29547837376594543 0.399344801902771 -0.29034098982810974
0.019120290875434875 0.20290923118591309 0.4220566153526306
-0.05516618862748146 -0.5032023787498474 0.21499061584472656
-0.37955594062805176 -0.06196993589401245 0.18396586179733276
0.5236858129501343 0.0010745485778898 -0.26558718085289
-0.1969819962978363 0.396482914686203 -0.10336215049028397
-0.12516649067401886 -0.21828119456768036 -0.28582605719566345
-0.183996319770813 0.2811810076236725 0.349899560213089
0.5541355013847351 0.1939808875322342 -0.3960820138454437
-0.5309218764305115 0.3905598819255829 -0.09029658138751984
-0.04940677061676979 0.39305368065834045 0.32859310507774353
-0.4090118408203125 0.050341200083494186 -0.3992478549480438
0.3899165987968445 -0.6228452324867249 -0.01498055923730135
0.04750099405646324 -0.6234501004219055 -0.01028942596167326
-0.5690784454345703 0.03445148840546608 0.3401496410369873
0.27120545506477356 -0.0009650825522840023 -0.35017192363739014
-0.5797966718673706 0.14252713322639465 0.02719692699611187
0.17227716743946075 0.39797183871269226 -0.06925539672374725
0.3532553017139435 0.3998240828514099 -0.0046186139807105064
-0.5015725493431091 0.37297892570495605 -0.058191996067762375
-0.23905445635318756 0.40152984857559204 0.2976822555065155
-0.49125394225120544 0.09218121320009232 0.34191736578941345
-0.13165205717086792 0.39942601323127747 0.28113168478012085
0.0037887985818088055 0.25182053446769714 0.3996354341506958
0.3456551730632782 0.3984169065952301 -0.27067631483078003
-0.1165488213300705 0.0028091520071029663 -0.24452494084835052
0.18615390360355377 -0.6248084306716919 0.10398571938276291
-0.2997548580169678 0.38456976413726807 -0.39774423837661743
0.33281323313713074 0.029984768480062485 0.3582083284854889
-0.14011238515377045 1.8657534383237362e-05 -0.22136616706848145
-0.3516537547111511 0.0463387630879879 -0.39868974685668945
0.2801930606365204 0.39904263615608215 -0.09315075725317001
0.09696657955646515 -0.6183288097381592 0.13070230185985565
-0.0861143171787262 -0.622561514377594 -0.13305141031742096
0.0036349885631352663 -0.33093053102493286 -0.358773410320282
0.24196775257587433 0.0005594789981842041 0.26982301473617554
-0.1406625211238861 -0.2973230481147766 -0.2759759724140167
-0.18826010823249817 -0.40166085958480835 -0.06429091840982437
-0.006252641323953867 -0.12886357307434082 0.3000616133213043
0.3018397390842438 0.0019201356917619705 -0.38165083527565
-0.4388576149940491 0.10645151138305664 -0.2941521406173706
0.18267548084259033 0.00164082832634449 -0.18436382710933685
0.31847983598709106 -0.0781206414103508 0.4139058589935303
-0.12896931171417236 -0.6457064747810364 -0.11692578345537186
0.1398322582244873 -0.6231048703193665 -0.0880790427327156
-0.19087299704551697 -0.3292064964771271 0.15196861326694489
-0.36737221479415894 0.0071915676817297935 -0.19775095582008362
0.5712023973464966 0.38685667514801025 0.02150527946650982
-0.19648264348506927 -0.05039062723517418 0.14569340646266937
0.15238678455352783 -0.02645273506641388 0.3215447962284088
-0.37971389293670654 0.39529988169670105 0.0697411596775055
-0.3602074086666107 -0.0391676127910614 0.24926896393299103
0.4268746078014374 -0.08204939216375351 -0.14571045339107513
0.5611103773117065 0.192925825715065 0.34339630603790283
-0.35681891441345215 -0.0016216253861784935 -0.36391058564186096
0.5787594318389893 0.07278624176979065 0.13721299171447754
0.07300876080989838 0.4006526470184326 -0.19102470576763153
-0.5795831680297852 0.008978559635579586 0.3316241204738617
0.29518094658851624 0.003450256772339344 0.19661913812160492
0.43091055750846863 0.08182691782712936 -0.40046226978302
-0.023017022758722305 -0.39922383427619934 -0.29141926765441895
0.3915596604347229 -0.48479342460632324 0.009975943714380264
0.061166465282440186 -0.3984746038913727 -0.31458568572998047
-0.5102840662002563 0.09674887359142303 -0.2341243028640747
0.37998709082603455 -0.00167393172159791 -0.27137109637260437
0.030531618744134903 0.2936054766178131 0.4418042302131653
-0.18512605130672455 -0.49146774411201477 -0.06855061650276184
0.2342139035463333 -0.2291397899389267 0.2898690700531006
-0.47535815834999084 0.10943001508712769 0.0744086354970932
0.26764771342277527 0.02743733674287796 0.34525951743125916
-0.2976588010787964 0.11010853946208954 0.34604060649871826
0.1391904354095459 0.0014418431092053652 -0.03863834962248802
0.07626542448997498 0.40986958146095276 0.4418962299823761
0.04252604767680168 0.39339637756347656 0.3523918092250824
-0.5593815445899963 -0.06351357698440552 0.04301104694604874
0.0835435688495636 0.2827153205871582 -0.3996574878692627
0.447383314371109 0.3398253321647644 -0.4006442725658417
0.24545034766197205 -0.19076426327228546 -0.3406321406364441
-0.37697863578796387 -0.014211746864020824 0.33623233437538147
-0.4471636116504669 -0.10440151393413544 -0.31827908754348755
0.5788937211036682 0.02101886458694935 -0.3344457447528839
-0.5809435248374939 0.304143488407135 0.11978518962860107
0.5775901675224304 0.2983810007572174 0.14526012539863586
-0.15100133419036865 0.0017219549044966698 -0.02272709086537361
-0.4670032858848572 0.0028937996830791235 -0.3930169343948364
0.048735111951828 -0.0005235499702394009 -0.11235012859106064
0.03855878487229347 0.1362888216972351 0.34860727190971375
0.41901758313179016 0.3971152603626251 0.2974519729614258
-0.5830627083778381 0.2909650504589081 0.14002522826194763
-0.05774640664458275 -0.3695923089981079 0.26635387539863586
-0.013296776451170444 0.40046048164367676 -0.29119637608528137
-0.39479613304138184 0.36053794622421265 -0.18068967759609222
0.2666148245334625 0.33095112442970276 0.45924028754234314
-0.17206820845603943 0.3829666078090668 -0.39753568172454834
-0.3375742435455322 0.39889952540397644 -0.2922395169734955
-0.01586790941655636 -0.08987883478403091 0.2965823709964752
-0.17267680168151855 -0.31193703413009644 0.1769149750471115
-0.5720041990280151 -0.04929714277386665 -0.3658201992511749
0.21994687616825104 0.4016619324684143 0.31214508414268494
-0.22702230513095856 -0.005050428677350283 0.05623147636651993
-0.5181332230567932 0.38174107670783997 -0.39903098344802856
-0.5617750287055969 0.27908673882484436 -0.40025779604911804
-0.42453086376190186 0.1111743375658989 -0.39998483657836914
-0.36495596170425415 -0.028325118124485016 -0.38555824756622314
0.4479820430278778 -0.053338199853897095 -0.05296451970934868
-0.21007394790649414 -0.0029958533123135567 0.10305101424455643
0.5771353840827942 0.3491379916667938 0.3207595646381378
-0.5722938179969788 0.06554324179887772 -0.23276996612548828
0.5686578750610352 0.20387347042560577 0.34104791283607483
-0.07041525840759277 -0.6508320569992065 0.1834198236465454
-0.5781815648078918 0.3104296922683716 0.25346866250038147
-0.485185444355011 -0.10445107519626617 -0.11691106855869293
-0.5785174369812012 -0.01635228842496872 -0.36562731862068176
-0.357787549495697 -0.016578255221247673 -0.2989169955253601
0.16134922206401825 0.3996894061565399 -0.18735837936401367
0.020157692953944206 0.23155996203422546 0.3535141050815582
0.31818437576293945 -0.3543853461742401 0.24317090213298798
-0.5037485361099243 0.0006339587271213531 -0.23551788926124573
-0.2467958778142929 0.0008780942298471928 0.22466951608657837
0.27695563435554504 -0.37806442379951477 0.21853992342948914
-0.013364843092858791 -0.16620075702667236 0.2955387234687805
0.23335154354572296 0.0018079362343996763 -0.1102895513176918
-0.11365398019552231 0.006812771782279015 0.3332784175872803
-0.37174227833747864 0.04014771059155464 -0.17757061123847961
-0.3259265422821045 0.0022562816739082336 0.27132874727249146
0.10000088065862656 0.39934492111206055 -0.0014515345683321357
0.10625021904706955 -0.6334689855575562 -0.2717103660106659
0.5387455224990845 0.0005937451496720314 0.12809596955776215
0.02057669311761856 -0.3185810148715973 0.30773618817329407
-0.23479869961738586 0.0007303315214812756 0.20070728659629822
0.4345329999923706 0.3977360427379608 0.26878833770751953
-0.11815695464611053 0.39933907985687256 -0.2890051603317261
0.0033254274167120457 0.006720840465277433 -0.3832656145095825
-0.5355820655822754 0.08986101299524307 0.25277456641197205
0.008837861008942127 0.0016660019755363464 -0.03512575477361679
-0.3996869921684265 0.3812800943851471 -0.40250110626220703
0.11304280161857605 2.8731301426887512e-06 0.30882489681243896
-0.24419653415679932 -0.0025655929930508137 -0.03684259578585625
0.044020019471645355 -0.6236693859100342 0.12600624561309814
0.4182976484298706 -0.3373335003852844 0.11371386796236038
-0.5817344188690186 0.1435679942369461 -0.20245325565338135
-0.10472925007343292 -0.626970648765564 -0.04076802358031273
-0.08470747619867325 -0.6218559741973877 0.02701542153954506
-0.40497705340385437 0.08828243613243103 -0.024745823815464973
-0.3676961660385132 0.06006255000829697 -0.2771015167236328
-0.2650299072265625 0.39530110359191895 -0.1694040447473526
0.2668471932411194 -0.6216215491294861 -0.09186665713787079
0.15220968425273895 -0.08705843985080719 0.3623410761356354
0.3139856159687042 -0.04762057214975357 0.45040127635002136
-0.24050968885421753 -0.0004890570417046547 -0.1042727455496788
-0.5707947015762329 0.24753502011299133 -0.3886087238788605
0.4307529926300049 -0.22520402073860168 0.08316294848918915
0.48912060260772705 -0.0003401022404432297 -0.11650169640779495
0.02206040360033512 0.39823946356773376 -0.03430062532424927
-0.20886224508285522 0.393854558467865 0.3344484865665436
0.10972188413143158 0.39146897196769714 0.3414468765258789
-0.37020325660705566 -0.020103920251131058 -0.39086541533470154
-0.210441455245018 0.000996495597064495 0.2577764689922333
0.2703484296798706 -0.29996299743652344 -0.329507440328598
0.25547248125076294 0.0010480084456503391 0.21988163888454437
0.185297429561615 -0.0824575275182724 0.37506723403930664
-0.07222558557987213 -0.6309213042259216 0.1290077567100525
0.37804436683654785 -0.004097172990441322 0.17090292274951935
-0.36737707257270813 0.05908254161477089 -0.22341439127922058
-0.01928572729229927 0.3984873294830322 -0.02045084722340107
0.4373278319835663 0.39903581142425537 -0.14121535420417786
0.15070666372776031 0.001522282138466835 0.02033182792365551
0.1812644898891449 -0.6333535313606262 -0.2652123272418976
-0.49907052516937256 0.000712506240233779 0.2713189423084259
-0.4608471989631653 -0.11056884378194809 -0.13052153587341309
-0.4985903203487396 0.10303518921136856 0.3345903158187866
0.0228134635835886 -0.06427843123674393 0.4102028012275696
0.2327905148267746 -0.37619566917419434 0.2771984040737152
0.21647334098815918 0.2602408230304718 0.3440530300140381
0.5185784697532654 0.3988160490989685 -0.28848797082901
0.22989362478256226 0.06713008880615234 0.4671597182750702
-0.280429482460022 0.4016004204750061 0.13173574209213257
-0.5371251106262207 -0.08866382390260696 -0.1075219064950943
-0.388181209564209 -0.073641836643219 -0.2537086009979248
0.32476845383644104 0.40103691816329956 -0.026613736525177956
-0.549274206161499 0.002565717091783881 -0.373917818069458
0.1459752321243286 -0.5061540603637695 -0.31307312846183777
-0.08262806385755539 -0.2690798044204712 0.2662275433540344
0.3075888156890869 0.3989533483982086 -0.2717209756374359
0.3014829754829407 0.39891597628593445 -0.28282463550567627
-0.08273595571517944 0.09008423984050751 0.3487907946109772
0.0072766561061143875 0.0021968698129057884 -0.19177335500717163
0.032294243574142456 0.08852650970220566 0.4623319208621979
-0.48272258043289185 0.11264332383871078 -0.1639951765537262
0.016115712001919746 -0.020572474226355553 -0.3579540550708771
-0.24794727563858032 0.3333776295185089 -0.4000870883464813
0.30493637919425964 -0.0014557372778654099 -0.2978528141975403
0.4466429650783539 -0.14141762256622314 -0.0026206807233393192
-0.5670400261878967 0.3726665675640106 -0.005375526379793882
-0.010052328929305077 -0.13040752708911896 -0.35182276368141174
-0.34221151471138 0.38684824109077454 -0.17605547606945038
-0.3603684604167938 -0.01903964951634407 -0.10912666469812393
-0.40245378017425537 -0.08151090890169144 0.12184810638427734
-0.1537817269563675 -0.651677668094635 0.009918306022882462
-0.4994545876979828 0.08545024693012238 -0.40339019894599915
0.38252365589141846 -0.39331674575805664 -0.08075305074453354
-0.5761695504188538 -0.00023475755006074905 -0.30074843764305115
-0.21464715898036957 -0.13073031604290009 0.11316629499197006
-0.2593570947647095 0.39499884843826294 -0.1780339628458023
-0.07782826572656631 -0.6216035485267639 -0.249238982796669
-0.5783545970916748 0.02504846267402172 -0.378948450088501
-0.4389457702636719 0.40080735087394714 0.18056373298168182
-0.09980766475200653 0.3964252173900604 -0.09869317710399628
0.031645890325307846 -0.4617273807525635 0.25054413080215454
0.03674472123384476 -0.6291442513465881 0.20914725959300995
0.05219251662492752 -0.5200629830360413 -0.31003713607788086
-0.5026267766952515 0.005713573656976223 -0.020195763558149338
0.016893379390239716 0.28585386276245117 0.424457311630249
0.27916407585144043 -0.29047825932502747 -0.3274517357349396
0.38125914335250854 -0.51017826795578 0.05612121894955635
-0.1342603713274002 -0.25799980759620667 0.22570088505744934
-0.36066222190856934 -0.006778267677873373 -0.25068584084510803
-0.22717925906181335 -0.30899766087532043 0.07813894748687744
-0.3064661920070648 0.0014607504708692431 0.22188110649585724
0.5750678181648254 0.2175130844116211 0.258623331785202
0.21797022223472595 -0.07800477743148804 0.43476900458335876
-0.12879911065101624 -0.0009708425495773554 -0.18062680959701538
0.5789982080459595 0.32219934463500977 -0.1414097100496292
0.3325375020503998 -0.6259905695915222 -0.02886194735765457
-0.17928877472877502 0.3987865447998047 -0.21790002286434174
-0.49834349751472473 0.05964956805109978 0.3503795266151428
0.39872458577156067 -0.3871718943119049 -0.03465845808386803
0.08051040023565292 0.4150933623313904 0.3524775803089142
-0.05893139913678169 -0.4516274333000183 0.21142899990081787
-0.527637243270874 0.001963478745892644 0.2886330485343933
-0.5205504894256592 0.39390507340431213 0.2757164537906647
-0.22419433295726776 -0.18162737786769867 0.07586521655321121
0.06203120946884155 -0.11460570991039276 0.31796592473983765
-0.15784692764282227 -0.6407644152641296 0.08682066202163696
-0.07835493236780167 0.28052082657814026 0.3933246433734894
-0.4556849002838135 0.04645881801843643 0.3474770188331604
-0.474592924118042 0.10919127613306046 -0.1849377155303955
-0.5767583250999451 0.01966371014714241 -0.3677371144294739
0.02469446137547493 -0.6242334842681885 -0.04005296900868416
-0.36650967597961426 0.007487486582249403 -0.02488778531551361
-0.2293473482131958 0.3968169391155243 0.15954096615314484
0.050771236419677734 0.0009598013712093234 -0.1567911058664322
-0.2051251381635666 -0.11865236610174179 -0.1852521002292633
-0.4239482581615448 0.08002935349941254 0.3425479829311371
0.473062127828598 0.3565673828125 -0.40126779675483704
0.31170710921287537 0.1640518456697464 -0.40211379528045654
0.11258816719055176 0.39996394515037537 0.2320064753293991
0.5248172879219055 0.005352353677153587 0.32989081740379333
-0.12706409394741058 -0.11152081191539764 -0.2716894745826721
0.16519460082054138 -0.6240511536598206 -0.1345365047454834
0.3871743679046631 -0.5314894318580627 -0.08066096156835556
-0.5825251936912537 0.11549294739961624 -0.31653571128845215
0.14280065894126892 0.18069377541542053 -0.39890962839126587
0.5791560411453247 0.08425115048885345 -0.2719947099685669
-0.578515350818634 0.06337379664182663 -0.34969067573547363
0.16837318241596222 0.39879143238067627 0.2009185403585434
0.2170041799545288 -0.6208059191703796 0.03671528771519661
-0.5822325348854065 0.1343541443347931 -0.27447259426116943
0.3224896490573883 -0.5913786888122559 0.1601105034351349
0.5699571967124939 0.14080646634101868 -0.3894535303115845
0.19874663650989532 -0.23791678249835968 0.30368584394454956
0.021768655627965927 0.006201521493494511 0.42020368576049805
0.1984679251909256 0.0017041966784745455 0.10835514217615128
-0.44322511553764343 0.3956407606601715 -0.19656436145305634
0.43663153052330017 -0.3369113802909851 0.03462132066488266
-0.564879834651947 0.3550158143043518 0.2564701437950134
-0.4157412350177765 -0.09271389245986938 0.1744118630886078
-0.3764646649360657 0.39973610639572144 0.3070652186870575
-0.2334400862455368 -0.33676984906196594 -0.10137489438056946
0.3907493054866791 -0.0006255907937884331 -0.08819606900215149
0.27997025847435 0.09259721636772156 -0.3989660143852234
-0.3886484205722809 0.02366945892572403 -0.39820539951324463
-0.22479458153247833 -0.03212489187717438 0.06044389680027962
