0.30655020475387573 0.003319025970995426 -0.02480773627758026
-0.4846411943435669 0.40037575364112854 -0.37505999207496643
0.25740671157836914 -0.6242451667785645 0.024817125871777534
-0.35439926385879517 0.0009259199723601341 0.2703959345817566
0.3164202868938446 0.39139294624328613 0.34386733174324036
0.08037964254617691 0.16543662548065186 -0.4029870331287384
-0.5765639543533325 0.02455894835293293 0.27892088890075684
0.2950252294540405 0.3984644412994385 0.2826533615589142
0.4225161075592041 0.0048852660693228245 0.2923375964164734
0.5823017358779907 0.23624633252620697 0.12543483078479767
-0.3619595170021057 0.0010762722231447697 -0.00511839147657156
0.033914536237716675 0.22246801853179932 0.4648110866546631
-0.42113426327705383 -0.09410486370325089 0.33154717087745667
0.018622986972332 -0.6252835392951965 -0.01667669415473938
0.05156157910823822 0.001305837882682681 -0.2403796762228012
0.4986010789871216 0.40050649642944336 -0.22767068445682526
0.12079081684350967 -0.004271415993571281 0.3118669092655182
0.13197219371795654 0.4015546441078186 -0.2853418290615082
-0.5812348127365112 0.30677664279937744 -0.18673305213451385
0.05570470169186592 -0.4018881320953369 0.25982552766799927
0.08466465026140213 0.36558669805526733 0.468247652053833
0.365072637796402 -0.5840491652488708 0.08848755061626434
0.21798546612262726 0.39827847480773926 -0.026709144935011864
-0.4514728784561157 -0.0017304327338933945 -0.13045401871204376
0.1817224621772766 0.0020008469000458717 -0.3442475199699402
-0.310066819190979 0.39383211731910706 -0.38975152373313904
0.15752466022968292 -0.2544187903404236 -0.37099817395210266
-0.27078741788864136 0.3435620069503784 -0.06970994174480438
-0.41987210512161255 0.12839753925800323 -0.4028322100639343
0.5856292247772217 0.07420863956212997 -0.1371503621339798
-0.17771300673484802 -0.07156498730182648 -0.2384130209684372
0.08702810108661652 0.0019268644973635674 0.014405936002731323
0.3200371563434601 -0.49486666917800903 -0.21626411378383636
-0.1252802610397339 0.39771053194999695 0.17966337502002716
-0.41483020782470703 0.004863756708800793 0.11309278756380081
-0.1990642100572586 0.0010667047463357449 -0.031169138848781586
0.42748236656188965 0.0008011674508452415 0.1679680049419403
0.2168300747871399 -0.6260259747505188 0.14949476718902588
0.3484232723712921 -0.6552240252494812 0.0845922976732254
0.15514680743217468 0.11898726969957352 0.34355422854423523
0.048038680106401443 0.0017050779424607754 -0.14237216114997864
-0.22852681577205658 0.39956891536712646 0.21607361733913422
0.33741381764411926 0.25166282057762146 0.4110707640647888
-0.2846025228500366 0.0007776804268360138 0.19211046397686005
0.11042482405900955 -0.5996646285057068 -0.3192403316497803
0.09412050247192383 0.4647339880466461 0.43708646297454834
-0.21812182664871216 0.20228639245033264 -0.4045417904853821
-0.1881381869316101 -0.3764804005622864 -0.19503192603588104
0.5398298501968384 0.038733553141355515 0.3413339853286743
0.11037690192461014 0.1692788451910019 0.4688068926334381
0.1497487723827362 0.39948877692222595 -0.1575009673833847
0.5644702911376953 0.08199841529130936 0.34142494201660156
0.026817314326763153 0.0022371504455804825 0.20656463503837585
0.16323500871658325 0.0028532231226563454 -0.13208331167697906
-0.5717012882232666 0.07762615382671356 0.10476145148277283
0.07497096061706543 -0.19533275067806244 -0.37423765659332275
-0.41775748133659363 0.00419441144913435 -0.402442991733551
0.01331768836826086 -0.6279765367507935 -0.17103241384029388
0.19895565509796143 0.0011259214952588081 -0.03468363359570503
0.20855461061000824 0.002444944344460964 0.1618085354566574
0.4085308313369751 -0.24434496462345123 0.1392817497253418
-0.5078650712966919 0.14543960988521576 0.34719133377075195
-0.047075506299734116 -0.4939279854297638 -0.2730944752693176
0.47485077381134033 0.4012027680873871 0.09509943425655365
0.5870818495750427 0.3191589117050171 0.059148166328668594
0.037335194647312164 0.0026355613954365253 0.22791823744773865
-0.03974594548344612 0.0020699533633887768 0.19237102568149567
0.3432237207889557 -0.5489858388900757 0.1264757513999939
0.13610845804214478 -0.0030420213006436825 0.3070600628852844
0.05095210671424866 0.19775213301181793 0.34668150544166565
-0.015850743278861046 -0.026447225362062454 0.29523929953575134
0.5220051407814026 0.3989764153957367 -0.0811174213886261
0.2126329243183136 0.40098872780799866 -0.2153642177581787
-0.18312859535217285 -0.39746320247650146 0.01034360472112894
0.13681374490261078 -0.6041452288627625 -0.3158206343650818
0.07643711566925049 0.21312661468982697 0.34635528922080994
0.4765945076942444 0.4002764821052551 -0.29998597502708435
-0.570469081401825 0.06677351891994476 0.24281643331050873
-0.07449908554553986 -0.3538515865802765 -0.32465070486068726
-0.5735840797424316 0.36210036277770996 0.020119497552514076
0.4351763427257538 0.0007469449192285538 0.18334077298641205
-0.29591649770736694 0.35638049244880676 -0.12753792107105255
-0.5593389868736267 0.07582313567399979 -0.35844317078590393
-0.26690346002578735 0.15093737840652466 -0.40399712324142456
0.16100233793258667 -0.6219115257263184 -0.22766874730587006
0.02120186761021614 0.26588010787963867 -0.4016522467136383
0.2227553278207779 0.32194018363952637 -0.40045464038848877
-0.04328262805938721 -0.6396785378456116 -0.2340778261423111
0.0672142505645752 0.39978209137916565 0.19293400645256042
0.43468302488327026 -0.3773791193962097 -0.0013993540778756142
0.2525099813938141 -0.6224834322929382 0.05767698213458061
0.3361569344997406 0.34658557176589966 0.34584105014801025
0.5872818231582642 0.23022106289863586 -0.04304134473204613
-0.18105830252170563 -0.5301940441131592 -0.044736627489328384
0.3920380771160126 0.0033836187794804573 -0.3517974317073822
0.33018243312835693 0.3983387351036072 -0.010699196718633175
0.4422619938850403 0.39779263734817505 0.2762152850627899
0.0015555836725980043 0.002288728952407837 -0.06473369151353836
0.28354811668395996 0.002914298325777054 0.03163560852408409
-0.33405646681785583 0.39880654215812683 -0.044255878776311874
-0.5323930382728577 -0.0003348095342516899 0.10945004969835281
-0.15486401319503784 0.0017336560413241386 -0.056546807289123535
-0.13121016323566437 0.39690038561820984 0.2599051892757416
-0.5103763341903687 0.0011378885246813297 0.005873979069292545
-0.4216495454311371 0.10279352217912674 -0.3161621391773224
-0.019300619140267372 0.4013340175151825 -0.24539439380168915
-0.1518145203590393 0.1992707997560501 -0.4040979743003845
0.22248974442481995 -0.00018391385674476624 -0.28657296299934387
-0.17737090587615967 0.0012335628271102905 -0.2439756840467453
0.33256474137306213 -0.07145929336547852 0.39031675457954407
-0.4713898003101349 -0.08734969049692154 0.34375372529029846
-0.37047573924064636 0.005625618621706963 0.27754849195480347
-0.406290203332901 -0.0013585658743977547 0.11350778490304947
-0.12951435148715973 -0.6335325837135315 -0.056642185896635056
0.18313677608966827 -0.22236505150794983 0.3037218749523163
0.42609333992004395 0.40001046657562256 -0.3243313729763031
0.33770328760147095 0.23240379989147186 0.34573042392730713
-0.57879638671875 0.33493903279304504 -0.3503148555755615
-0.5774446725845337 0.2565290927886963 0.1936139613389969
0.5802934765815735 0.16375210881233215 0.3068113327026367
-0.14107951521873474 -0.0018925117328763008 -0.14930126070976257
-0.23498637974262238 0.3041963279247284 -0.40197280049324036
0.05863681808114052 0.39921054244041443 -0.21652863919734955
0.16259536147117615 0.42158836126327515 0.460178941488266
-0.1629057675600052 -0.24849919974803925 0.18758989870548248
-0.5835314393043518 0.19170349836349487 0.05380582809448242
-0.08751697838306427 0.15349893271923065 -0.402757853269577
-0.2974073886871338 0.15635132789611816 -0.40511655807495117
0.09041491150856018 0.3984389305114746 0.3445189595222473
-0.26759642362594604 0.2928745746612549 0.344063401222229
-0.5818548202514648 0.3174070715904236 -0.08616656810045242
-0.0020283707417547703 -0.6381252408027649 -0.29657429456710815
-0.0052628666162490845 -0.5376632213592529 -0.2969634234905243
0.10035945475101471 0.0017824084497988224 0.21711352467536926
-0.10400442779064178 0.001364072784781456 -0.2166643887758255
0.3286864459514618 -0.251767098903656 -0.29062366485595703
-0.17393244802951813 -0.3763529658317566 -0.18983899056911469
0.5104794502258301 0.40000811219215393 0.1753944307565689
-0.4955018162727356 0.0809277594089508 -0.4053199291229248
-0.2873603403568268 0.36943334341049194 -0.037868253886699677
-0.5737674832344055 0.37357625365257263 0.2734544277191162
-0.11166766285896301 -0.5674470067024231 -0.2259228527545929
-0.10358932614326477 -0.452506422996521 -0.22569631040096283
-0.28880682587623596 0.0017969077453017235 -0.1924975961446762
0.5055060386657715 0.0036714663729071617 0.2489519864320755
0.36115193367004395 -0.004145672079175711 -0.2699495553970337
-0.22225937247276306 -0.1615636795759201 -0.15117324888706207
-0.2660890221595764 0.07385528832674026 0.34599369764328003
0.3133329451084137 -0.5381941199302673 0.16703319549560547
-0.5225767493247986 0.0014052307233214378 0.21522386372089386
-0.2613848149776459 0.0025306139141321182 -0.32827356457710266
-0.16753950715065002 -0.6383424401283264 -0.13458172976970673
-0.11271727085113525 0.3976193070411682 0.00538244703784585
-0.580900251865387 0.3127109408378601 0.29495513439178467
0.3888688087463379 -0.38463544845581055 -0.1278325915336609
0.029405502602458 0.27895957231521606 0.45385757088661194
0.1464865356683731 -0.4068129062652588 0.25816360116004944
0.38367486000061035 -0.08413626998662949 -0.23624806106090546
0.5532332062721252 0.40006735920906067 -0.10595269501209259
0.3133392333984375 -0.2637934982776642 -0.30231842398643494
0.1670568734407425 0.0025257477536797523 0.17561902105808258
0.2423611879348755 -0.2573327422142029 0.2840179204940796
0.006279344204813242 0.0006812183419242501 0.08601256459951401
-0.37466761469841003 0.0716477558016777 0.09794781357049942
0.3904745876789093 -8.150795474648476e-05 0.17267796397209167
-0.010411810129880905 -0.6248247623443604 0.053414225578308105
0.4358958303928375 -0.3734237253665924 -0.05291261151432991
0.3517364263534546 -0.3163162171840668 -0.2733425796031952
-0.5758225917816162 0.09922417253255844 -0.33904242515563965
0.12918095290660858 0.3995853364467621 -0.2544497847557068
-0.0005034892819821835 -0.24572306871414185 0.3002713918685913
-0.3571401536464691 0.4167178273200989 -0.08631346374750137
0.23398177325725555 0.39850106835365295 -0.37991225719451904
0.20742420852184296 0.0024995747953653336 -0.3298589587211609
-0.57856285572052 0.03496338799595833 0.2975201904773712
0.24342620372772217 0.003029843792319298 -0.2009408324956894
0.13650158047676086 -0.08137253671884537 0.3779710531234741
-0.04042233154177666 -0.6271443963050842 -0.0614655427634716
0.09301650524139404 -0.6284471750259399 -0.2569636404514313
0.318683922290802 -0.34730660915374756 0.2391257882118225
0.16440530121326447 -0.6481639742851257 0.21421705186367035
0.36628809571266174 0.0014277342706918716 -0.36990174651145935
0.36175885796546936 0.399581640958786 0.048465702682733536
-0.15832985937595367 -0.6460763812065125 -0.131541445851326
-0.3798867464065552 -0.04940107464790344 0.1706087589263916
-0.5653103590011597 0.048582855612039566 -0.03235280513763428
0.40423914790153503 -0.14965490996837616 0.14309163391590118
-0.4796234369277954 0.10859990864992142 0.2905331254005432
0.5860098600387573 0.35015490651130676 0.015393489971756935
-0.5693398118019104 0.07254087179899216 -0.16508017480373383
-0.4816785156726837 0.39792653918266296 0.04181854799389839
-0.09521844238042831 0.25637978315353394 0.3529001474380493
-0.57548588514328 0.033375971019268036 0.07626500725746155
0.13670603930950165 0.0024473797529935837 -0.018322179093956947
-0.22624456882476807 0.0011219475418329239 -0.08989015966653824
-0.14026348292827606 0.0004299366846680641 -0.12187901884317398
-0.17956048250198364 0.30256637930870056 0.34781956672668457
-0.5802053809165955 0.13683708012104034 0.12291067093610764
-0.017817359417676926 -0.0012290477752685547 0.300553560256958
0.378061443567276 -0.10111328959465027 0.18176022171974182
-0.23011243343353271 -0.375421404838562 8.505594450980425e-05
-0.4109179973602295 0.3581424355506897 -0.20187604427337646
0.1307380199432373 0.1578649878501892 0.3451150953769684
-0.2964027225971222 0.39884382486343384 0.2386138141155243
0.0842006728053093 -0.21621112525463104 -0.37445518374443054
0.4045003652572632 -0.21039798855781555 -0.19818101823329926
0.5336271524429321 0.40052294731140137 -0.14831900596618652
0.08273536711931229 0.4525223672389984 0.3655260503292084
-0.5244085788726807 0.10107876360416412 0.28395459055900574
-0.047738008201122284 -0.629734218120575 -0.22114276885986328
0.0325058214366436 0.25920623540878296 0.43613767623901367
0.26667094230651855 0.016796670854091644 -0.39996904134750366
0.3502682149410248 -0.36284658312797546 -0.2628418207168579
0.0493648499250412 -0.6254399418830872 0.13956400752067566
-0.3838028609752655 0.39847415685653687 -0.007625941652804613
0.18117524683475494 -0.5758092403411865 -0.3092288374900818
-0.14009138941764832 0.020322978496551514 0.340481698513031
0.1728363186120987 0.39849141240119934 -0.03644861280918121
-0.5769349932670593 0.021890869364142418 -0.19534127414226532
0.36876559257507324 -0.6561486721038818 -0.08807989954948425
-0.09226283431053162 -0.434930682182312 -0.23798437416553497
-0.04195989668369293 0.0013666464947164059 -0.34310564398765564
-0.3970978856086731 -0.07824791967868805 -0.2305217981338501
0.1244133785367012 -0.2904767692089081 0.31592604517936707
0.4146011471748352 -0.30951619148254395 -0.18067243695259094
-0.424765944480896 0.09308337420225143 0.28193455934524536
0.03771143779158592 -0.622846245765686 -0.11083060503005981
-0.44283047318458557 0.00203816220164299 0.05941415950655937
-0.4071226418018341 0.3976006805896759 0.20930247008800507
-0.3867092728614807 0.3972565531730652 -0.3007330298423767
-0.3818516731262207 0.4002886116504669 -0.3760680556297302
-0.21619319915771484 -0.06839680671691895 -0.16537563502788544
-0.3685064911842346 0.06262468546628952 0.29751160740852356
-0.4327741265296936 0.41025468707084656 -0.050273437052965164
-0.09947958588600159 0.4000838100910187 -0.2078012079000473
0.5882748365402222 0.14322185516357422 -0.0626368597149849
-0.08757452666759491 0.0012108787195757031 0.02445889636874199
-0.22780977189540863 0.009523333050310612 0.3414442837238312
0.3211335241794586 0.32620152831077576 0.4222277104854584
-0.06973932683467865 0.0022177202627062798 -0.07165306806564331
-0.5751973390579224 0.36819496750831604 0.015050540678203106
-0.3913215398788452 0.03544877842068672 -0.4029354751110077
0.3430495858192444 -0.4164436161518097 0.13611577451229095
0.34953242540359497 -0.6373501420021057 -0.03519446775317192
-0.03933955729007721 0.0006571703124791384 0.29227393865585327
0.2385517954826355 0.18929211795330048 -0.4018954038619995
-0.11217537522315979 -0.47428902983665466 0.16272924840450287
0.21207326650619507 0.026013653725385666 -0.39921000599861145
-0.24004130065441132 -0.24289478361606598 0.005265532527118921
-0.42229148745536804 -0.09723755717277527 -0.23707102239131927
-0.5265650153160095 0.0015555042773485184 0.1287952959537506
0.5848273634910583 0.19333218038082123 0.2842943072319031
0.5728572010993958 0.010754040442407131 0.23547756671905518
-0.4976479113101959 0.11416013538837433 0.33927279710769653
0.022599825635552406 -0.6266748309135437 -0.21015353500843048
-0.5382775664329529 0.3932845890522003 0.11611757427453995
-0.3691672682762146 -0.019118933007121086 -0.39102306962013245
0.44933372735977173 -0.36561495065689087 -0.02489619143307209
-0.2713192403316498 0.29493311047554016 0.3458346128463745
0.12901028990745544 0.0018126843497157097 -0.16128070652484894
-0.45633989572525024 0.11240962892770767 -0.1830216348171234
-0.5692098736763 0.05301067233085632 0.16424626111984253
0.5856830477714539 0.10464711487293243 -0.0753413587808609
0.23442260921001434 0.28514471650123596 -0.4037601947784424
-0.5385173559188843 -0.0843719094991684 0.028996067121624947
-0.26728391647338867 0.0020279386080801487 0.3286648094654083
-0.571784496307373 0.05437960848212242 -0.27074867486953735
0.2261282205581665 0.0028340970166027546 -0.12405691295862198
-0.2751987874507904 0.40048524737358093 0.06179021671414375
-0.01398386899381876 0.39982324838638306 0.0902104526758194
-0.5593261122703552 -0.056267932057380676 0.09039930999279022
-0.23391841351985931 -0.36841273307800293 -0.03388805687427521
-0.2343255877494812 -0.10833459347486496 -0.10452369600534439
0.0661938488483429 0.39940816164016724 -0.18822191655635834
-0.19393984973430634 0.0013045226223766804 -0.3184635639190674
0.049796927720308304 0.0024049566127359867 -0.38412827253341675
-0.0796613022685051 0.0021081697195768356 0.14997626841068268
0.5790569186210632 0.043239567428827286 -0.13217169046401978
-0.22945153713226318 -0.3750182092189789 0.0011449754238128662
-0.147971048951149 0.001404251903295517 -0.015681633725762367
0.233411505818367 0.00207270635291934 0.1693771332502365
-0.19475820660591125 0.21259762346744537 -0.40328365564346313
0.15164123475551605 0.3751414120197296 -0.4024586081504822
0.5137113332748413 0.0033340295776724815 -0.0324094183743
0.4567180275917053 0.39722776412963867 0.07274923473596573
-0.553566038608551 -0.06350963562726974 -0.3401903808116913
-0.5297751426696777 0.09816807508468628 -0.3825681507587433
-0.23176893591880798 -0.2753581404685974 0.031229373067617416
-0.3763294219970703 0.0659162849187851 -0.37900611758232117
-0.0023162802681326866 0.31704461574554443 0.3505643606185913
-0.39303332567214966 0.0019887913949787617 0.34540531039237976
0.06734459102153778 -0.23822107911109924 -0.3727712035179138
0.2557634711265564 -0.4859250783920288 0.21799826622009277
0.4688245952129364 0.38521093130111694 -0.39832818508148193
-0.41186463832855225 0.004015426151454449 -0.19119055569171906
-0.2409793883562088 -0.06360092759132385 -0.0012660985812544823
0.14515216648578644 -0.6254648566246033 0.16446071863174438
-0.13305208086967468 0.00371191231533885 0.28415432572364807
-0.5795155763626099 0.23771412670612335 -0.3894195854663849
0.15295444428920746 0.0027191685512661934 -0.11384736001491547
-0.3791390359401703 -0.054096661508083344 -0.06231195107102394
-0.025672778487205505 -0.6232715845108032 0.22396202385425568
0.04972859472036362 -0.623159646987915 -0.3141263723373413
0.5794395804405212 0.05645383521914482 -0.39769113063812256
-0.5494421124458313 0.1001443937420845 -0.20632478594779968
0.1500900238752365 0.39646461606025696 0.4653489589691162
0.2824542820453644 0.38315242528915405 0.4643988609313965
0.04055197164416313 0.07355459034442902 0.46872779726982117
-0.4876713156700134 0.3986496925354004 -0.1260567307472229
0.032425347715616226 -0.1508457362651825 0.309578537940979
-0.35458138585090637 0.005986060947179794 0.17793720960617065
0.568017840385437 0.3957338035106659 0.08027444779872894
-0.37899574637413025 0.15392862260341644 0.347199946641922
0.5814111232757568 0.01629605144262314 0.13762402534484863
0.12991830706596375 0.001306271879002452 -0.22999660670757294
-0.08975149691104889 0.400048166513443 -0.1805211305618286
0.02899947389960289 -0.36734122037887573 -0.3634665012359619
-0.5812165141105652 0.18794433772563934 -0.14740562438964844
0.2588143050670624 0.03284697234630585 -0.3998638689517975
-0.5463880300521851 0.06934666633605957 0.34304314851760864
-0.10043538361787796 -0.00030759721994400024 -0.3293595314025879
-0.331439733505249 0.0038192435167729855 0.3286232352256775
0.46576395630836487 0.3890758752822876 0.33978545665740967
0.5412615537643433 0.004794477950781584 -0.14252512156963348
-0.48967379331588745 0.05045412853360176 0.355657160282135
0.03350532054901123 0.25923582911491394 0.3699118196964264
-0.369254469871521 0.3483912944793701 -0.19973012804985046
0.20358514785766602 -0.4816626012325287 -0.2996169328689575
-0.11131256073713303 -0.32001033425331116 -0.3001970946788788
0.24536679685115814 0.37117764353752136 -0.39740872383117676
-0.17074686288833618 -0.4709467589855194 -0.12368039786815643
0.03340139240026474 0.3045925796031952 0.45537126064300537
0.35976988077163696 0.003898538649082184 -0.12818674743175507
0.3408406674861908 0.3998779356479645 -0.11305113136768341
-0.5781026482582092 0.013206162489950657 0.1903160810470581
0.3124029040336609 0.20352935791015625 0.3450804352760315
0.3047630190849304 0.4635664224624634 0.3955710530281067
-0.17473722994327545 -0.19815975427627563 0.17457188665866852
0.024838069453835487 0.36345788836479187 0.3946591019630432
0.15650083124637604 0.0018134251004084945 0.15688741207122803
0.4461570084095001 -0.2270762175321579 -0.06702189147472382
0.022117648273706436 -0.4917762875556946 -0.30461278557777405
-0.027228502556681633 -0.009103739634156227 -0.34217333793640137
-0.00033358437940478325 0.34503254294395447 0.3432513177394867
-0.5646596550941467 0.08683076500892639 -0.3684045076370239
-0.23948368430137634 0.14638060331344604 -0.40421485900878906
-0.5287546515464783 0.0024282389786094427 0.21993137896060944
0.4087802469730377 -0.2661437392234802 -0.1874297857284546
0.273181289434433 0.002806464210152626 0.022343792021274567
-0.120976023375988 -0.5266136527061462 0.1498086005449295
0.17204837501049042 0.0019258703105151653 0.282999187707901
0.035076774656772614 0.0010446226224303246 -0.09356417506933212
0.32443490624427795 0.0034984787926077843 0.060849253088235855
0.06324680149555206 -0.623857855796814 0.0611223541200161
-0.013243121095001698 0.4004877209663391 -0.29111015796661377
0.5856504440307617 0.28227317333221436 -0.05268096178770065
0.06872930377721786 0.18514466285705566 0.3479044437408447
-0.39911916851997375 -0.07786698639392853 -0.23626522719860077
0.4413098692893982 0.2518084943294525 0.34444716572761536
0.41414472460746765 -0.3646219074726105 -0.16432613134384155
0.2587944269180298 -0.6233491897583008 -0.06273484975099564
-0.5581769347190857 -0.05842404067516327 -0.2982570230960846
0.19406923651695251 0.3998762369155884 -0.10105187445878983
-0.059572793543338776 0.0006491411477327347 -0.3138474225997925
-0.34154021739959717 0.00030709197744727135 -0.2797258496284485
-0.4885488748550415 -0.10353422909975052 0.2684357464313507
0.3412269055843353 -0.3831983208656311 -0.23335538804531097
-0.11001139134168625 0.1195397898554802 0.3442828059196472
-0.4714697301387787 -0.10732421278953552 0.047097042202949524
0.07153231650590897 -0.6314737200737 0.25304874777793884
0.14177194237709045 0.3991745710372925 -0.13766266405582428
0.062265798449516296 -0.6269350647926331 -0.1843593269586563
0.034662242978811264 0.2348567545413971 0.35002750158309937
-0.26929399371147156 0.0020207357592880726 -0.3025935888290405
-0.24624426662921906 0.12993839383125305 -0.40374359488487244
0.4470188617706299 0.00480100279673934 -0.36893418431282043
-0.22182556986808777 0.3023713529109955 -0.40350714325904846
-0.35254430770874023 0.01100180298089981 0.3059428632259369
0.02841070480644703 -0.3306470811367035 -0.3606540560722351
0.39725831151008606 0.18920211493968964 -0.40197211503982544
0.04603726789355278 0.0021606478840112686 -0.03466963768005371
-0.0470052994787693 0.13161957263946533 0.3482731282711029
-0.013876426964998245 -0.26694726943969727 0.2953360378742218
-0.5446537137031555 0.00564174447208643 0.17515049874782562
-0.10447093099355698 -0.09115548431873322 -0.3121526539325714
0.35193586349487305 -0.3793207108974457 0.18245692551136017
-0.4208787977695465 0.08776684105396271 -0.1874527633190155
0.043719347566366196 0.0691182091832161 0.4685155153274536
-0.5723834037780762 0.022350315004587173 -0.1418185979127884
0.4542216658592224 0.4018769860267639 -0.37854716181755066
-0.09808533638715744 -0.6266899108886719 -0.09530320018529892
-0.029449094086885452 0.39774200320243835 -0.05927389860153198
0.04150078073143959 -0.6340293288230896 0.20479324460029602
0.16048689186573029 -0.37570881843566895 -0.353056937456131
0.2222851663827896 0.4006001353263855 -0.19667799770832062
-0.05015778914093971 0.0016923509538173676 0.04137687757611275
-0.424098938703537 0.10532769560813904 -0.0575963519513607
-0.42216935753822327 0.10085615515708923 -0.1652059555053711
0.0816749855875969 -0.6198549270629883 -0.2514083683490753
0.5862064361572266 0.3114722967147827 -0.2636786699295044
-0.3666747808456421 -0.019657332450151443 0.2365015745162964
-0.368879109621048 0.015306910499930382 0.3433118760585785
-0.3167755901813507 0.3803144097328186 -0.023302024230360985
-0.1299913078546524 -0.00021255947649478912 -0.3136734366416931
0.4169425070285797 0.0007330533117055893 0.07432234287261963
0.5848285555839539 0.09198325127363205 0.1859457790851593
-0.3699882924556732 0.03452727943658829 0.1081639900803566
-0.4322148859500885 0.3970298767089844 -0.23284514248371124
0.24305833876132965 -0.5229548215866089 0.22172707319259644
0.4522412121295929 -0.24695555865764618 0.002864978974685073
0.17376361787319183 0.3995150625705719 -0.07640384137630463
-0.09264564514160156 0.39571061730384827 -0.38432684540748596
0.37028831243515015 -0.6533989310264587 0.019178124144673347
0.5806458592414856 0.13920985162258148 0.26249510049819946
-0.031634196639060974 0.00845163781195879 -0.3838557004928589
-0.004740404896438122 -0.22695890069007874 -0.35699135065078735
0.29312482476234436 0.0033795898780226707 -0.08070160448551178
0.1244187206029892 0.26979777216911316 0.4682220220565796
0.32718542218208313 -0.5698111057281494 -0.2021125704050064
-0.23188190162181854 -0.03239656984806061 0.04600130021572113
-0.18302972614765167 -0.48113420605659485 -0.06883297860622406
0.30744829773902893 0.09187861531972885 0.45830637216567993
0.5688912272453308 0.25718456506729126 -0.399382084608078
0.2987715005874634 -0.3375057578086853 -0.31196630001068115
0.11570864170789719 0.0020220670849084854 -0.2385324090719223
-0.11959931254386902 0.2653476297855377 0.34813156723976135
-0.3487266004085541 -0.001321540679782629 0.23709158599376678
0.021933255717158318 -0.5612798929214478 0.24820056557655334
-0.554574728012085 0.19477619230747223 0.34165823459625244
-0.5825032591819763 0.24765022099018097 -0.015645502135157585
-0.005364024080336094 0.3929980993270874 0.3377344608306885
-0.265831857919693 0.3972451984882355 0.014585490338504314
-0.07796372473239899 -0.6227987408638 -0.2500327527523041
-0.16670085489749908 -0.37792977690696716 -0.21355673670768738
0.09853608161211014 0.39893773198127747 -0.004703804850578308
0.3776337802410126 0.0035679053980857134 -0.03202376142144203
0.18120689690113068 0.0018378619570285082 0.15514853596687317
0.07246580719947815 0.002167416736483574 -0.17264337837696075
0.23956027626991272 -0.6241990327835083 -0.05406605824828148
-0.14175541698932648 0.001897905021905899 -0.09694040566682816
0.13404907286167145 0.1707058548927307 -0.40129968523979187
-0.20086853206157684 -0.11157599836587906 -0.19610898196697235
-0.5064830780029297 0.3992237150669098 -0.17655061185359955
0.051720988005399704 -0.5153530836105347 0.2560456097126007
-0.06019485369324684 0.0015893980162218213 -0.19395126402378082
-0.580361008644104 0.3364676535129547 -0.38050657510757446
-0.07235235720872879 -0.2530960738658905 -0.3212830424308777
0.5738463997840881 0.05295112356543541 -0.39638856053352356
-0.3287283480167389 0.3618105351924896 -0.16465994715690613
0.24713395535945892 0.03813963755965233 0.4665828049182892
0.049504801630973816 0.0013048243708908558 -0.11407262086868286
0.18833030760288239 -0.44726434350013733 0.24577489495277405
0.2749292850494385 -0.6242895722389221 0.05360586941242218
0.22818532586097717 0.3055989742279053 0.4683949649333954
0.06888536363840103 -0.05927145481109619 0.32433032989501953
0.3808130621910095 -0.4659278392791748 0.04617494344711304
-0.463492214679718 0.3589054346084595 0.0021585840731859207
0.02640598639845848 -0.018840692937374115 0.4465939700603485
-0.5882103443145752 0.1707707941532135 0.0602383017539978
-0.1941334456205368 -0.017646532505750656 0.13182571530342102
0.5860643982887268 0.11881883442401886 0.049577414989471436
0.5876380801200867 0.34553831815719604 -0.27855584025382996
0.011817507445812225 -0.6358199715614319 0.19901403784751892
0.09400376677513123 0.0024851197376847267 0.19263514876365662
0.45345786213874817 0.3997340500354767 0.1705271303653717
-0.5661764740943909 0.376911461353302 -0.03248439356684685
0.35993683338165283 -0.04224243760108948 -0.25258883833885193
-0.5550754070281982 0.38614577054977417 -0.2030147761106491
0.10070858895778656 -0.45308494567871094 0.26485204696655273
-0.5236570239067078 -0.09194672107696533 0.29251977801322937
-0.5828069448471069 0.14071142673492432 -0.3515961170196533
0.5858466625213623 0.288947731256485 0.32717758417129517
0.33538636565208435 -0.6446231007575989 0.13955536484718323
0.4276617467403412 0.13452139496803284 -0.40267789363861084
0.5870030522346497 0.28257572650909424 0.19545872509479523
-0.4744396507740021 0.4017672836780548 -0.07305208593606949
0.024241261184215546 -0.38400933146476746 0.29255613684654236
-0.4578757584095001 0.1076393648982048 0.0023347060196101665
-0.3146069347858429 0.0002568131312727928 -0.17980176210403442
0.1662215292453766 -0.6350724101066589 -0.3097790479660034
-0.41795459389686584 0.41002243757247925 -0.03409745171666145
0.1074805036187172 -0.645193874835968 -0.27376818656921387
-0.37203657627105713 0.0051761893555521965 -0.2951444983482361
0.024051588028669357 0.2346346229314804 0.42699819803237915
-0.2944171130657196 0.3613065481185913 -0.05359663441777229
0.584598958492279 0.18720735609531403 -0.22414711117744446
-0.026441309601068497 -0.23846817016601562 0.29174739122390747
-0.3460157811641693 0.18197111785411835 -0.4015873372554779
0.11249201744794846 0.0017660092562437057 0.0006865678587928414
0.3755601644515991 0.0035221166908740997 -0.16117329895496368
-0.47954061627388 0.11240377277135849 0.1836256980895996
-0.46718958020210266 -0.10717146098613739 -0.1031564399600029
0.5847113132476807 0.1995275914669037 0.19961419701576233
0.2229425609111786 0.0024939775466918945 -0.3121027946472168
0.26501864194869995 0.0027355083730071783 0.18752938508987427
0.08694680035114288 0.4549691081047058 0.4136431813240051
0.5166974067687988 0.40151336789131165 -0.29524266719818115
0.045736342668533325 -0.6000676155090332 0.2498379498720169
-0.5833392143249512 0.15925681591033936 -0.1467132270336151
-0.14052285254001617 0.00021950062364339828 0.1363036334514618
-0.5739362239837646 0.014053191058337688 0.27537691593170166
-0.4953407049179077 0.05904192477464676 -0.39526861906051636
0.2989141643047333 -0.20316877961158752 0.2541535198688507
0.14692004024982452 -0.19281569123268127 0.3120204210281372
0.10557097941637039 0.0008980231359601021 0.15419909358024597
-0.5739520192146301 0.010342060588300228 0.24558985233306885
-0.2641427516937256 0.25985461473464966 0.34664255380630493
0.30176761746406555 -0.0002526072785258293 -0.3276040554046631
0.5245452523231506 0.40173211693763733 0.030437199398875237
-0.5059480667114258 0.048028141260147095 0.3502739667892456
-0.5741746425628662 -0.008687317371368408 -0.2823794186115265
0.5065634846687317 0.06925693899393082 -0.4025128483772278
0.31842872500419617 0.0963979959487915 0.4597797095775604
0.02974744699895382 -0.6238512992858887 0.0054467241279780865
-0.10721813142299652 0.4000643491744995 0.1170034408569336
-0.4552856385707855 0.3987831771373749 -0.28060197830200195
-0.1770583689212799 0.3985437750816345 0.251621812582016
0.3080383837223053 0.2271425873041153 0.4574218690395355
-0.4882311224937439 0.36002835631370544 -0.03930772468447685
-0.024869292974472046 -0.2884780168533325 -0.3523898422718048
0.11921488493680954 0.3999546468257904 0.05489935353398323
0.44602301716804504 -0.2754696309566498 -0.07450046390295029
-0.5674734711647034 0.07308328151702881 -0.046020038425922394
-0.2003183513879776 0.40037664771080017 0.10551954060792923
0.5777207612991333 0.3922403156757355 0.25775426626205444
-0.4996071457862854 -0.07224763184785843 0.3454175889492035
-0.18838539719581604 -0.09918422996997833 0.15963999927043915
0.07053229212760925 0.0011416617780923843 -0.18984800577163696
-0.5043288469314575 -0.09654387086629868 0.09672264754772186
0.2716539800167084 -0.001698882319033146 -0.3556646704673767
-0.45843327045440674 -0.00041780993342399597 0.24804431200027466
0.3198363184928894 -0.624075710773468 -0.054955922067165375
-0.5751510858535767 0.10694925487041473 0.3254387080669403
-0.5738813877105713 0.030607672408223152 -0.04173513129353523
0.3312065601348877 -0.20986711978912354 -0.28944557905197144
-0.12483125925064087 0.3989199697971344 0.13345825672149658
-0.20089635252952576 0.03381521999835968 0.3468286693096161
0.293720006942749 -0.5786497592926025 -0.24988047778606415
-0.5843542218208313 0.2707744538784027 -0.011650814674794674
-0.1876138299703598 -0.39056500792503357 0.03577296435832977
-0.11763971298933029 0.0014510741457343102 -0.1962270736694336
-0.11146865040063858 0.40005674958229065 -0.1907198280096054
0.3349592685699463 -0.10384616255760193 -0.27716711163520813
-0.4602760076522827 -0.10062006115913391 -0.39245182275772095
0.13416676223278046 0.0015354715287685394 -0.059927798807621
-0.26719167828559875 0.07427850365638733 0.34437569975852966
0.2924761474132538 -0.09123361855745316 -0.3163260519504547
0.06591541320085526 -0.6232640743255615 -0.2595195174217224
0.28017154335975647 0.4663967192173004 0.4361826181411743
0.011122068390250206 0.1784292608499527 0.39666980504989624
-0.1353420913219452 0.2595890760421753 0.34987759590148926
-0.5657084584236145 0.045127905905246735 -0.10895521193742752
0.3765791654586792 -0.46084097027778625 -0.12844125926494598
0.4374193847179413 0.003963400609791279 0.2669876217842102
-0.053480543196201324 -0.36515259742736816 -0.3297310769557953
0.5651936531066895 0.25662484765052795 0.3417432904243469
-0.09297680854797363 -0.6444993615150452 0.15371356904506683
0.3539639115333557 -0.10496549308300018 -0.27179577946662903
0.18192167580127716 0.31226256489753723 0.3458213806152344
0.29876768589019775 -0.1511354297399521 -0.31316691637039185
-0.545741617679596 0.0009300841484218836 0.19231268763542175
-0.22556015849113464 0.399954617023468 0.25020360946655273
-0.3251599371433258 0.0016829757951200008 0.06873820722103119
-0.10095182806253433 -0.0007100459188222885 -0.31340131163597107
0.17729805409908295 -0.16438491642475128 -0.3666384518146515
-0.37839287519454956 -0.05445108935236931 -0.21062470972537994
-0.48926985263824463 0.08990868926048279 -0.4045743942260742
-0.14894580841064453 0.006385256070643663 -0.39009717106819153
-0.42849403619766235 0.003020163159817457 -0.16390150785446167
0.025702498853206635 0.40001264214515686 0.1609141230583191
0.5456274747848511 0.00128568010404706 0.3087477684020996
0.4495179057121277 -0.26849138736724854 0.0038616256788372993
-0.3422033190727234 0.4101908802986145 -0.04261559620499611
0.06891899555921555 0.002002282068133354 -0.24438205361366272
-0.5664731860160828 0.06157316640019417 0.268318235874176
0.506977379322052 0.15334147214889526 0.3434012830257416
-0.34837937355041504 0.0017600771971046925 0.3244788646697998
-0.5370649695396423 -0.0827307477593422 0.20258116722106934
0.10305575281381607 0.39878395199775696 -0.1132303848862648
0.1197148934006691 -0.6340354681015015 -0.27525895833969116
-0.4738277196884155 0.40187203884124756 0.12084132432937622
0.5869606733322144 0.31961295008659363 0.15125231444835663
0.11904412508010864 0.3994976282119751 -0.2362266480922699
0.4469437599182129 0.3999452292919159 -0.05930633097887039
0.01084657572209835 -0.17871960997581482 0.3044305443763733
-0.0008881621761247516 0.0011696708388626575 -0.10365244746208191
0.4391026496887207 -0.3598114550113678 -0.1183793693780899
0.08556615561246872 0.001990312710404396 0.18049128353595734
0.3719223737716675 -0.5617620944976807 -0.13973455131053925
-0.29805248975753784 0.0008798523340374231 0.052261222153902054
-0.36696526408195496 0.41501832008361816 -0.029283257201313972
0.0960703194141388 -0.5503788590431213 0.25936615467071533
0.2663595974445343 0.4018031656742096 0.2656114399433136
0.5760507583618164 0.3204878568649292 -0.3990439474582672
0.3219834268093109 -0.03164767846465111 0.3767840266227722
-0.32003840804100037 0.0007189046591520309 -0.24456830322742462
0.08313144743442535 0.3989947736263275 0.004805897828191519
0.0076194042339921 -0.6228370666503906 -0.1813114881515503
0.3231504559516907 0.24449437856674194 0.41131728887557983
0.2927010953426361 -0.42360925674438477 -0.24567894637584686
0.3146325945854187 -0.026819009333848953 0.33455538749694824
-0.33328887820243835 0.39923861622810364 0.18898239731788635
-0.09128115326166153 -0.6358462572097778 -0.23373901844024658
0.31016138195991516 0.39876043796539307 -0.2704595625400543
-0.3488888144493103 0.3518661856651306 0.034021031111478806
0.18821389973163605 -0.2613638639450073 -0.3630360960960388
0.2845153510570526 0.003142298199236393 0.11949323862791061
-0.09304945915937424 -0.6213977932929993 0.07435723394155502
0.2842712104320526 0.11256581544876099 0.46309077739715576
-0.052230216562747955 0.002029326744377613 -0.30060386657714844
0.026949390769004822 0.1610184609889984 0.39783889055252075
-0.3642854690551758 -0.0061047920025885105 -0.13504081964492798
0.05460211634635925 0.36349955201148987 0.3401167392730713
0.47924524545669556 0.0032039168290793896 0.3240371346473694
0.16711315512657166 -0.11935555189847946 0.31141263246536255
0.16459110379219055 -0.5628173351287842 -0.31019529700279236
-0.3830876350402832 0.3984304964542389 0.16589204967021942
-0.4535251557826996 0.23398183286190033 -0.40527427196502686
0.26997101306915283 -0.30289992690086365 -0.3301811218261719
-0.12561345100402832 -0.47109779715538025 0.15227490663528442
-0.4208727180957794 0.0022787265479564667 0.03366600722074509
-0.1932031214237213 -0.11647647619247437 0.1424218863248825
-0.0562765970826149 -0.12932629883289337 0.2782755196094513
-0.25478142499923706 -0.00021047797054052353 -0.07785447686910629
-0.37903156876564026 0.39863482117652893 0.15455341339111328
-0.2777256369590759 0.4011344015598297 -0.23745276033878326
0.1831873059272766 -0.36937496066093445 -0.36017414927482605
-0.36209288239479065 0.11393994092941284 0.34770384430885315
-0.4760738015174866 0.4055524170398712 -0.1083560660481453
0.5859223008155823 0.28519028425216675 0.09558770805597305
0.31276029348373413 0.36763933300971985 -0.40334275364875793
0.5827774405479431 0.06207244098186493 -0.21477699279785156
-0.5499637126922607 -0.06631427258253098 0.03384283185005188
-0.555755078792572 -0.0593232624232769 0.08909457176923752
-0.012408856302499771 0.0022114096209406853 0.21031808853149414
0.5293472409248352 0.003285493701696396 0.10461007803678513
0.23882830142974854 -0.03354668989777565 0.3241021931171417
-0.10650023818016052 0.05952918902039528 -0.40063273906707764
-0.5783079862594604 0.29280945658683777 -0.31069865822792053
0.3683323264122009 0.001371641643345356 -0.2612732946872711
0.21856921911239624 0.4682180881500244 0.40404221415519714
-0.47033220529556274 0.3917088508605957 -0.3943675756454468
0.14336444437503815 0.0019978443160653114 0.025908546522259712
0.25757235288619995 0.0027412092313170433 0.009916627779603004
-0.5663011074066162 0.0604928582906723 -0.39238736033439636
-0.47438254952430725 0.00022985832765698433 -0.025510244071483612
0.28709936141967773 -0.6521319150924683 0.15646687150001526
0.3508489429950714 -0.3807426989078522 -0.228790745139122
0.4516564905643463 -0.30696824193000793 -0.014002257958054543
-0.3338514268398285 0.0011504041031002998 -0.32413044571876526
0.29772335290908813 0.39871421456336975 0.06043513864278793
-0.11735841631889343 -0.4012041985988617 -0.22378726303577423
-0.06293271481990814 -0.03681331127882004 0.2736167907714844
0.5870304107666016 0.3630625307559967 0.2331109195947647
0.11488304287195206 0.12304279208183289 0.47013306617736816
-0.16596931219100952 -0.6463616490364075 0.048318687826395035
0.10415546596050262 -0.50691157579422 0.2607137858867645
0.06316694617271423 -0.5051780343055725 0.25703632831573486
0.03350086137652397 0.0013244668953120708 -0.05204661563038826
0.05298062413930893 -0.19109252095222473 0.31258395314216614
0.4225618839263916 -0.19966278970241547 -0.15930457413196564
0.35806596279144287 0.39842915534973145 -0.2967057526111603
-0.08021166920661926 -0.2576064467430115 -0.3217291235923767
-0.3614096939563751 0.0049984036013484 0.13670185208320618
0.06230195611715317 -0.006811449769884348 0.32432764768600464
0.39135047793388367 0.27509433031082153 -0.40358132123947144
0.17862878739833832 -0.6251135468482971 -0.03614882752299309
-0.1509893834590912 -0.4370834231376648 -0.16222481429576874
0.3776613175868988 0.002676616655662656 -0.1274147480726242
0.11009986698627472 0.0017077038064599037 0.045007456094026566
-0.23897835612297058 -0.16920636594295502 -0.030792582780122757
-0.498878538608551 0.0020738779567182064 0.24339334666728973
0.30494675040245056 0.0021960800513625145 0.2153761386871338
0.119401715695858 0.39786210656166077 -0.059483759105205536
-0.06306175887584686 -0.032881785184144974 0.2725932002067566
-0.5617352724075317 0.3795158863067627 0.013450796715915203
-0.12032130360603333 -0.627254843711853 -0.07850174605846405
-0.35889381170272827 0.01810484379529953 -0.06930521130561829
0.13352522253990173 -0.6258359551429749 0.061828892678022385
0.061499614268541336 -0.6248983144760132 -0.31144729256629944
-0.08784405887126923 -0.0058570001274347305 -0.28609609603881836
0.017092261463403702 0.23142652213573456 0.34739288687705994
0.582301676273346 0.3311644196510315 0.2775506377220154
0.29478195309638977 -0.1862584799528122 0.25978031754493713
-0.420617014169693 0.06328513473272324 -0.40317800641059875
-0.5584716200828552 0.38811740279197693 -0.11087343841791153
0.5835863947868347 0.11846471577882767 0.24407345056533813
-0.1456834226846695 -0.2266494482755661 -0.2701391875743866
-0.10949058830738068 -0.17951299250125885 0.2436702698469162
0.17813484370708466 -0.1484995037317276 -0.36743807792663574
-0.574069082736969 0.042803339660167694 0.04813897982239723
0.18360130488872528 0.19376495480537415 0.4694255292415619
-0.1103425845503807 0.39929652214050293 -0.37566715478897095
0.08509475737810135 0.44486483931541443 0.447754442691803
-0.4401908218860626 -0.09869709610939026 0.20015446841716766
0.07734662294387817 0.016245029866695404 0.4619102478027344
-0.31970909237861633 0.39799734950065613 0.2816459834575653
-0.5786627531051636 -0.002583632245659828 -0.1771482527256012
0.37354403734207153 -0.4785130023956299 0.07285997271537781
-0.4493379592895508 0.11770424991846085 0.16987687349319458
0.2418626993894577 -0.6597147583961487 0.2009429633617401
0.19206994771957397 -0.32204243540763855 0.30565252900123596
0.15174368023872375 0.0022118818014860153 -0.015508148819208145
-0.4415532350540161 0.09871925413608551 -0.06285066902637482
-0.12131426483392715 0.0005030954489484429 0.11001572012901306
0.0740237832069397 0.0020247455686330795 0.015348214656114578
0.27186307311058044 -0.2212844043970108 0.2731436491012573
-0.2400701642036438 -0.1020953580737114 -0.05009730905294418
0.20767192542552948 0.0719081237912178 -0.40110471844673157
-0.24092993140220642 -0.2912980020046234 -0.04449831321835518
0.35393500328063965 0.3978085219860077 0.2837788462638855
0.05626861751079559 0.3586263358592987 -0.40280821919441223
-0.23588146269321442 -0.12090840935707092 -0.06460907310247421
0.5882782936096191 0.2632044553756714 0.04136817902326584
-0.21768039464950562 -0.14646762609481812 0.10973834991455078
0.23589876294136047 0.037837766110897064 0.4659368395805359
0.5782150030136108 0.014001959003508091 -0.1975845992565155
0.3325788378715515 -0.006605501752346754 -0.2809179425239563
-0.5715938210487366 0.015023237094283104 0.07191161811351776
0.5345622897148132 0.0032578324899077415 0.09900415688753128
-0.4346923530101776 -0.09853631258010864 -0.03952885419130325
-0.3683229088783264 -0.029117558151483536 -0.2002270221710205
-0.11698316782712936 0.21922220289707184 -0.4061092734336853
-0.3690083622932434 0.3879663646221161 -0.3978229761123657
0.21473123133182526 0.39816856384277344 0.041526757180690765
-0.4336455762386322 -0.09603011608123779 0.08440075069665909
0.0415872260928154 -0.626569926738739 -0.17284055054187775
0.0019725870806723833 0.002433127723634243 0.20659005641937256
-0.4913235306739807 -0.10289774090051651 -0.3412456214427948
-0.09855964034795761 0.0008705491200089455 -0.20412486791610718
-0.3035748302936554 0.3985343873500824 -0.1603955775499344
-0.3782517611980438 -0.052259914577007294 -0.2328834980726242
0.2858486771583557 0.439640611410141 0.36207038164138794
0.37813815474510193 -0.38886433839797974 -0.14070488512516022
0.33761662244796753 0.10883381962776184 0.3464467227458954
-0.04809055104851723 -0.5050638318061829 -0.26763448119163513
0.14776931703090668 0.4013480246067047 -0.29359427094459534
0.3171667456626892 0.4000781774520874 -0.3326568901538849
0.4282621741294861 0.39993733167648315 -0.28933340311050415
0.010091295465826988 -0.6242846846580505 -0.232918843626976
0.09622013568878174 0.001982554793357849 0.09751389175653458
0.26814359426498413 -0.3774091303348541 -0.31046077609062195
-0.4666711390018463 0.40045469999313354 -0.1559710055589676
-0.17316222190856934 -0.4289618134498596 0.06209598109126091
-0.3020716607570648 0.06344406306743622 0.34627893567085266
0.3763049244880676 0.01411320362240076 0.3425992727279663
0.5029618740081787 0.39921557903289795 0.15110068023204803
0.26146063208580017 -0.39902451634407043 0.2094617486000061
-0.14258012175559998 -0.5836582779884338 0.11834346503019333
-0.41164425015449524 0.4210158586502075 -0.11161267757415771
0.1444404125213623 0.0022353818640112877 -0.11970742046833038
-0.15460538864135742 0.39898794889450073 0.001638710731640458
0.20092442631721497 -0.30026984214782715 0.303403377532959
0.11229518800973892 -0.6260369420051575 -0.2409059852361679
-0.5372026562690735 0.3892028033733368 -0.03798111528158188
-0.1266331672668457 -0.5734480619430542 -0.2119946926832199
-0.3418430984020233 0.16696570813655853 -0.4055723547935486
0.5886709690093994 0.1942979097366333 -0.14385683834552765
-0.5742855072021484 0.04617408663034439 -0.04640805348753929
0.08284085243940353 -0.6240032315254211 0.050224319100379944
-0.22598576545715332 -0.3560945987701416 0.06892626732587814
0.2932933568954468 0.06279394030570984 0.3465535044670105
0.1174243614077568 -0.0807533711194992 -0.3730151951313019
-0.16301573812961578 0.19113092124462128 -0.40401360392570496
-0.44627541303634644 -0.10237082093954086 0.060081180185079575
-0.061381399631500244 0.002186558209359646 0.09606821835041046
0.23415255546569824 0.00249124551191926 -0.05589333921670914
0.26180899143218994 0.3987903296947479 -0.048647742718458176
0.2527860999107361 0.31386494636535645 0.46730294823646545
-0.37295782566070557 0.007497311104089022 -0.3793542981147766
-0.583086371421814 0.23576955497264862 0.13116104900836945
0.37668853998184204 -0.3830256462097168 0.07533732056617737
-0.5163014531135559 0.34005263447761536 -0.4032628834247589
0.21220751106739044 0.39874669909477234 0.22009581327438354
-0.4802057445049286 -0.10484273731708527 -0.1958673894405365
-0.5705762505531311 -0.00034995866008102894 0.09194272756576538
-0.06546405702829361 -0.16215728223323822 -0.3297664225101471
0.4410664737224579 -0.12607890367507935 0.05759305879473686
0.3136098384857178 0.003901488147675991 -0.001996282720938325
0.3989270031452179 0.39539581537246704 0.3407066762447357
-0.35975879430770874 0.013464556075632572 0.10171879827976227
0.04239324480295181 -0.6280471086502075 -0.1615390181541443
0.13816379010677338 0.0017095361836254597 0.026204513385891914
-0.22254541516304016 0.3994190990924835 -0.05555489659309387
-0.01733287051320076 -0.6255321502685547 0.10807646811008453
-0.37224888801574707 -0.002738329116255045 -0.25393351912498474
-0.44727039337158203 0.048816680908203125 0.3507072627544403
0.07714395225048065 -0.6231677532196045 -0.002837156178429723
-0.07630807906389236 -0.30947744846343994 0.2649185359477997
0.16323022544384003 -0.02640306018292904 -0.3638303875923157
-0.021379122510552406 0.3996753394603729 -0.08616805076599121
