0.070020392537117 -0.12200285494327545 -0.3639790415763855
0.22880977392196655 -0.0004930803552269936 -0.3289977014064789
0.32643985748291016 -0.5858964920043945 -0.2257525771856308
0.4977634847164154 0.3393469750881195 -0.40231990814208984
0.20055609941482544 0.00031560659408569336 0.2384205013513565
0.1994854211807251 0.007726795971393585 -0.3998761475086212
0.35283276438713074 0.005528723821043968 0.1304330825805664
-0.5636869668960571 -0.01139175333082676 0.10412747412919998
-0.23696227371692657 -0.21717245876789093 -0.07276549190282822
0.19443616271018982 -0.513762354850769 0.24717608094215393
0.20143848657608032 0.4021316468715668 0.18187476694583893
0.5415841341018677 0.4005151689052582 -0.18560533225536346
0.44936802983283997 0.11274516582489014 -0.40774300694465637
-0.5916152000427246 0.3473491370677948 -0.3932921290397644
0.18067073822021484 -0.0006627300754189491 0.16053278744220734
-0.235439270734787 0.000830099917948246 -0.3436247706413269
-0.29381147027015686 0.343728244304657 -0.14872850477695465
-0.0613965168595314 -0.00010685878805816174 -0.32008764147758484
0.2455335557460785 -0.01802928000688553 0.32713252305984497
0.5683262944221497 0.38504278659820557 0.3337313234806061
0.3879512846469879 0.12177532911300659 -0.4069328308105469
-0.3410685360431671 0.002856341190636158 0.14855201542377472
0.3598928451538086 -0.03675909712910652 -0.27864590287208557
0.1214052215218544 -0.17349617183208466 0.31763845682144165
-0.06984253972768784 0.39704686403274536 -0.39382925629615784
0.3986641764640808 -0.3965640664100647 -0.015913410112261772
0.374834805727005 -0.6031343340873718 -0.12276710569858551
-0.5863801836967468 0.09285784512758255 0.05469192937016487
0.4616028964519501 0.00099763716571033 -0.09908808022737503
0.208896204829216 0.47411400079727173 0.42019322514533997
-0.0467994399368763 0.3996252119541168 -0.37925583124160767
-0.3289455473423004 0.058280885219573975 -0.3993760347366333
-0.062165822833776474 0.17296363413333893 -0.4068910479545593
0.09511835128068924 0.39873018860816956 0.2191142439842224
0.3033396303653717 -0.09311248362064362 0.25193631649017334
0.20632316172122955 0.40462929010391235 -0.10614272207021713
0.5931130051612854 0.08548132330179214 -0.18806308507919312
-0.2168906331062317 0.4014929533004761 0.17031066119670868
0.44781064987182617 -0.03382889926433563 -0.02341393567621708
-0.5382753014564514 0.07656893879175186 0.11773250252008438
-0.4553675055503845 -0.10597457736730576 -0.29377472400665283
0.5939074158668518 0.08574332296848297 -0.33450379967689514
-0.39077356457710266 0.077455535531044 -0.03650104999542236
0.11454709619283676 0.4267425835132599 0.4506971836090088
0.5931400656700134 0.03560832515358925 -0.24026073515415192
0.5372939109802246 0.40161409974098206 -0.3947734236717224
-0.48416295647621155 -0.11146235466003418 -0.1369631141424179
0.4991905391216278 0.0036548878997564316 -0.16026456654071808
0.08550427109003067 -0.6210789680480957 0.2625765800476074
-0.1924152821302414 -0.17660148441791534 0.15885676443576813
0.1581382304430008 -0.6196531653404236 -0.07240521162748337
0.16012485325336456 0.0020366511307656765 -0.015584418550133705
-0.48044273257255554 -0.08693061769008636 -0.11226437985897064
0.2999388873577118 0.40367451310157776 -0.10756132006645203
0.382831335067749 -0.45381802320480347 0.023339666426181793
0.014262658543884754 -0.3730233609676361 -0.34173741936683655
-0.5629428625106812 0.28394776582717896 0.27782928943634033
-0.5322150588035583 0.07608950883150101 0.26966747641563416
0.09058251231908798 -0.5717661380767822 -0.3151499330997467
-0.5008987188339233 0.3540639877319336 -0.13370560109615326
0.02711564674973488 0.0010996479541063309 -0.12748663127422333
-0.5778541564941406 -0.02936617285013199 -0.31157028675079346
0.14765925705432892 0.37979990243911743 0.46498510241508484
-0.026457123458385468 -0.2396497279405594 -0.3460368812084198
0.5919090509414673 0.014334076084196568 -0.34328657388687134
-0.28798022866249084 0.000733904424123466 -0.17404073476791382
0.4254992604255676 -0.061334677040576935 0.11756075173616409
-0.4696336090564728 0.11177966743707657 0.1342427134513855
0.06938569992780685 0.4048399329185486 0.20072005689144135
0.5804343223571777 0.014809973537921906 -0.2560238242149353
0.20988860726356506 0.0008383539970964193 0.1586596965789795
-0.1307573765516281 0.0006790367187932134 0.10727009922266006
0.2796235680580139 -0.6276365518569946 -0.08168242871761322
0.17415942251682281 0.0020529464818537235 0.17491769790649414
0.4413609802722931 -0.3500887453556061 -0.019788969308137894
0.3519488275051117 -0.25723797082901 0.20243386924266815
0.2522830069065094 -0.09450866281986237 0.282035768032074
-0.4703369438648224 0.17255204916000366 -0.40375179052352905
-0.16240663826465607 0.3958577811717987 -0.16339127719402313
-0.5194353461265564 0.10944473743438721 0.04026469960808754
-0.1263086497783661 0.3497880697250366 0.34159812331199646
0.45117005705833435 -0.059225309640169144 -0.012377448379993439
0.39577212929725647 -0.3036850094795227 0.14672869443893433
0.02445826679468155 0.2302776724100113 0.45167601108551025
0.15172305703163147 0.0019369148649275303 -0.3879026770591736
-0.10084623098373413 -0.19620269536972046 0.26053449511528015
0.3518151640892029 0.3221748173236847 -0.4019739329814911
0.295367956161499 -0.6483405232429504 -0.20898698270320892
-0.24448712170124054 0.4031897783279419 -0.25342634320259094
0.573618471622467 0.3898879289627075 0.05607141926884651
0.2260427474975586 0.1433533877134323 -0.4064820110797882
0.5878173112869263 0.2953704297542572 -0.1953127235174179
0.28289511799812317 0.0034450064413249493 -0.025076866149902344
-0.5280472636222839 0.26261407136917114 0.34491026401519775
-0.18240147829055786 -0.6353794932365417 -0.042147863656282425
-0.4665394723415375 -0.025594638660550117 -0.3942526876926422
0.11463925242424011 -0.1005619689822197 0.31886932253837585
-0.055273815989494324 0.0008810923900455236 -0.16661378741264343
-0.26674172282218933 0.35643818974494934 -0.4037531614303589
0.4215955436229706 -0.37892216444015503 0.0005188686773180962
0.4496448040008545 0.00294987834058702 0.19609610736370087
-0.45862752199172974 -0.09987125545740128 0.139754980802536
-0.024110611528158188 0.0029002251103520393 0.2507983446121216
-0.5500670671463013 0.07568121701478958 -0.3651273846626282
-0.43263909220695496 -0.05826907604932785 -0.39743930101394653
0.21288351714611053 -0.18777862191200256 0.2982988655567169
-0.33332258462905884 0.1485527902841568 -0.3938389718532562
0.1837732046842575 0.39976340532302856 0.26130494475364685
0.09441743791103363 0.285540372133255 0.46666455268859863
0.2568369209766388 0.0018962209578603506 0.19411982595920563
0.26154425740242004 0.39518898725509644 -0.3933628499507904
0.19033025205135345 -0.37965548038482666 0.3017131984233856
0.11643397808074951 -0.08889137208461761 0.43531686067581177
-0.05484183132648468 -0.29823580384254456 0.28311488032341003
-0.18937920033931732 -0.24568824470043182 -0.21704714000225067
-0.563318133354187 0.3668181002140045 0.3133081793785095
0.05866419896483421 0.0010144851403310895 0.12677662074565887
-0.04863565415143967 0.0008107700850814581 0.15121756494045258
-0.5716097354888916 0.288455992937088 0.3158178925514221
0.18332871794700623 0.4619129002094269 0.36735212802886963
0.5526883006095886 0.18759433925151825 0.3395005166530609
-0.36791083216667175 0.0954761952161789 -0.40152081847190857
-0.41471660137176514 0.10769093781709671 -0.04806593805551529
-0.5270788073539734 -0.09383320808410645 -0.0790291577577591
-0.03495212644338608 0.3971577286720276 -0.004963341169059277
-0.09111348539590836 -0.08269248157739639 0.24694080650806427
-0.019117895513772964 0.3994913101196289 -0.28524473309516907
-0.05146554112434387 0.401141494512558 0.027443287894129753
0.07382436096668243 -0.2650723159313202 -0.37465789914131165
-0.5760568380355835 0.04630907624959946 -0.15526795387268066
0.3362468183040619 0.3890441358089447 0.35741931200027466
0.5760993361473083 0.07195870578289032 -0.19621175527572632
0.35546499490737915 0.40030932426452637 -0.1477936953306198
-0.3167015016078949 0.13510631024837494 0.34767720103263855
0.06991160660982132 -0.06339234113693237 -0.3724123239517212
0.31461361050605774 -0.02010146714746952 0.4639852046966553
0.03019515611231327 0.3649424910545349 0.387942373752594
0.09933839738368988 -0.0004916191101074219 0.07723961770534515
-0.27988576889038086 0.1967957615852356 0.33840298652648926
-0.370395690202713 -0.021047186106443405 0.0889996811747551
-0.24466383457183838 0.397510290145874 0.19951528310775757
0.27922505140304565 -0.6220199465751648 0.02443806640803814
0.10423076897859573 0.37585118412971497 0.3448064923286438
-0.04905004799365997 -0.6215604543685913 -0.21063858270645142
0.3126543462276459 0.0031268042512238026 0.13256023824214935
0.20115023851394653 0.006078069098293781 -0.39615532755851746
-0.3330570459365845 0.35458478331565857 0.017840221524238586
-0.2543312907218933 -0.00028184428811073303 -0.2799917161464691
-0.07003063708543777 -0.4127809703350067 0.20714810490608215
-0.023058677092194557 0.29126936197280884 0.35498368740081787
0.3975880742073059 0.4051010310649872 -0.0031301251146942377
-0.24258071184158325 0.2024204283952713 0.3455731272697449
0.2327304631471634 -0.5705006718635559 0.22808362543582916
-0.17253628373146057 0.400941401720047 0.1097392663359642
0.13194449245929718 0.0019541196525096893 -0.02729794941842556
-0.4304299056529999 0.4038175344467163 0.25752583146095276
0.4741118252277374 0.2509547472000122 -0.40651842951774597
0.03704370930790901 -0.004502760246396065 0.29908138513565063
-0.587067723274231 0.15554587543010712 -0.15320944786071777
-0.4683021008968353 0.15533509850502014 -0.400150865316391
-0.4288293719291687 0.11083166301250458 0.1298406571149826
0.30398327112197876 -0.6425483226776123 -0.24145683646202087
0.326310396194458 0.14634166657924652 0.3435398042201996
-0.45526644587516785 -0.0007715066894888878 0.025593487545847893
0.24903525412082672 -0.5718949437141418 -0.27339211106300354
-0.4746105372905731 0.39725810289382935 -0.14316320419311523
0.3025299608707428 0.3702823519706726 -0.40496569871902466
0.28329306840896606 0.09754467010498047 0.46377548575401306
0.21633736789226532 0.4004294276237488 0.30191588401794434
-0.5524628758430481 0.31852591037750244 0.33486703038215637
0.2500777840614319 -0.5714824199676514 0.2230369746685028
0.5854533314704895 0.33009767532348633 -0.03662274777889252
0.3559780418872833 0.4009992778301239 -0.16790799796581268
0.5836382508277893 0.2796761393547058 -0.02548326924443245
-0.370828777551651 -0.0036008311435580254 0.23675623536109924
-0.4015261232852936 0.09493362158536911 0.1764160692691803
-0.14395055174827576 -0.47097155451774597 -0.18070140480995178
-0.031183967366814613 -0.6137630939483643 0.003177575534209609
0.4808916747570038 0.14429762959480286 -0.40110456943511963
0.532565712928772 0.4033640921115875 -0.3356076180934906
0.35060736536979675 -0.05584296956658363 -0.2557837963104248
0.2808617055416107 -0.5013371706008911 0.1915004998445511
-0.44690072536468506 0.4074831008911133 -0.19817300140857697
0.3031231462955475 0.3061422109603882 -0.39733150601387024
-0.17788851261138916 -0.3891669809818268 0.14339523017406464
-0.2162676453590393 -0.08323966711759567 -0.17161980271339417
-0.0854397714138031 -0.6316344141960144 0.12738023698329926
0.10545963048934937 0.38646286725997925 0.337935209274292
-0.529650092124939 -0.06779777258634567 0.029613055288791656
-0.19801336526870728 -0.3778892755508423 -0.1899046003818512
0.3232353627681732 0.4040704071521759 0.1484120637178421
-0.18943347036838531 -0.19109730422496796 0.13388292491436005
0.3638274669647217 -0.6455172300338745 -0.033882297575473785
0.09641574323177338 0.40126490592956543 -0.14201970398426056
-0.524372935295105 -0.04355746880173683 -0.39702099561691284
0.35482674837112427 0.30957964062690735 0.34155210852622986
0.03408903628587723 0.28211262822151184 -0.40089020133018494
-0.3713224530220032 -0.02034800872206688 0.29628896713256836
-0.46113449335098267 0.08305609226226807 0.3409692943096161
0.48782217502593994 0.4006555676460266 -0.3325578570365906
-0.0551387220621109 0.10683369636535645 -0.40676167607307434
-0.41797176003456116 0.018000485375523567 0.3493436574935913
0.2726879119873047 0.07642122358083725 -0.4057065546512604
-0.12982609868049622 0.002521357499063015 0.02797972783446312
0.11073508113622665 0.23715078830718994 -0.4062672257423401
0.07979059219360352 0.0020887507125735283 -0.17701497673988342
-0.5797491073608398 0.30619171261787415 -0.28719186782836914
-0.5433139801025391 -0.07060200721025467 -0.36540472507476807
0.04289841651916504 -0.015618650242686272 0.29965245723724365
0.16466140747070312 -0.6201120615005493 0.0493512861430645
-0.5709139704704285 0.2102789282798767 -0.06345826387405396
0.05464246869087219 0.2348424196243286 -0.40388375520706177
0.3270374834537506 0.39409586787223816 -0.399953156709671
0.44177478551864624 -0.011326915584504604 -0.019663695245981216
0.4142940044403076 0.3980724811553955 -0.3949447572231293
0.5212765336036682 0.4014817476272583 -0.20587916672229767
0.514456033706665 0.3998684585094452 0.11500366032123566
0.5643969178199768 0.006888147443532944 -0.39001816511154175
0.4774082899093628 0.001794059295207262 -0.11114564538002014
0.2792121171951294 -0.49429088830947876 -0.2497689127922058
-0.4404241740703583 -0.098085917532444 -0.3257353901863098
0.5945464968681335 0.21469751000404358 -0.13108909130096436
0.1733575463294983 -0.10418957471847534 -0.35613813996315
0.5670071244239807 0.3936105966567993 0.16806019842624664
0.24888640642166138 -0.6142734289169312 0.03684459254145622
-0.569402277469635 -0.05034920945763588 -0.22634556889533997
0.5814411640167236 0.20736734569072723 -0.3091552257537842
0.5892143845558167 0.08812027424573898 0.2370021492242813
0.3616958260536194 0.015308541245758533 -0.40624281764030457
0.4631156027317047 0.0003106864169239998 -0.010774310678243637
-0.4829413592815399 -0.1136702224612236 -0.13622581958770752
-0.1949225813150406 -0.2571835219860077 -0.19435276091098785
-0.030982300639152527 -0.47076529264450073 -0.2813229560852051
0.5804783701896667 0.3943423926830292 -0.355273962020874
-0.4744711220264435 0.11820422112941742 -0.3022240698337555
0.10638763010501862 0.0027594035491347313 -0.25327610969543457
0.2821882963180542 0.4021754860877991 0.25608959794044495
-0.5870221257209778 0.06480251997709274 0.030874943360686302
-0.1414720118045807 -0.1320277899503708 0.23123641312122345
0.4466853737831116 -0.2622612416744232 -0.06486770510673523
-0.13919754326343536 0.0012419326230883598 0.07427863031625748
-0.4035038650035858 -0.07071850448846817 -0.38299188017845154
-0.0539674237370491 -0.5723221898078918 -0.2720143496990204
0.3255248963832855 -0.37676867842674255 0.18084284663200378
0.06031236797571182 0.0005340492352843285 -0.2286709100008011
0.4881499111652374 0.3983863592147827 -0.40012359619140625
-0.5217492580413818 0.04460020363330841 0.3499174118041992
-0.5648595690727234 0.10832231491804123 0.06130744516849518
-0.15515464544296265 0.002059641294181347 -0.10615117847919464
-0.13634923100471497 -0.005810043308883905 0.22868573665618896
0.29964500665664673 0.4311951994895935 0.4455743730068207
0.3467063307762146 -0.21113377809524536 -0.2762148380279541
0.21852943301200867 -0.6200664043426514 0.14799584448337555
0.003021493088454008 0.16749757528305054 0.3459240198135376
-0.30349430441856384 0.002452915534377098 0.25812914967536926
0.28303900361061096 0.4696353077888489 0.4114605188369751
0.45311224460601807 -0.24161486327648163 -0.00496432650834322
0.1201959103345871 -0.4327382743358612 0.26609939336776733
0.15989474952220917 -0.6429940462112427 -0.31109854578971863
0.39887478947639465 -0.42595961689949036 -0.012805238366127014
-0.4825238585472107 -0.09803614765405655 -0.3489508032798767
-0.5885093212127686 0.24479612708091736 -0.09906139969825745
0.25735583901405334 0.08291002362966537 -0.39537525177001953
-0.11740747839212418 0.4013834595680237 0.06794141978025436
-0.5855413675308228 0.32807430624961853 0.228032186627388
0.12018129229545593 0.003533005714416504 0.026361385360360146
0.43526557087898254 -0.34630751609802246 0.021556956693530083
0.006514706648886204 0.4012540280818939 -0.24141988158226013
0.35383281111717224 0.0033744368702173233 0.17295099794864655
0.5964751839637756 0.3200998902320862 -0.16424526274204254
0.3625020980834961 -0.3743152320384979 -0.16355612874031067
-0.16144146025180817 -0.41891682147979736 0.10444110631942749
-0.09447775781154633 0.001185920089483261 -0.24960017204284668
0.27266043424606323 -0.6237605810165405 0.06689021736383438
-0.4871737062931061 0.10901864618062973 0.10675802081823349
0.13754719495773315 -0.49774327874183655 0.2631993591785431
0.06743822991847992 -0.5396550297737122 0.2612300515174866
-0.5759274363517761 0.27532854676246643 0.15201760828495026
-0.3876650333404541 0.06749143451452255 0.18730397522449493
0.5807746648788452 0.02810756117105484 -0.3993831276893616
0.32970768213272095 -0.6032812595367432 0.14655785262584686
-0.03889290615916252 -0.0006524920463562012 0.17215755581855774
0.26288041472435 0.29272279143333435 0.46693843603134155
-0.5688683986663818 0.03275347873568535 0.03196234256029129
0.4150031507015228 0.26655930280685425 0.34204810857772827
-0.45982590317726135 0.041368283331394196 0.3391941785812378
0.17029553651809692 0.001571443397551775 -0.23362556099891663
0.17039825022220612 0.3920452296733856 0.46035075187683105
-0.10456585884094238 -0.6263198256492615 -0.15340670943260193
0.1582585871219635 0.3188416361808777 0.4667930603027344
0.1662949025630951 0.0009291865862905979 -0.2609337866306305
0.5743984580039978 0.39334508776664734 -0.21130400896072388
-0.2662747800350189 0.39843225479125977 -0.16006962954998016
0.011429809033870697 -0.47833409905433655 0.2512674033641815
-0.5020992755889893 0.40068161487579346 0.2956370413303375
-0.21454735100269318 0.0012833564542233944 -0.08854394406080246
0.07569853961467743 0.40377330780029297 0.37669727206230164
0.5857810378074646 0.3356837332248688 0.2592135965824127
0.31805309653282166 0.06683965027332306 0.4637258052825928
-0.0606980174779892 -0.49965956807136536 0.21607697010040283
-0.4237822890281677 0.0790272206068039 -0.40076935291290283
-0.08415008336305618 -0.455159068107605 0.19097942113876343
-0.4648921489715576 0.32971611618995667 -0.1540759652853012
0.24712496995925903 -0.0047593628987669945 0.2841092348098755
-0.4544353187084198 0.1219063252210617 0.2560103237628937
-0.02704877406358719 0.0008927723974920809 0.3288390636444092
0.04581822454929352 0.0030195722356438637 0.2402188777923584
0.2660902142524719 0.3995249271392822 -0.3493470251560211
-0.18341970443725586 0.3936459422111511 0.0025723509024828672
0.17748962342739105 -0.6276992559432983 -0.20124176144599915
-0.5645481944084167 0.002801154274493456 0.13460856676101685
0.18964074552059174 -0.33142775297164917 -0.3480520248413086
-0.5640122890472412 0.3794908821582794 -0.17224723100662231
0.1093769297003746 -0.1313251107931137 -0.3727801740169525
0.3347039818763733 0.005495153367519379 -0.009111611172556877
-0.3459567129611969 0.40358391404151917 -0.05308566614985466
0.1326659470796585 -0.04765321686863899 0.31565481424331665
-0.5779339671134949 0.07738399505615234 0.019534491002559662
-0.06192588433623314 0.003008107654750347 -0.0035788603127002716
0.4739574193954468 0.004310366697609425 0.054795458912849426
0.004554251674562693 0.0008858422515913844 0.03699445351958275
0.01409099344164133 0.3987191915512085 0.09062710404396057
0.14844918251037598 0.44387027621269226 0.4453318119049072
-0.2528582811355591 -0.0002602841705083847 0.15587118268013
-0.4899803400039673 0.10453787446022034 0.05883130058646202
0.31766027212142944 0.4591101408004761 0.3609085977077484
0.23124223947525024 -0.6362385153770447 0.2160116583108902
-0.47969579696655273 0.41495281457901 -0.11505691707134247
0.34864145517349243 -0.001592986285686493 -0.37681737542152405
-0.5722039341926575 -0.03010518103837967 -0.06511615961790085
0.18802706897258759 0.10414890199899673 -0.40628230571746826
0.1720174252986908 -0.4367924928665161 0.259503573179245
-0.187314972281456 -0.06899530440568924 -0.23541854321956635
-0.4894772171974182 -0.09406612813472748 -0.3912459909915924
-0.4929918050765991 0.11640945076942444 -0.023834941908717155
-0.23971781134605408 -0.2534709572792053 0.050287626683712006
0.4637454152107239 0.40003669261932373 0.2642993628978729
-0.42408487200737 0.005063150078058243 0.24293503165245056
-0.1298494040966034 0.4012085199356079 0.01628143899142742
0.16704483330249786 -0.4085923731327057 -0.3093259036540985
0.03050580993294716 0.11824672669172287 0.3486004173755646
0.4441549777984619 -0.28989192843437195 -0.051142480224370956
-0.19103138148784637 -0.42692357301712036 -0.021717580035328865
-0.17671403288841248 -0.4848252236843109 0.04097489267587662
0.14328633248806 -0.3154759705066681 -0.3667830228805542
-0.4930480122566223 0.38832998275756836 -0.39931952953338623
0.0716843456029892 0.07846518605947495 0.46574437618255615
-0.4771944284439087 0.23613491654396057 0.3338497579097748
-0.0396416075527668 -0.6188793182373047 -0.0298229418694973
-0.5640327334403992 0.07148736715316772 0.1729230135679245
0.34591951966285706 0.0019065910018980503 -0.008515436202287674
-0.23892426490783691 0.11462119966745377 0.34570083022117615
-0.3936499059200287 -0.08006144315004349 -0.2643575072288513
-0.10559101402759552 0.0013203676789999008 -0.21037107706069946
-0.5661377310752869 -0.0586957186460495 0.05259821191430092
0.10724693536758423 -0.10541202872991562 -0.3674485683441162
0.2903132140636444 -0.38643404841423035 -0.2713256776332855
0.4470834732055664 0.3990335464477539 0.16715674102306366
0.32756203413009644 0.39764267206192017 0.18949781358242035
0.2347443699836731 0.40060123801231384 -0.3027498424053192
0.34802258014678955 -0.3708358108997345 0.16273099184036255
-0.37597835063934326 0.0015320074744522572 -0.08245585113763809
-0.56914883852005 0.33480551838874817 0.3409188985824585
-0.43838411569595337 -0.004677935969084501 -0.11296126991510391
-0.16997523605823517 -0.6361629366874695 -0.007777126505970955
0.2598748803138733 -0.482854962348938 0.22185584902763367
-0.040034353733062744 0.1322624236345291 0.36407309770584106
0.39644885063171387 0.0005450169555842876 -0.01894170418381691
0.025614634156227112 -0.6218251585960388 0.09684579819440842
-0.5202287435531616 -0.08785533159971237 0.1845323145389557
0.32247135043144226 0.2905465364456177 0.4430598318576813
-0.5833137631416321 0.19067694246768951 -0.39363738894462585
-0.22023725509643555 -0.15379561483860016 0.07309040427207947
-0.36754077672958374 0.005143884569406509 0.049062568694353104
-0.08533573150634766 -0.6423938870429993 -0.20070162415504456
-0.5699632167816162 -0.01216133963316679 -0.20927785336971283
-0.118235282599926 0.34100937843322754 -0.4024990200996399
0.43215492367744446 -0.3574947714805603 -0.1203283742070198
-0.28108495473861694 0.4015561640262604 0.2723260521888733
0.2025943547487259 0.0017450358718633652 -0.0683923214673996
0.25173842906951904 -0.07946957647800446 0.40743038058280945
-0.16757695376873016 0.24506159126758575 -0.3994625508785248
-0.3321177065372467 0.0011824779212474823 -0.3145327568054199
0.20916038751602173 -0.6207151412963867 0.10999472439289093
0.19849783182144165 -0.593974232673645 -0.30468249320983887
0.09827888011932373 0.39519521594047546 -0.3941898047924042
-0.23802220821380615 0.39672142267227173 0.021953394636511803
0.5218891501426697 0.0011139633134007454 -0.11668083816766739
0.36687496304512024 0.3191441297531128 0.3455817997455597
-0.42181092500686646 0.39777180552482605 0.2063789814710617
-0.07888635993003845 -0.5472521781921387 0.19338463246822357
0.35167279839515686 -0.48867955803871155 0.1240522488951683
-0.006503523327410221 -0.0011001517996191978 0.292844295501709
0.3408690392971039 0.4021751582622528 -0.23951928317546844
-0.5760776400566101 0.10064473748207092 -0.018070146441459656
0.3325416147708893 0.3595918118953705 0.41658544540405273
-0.4067843556404114 -0.0779721662402153 0.3193883001804352
-0.018466167151927948 -0.14741504192352295 -0.3592531681060791
-0.4967903792858124 0.0003729620948433876 0.26153790950775146
-0.5486935973167419 0.39475029706954956 -0.09103834629058838
-0.15436561405658722 -0.44065722823143005 -0.14198824763298035
-0.5445088148117065 -0.06813819706439972 0.2127642184495926
0.10583015531301498 -0.6220378279685974 -0.07271542400121689
-0.33653900027275085 0.39483407139778137 -0.3927305042743683
-0.16794727742671967 -0.4046348035335541 -0.10514676570892334
0.17997607588768005 -0.624017596244812 -0.19851820170879364
-0.2456381618976593 0.36964380741119385 0.34057319164276123
0.14896592497825623 0.46262025833129883 0.3988795280456543
-0.03828581050038338 0.39566534757614136 -0.3381972908973694
0.22707030177116394 0.12325505167245865 0.3436430096626282
-0.5176331400871277 0.0035371268168091774 0.28620445728302
-0.4087027311325073 0.09057152271270752 -0.03692237660288811
-0.5793397426605225 0.07326946407556534 0.14973093569278717
0.16454854607582092 0.0012921764282509685 0.09999755769968033
0.3364291191101074 0.31855064630508423 -0.3994276225566864
-0.11336033046245575 0.002665397711098194 0.10848798602819443
-0.214100643992424 -0.0003610840067267418 0.23941296339035034
-0.38446128368377686 0.002128828316926956 0.24649716913700104
0.20123492181301117 0.40100225806236267 -0.15682494640350342
-0.3083983063697815 0.4015084505081177 0.1637488156557083
0.05410948395729065 0.20412421226501465 0.3436836004257202
-0.5898955464363098 0.2847982347011566 0.2387346625328064
0.26696375012397766 0.40134197473526 0.012999416328966618
0.43222254514694214 -0.20714382827281952 0.08963418751955032
-0.07430388778448105 0.39519742131233215 -0.34068286418914795
-0.5775342583656311 0.08191141486167908 -0.0418822318315506
0.14160817861557007 0.002072286792099476 -0.11668163537979126
-0.519212007522583 0.07451826333999634 0.22971747815608978
0.544427216053009 0.40021926164627075 0.29865625500679016
0.025996273383498192 5.410262383520603e-05 0.27820536494255066
0.4359757602214813 -0.2766786217689514 0.05397680774331093
0.04961472004652023 -0.6198201775550842 -0.11664070188999176
0.39483314752578735 0.001778620295226574 -0.1958531141281128
-0.42913132905960083 0.40773460268974304 -0.1270575225353241
0.3815139830112457 0.3981345593929291 0.1296016424894333
-0.5559159517288208 -0.08007121831178665 -0.07559777796268463
0.16439874470233917 0.4002026319503784 -0.25354665517807007
0.35441112518310547 -0.5376805067062378 0.11105494201183319
-0.2678115963935852 0.0003011173103004694 0.206821009516716
-0.534578263759613 0.09176245331764221 -0.04007827118039131
0.3500327467918396 -0.37626171112060547 -0.2696651220321655
-0.5888360142707825 0.1688849925994873 0.05971049517393112
-0.2914502024650574 0.3953551948070526 -0.223454549908638
0.5768130421638489 0.16639146208763123 -0.019147107377648354
-0.5603343844413757 -0.03784382715821266 0.25044816732406616
0.1387057900428772 -0.6162585616111755 0.2027123123407364
0.26503440737724304 -0.31803080439567566 0.2832097113132477
-0.5919984579086304 0.11198858916759491 -0.2669714391231537
-0.5610613226890564 0.30000224709510803 0.18388088047504425
-0.5813660025596619 0.34822869300842285 -0.1888183355331421
-0.014410724863409996 -0.0010125720873475075 -0.3491821587085724
-0.25294360518455505 -0.17685508728027344 -0.04866873845458031
-0.5244505405426025 0.07520627230405807 0.21305254101753235
-0.22259996831417084 0.0018229791894555092 -0.05275575816631317
0.1892780065536499 -0.6307051181793213 -0.25282159447669983
0.43650785088539124 -0.1152346283197403 0.06206607073545456
0.057471830397844315 0.002247150521725416 0.09063123166561127
0.5867187976837158 0.3381306827068329 0.20697031915187836
0.29278573393821716 0.12973439693450928 0.463617742061615
0.5842729210853577 0.11205603927373886 -0.1369592249393463
-0.253399133682251 0.1778537631034851 -0.3982013761997223
0.4505687355995178 -0.3087073564529419 -0.03877592086791992
0.3946131467819214 -0.06281168758869171 -0.20754720270633698
-0.5761401057243347 0.2427193522453308 -0.06492790579795837
-0.06841341406106949 -0.6186580061912537 0.0869593620300293
-0.2991759479045868 0.1706802099943161 0.3459348976612091
0.3875531852245331 -0.5720891952514648 -0.08297701179981232
-0.5767424702644348 0.3581349849700928 -0.3996354639530182
0.10281921923160553 0.4012072682380676 -0.2695363461971283
0.36062607169151306 0.002415829338133335 0.023279357701539993
0.14341644942760468 5.134008824825287e-05 -0.13235343992710114
0.2458457350730896 -0.6204783916473389 -0.1760745495557785
0.0346490815281868 0.1374814808368683 0.46318885684013367
0.2065960168838501 0.4748518168926239 0.4041607081890106
-0.22756393253803253 0.40250352025032043 0.07857689261436462
-0.5839837789535522 -0.022747114300727844 0.1648537665605545
0.572742760181427 0.1262117475271225 0.01830330491065979
-0.4974687099456787 0.34665268659591675 -0.146098330616951
-0.5209936499595642 0.39963701367378235 0.00017161737196147442
-0.3483394682407379 0.3853108882904053 0.04770644009113312
-0.392700731754303 0.0026114345528185368 -0.2648749053478241
-0.04518631845712662 0.22843177616596222 -0.40493637323379517
-0.34312117099761963 -0.0032574832439422607 -0.062452781945466995
0.027673188596963882 0.04996230825781822 0.3496529161930084
-0.19827236235141754 -0.19729603826999664 -0.18716858327388763
0.04614049568772316 0.3047715127468109 -0.4052527844905853
-0.1487777680158615 -0.077501580119133 -0.2611810863018036
-0.2777402997016907 0.01444640476256609 0.3439425230026245
0.29622820019721985 0.0023129875771701336 -0.10229600965976715
-0.1051253080368042 -0.3506007492542267 -0.29621559381484985
0.25466373562812805 0.0017550368793308735 -0.21976572275161743
0.008463604375720024 -0.6296083927154541 0.19718067348003387
0.29754218459129333 0.0037236716598272324 0.019660890102386475
0.14137060940265656 -0.19237302243709564 0.3137102425098419
-0.03163815289735794 0.4006865620613098 0.20838424563407898
-0.4156016409397125 0.10180600732564926 -0.33140742778778076
0.17496897280216217 -0.11695437133312225 -0.3648022413253784
-0.14315104484558105 -0.14856195449829102 -0.2758863866329193
0.5844779014587402 0.2762213945388794 -0.2755066454410553
0.3575042486190796 0.005459870211780071 -0.269229918718338
-0.3172593414783478 0.1921120285987854 0.34605279564857483
0.07539112120866776 -0.6221250295639038 0.1613418161869049
-0.32596632838249207 0.33250322937965393 0.3417198657989502
-0.36122310161590576 0.057965584099292755 -0.2772415280342102
0.12590493261814117 -0.6195704340934753 0.09890983253717422
0.1981915980577469 -0.4750230014324188 0.24956615269184113
-0.2715611159801483 0.001275741495192051 -0.05399734526872635
0.08537968248128891 0.46706873178482056 0.43489667773246765
-0.5280837416648865 0.11237278580665588 -0.40201491117477417
0.03387560695409775 0.23772630095481873 0.34622031450271606
0.31667232513427734 0.21916234493255615 0.34096452593803406
0.445039838552475 -0.010526986792683601 -0.007519586011767387
-0.373257040977478 -0.02810271829366684 -0.3620946407318115
-0.06706921756267548 -0.5279993414878845 -0.26457688212394714
0.1884404420852661 0.40118521451950073 0.22467853128910065
0.12184638530015945 0.0005547748878598213 -0.24660752713680267
-0.22602955996990204 0.40045031905174255 0.27805814146995544
0.11742385476827621 0.3996904790401459 0.20110778510570526
0.38444653153419495 0.3976256847381592 -0.3279503881931305
-0.10792943090200424 0.0007489442359656096 -0.13202513754367828
-0.16791094839572906 0.39460572600364685 -0.22997929155826569
0.3146631419658661 0.0020011416636407375 -0.018962183967232704
0.3221634030342102 0.017237205058336258 0.33604127168655396
0.44355839490890503 -0.10271566361188889 0.017934663221240044
0.45133864879608154 -0.04343663901090622 0.03740653395652771
-0.34398534893989563 0.004720627795904875 -0.35179027915000916
0.18149371445178986 -0.2575934827327728 0.30402871966362
0.08604622632265091 0.0002774377353489399 0.14078718423843384
0.04706139117479324 -0.0015654880553483963 0.29083672165870667
0.2297087162733078 -0.06782910972833633 0.4559967815876007
0.5598401427268982 0.399069607257843 0.1646193116903305
-0.507639467716217 0.1151924878358841 0.3492327630519867
0.27811020612716675 -0.0006102882325649261 -0.009076588787138462
0.585472583770752 0.3756265342235565 -0.2859099507331848
0.30637815594673157 0.09377729892730713 0.4551375210285187
0.05400684475898743 -0.09551382809877396 0.3290146589279175
-0.24293960630893707 -0.3646361231803894 -0.046737875789403915
-0.471560537815094 0.1011970192193985 0.04176374152302742
-0.18576887249946594 0.023214707151055336 0.3450547754764557
0.4966508746147156 0.00257112761028111 0.05830702185630798
0.43154338002204895 -0.24763140082359314 0.08982375264167786
0.21970772743225098 -0.005748192314058542 0.2909373939037323
0.18313853442668915 0.0018269065767526627 -0.27424195408821106
0.10515633970499039 0.44463875889778137 0.3571231961250305
0.4929133355617523 0.005222167354077101 0.24835623800754547
0.5757091045379639 0.07043526321649551 0.008855628781020641
0.010327966883778572 -0.13289758563041687 -0.3654651641845703
-0.12349237501621246 -0.6539452075958252 0.135877326130867
-0.11820990592241287 -0.6275348663330078 -0.13388721644878387
0.3730984926223755 0.0013323323801159859 0.26157301664352417
-0.10930731892585754 -0.18036319315433502 0.24722960591316223
0.29071763157844543 0.2042270451784134 0.4588931202888489
0.30206504464149475 0.3973390460014343 0.3288348317146301
0.04588674381375313 0.39856523275375366 0.4382021129131317
-0.412384957075119 0.3938665986061096 0.34302812814712524
-0.46381840109825134 0.3985719680786133 0.026309553533792496
0.16983190178871155 -0.5824150443077087 -0.31675827503204346
0.5891916751861572 0.28220176696777344 -0.3972267806529999
-0.15814252197742462 -0.40147843956947327 0.11568427830934525
0.5750302076339722 0.01079438254237175 -0.07642149925231934
-0.3604851961135864 0.008999884128570557 -0.10735830664634705
-0.0035576599184423685 -0.6142370700836182 0.04348602518439293
-0.5862398147583008 -0.013755354098975658 -0.16588783264160156
-0.3510487377643585 0.3255462646484375 0.34405192732810974
0.22943396866321564 0.0024226782843470573 -0.10732472687959671
-0.5636652708053589 0.2472129911184311 0.3436518609523773
-0.09213195741176605 -0.3594183921813965 0.2588867247104645
-0.5342910289764404 0.0036721392534673214 -0.22325582802295685
0.14222270250320435 -0.620328962802887 -0.2462577521800995
0.010391652584075928 0.0019077967153862119 0.2356485277414322
-0.42483922839164734 0.0027892650105059147 -0.30361443758010864
0.1308766007423401 -0.6260955929756165 0.10705188661813736
0.19426444172859192 -0.08556520193815231 0.3054143786430359
0.5857522487640381 0.23155556619167328 -0.19014717638492584
-0.3570449650287628 0.0073446473106741905 -0.39275678992271423
0.10907124727964401 0.015741078183054924 0.4686497747898102
0.5901727676391602 0.12924273312091827 0.1856440156698227
0.02975642867386341 -0.6148094534873962 -0.21611519157886505
0.15946471691131592 0.4692048728466034 0.3769586980342865
0.06971479207277298 0.399848997592926 0.31950899958610535
0.14101152122020721 0.36293989419937134 0.46456918120384216
-0.3757091164588928 0.31654930114746094 0.3426353931427002
-0.040729768574237823 0.0012108352966606617 -0.3493684232234955
0.31340667605400085 -0.5923953056335449 0.17046290636062622
0.11005877703428268 -0.6134693622589111 -0.07540597021579742
0.4220847189426422 -0.37580156326293945 -0.15806743502616882
0.17239467799663544 0.06289806962013245 -0.4078144133090973
-0.1665867120027542 -0.23758593201637268 0.17522738873958588
0.5131320953369141 0.00477597676217556 0.13714654743671417
-0.5970773100852966 0.13717319071292877 0.32680073380470276
0.08111997693777084 -0.027936717495322227 0.32302266359329224
0.0218344796448946 -0.6161661744117737 -0.19039927423000336
-0.33194538950920105 0.3931792676448822 0.04497040435671806
0.37716057896614075 -0.2104169726371765 0.16901816427707672
0.08616454154253006 0.0010266294702887535 -0.22426827251911163
-0.578192412853241 0.13494734466075897 0.33483514189720154
0.201982781291008 -0.37838834524154663 0.278333842754364
-0.3408091962337494 0.0014125285670161247 -0.34104666113853455
-0.5079556107521057 0.003689785487949848 -0.3669176697731018
-0.19060593843460083 0.40324684977531433 -0.2593707740306854
-0.35169100761413574 0.3085464835166931 -0.3934825658798218
0.5953596234321594 0.1798790693283081 -0.3691527247428894
-0.37364712357521057 0.010666385293006897 -0.38758981227874756
-0.3044244349002838 0.3990766704082489 -0.33132514357566833
0.5459132194519043 0.39866024255752563 0.027400102466344833
-0.25831472873687744 0.00014735711738467216 -0.14096005260944366
0.06799774616956711 0.23055553436279297 -0.40662363171577454
0.051139164716005325 -0.30165114998817444 0.3121607303619385
0.03144286945462227 -0.5702703595161438 0.25555771589279175
0.49423807859420776 0.002707380335777998 0.10086102038621902
0.5757489800453186 0.22589945793151855 0.00508134625852108
0.039373792707920074 0.3984983563423157 0.11373286694288254
0.5306066870689392 0.00760416965931654 0.21388797461986542
0.007147664669901133 -0.6597484350204468 0.22028817236423492
-0.11583913117647171 -0.2758590877056122 -0.29791927337646484
0.5800575017929077 0.2767042815685272 -0.08986490964889526
-0.5672478675842285 0.220742329955101 0.25719785690307617
0.22005219757556915 0.3983094096183777 -0.37813761830329895
0.11009108275175095 -0.5188165903091431 -0.3180682361125946
0.11160293966531754 0.4020109176635742 0.2987818121910095
0.14509154856204987 0.15024316310882568 0.4695894718170166
-0.15790946781635284 0.37131616473197937 0.34640130400657654
0.5681875944137573 0.010617448017001152 0.3231458365917206
-0.07207179814577103 -0.6266041994094849 0.20696915686130524
-0.5556836128234863 -0.005108844488859177 0.059773631393909454
-0.5744064450263977 0.25124862790107727 -0.023586565628647804
0.5802125930786133 0.22374466061592102 -0.3915081322193146
0.08572406321763992 0.4287256896495819 0.42807435989379883
0.27111536264419556 -0.5708907246589661 -0.25341111421585083
0.11177623271942139 0.47400012612342834 0.4206013083457947
0.5459625124931335 0.0005897628143429756 -0.18996599316596985
0.20783405005931854 -0.001820158213376999 0.07989983260631561
-0.19518831372261047 0.0949125587940216 -0.40414395928382874
-0.38218948245048523 0.012696112506091595 0.3421879708766937
0.5900696516036987 0.22436025738716125 -0.25187695026397705
0.0344683974981308 0.40050631761550903 -0.2664563059806824
0.3875075876712799 0.0013219001702964306 -0.3715589642524719
-0.10720174014568329 0.2556300461292267 0.3468509018421173
0.5910189151763916 0.056658171117305756 0.03623875230550766
-0.40704289078712463 0.007764382753521204 -0.22277098894119263
-0.5716829895973206 0.09925004094839096 -0.07185082137584686
0.5707984566688538 0.23646025359630585 0.3337053656578064
0.43236303329467773 -0.12184784561395645 -0.1456151008605957
0.10366690903902054 -0.6192352771759033 -0.313442587852478
-0.4171815812587738 0.2649058997631073 -0.40579092502593994
-0.5760289430618286 -0.045439060777425766 -0.28109630942344666
0.2998720109462738 0.443381667137146 0.3593180775642395
0.040825966745615005 -0.6230464577674866 0.14404654502868652
0.06367138028144836 -0.6207306385040283 -0.30697351694107056
-0.14721284806728363 -0.05780839920043945 0.18844667077064514
0.3613637089729309 0.003134998958557844 -0.035232655704021454
0.15044164657592773 -0.001638646237552166 0.12187724560499191
-0.016330687329173088 0.00299138855189085 0.010355368256568909
0.12964102625846863 0.05336359888315201 0.3370807468891144
-0.5596823692321777 0.2877398133277893 -0.18033309280872345
0.45488062500953674 0.001119688618928194 -0.032073065638542175
0.5957145690917969 0.1233602836728096 -0.2930794656276703
0.56343013048172 0.393487811088562 0.2704938054084778
-0.5380813479423523 0.05995753034949303 -0.3923341929912567
-0.24442002177238464 0.17920218408107758 -0.4002002775669098
0.2109971046447754 0.4014941155910492 -0.008686412125825882
0.10116501897573471 -0.61442631483078 -0.14821580052375793
0.2533511519432068 -0.547659158706665 0.21946904063224792
0.4163677990436554 0.07353410869836807 -0.4084744453430176
-0.517799973487854 0.13175234198570251 -0.39888325333595276
-0.21197977662086487 0.3998040556907654 0.22745659947395325
0.35922977328300476 -0.6283477544784546 -0.10255766659975052
-0.051937706768512726 0.15129819512367249 0.3509111702442169
0.3927217721939087 0.0059780217707157135 -0.33701014518737793
-0.16852326691150665 -0.21230889856815338 -0.21237404644489288
-0.2688080966472626 -0.000793136190623045 0.14284071326255798
0.3546498417854309 0.002523168921470642 0.09202791005373001
0.1510177105665207 -0.057264797389507294 0.3161431849002838
0.2515838146209717 -0.5291908383369446 0.2181520313024521
0.40725529193878174 0.3993481993675232 -0.33862215280532837
-0.5751795172691345 0.007558587472885847 0.23093323409557343
0.22349312901496887 0.40099862217903137 -0.03520682826638222
0.3290340304374695 0.002855009865015745 0.14056773483753204
-0.14948885142803192 0.40341341495513916 0.2669553756713867
0.3447705805301666 0.0019870849791914225 -0.09974326938390732
0.23981715738773346 0.2123270183801651 0.3410487174987793
0.17376957833766937 -0.46462342143058777 -0.29991695284843445
0.024403415620326996 0.36859065294265747 0.3358169496059418
0.21057240664958954 -0.5558880567550659 -0.30207937955856323
-0.42421287298202515 0.01540796086192131 -0.39361581206321716
-0.3988725244998932 0.0880471020936966 0.0762927308678627
0.1761312484741211 0.4005754888057709 -0.07573451101779938
0.1477583944797516 -0.628173828125 0.2129458636045456
-0.11528310179710388 -0.4322222173213959 -0.22592654824256897
0.2087104618549347 -0.6249010562896729 -0.22375589609146118
0.19349785149097443 -0.2007683366537094 -0.3589412569999695
-0.5401041507720947 -0.04061663895845413 0.0659162774682045
-0.10699745267629623 0.39938193559646606 0.17180056869983673
0.03707297518849373 0.002090404275804758 -0.013168895617127419
0.14878900349140167 0.2200661599636078 0.4702204763889313
-0.01426712516695261 -0.61501145362854 0.10569668561220169
0.19732964038848877 -0.004065458197146654 0.3020192086696625
-0.2388322949409485 0.09773600846529007 0.34604257345199585
0.08331794291734695 -0.3468649685382843 0.3145269751548767
0.49626320600509644 0.40151235461235046 -0.29377755522727966
-0.2344280183315277 0.4022452235221863 -0.1793583184480667
-0.3779866397380829 -0.04854058846831322 0.11710160970687866
0.38735300302505493 0.401713103055954 -0.019970078021287918
0.1813872754573822 0.045239344239234924 -0.3999776244163513
-0.418280690908432 0.04993954300880432 -0.40283381938934326
-0.27744656801223755 0.23843085765838623 -0.40485909581184387
0.30800661444664 0.44496315717697144 0.4426846504211426
-0.5228472948074341 0.08932147920131683 -0.02104906365275383
0.3561667501926422 -0.44025713205337524 0.12189697474241257
-0.0318959504365921 0.22522933781147003 0.40229085087776184
0.19570478796958923 -0.4099518656730652 0.24991823732852936
-0.5556246042251587 0.368698388338089 0.048086926341056824
-0.20775330066680908 0.001523955725133419 0.26546427607536316
-0.21910114586353302 0.3991105258464813 0.3167578876018524
-0.4154438078403473 0.37651923298835754 0.011018818244338036
-0.4043111503124237 -0.06853677332401276 -0.04634839668869972
-0.47458726167678833 -0.08119755238294601 -0.3886660933494568
-0.17589420080184937 0.007212761789560318 0.338267982006073
-0.34752851724624634 0.39899155497550964 0.21464434266090393
0.3976897895336151 -0.15640823543071747 0.1541062742471695
-0.17331841588020325 -0.5152942538261414 0.06314193457365036
-0.16837890446186066 -0.3170761466026306 0.18221192061901093
0.30716949701309204 -0.38724666833877563 0.2017475962638855
-0.5821978449821472 -0.027021439746022224 0.3429884910583496
0.17125873267650604 0.46768930554389954 0.4203487038612366
-0.5279585123062134 0.3926834166049957 0.23136623203754425
-0.5252473950386047 0.4045649766921997 -0.24182000756263733
0.0939335748553276 -0.4445037245750427 -0.3184989094734192
-0.10526780784130096 -0.38250866532325745 0.2332611232995987
-0.47388795018196106 0.2192024141550064 -0.39844396710395813
0.1693059802055359 0.10519205778837204 -0.4075763523578644
0.3695336580276489 -0.24178779125213623 0.19067886471748352
-0.004236556589603424 -0.3788684010505676 0.28416505455970764
-0.5895928144454956 0.1443922370672226 -0.12558144330978394
-0.528502345085144 -0.09424107521772385 0.2597094476222992
0.1170724555850029 -0.0011914903298020363 0.020657485350966454
0.14899538457393646 -0.47255557775497437 -0.31431248784065247
-0.20137834548950195 0.0006874734535813332 -0.1885261833667755
-0.565372884273529 0.008720540441572666 -0.07060150057077408
-0.10162236541509628 -0.6417901515960693 0.16768744587898254
0.3349721431732178 0.0016023879870772362 0.019461579620838165
0.1153426319360733 -0.6222246289253235 -0.21240180730819702
0.05764475464820862 -0.5444654226303101 -0.31192678213119507
0.3139663338661194 0.23023082315921783 0.4428219497203827
-0.3774976432323456 0.04962334409356117 -0.07220733910799026
0.20004233717918396 0.2440676987171173 -0.404682993888855
-0.43325144052505493 0.2848672568798065 0.3472617566585541
-0.5141910910606384 0.07574907690286636 0.18254832923412323
0.12305183708667755 0.0038374047726392746 0.013969847932457924
-0.13128511607646942 -0.1561419814825058 0.23287510871887207
0.5755617022514343 0.1523139625787735 0.21315908432006836
0.39731764793395996 0.0020626080222427845 -0.012360299937427044
0.2949192225933075 -0.0011851810850203037 0.2721138000488281
0.06786998361349106 0.0676732137799263 0.4621488153934479
0.33472731709480286 0.005063825286924839 0.09241342544555664
0.28230851888656616 0.4018112123012543 -0.16819092631340027
0.3651617467403412 -0.5098778009414673 -0.13565048575401306
0.21170300245285034 0.0033685490489006042 -0.10805395245552063
-0.5359438061714172 0.08224422484636307 0.21312455832958221
0.3903537392616272 -0.5270506143569946 -0.031208526343107224
0.34651800990104675 -0.26092973351478577 0.2176809310913086
-0.06635435670614243 0.0010131527669727802 -0.254120796918869
0.04410915449261665 -0.2302331030368805 -0.3719770610332489
-0.20848765969276428 -0.10435165464878082 0.13115963339805603
-0.07168368250131607 -0.5003425478935242 0.20513108372688293
0.03127017244696617 0.23060092329978943 0.46150559186935425
-0.34989872574806213 0.3631366789340973 -0.18538375198841095
0.05646740272641182 -0.4573593735694885 -0.31789112091064453
0.11581216752529144 -0.6168705224990845 0.026800476014614105
0.5477077960968018 0.3994612693786621 0.09481976926326752
-0.4414995312690735 0.007609307300299406 -0.27909260988235474
0.24186480045318604 -0.38895851373672485 0.23726171255111694
-0.20570912957191467 0.1747848093509674 -0.40611883997917175
0.1644035130739212 0.397708535194397 -0.23075997829437256
0.146989107131958 -0.6167019605636597 -0.016033221036195755
-0.4891537129878998 0.39732465147972107 -0.3920118510723114
0.3601246476173401 0.001189196715131402 -0.24091888964176178
0.0385032594203949 0.09237153828144073 0.34803152084350586
0.5896668434143066 0.24792444705963135 0.19645057618618011
0.012987319380044937 -0.0015728715807199478 0.20670874416828156
-0.09850645065307617 -0.5277150273323059 0.18428285419940948
-0.283463716506958 0.4003973603248596 -0.16864432394504547
-0.04785535857081413 -0.5429873466491699 0.22117798030376434
-0.539291262626648 -0.08664639294147491 0.24261514842510223
0.3854447901248932 -0.4362330138683319 -0.0294515248388052
0.2195848822593689 0.0008313506841659546 -0.24556869268417358
-0.31430986523628235 0.39984428882598877 0.18145526945590973
0.48815736174583435 0.3235399127006531 0.34214988350868225
-0.35218605399131775 0.0024620594922453165 -0.015318548306822777
0.27050647139549255 -0.6172752976417542 0.0004938598722219467
-0.48724254965782166 0.001765139400959015 -0.38663291931152344
-0.45389524102211 -0.10287449508905411 0.33171242475509644
-0.028674237430095673 -0.6428624987602234 -0.27979224920272827
-0.3998239040374756 0.08987732976675034 0.341881662607193
