-0.1553288698196411 -0.00015960726886987686 -0.12664945423603058
-0.22870594263076782 -0.0015758359804749489 -0.03689921647310257
0.5599011182785034 0.39983028173446655 -0.05282791703939438
-0.008310040459036827 -0.508294403553009 -0.29539987444877625
-0.07568144053220749 -0.5379694700241089 -0.25258302688598633
-0.5048387050628662 0.40215662121772766 -0.2682133615016937
-0.277739942073822 -0.0012246131664142013 -0.06616316735744476
-0.20761209726333618 -0.2492871880531311 0.11445999145507812
0.013440820388495922 0.3806298077106476 0.34344974160194397
0.2293681800365448 0.39986541867256165 -0.2681623697280884
0.17241612076759338 -0.0004814724379684776 0.09210532158613205
-0.0811481773853302 0.3025662899017334 -0.4015949070453644
0.3939478099346161 -0.38410136103630066 0.06957592815160751
-0.0626707524061203 -0.5965982675552368 0.20778842270374298
-0.4156079590320587 0.10288355499505997 0.049611493945121765
0.054364439100027084 -0.005693168379366398 0.30905044078826904
0.02723277360200882 0.04468639940023422 0.43839800357818604
0.5806806087493896 0.29386863112449646 0.26891911029815674
-0.4425416886806488 0.09853997081518173 -0.358026385307312
-0.17648528516292572 -0.15115191042423248 -0.2227519005537033
-0.09999003261327744 -1.1506956070661545e-05 0.15516161918640137
-0.0933169573545456 -0.6429867744445801 0.14702266454696655
0.2204982489347458 -0.5366889834403992 0.23667067289352417
-0.4420076608657837 0.11473831534385681 0.21671605110168457
0.27997633814811707 -0.09854941815137863 0.26740410923957825
0.32986947894096375 0.053140174597501755 0.34795424342155457
0.425630122423172 -0.37776800990104675 -0.054665081202983856
-0.5796350240707397 0.2371193915605545 -0.19917525351047516
-0.4592388868331909 0.11546338349580765 -0.3480748236179352
-0.01159590668976307 0.4012034833431244 0.17017225921154022
-0.21307188272476196 0.302287757396698 0.34640565514564514
0.5829845666885376 0.3682643175125122 -0.2801124155521393
0.25522130727767944 0.0011366987600922585 0.1138114333152771
0.38258469104766846 0.0029433351010084152 -0.09460841119289398
0.07853849977254868 -0.0010001646587625146 -0.3444024324417114
0.32683247327804565 0.0862082839012146 0.348005086183548
0.1989024430513382 0.39905205368995667 -0.392103374004364
-0.5819540023803711 0.33981558680534363 -0.07597343623638153
-0.2494303584098816 0.028847776353359222 0.34506872296333313
-0.2360432893037796 -0.05854879319667816 0.019002486020326614
-0.18143734335899353 0.347478985786438 -0.3989902436733246
0.5091334581375122 0.11896132677793503 0.344539076089859
-0.02189878188073635 0.0010147839784622192 -0.003382996190339327
0.15553684532642365 -0.6191914081573486 0.1318204402923584
-0.05656009912490845 -0.4729795455932617 -0.2745389938354492
-0.3449802100658417 -0.0004748697392642498 0.09187012165784836
-0.05649762600660324 0.40179499983787537 -0.3532843291759491
0.2789764404296875 -0.4925459027290344 0.2014298439025879
0.10864284634590149 0.0006495709531009197 -0.09719158709049225
0.051484208554029465 -0.6217741966247559 0.19725698232650757
0.2972363531589508 -9.321141988039017e-05 0.1104988157749176
-0.030377879738807678 0.3397282361984253 0.3464564085006714
0.4427805244922638 0.4015656113624573 0.08736985176801682
0.011196531355381012 0.40112441778182983 0.17052289843559265
-0.41728970408439636 0.002939655212685466 0.35038596391677856
-0.10153157263994217 -0.6515437960624695 0.14177639782428741
0.24456927180290222 0.0012129927054047585 0.11270967125892639
-0.1866624802350998 -0.47759103775024414 -0.031135668978095055
-0.022176465019583702 0.15394233167171478 -0.4019780457019806
0.01920931041240692 -0.006741928402334452 -0.3353148102760315
0.35573363304138184 0.26946863532066345 -0.4007249176502228
0.08436889946460724 0.0007260013371706009 0.11124438047409058
-0.20242024958133698 -0.34914472699165344 -0.16749870777130127
-0.23323102295398712 0.3777845501899719 -0.4000418186187744
0.16073209047317505 0.4168179929256439 0.3528558015823364
-0.5722724795341492 0.00603219261392951 -0.02455868571996689
0.5763489007949829 0.012311859056353569 0.040279462933540344
-0.24461115896701813 9.788433089852333e-05 -0.20199550688266754
0.18019865453243256 -0.2985520660877228 -0.36309608817100525
0.5797628164291382 0.3052352964878082 0.30715203285217285
0.22191956639289856 0.4610831141471863 0.445018470287323
0.43741199374198914 0.001182636246085167 -0.04961715266108513
0.5839353203773499 0.16237998008728027 0.03856927901506424
-0.18432918190956116 -0.4742797613143921 0.005011941306293011
-0.08733313530683517 0.3119569420814514 0.34832438826560974
0.11945885419845581 -0.0003757420927286148 -0.2775474488735199
0.4191577136516571 0.39861738681793213 0.2981509268283844
0.03047461248934269 -0.3860183656215668 -0.31831708550453186
0.047001808881759644 0.07835046947002411 0.3475891053676605
0.09093032777309418 -0.6185241341590881 0.13907386362552643
0.3349158465862274 0.3805626928806305 0.45563265681266785
0.16157028079032898 -0.6437615156173706 -0.30892759561538696
0.16452845931053162 0.31433916091918945 0.3458486497402191
-0.525941789150238 0.26003217697143555 0.34531158208847046
-0.06456168740987778 0.40024933218955994 -0.23997917771339417
0.5424144864082336 0.40156441926956177 0.16117380559444427
0.3564735949039459 0.007764664478600025 0.3371732532978058
-0.3879038095474243 0.37390002608299255 0.0281288493424654
-0.11183852702379227 0.40027958154678345 -0.16863033175468445
0.2897893786430359 -0.6206894516944885 -0.12712973356246948
-0.2276029735803604 0.2357625961303711 0.3471194803714752
0.25227224826812744 -0.0009577306918799877 0.26265791058540344
-0.19692395627498627 -0.0008589657954871655 0.21432015299797058
0.4806349277496338 0.40039685368537903 0.09597478061914444
0.052137210965156555 -0.0006518792361021042 -0.29792094230651855
0.402911901473999 -0.00022110994905233383 -0.2945994734764099
-0.022435227409005165 -0.6222357153892517 -0.0573279894888401
-0.4789348840713501 0.10257522016763687 0.07816198468208313
0.5767091512680054 0.005054987967014313 -0.2937701940536499
-0.5789374709129333 0.01097867637872696 -0.24925009906291962
0.0372287891805172 0.39336711168289185 0.34213101863861084
0.2449001520872116 0.34360721707344055 -0.4022364914417267
0.5803999900817871 0.30274856090545654 -0.34588971734046936
-0.22121945023536682 -0.17365093529224396 0.0684618353843689
-0.4429740309715271 0.04850286617875099 -0.4035637676715851
0.24325864017009735 0.40149152278900146 -0.04533621668815613
0.2303139716386795 -0.030874375253915787 0.29982033371925354
-0.42540842294692993 0.03346775844693184 0.3492598235607147
0.3370971977710724 0.19103455543518066 0.4300461411476135
-0.13550248742103577 0.15230008959770203 -0.40134671330451965
-0.3844774067401886 -0.07289456576108932 0.2628190815448761
-0.5767667293548584 0.02016664296388626 0.08848311752080917
0.1811981350183487 0.13118571043014526 0.34367692470550537
0.2596294581890106 0.20229341089725494 -0.40117406845092773
-0.3889304995536804 0.08402613550424576 -0.1687982827425003
0.36734625697135925 -0.4743230938911438 -0.14017871022224426
0.19014358520507812 0.4686405062675476 0.43031227588653564
-0.38244137167930603 0.4011033773422241 -0.32092615962028503
-0.12975400686264038 0.09232866019010544 -0.4006115794181824
0.5075626373291016 0.1783369779586792 0.34605687856674194
0.17024055123329163 0.007633315399289131 -0.3957773447036743
-0.35463792085647583 0.4000905156135559 -0.3801731467247009
-0.18711243569850922 -0.4400356113910675 -0.0173980463296175
0.33153316378593445 0.26185545325279236 0.3484456539154053
-0.4720946252346039 0.2209300398826599 0.34571903944015503
-0.25383222103118896 -0.0002876594662666321 -0.2434738576412201
-0.15968266129493713 -0.3902384638786316 -0.1559370905160904
-0.36255374550819397 0.030237190425395966 -0.35891279578208923
0.29595842957496643 0.0025008423253893852 -0.18510818481445312
-0.22845333814620972 -0.05129965767264366 -0.12159041315317154
-0.5800303220748901 0.2400672286748886 -0.025696169584989548
-0.1588204801082611 -0.653380811214447 0.02596699818968773
-0.10075941681861877 -0.6265878081321716 -0.13487650454044342
0.023826582357287407 0.10262349992990494 0.45517319440841675
0.38230636715888977 0.39883390069007874 -0.38715389370918274
-0.08557577431201935 -0.0012025008909404278 -0.25609949231147766
0.3296836018562317 0.26588547229766846 -0.399427592754364
-0.41517701745033264 0.051123227924108505 -0.40137922763824463
-0.4021507203578949 0.08264423161745071 0.1439734250307083
-0.131930410861969 0.38954633474349976 0.3408600687980652
-0.13580505549907684 0.017969558015465736 -0.39971551299095154
-0.1750086098909378 -0.25605517625808716 0.16748341917991638
-0.22242829203605652 -0.36764246225357056 0.0625491589307785
0.5555859804153442 0.00010937359184026718 -0.2261139303445816
0.2774190306663513 -0.6259820461273193 0.20430921018123627
-0.4589798152446747 -0.00031435443088412285 -0.3430829644203186
-0.240486741065979 -0.34016701579093933 -0.03102422133088112
-0.1889382004737854 -0.0015893597155809402 -0.175425723195076
0.3537013828754425 0.19339969754219055 -0.40111014246940613
-0.05580396577715874 -0.6224800944328308 -0.132538303732872
-0.3008240759372711 0.40083518624305725 0.10053356736898422
-0.004796725697815418 0.08297894895076752 0.3460429906845093
-0.5112645030021667 -0.0003273310139775276 -0.13370338082313538
0.24723593890666962 -0.6193054914474487 0.014009054750204086
0.1826860010623932 0.09446196258068085 -0.4012846350669861
-0.42522361874580383 0.0011982526630163193 0.07607768476009369
-0.47515159845352173 0.40143078565597534 -0.281800240278244
-0.3125077486038208 0.4015654921531677 0.10238458216190338
0.03574344888329506 0.014009321108460426 0.38480445742607117
0.4522017240524292 0.40187427401542664 -0.0016669007018208504
0.26115113496780396 0.001243924954906106 0.0469810925424099
0.2036743462085724 -0.6237601637840271 0.015910927206277847
0.1813025027513504 -3.908807411789894e-05 -0.2416083812713623
-0.08979335427284241 -0.00036160892341285944 -0.3690463602542877
0.39520925283432007 0.005170579068362713 -0.3953982889652252
-0.23692643642425537 -0.08072434365749359 -0.049306947737932205
0.00421743281185627 -0.6194727420806885 0.15178737044334412
0.11828607320785522 -0.46555420756340027 0.2624683678150177
-0.5816345810890198 0.3097265362739563 -0.3177046477794647
0.15866126120090485 0.3984854221343994 0.2738557457923889
-0.001585709280334413 0.020624376833438873 -0.3993528485298157
0.06890006363391876 0.003812922164797783 0.20750391483306885
0.0833824947476387 0.3990604281425476 -0.18067868053913116
0.41185298562049866 -0.003639066591858864 0.13769182562828064
-0.5228527188301086 0.1151120737195015 0.15393468737602234
-0.3756394684314728 0.35902661085128784 -0.1986013948917389
-0.151336207985878 -0.5715768337249756 0.10373014956712723
0.1587468832731247 -0.007042570039629936 0.3124816119670868
0.30480819940567017 0.4085213840007782 0.3653765916824341
0.08608685433864594 -0.17062458395957947 -0.3730783462524414
0.3810860812664032 -0.2735017240047455 -0.24664969742298126
-0.07849833369255066 -0.6254860758781433 -0.1609858274459839
-0.3474177420139313 0.06249948963522911 -0.397931843996048
-0.2189021110534668 -0.12951524555683136 0.09014623612165451
0.27525609731674194 0.27016711235046387 0.46060970425605774
0.13767096400260925 -0.6404385566711426 -0.30676063895225525
0.49265679717063904 0.0006651026196777821 -0.16350950300693512
-0.06284288316965103 -0.4455706477165222 0.20939908921718597
-0.5293015241622925 0.39561060070991516 0.12914226949214935
-0.026936767622828484 0.0916643738746643 0.34824153780937195
-0.07001831382513046 -0.36977678537368774 -0.31707558035850525
-0.3093520402908325 0.39871013164520264 -0.16959740221500397
0.5736968517303467 0.31446895003318787 -0.3934563100337982
-0.5748128294944763 0.10300000011920929 -0.006186211481690407
-0.580358624458313 0.19921955466270447 -0.13783040642738342
-0.16893956065177917 -0.46884262561798096 0.0697241723537445
0.05656769499182701 0.001081865280866623 -0.000750719103962183
0.19424638152122498 -0.6235135793685913 0.08051422238349915
0.11748039722442627 -0.5689785480499268 -0.32100531458854675
-0.3439384400844574 0.35640329122543335 0.030565252527594566
0.5858062505722046 0.37523967027664185 -0.18465851247310638
-0.5746794939041138 -0.023855749517679214 0.3279167413711548
0.5188209414482117 0.3555259704589844 -0.4017711579799652
0.23767994344234467 0.3933570384979248 -0.39079153537750244
-0.3475083112716675 0.4033903181552887 -0.14628112316131592
0.07575816661119461 -0.5122763514518738 -0.319688081741333
-0.44684264063835144 -0.0003687622956931591 -0.3217553198337555
-0.5309783816337585 0.02675464004278183 0.3475199043750763
-0.579291582107544 0.19935880601406097 0.021489538252353668
0.2549833357334137 0.0011157782282680273 -0.10751886665821075
-0.1531430184841156 -0.4661116600036621 -0.16761109232902527
-0.5700439214706421 0.06039445847272873 -0.19313666224479675
0.1748264580965042 -0.504676342010498 -0.3120060861110687
-0.15841040015220642 -0.18218620121479034 0.1899692416191101
-0.28435590863227844 0.4023303687572479 0.13099513947963715
0.5042372345924377 0.400493860244751 -0.06656808406114578
0.5838501453399658 0.21207545697689056 -0.11966655403375626
0.06995706260204315 0.0012694173492491245 0.24117796123027802
-0.5767192840576172 0.3352665901184082 0.22840332984924316
0.006632084026932716 -0.0021995482966303825 -0.3359476625919342
0.40239769220352173 -0.009524616412818432 -0.20768721401691437
0.12799294292926788 0.0791485533118248 0.46705153584480286
0.3086216151714325 0.401952862739563 -0.11599914729595184
0.35551971197128296 0.002596101723611355 -0.1873796582221985
0.09494812041521072 -0.6198052763938904 0.06966601312160492
-0.5397664904594421 0.38954541087150574 -0.13227757811546326
0.47243720293045044 0.3993585705757141 0.05357246473431587
-0.5011425018310547 0.3927725851535797 -0.1060406044125557
-0.41529008746147156 -0.0924614667892456 0.21960631012916565
-0.5775240063667297 0.029989350587129593 -0.31269341707229614
-0.5816631317138672 0.268279492855072 -0.1568116694688797
-0.12073442339897156 -0.0007692310027778149 0.18556129932403564
0.3319941759109497 0.4006079137325287 -0.06851236522197723
-0.20214977860450745 -0.3386281132698059 -0.17863866686820984
0.5841748714447021 0.3410099446773529 -0.3564760982990265
-0.04145011305809021 0.003599652089178562 0.18046869337558746
0.21257339417934418 0.017336580902338028 0.46523189544677734
-0.08490757644176483 -0.6230743527412415 -0.12324243038892746
0.22364909946918488 0.0906948670744896 -0.40053027868270874
0.3911150395870209 -0.3990899920463562 0.003558082040399313
0.5801823735237122 0.20139160752296448 0.22302822768688202
0.1737675964832306 0.041973311454057693 0.4658828675746918
0.2557845115661621 0.39839011430740356 -0.3014105260372162
0.2477179616689682 -0.46213310956954956 -0.2818835377693176
0.43358004093170166 -0.3308120667934418 0.054636530578136444
0.3141099810600281 0.3939858376979828 0.45690497756004333
-0.06959284096956253 0.39865759015083313 -0.31174275279045105
-0.5795273780822754 0.3274689018726349 -0.003762728301808238
0.031094614416360855 0.4011591076850891 -0.015026060864329338
-0.2164650410413742 0.39781978726387024 -0.10243821889162064
0.329626202583313 0.1077190637588501 0.3897836208343506
-0.0700584203004837 -0.6513696908950806 0.17564839124679565
-0.3994937539100647 0.08484020829200745 -0.27438223361968994
0.285420686006546 0.00842816662043333 -0.397712767124176
0.23334988951683044 -0.04137476161122322 0.2927817404270172
0.3180996775627136 -0.6395494341850281 -0.21339957416057587
0.08026444911956787 0.16784848272800446 -0.4023323953151703
-0.40822654962539673 0.3994142413139343 0.15876372158527374
-0.35760030150413513 0.024598412215709686 -0.06511412560939789
-0.21559976041316986 0.03913465142250061 -0.399960458278656
-0.12307237088680267 0.4007361829280853 -0.2153426855802536
0.2581607699394226 -0.20328015089035034 -0.3339977264404297
0.1256551742553711 0.4012005925178528 0.009201946668326855
-0.1297457069158554 -0.0024828528985381126 -0.24730035662651062
0.04440085217356682 -0.6251134872436523 -0.251433402299881
0.10574169456958771 0.40087223052978516 -0.20448099076747894
0.030343037098646164 -0.6178470253944397 -0.19809100031852722
0.5806436538696289 0.22877290844917297 0.28738683462142944
0.5176668763160706 -0.00038201455026865005 -0.292513370513916
0.1237429529428482 0.13789916038513184 -0.4010942876338959
-0.36448511481285095 0.04189208522439003 0.3424077033996582
-0.323108971118927 0.40002018213272095 -0.21414174139499664
0.1727704405784607 -0.6234477162361145 0.0001119335793191567
0.054967865347862244 7.956242188811302e-05 0.1885109394788742
-0.13533829152584076 0.27711930871009827 0.3466219902038574
0.031322114169597626 0.39873412251472473 0.002820621943101287
-0.3523634970188141 0.23290543258190155 -0.40323275327682495
0.0689290463924408 -0.08173622936010361 0.3197345733642578
-0.5722635388374329 0.07686722278594971 -0.19631917774677277
-0.5296545028686523 0.27277708053588867 -0.4008774757385254
0.13700410723686218 0.3554569184780121 0.3441230058670044
-0.17244195938110352 -0.06847018748521805 -0.2240019142627716
0.025533266365528107 -0.3779338598251343 0.29385533928871155
-0.0726626068353653 -0.0006214360473677516 0.0445590615272522
0.37498369812965393 0.001981436274945736 -0.11323054134845734
0.3659164607524872 0.4022692143917084 -0.16845253109931946
-0.15970556437969208 -0.47984397411346436 0.09249275177717209
-0.4048336446285248 -0.08653827011585236 -0.16672152280807495
0.21995629370212555 -0.0014268747763708234 -0.3607786297798157
-0.017225798219442368 -0.005846152547746897 0.29318752884864807
0.3342324197292328 -0.5138850212097168 0.1451065093278885
-0.5650521516799927 0.04004976898431778 0.29547014832496643
0.29933667182922363 0.3123585283756256 0.3469920754432678
0.3369011878967285 -0.6370589137077332 0.13087652623653412
-0.0730275884270668 -0.6203656196594238 -0.0004057458136230707
-0.2294844388961792 -0.2065260410308838 0.04505902901291847
0.2963637709617615 0.003605949692428112 -0.1246664747595787
0.029442796483635902 -0.0010528159327805042 0.05108997970819473
-0.21281203627586365 -0.19696836173534393 0.09492707252502441
-0.4510657787322998 0.053240787237882614 -0.40332329273223877
0.01088432315737009 -0.5703006982803345 -0.30496305227279663
0.14088353514671326 -0.5624489188194275 0.26036664843559265
-0.4254254102706909 0.1078292578458786 -0.037111733108758926
-0.1816876381635666 0.40142273902893066 -0.0064675454050302505
-0.10011938214302063 0.3999585807323456 -0.3510095179080963
-0.1684405356645584 -0.18647117912769318 -0.22934149205684662
0.5803098082542419 0.09468021243810654 0.23017728328704834
0.054007966071367264 8.292868733406067e-05 0.20642772316932678
-0.1223650798201561 0.010097782127559185 0.33492299914360046
-0.22571389377117157 -0.001819539349526167 -0.2681065797805786
0.29201236367225647 0.3982526361942291 0.02422761358320713
0.292502224445343 0.05335867777466774 -0.4005453586578369
-0.20449133217334747 -0.06447603553533554 0.12319041043519974
-0.1776716262102127 -0.0006825700402259827 -0.00865973997861147
0.44604068994522095 -0.23104894161224365 -0.019382167607545853
0.027324292808771133 0.2611824870109558 0.3533174395561218
0.240343376994133 0.17195181548595428 0.4660876989364624
0.3959420323371887 -0.3836539387702942 -0.09253949671983719
-0.5418474078178406 0.39095261693000793 -0.13828428089618683
-0.05407482385635376 0.2858481705188751 -0.40197187662124634
0.1182531788945198 0.0007256604731082916 0.2874983847141266
0.4472935199737549 -0.14827696979045868 -0.04432518035173416
-0.4695890545845032 -0.1086055189371109 -0.14470863342285156
0.199280247092247 -0.6311829090118408 -0.25474676489830017
0.5597234964370728 0.006628228351473808 -0.2459469735622406
-0.10781291872262955 2.246350049972534e-06 -0.00955144315958023
0.18875712156295776 0.4015180766582489 0.303701251745224
0.18355493247509003 -0.3260215222835541 -0.3634178340435028
0.5815927982330322 0.22614270448684692 0.005032127257436514
0.5831358432769775 0.284868448972702 0.28687751293182373
0.42577889561653137 -0.2988564968109131 0.08816064149141312
-0.1423873007297516 -0.028552856296300888 -0.26850131154060364
-0.5291789770126343 0.14356555044651031 -0.39974626898765564
-0.20680145919322968 -0.0006990223191678524 -0.004771343898028135
-0.5753401517868042 0.34573623538017273 0.34078249335289
-0.035480208694934845 0.1745348572731018 0.39622262120246887
0.21544785797595978 -0.45035320520401 -0.2948994040489197
-0.043295200914144516 0.21569176018238068 -0.40269190073013306
0.43921875953674316 0.06684080511331558 -0.40043905377388
0.3287699222564697 -0.3911304473876953 -0.19974146783351898
-0.49542030692100525 0.3960356116294861 -0.01511576771736145
-0.3650117814540863 0.03497316315770149 0.3415854573249817
-0.5307542681694031 -0.08886052668094635 0.29094159603118896
0.12729424238204956 -0.6202284693717957 0.04933477193117142
0.3243797719478607 0.07824480533599854 0.4479253590106964
0.048307765275239944 -0.620124340057373 -0.1337788999080658
0.2123861461877823 0.0006084084743633866 -0.01663322001695633
-0.462624192237854 0.043587662279605865 0.351671040058136
-0.3975382447242737 -0.0818871483206749 0.04190909489989281
-0.250828355550766 0.10972081124782562 -0.4015185236930847
0.32975003123283386 -0.47728314995765686 -0.21288062632083893
0.5802676677703857 0.23646387457847595 0.126371830701828
-0.245730921626091 -0.0006372747011482716 -0.09358424693346024
-0.08170562237501144 -0.6255145072937012 -0.005452597048133612
0.14641176164150238 -0.01031764317303896 -0.36650121212005615
0.5801715850830078 0.21347346901893616 0.28469088673591614
0.32799118757247925 0.40156853199005127 0.11673305928707123
-0.33477312326431274 0.40923357009887695 -0.02397238463163376
0.571001410484314 0.3972906768321991 -0.25329530239105225
0.12108679860830307 0.46538862586021423 0.37462666630744934
-0.3368417024612427 -0.0004583388799801469 0.1378820389509201
-0.12282532453536987 -0.0011866765562444925 -0.2490377277135849
-0.24384555220603943 0.4028050899505615 -0.3161611557006836
0.2651168406009674 0.02241068333387375 -0.39954301714897156
0.19177626073360443 -0.6301923990249634 0.20013724267482758
0.062491998076438904 -0.6203664541244507 -0.01692209020256996
-0.44805824756622314 -0.10344838351011276 0.07443764060735703
-0.15724878013134003 -0.0011393241584300995 -0.14629317820072174
-0.0985707938671112 0.0033530937507748604 0.1721617430448532
0.04235287755727768 -0.5880560874938965 -0.31002750992774963
-0.42362460494041443 -0.0945579782128334 0.09105683863162994
-0.5148281455039978 -0.09762460738420486 -0.3546212315559387
0.2978644371032715 -0.015370411798357964 -0.31653907895088196
0.0030098948627710342 -0.14762157201766968 -0.3595452308654785
-0.09562589973211288 -0.6205337047576904 -0.009807717986404896
-0.35206273198127747 0.027910931035876274 0.2769424319267273
0.31908118724823 -0.6274216771125793 0.06453747302293777
-0.23168383538722992 -0.0013300087302923203 0.003552541369572282
0.1441214680671692 0.00016125477850437164 -0.054215215146541595
-0.5692866444587708 0.0015999528113752604 0.09876688569784164
-0.03796565160155296 -0.620173990726471 0.14295853674411774
0.41042208671569824 0.39956358075141907 -0.24414998292922974
0.00849480926990509 -0.3608153462409973 0.3011067807674408
0.28714486956596375 0.002163712866604328 -0.12133621424436569
-0.37000522017478943 0.41145455837249756 -0.1476806104183197
0.3300364017486572 0.26925423741340637 0.45354267954826355
0.4983695149421692 0.004008165095001459 -0.38686835765838623
-0.580946683883667 0.2300148904323578 -0.1203298345208168
-0.01191787514835596 -0.6425485014915466 0.20292364060878754
-0.2440323531627655 0.24723854660987854 0.347845196723938
0.42732253670692444 0.21094855666160583 -0.40069201588630676
-0.5806755423545837 0.21680870652198792 -0.27986735105514526
-0.42407193779945374 -0.1008019968867302 0.2055560201406479
0.5147985219955444 0.28788700699806213 0.34846559166908264
0.5845136046409607 0.3746347725391388 -0.1769905537366867
-0.24802914261817932 0.2204217165708542 -0.400919646024704
-0.13362731039524078 -0.0055644456297159195 0.22884491086006165
-0.1431640386581421 -0.5234602093696594 0.11734884977340698
0.2106693685054779 -0.6193300485610962 -0.11757039278745651
-0.4796290695667267 0.11858265101909637 -0.20208926498889923
-0.43726152181625366 0.3086983859539032 0.3481824994087219
0.5657666921615601 0.16030289232730865 -0.3949291706085205
-0.38488027453422546 0.05358444154262543 -0.40275225043296814
-0.3151201605796814 0.019655518233776093 0.33737531304359436
-0.17054665088653564 0.40128982067108154 -0.09593610465526581
0.014660358428955078 0.20705687999725342 0.3950440287590027
-0.31564125418663025 0.4014962315559387 -0.2646479308605194
-0.37340521812438965 0.4004695415496826 -0.277899831533432
-0.46044638752937317 0.39894863963127136 0.05095544457435608
0.4291180968284607 0.40149420499801636 0.03191952779889107
-0.19943591952323914 0.03182545676827431 0.3419934809207916
-0.16828475892543793 -0.0011229754891246557 0.052685290575027466
-0.2379804253578186 0.11180123686790466 0.3454563617706299
0.23372463881969452 -0.003347114659845829 0.3211006820201874
-0.3426050543785095 0.19232521951198578 0.34685075283050537
0.4031777083873749 0.0010597752407193184 0.04450850561261177
-0.10350406169891357 -0.6219941973686218 -0.08997135609388351
0.46265512704849243 0.36205577850341797 0.3477008044719696
-0.48908162117004395 -0.10823842883110046 -0.018330158665776253
-0.2231067270040512 0.0004467945545911789 -0.15100161731243134
-0.39034029841423035 0.32559284567832947 0.3473997116088867
-0.5799314975738525 0.2654249668121338 -0.0810498520731926
0.09825895726680756 -0.6188074350357056 0.07777426391839981
0.04397532716393471 0.40419846773147583 0.361784428358078
-0.5727364420890808 0.06266618520021439 0.17421017587184906
-0.1314772218465805 -0.1618863195180893 -0.27935993671417236
-0.5747132897377014 0.03251417353749275 0.2227204591035843
-0.4198296368122101 0.4005593955516815 0.30969664454460144
0.19902995228767395 -0.6196607947349548 0.08228614926338196
0.43214648962020874 0.3991105854511261 -0.32900506258010864
-0.19308970868587494 0.008979667909443378 -0.40113237500190735
-0.1308887004852295 -0.3604711592197418 -0.28284701704978943
-0.17961615324020386 -0.0009064292535185814 0.07414428144693375
-0.022670235484838486 -0.0245420653373003 -0.3491469621658325
0.05625557154417038 0.2835240066051483 0.34878918528556824
-0.1263192594051361 -0.18961060047149658 0.22506079077720642
0.31595349311828613 0.03884419426321983 0.36332330107688904
0.08504831045866013 0.4019017219543457 -0.04982517287135124
0.4331449866294861 -0.1948966532945633 0.08167052268981934
-0.5741044878959656 0.014244431629776955 -0.12456302344799042
0.10726436972618103 -0.62168949842453 0.047642409801483154
0.4894975423812866 0.0017572734504938126 -0.16825056076049805
-0.40387988090515137 0.08597279340028763 -0.11873529106378555
-0.2589239180088043 0.09287647902965546 -0.4019927978515625
0.11401242762804031 -0.04475424811244011 -0.3661385774612427
-0.5283297300338745 -0.09016648679971695 0.11529640853404999
0.1432984322309494 0.4001489281654358 0.3275447487831116
0.12502501904964447 -0.6188815236091614 0.17994756996631622
0.22722622752189636 0.09224249422550201 0.4662169814109802
-0.18794015049934387 0.09371906518936157 0.34485679864883423
-0.39717432856559753 -0.08097708970308304 -0.30193737149238586
0.2045423686504364 -0.11769498884677887 0.3004037141799927
0.2669745683670044 -0.6205593943595886 0.034203317016363144
0.2525472640991211 0.0029973099008202553 0.10236229747533798
-0.09363329410552979 -0.0009390485938638449 0.18106982111930847
-0.18627575039863586 -0.2717687785625458 -0.2050151824951172
0.23769423365592957 0.059872131794691086 0.4630493223667145
-0.21592895686626434 -0.3780929744243622 -0.014151545241475105
-0.578656792640686 0.3384544551372528 0.26743316650390625
0.36090144515037537 0.0016630599275231361 -0.051914386451244354
0.061708685010671616 0.4012589454650879 0.16663402318954468
0.2143544703722 0.13537485897541046 -0.40160301327705383
0.16040214896202087 0.0029819775372743607 0.20062969624996185
0.22675248980522156 0.3996383547782898 -0.3043220043182373
0.5817239880561829 0.3446030616760254 -0.21044257283210754
0.16913676261901855 0.40064138174057007 -0.2224036455154419
-0.1344372034072876 -0.4196350872516632 0.13750559091567993
0.016358010470867157 -0.00016951235011219978 0.048043493181467056
-0.5749342441558838 0.35923245549201965 -0.2892470955848694
0.10871943831443787 0.17544326186180115 -0.4017692804336548
0.037178054451942444 -0.24122604727745056 -0.366868257522583
0.3971765339374542 0.3899231255054474 -0.39744535088539124
-0.5812243223190308 0.15098200738430023 0.047494493424892426
0.15168598294258118 0.31731662154197693 -0.4000956416130066
-0.3493536710739136 -0.0010090067517012358 -0.019928591325879097
-0.3011883795261383 0.40151888132095337 0.26783066987991333
-0.5766190886497498 0.06947669386863708 -0.30596688389778137
-0.5762276649475098 0.015366241335868835 0.03451928123831749
0.421120822429657 -0.37647977471351624 -0.10908200591802597
-0.17759555578231812 -0.043018318712711334 -0.21924078464508057
0.06612244248390198 -0.0003347010351717472 -0.31414252519607544
0.1907900720834732 -0.6208323240280151 0.03472741320729256
-0.5501499772071838 0.0006781090050935745 0.24170850217342377
0.19077251851558685 -0.2716561257839203 0.306574285030365
-0.5439609289169312 0.07692641019821167 0.05745675042271614
-0.5808015465736389 0.314718633890152 0.16460926830768585
0.2477787733078003 0.04094808176159859 0.46508580446243286
0.07700935751199722 0.40083548426628113 0.025284191593527794
-0.5241569876670837 0.08234190195798874 -0.35976850986480713
0.021097078919410706 0.19800370931625366 0.41334396600723267
0.43618452548980713 0.398111492395401 0.2594844102859497
0.0842875987291336 -0.019039692357182503 0.3266202509403229
-0.578074038028717 0.3281456232070923 0.3409583270549774
0.15604686737060547 0.39690548181533813 0.34058260917663574
-0.37904685735702515 0.06803268194198608 -0.1563844531774521
0.20391467213630676 0.20426297187805176 0.4658425748348236
0.26125919818878174 -0.5015601515769958 0.21492421627044678
0.5105099081993103 0.33334842324256897 -0.4013613164424896
0.1775074005126953 0.0005986620672047138 -0.148948073387146
-0.391523152589798 0.0735185369849205 0.274166077375412
0.04371533915400505 -0.07421953976154327 0.4181019961833954
0.2936111390590668 -0.07210908830165863 -0.3146159052848816
0.5140266418457031 0.17299482226371765 0.3472888767719269
0.2962718605995178 0.4300500154495239 0.4457654654979706
-0.09361674636602402 0.29436779022216797 -0.4000200033187866
-0.5725980997085571 0.055657368153333664 -0.3431673049926758
-0.14702492952346802 0.16065891087055206 -0.40251898765563965
0.045035313814878464 0.2661527693271637 0.46359071135520935
0.19971056282520294 -9.456183761358261e-06 -0.2389041632413864
-0.09961031377315521 -0.017868418246507645 -0.3186666667461395
0.3254862427711487 -0.4664542078971863 0.15646648406982422
0.261137992143631 0.0009403987787663937 -0.03617830201983452
-0.17912088334560394 0.0005395794287323952 -0.19134919345378876
0.12385887652635574 0.34737545251846313 0.46498191356658936
-0.3078899681568146 0.35369059443473816 -0.008508002385497093
-0.09588439762592316 0.14198173582553864 -0.4008224606513977
0.049751099199056625 0.11826018989086151 0.4604606330394745
0.046480074524879456 0.0034956857562065125 0.21120630204677582
-0.013378146104514599 -0.620831310749054 -0.04529483988881111
0.3430896997451782 -0.411067396402359 0.1361820548772812
0.5830636620521545 0.2574544847011566 0.027720410376787186
0.07261587679386139 0.40188637375831604 -0.13902774453163147
-0.4489211440086365 0.02769051305949688 -0.4030836820602417
-0.29171809554100037 0.3377622365951538 -0.09887580573558807
-0.4724481403827667 0.40056681632995605 -0.3464580476284027
0.28949594497680664 0.03335973620414734 -0.40139785408973694
-0.15746228396892548 -0.19521430134773254 -0.24759438633918762
0.44675523042678833 -0.021167214959859848 0.03165429085493088
0.09452365338802338 0.40008431673049927 0.3207750618457794
-0.021890319883823395 -0.2841262221336365 -0.3501484990119934
-0.2641095221042633 0.19158728420734406 0.3471388816833496
-0.29974889755249023 0.373729944229126 -0.39462676644325256
0.12438442558050156 -0.07231761515140533 0.3239026367664337
-0.5459104180335999 0.34098389744758606 0.3456460237503052
-0.17105941474437714 -0.4016077220439911 0.06516378372907639
-0.1746874451637268 -0.5726043581962585 -0.11122480034828186
0.1581345498561859 6.625102832913399e-05 0.18163827061653137
0.3583454191684723 0.4020515978336334 0.04929681122303009
0.05082714185118675 -0.07191046327352524 0.4389455020427704
-0.4584842622280121 0.4065982401371002 -0.061160746961832047
0.2598559558391571 0.4673699140548706 0.3768526613712311
-0.4688815176486969 -0.09318412095308304 0.3444388508796692
0.014572511427104473 -0.0008270842954516411 -0.002201810944825411
0.5848001837730408 0.3128555119037628 -0.21864774823188782
-0.12338156998157501 -0.4305773079395294 -0.2045707404613495
-0.5456743836402893 3.422331064939499e-05 -0.32304900884628296
0.07615461945533752 0.2716217637062073 -0.40098872780799866
-0.04973483085632324 -0.5716231465339661 -0.2667936682701111
0.18754422664642334 -0.37240639328956604 0.28468379378318787
-0.35486945509910583 0.14707280695438385 0.3467423915863037
-0.5146144032478333 0.22636191546916962 0.345014750957489
-0.08483101427555084 -0.4850187599658966 -0.24709568917751312
0.03713357821106911 -0.5902442336082458 0.25493720173835754
-0.4861878752708435 0.0004335399717092514 0.05162882059812546
0.2351180613040924 0.4002217650413513 -0.21364432573318481
0.14951051771640778 -6.687454879283905e-05 0.13173823058605194
-0.36519452929496765 -0.025900831446051598 0.29806458950042725
0.583051323890686 0.12427684664726257 0.06704552471637726
0.01934029906988144 0.0013323714956641197 -0.35180893540382385
0.1960621029138565 0.22990208864212036 0.3438884913921356
0.5729086995124817 0.3922169506549835 -0.0968998521566391
0.38775840401649475 -0.5745140910148621 -0.08654304593801498
0.29561692476272583 0.001966546755284071 0.0488789826631546
-0.3825201094150543 0.3535425662994385 0.037000495940446854
-0.23330853879451752 -0.0027937889099121094 0.024673519656062126
0.5836337804794312 0.13596178591251373 -0.1339377760887146
0.1880216747522354 -0.6204786896705627 -0.02662917599081993
0.18617123365402222 -0.06734826415777206 -0.36125481128692627
-0.1738208681344986 -0.38739803433418274 0.10036290436983109
-0.39756596088409424 0.1633540689945221 -0.40160834789276123
0.32080981135368347 0.3949611485004425 -0.39219218492507935
0.32176339626312256 0.0014559337869286537 -0.20391131937503815
-0.1709941178560257 -0.09783083945512772 0.16995707154273987
-0.4035712778568268 0.39999690651893616 0.0799335166811943
-0.33216625452041626 0.0015419935807585716 0.25094395875930786
0.16439183056354523 0.19878771901130676 0.34455230832099915
-0.45453402400016785 -0.10756826400756836 -0.24144627153873444
0.1916564702987671 -1.2945383787155151e-05 -0.25520822405815125
-0.43039533495903015 0.3900887370109558 0.05138634145259857
-0.09536971896886826 -0.5267390608787537 0.17984233796596527
-0.5820088386535645 0.31617337465286255 0.29385071992874146
-0.5487818121910095 0.0006374241784214973 -0.14548803865909576
0.15082448720932007 -0.6230447292327881 0.25050583481788635
0.3175593316555023 -0.08467426896095276 -0.2978088855743408
0.3874455392360687 0.0017098099924623966 0.004702096804976463
0.5799111723899841 0.10001885145902634 0.29225459694862366
-0.10071665793657303 -0.3745453953742981 -0.2823602855205536
-0.23829449713230133 -0.24303431808948517 0.005096094682812691
-0.5732010006904602 -0.013820349238812923 -0.17293331027030945
0.3622453510761261 -0.6277168989181519 0.10501797497272491
0.21264804899692535 -0.27633586525917053 0.30112582445144653
0.4468407928943634 -0.12846721708774567 0.0031532305292785168
0.3681076765060425 -0.39700695872306824 -0.14945438504219055
-0.12520834803581238 0.4007512629032135 -0.05656719207763672
0.5675625205039978 0.39727678894996643 0.2483389973640442
-0.01725686714053154 0.4010621905326843 0.14073950052261353
0.2634641230106354 0.3211233615875244 -0.4022485911846161
-0.22215363383293152 -0.11409842222929001 0.08408866077661514
0.15721072256565094 -0.6236231327056885 -0.2629764676094055
-0.36771541833877563 -0.023188753053545952 -0.05694596469402313
-0.5081275701522827 0.09520470350980759 0.007543226704001427
0.3972507119178772 0.003945281729102135 -0.39165592193603516
-0.10621347278356552 -0.3158976137638092 0.24315813183784485
-0.08722229301929474 -0.6241154074668884 0.014202944003045559
-0.16574694216251373 -0.30695608258247375 0.18486346304416656
0.35553401708602905 -0.6407110095024109 0.020640656352043152
-0.33460360765457153 0.34710779786109924 0.34515702724456787
-0.48812365531921387 -0.006592418998479843 0.3532484769821167
0.31346383690834045 0.014230424538254738 0.343013733625412
-0.5621533989906311 0.3773745894432068 0.2235274612903595
0.582217276096344 0.16528555750846863 -0.18004877865314484
-0.5547392964363098 0.3882717788219452 0.03315296396613121
0.17809754610061646 -0.6239224076271057 -0.20263516902923584
-0.0360877625644207 0.4006139636039734 -0.17400643229484558
0.5806593298912048 0.32443565130233765 -0.39094439148902893
-0.17145198583602905 0.40079599618911743 -0.3402438759803772
0.13339544832706451 0.1897289901971817 -0.4008197784423828
0.5718539953231812 0.005482526496052742 -0.20394112169742584
-0.41734784841537476 0.10512381047010422 -0.3981128931045532
0.0922522023320198 0.2340816855430603 0.465311735868454
0.4303417205810547 0.13746377825737 -0.40142813324928284
-0.1704050898551941 -0.41856738924980164 0.0693349540233612
0.3621818423271179 -0.07131949812173843 0.20456881821155548
-0.42365387082099915 0.0010024532675743103 0.2564815282821655
0.4493383467197418 -0.2978363037109375 -0.0025253919884562492
0.43939533829689026 -0.2513832449913025 -0.09985491633415222
0.34110888838768005 0.016293445602059364 -0.40355491638183594
-0.44852498173713684 0.29925307631492615 0.34610265493392944
0.22195127606391907 -0.32341060042381287 -0.3530401885509491
0.3772636950016022 0.0015366803854703903 0.13116072118282318
0.2515650987625122 0.46554043889045715 0.3751246929168701
-0.09001395106315613 0.39979812502861023 -0.15533454716205597
-0.44030624628067017 -0.037322722375392914 -0.3988758623600006
-0.2268335223197937 0.3346182107925415 0.34298351407051086
0.10124192386865616 -0.14688484370708466 0.31732213497161865
0.07912099361419678 -0.07011428475379944 0.44512808322906494
-0.2256014198064804 -0.3601168990135193 0.04864807799458504
0.06592085212469101 -0.6205353736877441 0.012265551835298538
0.5818508267402649 0.12760592997074127 0.11496205627918243
0.09034307301044464 -0.6411100029945374 -0.3122268319129944
-0.02510620467364788 0.14947418868541718 0.4036891758441925
0.3190251886844635 0.003354339860379696 -0.09753771871328354
0.1361173689365387 1.1883676052093506e-06 0.07476571202278137
0.03013545460999012 0.331214964389801 -0.40014341473579407
0.15213020145893097 0.2841734290122986 0.3451816439628601
-0.3132752776145935 0.320130854845047 -0.3995107412338257
-0.5566830635070801 0.0677589625120163 -0.02026396058499813
-0.1700330674648285 0.38379615545272827 -0.39641132950782776
0.37371060252189636 -0.2179751843214035 -0.23868855834007263
0.5804073810577393 0.19578291475772858 -0.36616483330726624
-0.06520570069551468 -0.188612699508667 0.2700672447681427
-0.5592518448829651 -0.06586381047964096 -0.3229283094406128
0.03444638103246689 0.39498722553253174 0.33123722672462463
-0.3081088364124298 2.1834857761859894e-05 -0.21555760502815247
0.0010562136303633451 0.056710194796323776 -0.3996134400367737
0.17612013220787048 0.4625713527202606 0.44482383131980896
0.5826816558837891 0.16561627388000488 -0.3507382571697235
-0.3745255768299103 -0.001397731713950634 -0.2751377522945404
0.351115345954895 -0.3813164532184601 -0.22873975336551666
0.5822528600692749 0.22342939674854279 -0.18520216643810272
-0.21546761691570282 -0.06060729920864105 -0.15650106966495514
0.24812370538711548 0.000880037434399128 -0.24752405285835266
-0.5760912299156189 0.039941780269145966 -0.10645139217376709
0.27962619066238403 0.0017274189740419388 0.2435753494501114
-0.5004634857177734 0.11968808621168137 -0.10795364528894424
-0.055135518312454224 -0.449668288230896 -0.2686225175857544
0.5121620893478394 0.24398420751094818 0.35071972012519836
0.3683220446109772 -0.606140673160553 0.07529698312282562
-0.3924944996833801 -0.07585504651069641 0.07838010042905807
0.23228484392166138 0.0021864157170057297 -0.1751888543367386
-0.042788609862327576 -0.04060053080320358 0.28172969818115234
-0.06800638139247894 -0.6259093284606934 0.12716175615787506
0.29511523246765137 -0.6417681574821472 -0.22801735997200012
0.5830273032188416 0.32107803225517273 0.13001574575901031
-0.1816312074661255 -0.2795507609844208 0.16032089293003082
-0.018659641966223717 -0.3773990571498871 -0.3247043192386627
0.5834038257598877 0.2569600045681 -0.14676640927791595
-0.07380960881710052 -0.4560015797615051 0.2014211118221283
0.10334820300340652 0.40128061175346375 -0.22798123955726624
0.2083803415298462 -0.6180991530418396 0.17250704765319824
-0.07960648089647293 0.000420338474214077 -0.14603778719902039
0.5714383721351624 0.0059129102155566216 -0.07790696620941162
0.17976883053779602 -0.0373125858604908 -0.3647337555885315
0.10659167915582657 0.34170207381248474 -0.40190061926841736
-0.3806224465370178 0.06491014361381531 0.22413314878940582
0.02727915346622467 0.3993951678276062 0.2891233563423157
0.20860469341278076 -0.38968873023986816 0.2487548589706421
0.23343196511268616 -0.3169097304344177 0.29017874598503113
-0.11789116263389587 0.002560664899647236 0.2588789761066437
-0.2806045413017273 0.19151872396469116 0.343741238117218
0.4109940230846405 0.0016486532986164093 -0.12732025980949402
0.13847480714321136 -0.0025229137390851974 -0.381048321723938
-0.15907515585422516 0.39908406138420105 0.13940520584583282
0.5483100414276123 0.10747012495994568 0.34549152851104736
0.20185817778110504 -0.14569953083992004 -0.3581435978412628
0.024440746754407883 0.3984830379486084 0.3154124617576599
0.02714725024998188 -0.6214166879653931 -0.12808126211166382
0.029284749180078506 0.40156227350234985 0.2156529426574707
-0.25445523858070374 0.04415302723646164 0.3450284004211426
0.13774974644184113 -0.00026593729853630066 -0.3321336507797241
0.025476159527897835 0.02027812786400318 0.441599577665329
0.2040012925863266 0.0011411504819989204 -0.029157962650060654
-0.5350407958030701 0.06609732657670975 -0.3353981673717499
-0.5741928219795227 4.296284168958664e-05 0.11108255386352539
-0.42160362005233765 0.33296090364456177 -0.18634384870529175
0.2193426936864853 0.39908817410469055 0.13130296766757965
-0.46417537331581116 0.10151360183954239 0.23680323362350464
-0.40248221158981323 0.35440608859062195 -0.19007273018360138
0.07965903729200363 -0.15141597390174866 0.3155519664287567
0.13084697723388672 -0.42680418491363525 -0.3214089572429657
-0.030092470347881317 0.39986082911491394 -0.2162843495607376
0.13218598067760468 -0.6217676997184753 -0.17767591774463654
-0.28182682394981384 0.3517856001853943 -0.39833325147628784
0.21607926487922668 0.19716204702854156 0.4663155674934387
-0.06825704872608185 -0.0016928436234593391 -0.22834962606430054
-0.3375445306301117 -9.26898792386055e-06 -0.31436601281166077
0.382590651512146 -0.38004815578460693 -0.16339734196662903
-0.5231685042381287 0.07576791942119598 0.34456536173820496
-0.22947677969932556 -0.0024534640833735466 -0.08117984980344772
0.5803258419036865 0.10956507921218872 -0.1148591861128807
-0.06955423951148987 0.0008142804726958275 0.013002589344978333
0.0033538283314555883 0.39905503392219543 0.29518499970436096
-0.20879292488098145 -0.06160661205649376 0.11607585847377777
0.5833048224449158 0.18216662108898163 -0.054470084607601166
-0.5769303441047668 0.020260849967598915 -0.22828391194343567
0.458744615316391 0.4011421501636505 0.26014915108680725
-0.004924517124891281 -0.004084402229636908 0.323225736618042
0.24523213505744934 0.12324787676334381 0.46369993686676025
0.5817710757255554 0.1284734606742859 -0.3257089853286743
-0.5199525356292725 0.07765539735555649 0.17870569229125977
0.4187968075275421 -0.37782683968544006 -0.05102791637182236
0.28521424531936646 -0.0013196924701333046 0.23221369087696075
0.212026447057724 0.3941640257835388 0.3239973187446594
0.297712117433548 0.3294579088687897 0.34691664576530457
0.1597580909729004 0.12798967957496643 0.466554194688797
-0.5833538174629211 0.24485059082508087 0.2829512059688568
0.4556305706501007 -0.002522509079426527 0.05925499275326729
-0.4855864346027374 0.38303327560424805 -0.02899806946516037
-0.5436720252037048 0.0005577770061790943 0.11233797669410706
-0.472949355840683 0.36814871430397034 -0.15366306900978088
0.26091456413269043 0.3958624601364136 0.3157739043235779
-0.2661401927471161 0.3810459077358246 -0.08153095841407776
-0.310119092464447 0.39653444290161133 0.034438058733940125
0.13481242954730988 0.11324615031480789 0.34586799144744873
0.04441092163324356 0.09367584437131882 0.34895995259284973
-0.02900627814233303 0.0008999919518828392 -0.17058737576007843
-0.5058690309524536 -0.0008402303792536259 -0.06851945072412491
-0.41269639134407043 0.0018309187144041061 0.2672679126262665
-0.19420337677001953 0.0002017039805650711 -0.1235177293419838
0.3003880977630615 -0.6181886196136475 0.03165169060230255
-0.1791967898607254 0.0007568402215838432 -0.2041654884815216
-0.12394014000892639 -0.000758991576731205 -0.1683598756790161
0.08732404559850693 -0.4083929657936096 0.2657187879085541
-0.37012192606925964 -0.0536656528711319 -0.03159380704164505
0.43450015783309937 -0.3160463273525238 -0.12899364531040192
-0.17541541159152985 -0.41121774911880493 0.07328371703624725
0.14139902591705322 -0.6211647987365723 -0.19712695479393005
-0.11561578512191772 0.3999834954738617 -0.25112998485565186
0.5820837616920471 0.35487449169158936 -0.028490372002124786
0.05271059274673462 -0.6572037935256958 -0.3011224567890167
0.13665087521076202 -0.08116402477025986 -0.3710816502571106
-0.040247537195682526 -0.0015286528505384922 -0.34373918175697327
-0.1727858930826187 -0.3008008301258087 0.1727333813905716
0.04662894085049629 -0.00047509418800473213 -0.3007613718509674
-0.48690858483314514 0.1236332505941391 0.19066835939884186
0.1600642055273056 0.2955441474914551 0.3443237543106079
-0.5093863010406494 0.11486483365297318 0.2536652386188507
-0.1201094537973404 0.24282217025756836 0.3623460531234741
-0.5723581314086914 0.11655323952436447 -0.39367684721946716
0.09531448036432266 0.1558937281370163 0.34488046169281006
-0.24666987359523773 0.402309775352478 0.17463098466396332
-0.014906034804880619 -0.5269284248352051 0.23743489384651184
-0.23739224672317505 -0.0028323112055659294 0.07871390879154205
0.2325855940580368 0.000729307415895164 -0.014620472677052021
-0.2660156190395355 0.40120992064476013 -0.2912360727787018
-0.026502706110477448 -0.0007956060580909252 -0.24265949428081512
0.3083800673484802 -0.4442564845085144 -0.23431816697120667
0.07212566584348679 0.40141913294792175 -0.07943950593471527
0.08692573010921478 -0.321970134973526 0.31394481658935547
-0.1831788718700409 -0.4176935851573944 0.005285119172185659
0.21788781881332397 0.24393330514431 0.34307894110679626
-0.5301931500434875 0.10785433650016785 -0.31301185488700867
-0.4148584306240082 0.0754634439945221 -0.39977705478668213
0.5828748345375061 0.20716136693954468 -0.16479550302028656
-0.24689213931560516 0.000164347467944026 0.22421924769878387
0.5834702849388123 0.3471543788909912 -0.27851927280426025
-0.22574174404144287 0.2023271918296814 -0.4009743928909302
-0.4852902293205261 -0.10732299089431763 -0.18293841183185577
0.22813904285430908 -0.004636420868337154 0.4609842002391815
0.3153530955314636 0.3364183008670807 0.3497849702835083
-0.4200001358985901 0.39815905690193176 -0.21318182349205017
