-0.5629940629005432 -0.04314215108752251 -0.07602735608816147
0.395361989736557 -0.36825329065322876 -0.19113658368587494
-0.5694408416748047 0.32693737745285034 -0.018855977803468704
0.25149962306022644 -0.0007012584246695042 -0.35348349809646606
0.23117505013942719 -0.6262595057487488 0.1820128858089447
0.12543587386608124 0.14225706458091736 -0.4012373387813568
-0.09168773889541626 0.001158333383500576 -0.1944497972726822
-0.035183537751436234 -0.11548995971679688 0.2855040431022644
-0.026776814833283424 -0.5272424817085266 -0.2919437289237976
0.37920284271240234 0.0011762031354010105 -0.11194293200969696
0.34792158007621765 -0.3905290961265564 -0.18887987732887268
0.15792211890220642 -0.3817412257194519 0.27909255027770996
0.04702984169125557 0.20317517220973969 0.4578459560871124
-0.570205569267273 0.1795281022787094 -0.17062543332576752
-0.18174472451210022 0.40027302503585815 0.2540111243724823
-0.3755555748939514 -0.0067188553512096405 -0.24233689904212952
0.11642614752054214 0.3998505771160126 0.20246316492557526
-0.11051401495933533 -0.21600838005542755 -0.298673540353775
0.004867337178438902 0.0016656438820064068 0.04101497307419777
-0.2509562075138092 0.4007379114627838 0.23246462643146515
0.15451359748840332 0.15986987948417664 -0.4013743996620178
0.17114399373531342 0.0027345437556505203 0.005600790027529001
-0.19741159677505493 -0.37260934710502625 -0.18200157582759857
0.20439115166664124 0.399295449256897 -0.045181192457675934
-0.42510923743247986 -0.0007896327879279852 0.1485767662525177
0.20573262870311737 -0.17800340056419373 -0.3607812523841858
-0.1629851907491684 -0.4139403998851776 0.07624896615743637
-0.3889603912830353 -0.0279300045222044 -0.40009981393814087
0.3211630880832672 -0.6402885913848877 -0.21362286806106567
-0.3729187250137329 -0.02967020496726036 -0.04264200106263161
-0.4344969391822815 0.08612728863954544 0.3436487019062042
0.13243524730205536 0.1386677473783493 0.4628806412220001
-0.1762281358242035 0.0008368091657757759 -0.05323100835084915
-0.530009925365448 -0.08477573841810226 0.2902693450450897
0.45301151275634766 0.19987906515598297 0.3417842388153076
0.552314817905426 0.16790589690208435 0.34081122279167175
0.01972312666475773 0.3873724639415741 -0.3953384459018707
-0.1525111049413681 -0.39259299635887146 0.12048531323671341
0.0825272724032402 -0.3380076289176941 0.3135482668876648
-0.4391472637653351 0.2227371633052826 0.34070760011672974
0.21454690396785736 -0.6165648698806763 -0.19810663163661957
0.2456607073545456 -0.6493702530860901 0.21426405012607574
-0.2233927696943283 0.39892953634262085 -0.35189324617385864
-0.15403838455677032 -0.3925791084766388 0.11280743032693863
0.00638573057949543 0.39625483751296997 -0.37295830249786377
0.27042996883392334 -0.6162969470024109 -0.14855752885341644
0.5821712017059326 0.01485932432115078 0.0900096446275711
0.5554534196853638 0.017378458753228188 0.34016168117523193
-0.36024758219718933 0.0010785965714603662 0.16903842985630035
-0.20619383454322815 -0.042320504784584045 -0.1834089159965515
0.14044342935085297 0.0026036170311272144 0.24377037584781647
0.1315319836139679 0.10587432980537415 0.4636164605617523
0.2870362401008606 0.0015208646655082703 -0.23729687929153442
0.07120874524116516 0.00228468282148242 0.17854946851730347
0.44701021909713745 -0.012534242123365402 -0.006822372321039438
-0.04628529027104378 -0.617989718914032 -0.015563372522592545
-0.38075849413871765 0.0049040429294109344 0.0459514781832695
0.506841242313385 0.002585107460618019 0.25199785828590393
0.5314133763313293 0.2813626527786255 -0.39583149552345276
0.47978296875953674 -0.001792282797396183 -0.049923960119485855
0.13714571297168732 0.34329766035079956 0.46099844574928284
-0.3607395887374878 0.40219956636428833 -0.14071908593177795
0.583020806312561 0.24316470324993134 -0.13762266933918
-0.5586411356925964 0.09251073747873306 0.05308619514107704
0.314525842666626 0.07964790612459183 0.4556465446949005
0.4425150156021118 -0.12197455018758774 0.03865375369787216
-0.10740884393453598 0.1578010469675064 -0.4028718173503876
0.21722832322120667 0.048498570919036865 0.4611086845397949
0.3432810306549072 -0.6361697316169739 0.03069564513862133
-0.14406484365463257 -0.5819411873817444 -0.18693658709526062
0.5078979730606079 0.002750716172158718 -0.23351329565048218
-0.3311552405357361 0.39837783575057983 0.07794228196144104
0.041880764067173004 -0.30203771591186523 0.3098129332065582
-0.22289307415485382 -0.3713234066963196 -0.08237260580062866
0.568178653717041 0.17116710543632507 0.3394886553287506
0.5689870715141296 0.3811815679073334 -0.38592085242271423
-0.18140007555484772 -0.4416937232017517 0.04418822005391121
-0.5659661889076233 0.08255187422037125 -0.0633290708065033
-0.11480365693569183 0.40023210644721985 0.14130069315433502
-0.4057464003562927 0.08626048266887665 -0.4000101685523987
-0.3641897737979889 0.03574550524353981 -0.01381148025393486
0.38726502656936646 -0.3917039632797241 -0.04598161205649376
0.06469941139221191 -0.6154677867889404 -0.09832344949245453
0.09157662838697433 0.3984138071537018 -0.3425431549549103
0.585405170917511 0.12989868223667145 -0.1736738234758377
0.14660604298114777 -0.01994454488158226 -0.37106454372406006
0.1381322294473648 0.46192097663879395 0.36917930841445923
0.4235844910144806 -0.002108242828398943 -0.11807377636432648
0.1010158360004425 -0.5222693681716919 0.25814855098724365
-0.5716744065284729 0.06196124851703644 -0.25847291946411133
0.3056491017341614 0.3980683386325836 -0.27224668860435486
-0.16737908124923706 0.0015943972393870354 -0.036209166049957275
-0.07709424197673798 -0.6226238012313843 0.06296195089817047
0.1684747338294983 -0.6181965470314026 0.034288179129362106
-0.09052328765392303 0.3983807861804962 0.10103848576545715
-0.5535972714424133 0.3786134123802185 -0.36031588912010193
0.3439159691333771 0.4032520055770874 0.10262123495340347
0.08456069976091385 0.39947783946990967 -0.2815936803817749
0.04285601153969765 -0.6163468360900879 0.10502087324857712
-0.5661203265190125 0.06676453351974487 -0.08923965692520142
0.41312092542648315 0.004506722092628479 0.3300822079181671
-0.08668720722198486 -0.5668953061103821 -0.2529447674751282
0.043291132897138596 -0.27111127972602844 0.3100079596042633
0.5721803903579712 0.017137642949819565 -0.3076533079147339
-0.4335579574108124 -0.10671988874673843 0.09883604943752289
0.08483140170574188 0.002463873475790024 -0.22060048580169678
-0.3768264651298523 0.06180831789970398 -0.3797031342983246
0.5359616875648499 0.22595453262329102 0.34674471616744995
0.16684715449810028 -0.6173418164253235 -0.0557221919298172
0.05935944616794586 0.3946731984615326 -0.38768625259399414
0.41918832063674927 -0.0010156519711017609 -0.18830420076847076
0.259878009557724 -0.0007281512953341007 0.23670630156993866
0.2873896360397339 0.04998430237174034 -0.40207943320274353
0.05530790612101555 0.05049821734428406 0.45859766006469727
0.11540741473436356 0.3947391211986542 0.3338722884654999
-0.5728471875190735 0.030422059819102287 -0.16259130835533142
-0.02165522612631321 -0.004971521440893412 -0.31762808561325073
-0.456355482339859 0.37038421630859375 -0.19412171840667725
-0.3858272135257721 -0.03052971512079239 -0.39670273661613464
-0.03302427753806114 0.10389400273561478 0.34577614068984985
0.4048215448856354 0.40000805258750916 0.2787877023220062
-0.10715936124324799 0.28112727403640747 -0.4010542631149292
0.11303345113992691 -0.41586390137672424 0.2620743215084076
0.026261495426297188 0.2704584002494812 0.411300927400589
0.4143770933151245 0.00042301323264837265 -0.21318191289901733
0.3915344774723053 -0.0027564193587750196 0.13797727227210999
0.3017246723175049 -0.388340026140213 0.17843127250671387
0.4775448441505432 0.3913986086845398 0.33939072489738464
-0.5721496939659119 0.271210640668869 -0.11635255068540573
0.173812597990036 0.0588037334382534 0.4621666669845581
0.5781607031822205 0.368619829416275 -0.03063160739839077
-0.19437912106513977 0.16038772463798523 -0.39819711446762085
0.3008796274662018 -0.6174179315567017 -0.06361310929059982
-0.5668354630470276 -0.036336034536361694 -0.21605081856250763
0.09251108020544052 -0.6167151927947998 0.07847543805837631
-0.22618797421455383 -4.702247679233551e-05 -0.35466161370277405
0.43191203474998474 -0.23306094110012054 0.07085078209638596
-0.03663160651922226 0.39886462688446045 -0.05042111128568649
0.580951988697052 0.2572830021381378 -0.39238235354423523
0.10794516652822495 -0.6217465400695801 0.20841316878795624
-0.4985617697238922 -0.08859152346849442 0.10255049169063568
-0.4331907331943512 0.11091351509094238 0.082980677485466
0.23099961876869202 -0.3065435290336609 0.2884124219417572
0.28540802001953125 0.0031617730855941772 0.07901689410209656
0.3098473846912384 0.0026371213607490063 0.1263398677110672
-0.4432673156261444 -0.11828818917274475 0.292411744594574
0.1396365761756897 -0.6192319989204407 0.0761587917804718
0.31789493560791016 -0.3759711682796478 0.1847655028104782
0.387981653213501 -0.3610822856426239 0.1524311900138855
0.23417864739894867 0.2534695863723755 0.4621465802192688
-0.10204031318426132 0.001065415795892477 -0.24485978484153748
-0.4218464493751526 0.03936335816979408 0.3394413888454437
-0.2350926697254181 -0.09288719296455383 -0.06672244518995285
-0.46622297167778015 0.4094931483268738 -0.09476800262928009
-0.3410763144493103 0.4005132019519806 0.28529003262519836
-0.22970010340213776 -0.3281686007976532 0.009788606315851212
0.23129123449325562 0.38151273131370544 0.4618244171142578
-0.44065842032432556 0.00020686117932200432 -0.11381924897432327
-0.060853876173496246 0.39793097972869873 -0.014131147414445877
-0.5700965523719788 0.2732629179954529 -0.27415886521339417
0.3708275854587555 0.4019995927810669 0.23149682581424713
0.5555794835090637 0.39732256531715393 -0.2688552737236023
0.5645625591278076 0.345685750246048 0.3457222282886505
-0.5336991548538208 -0.08290654420852661 -0.17148998379707336
-0.23345597088336945 -0.15169934928417206 -0.05474179983139038
0.5759381651878357 0.12975402176380157 -0.2575739920139313
-0.22864967584609985 -0.0003978293389081955 0.15689364075660706
0.15153585374355316 0.002523111179471016 0.14652559161186218
0.4488193392753601 0.3860689401626587 0.3438208997249603
0.31805214285850525 0.23010045289993286 0.34539803862571716
-0.17725887894630432 -0.3759194314479828 -0.21168357133865356
0.3236873149871826 0.16774417459964752 -0.4037671983242035
0.01296496856957674 0.39919313788414 -0.3468157947063446
-0.23545250296592712 -0.21866953372955322 -0.07419122755527496
0.5254087448120117 0.25181224942207336 -0.40252867341041565
0.1879309117794037 -0.6472839713096619 0.23908402025699615
-0.23611287772655487 -0.09329812228679657 0.03624846413731575
-0.5484819412231445 0.38347944617271423 0.07078877836465836
-0.41966891288757324 0.3982083201408386 -0.29050642251968384
0.052087053656578064 0.3998451232910156 -0.2199365794658661
-0.278006911277771 0.3996112644672394 -0.306885689496994
-0.15238547325134277 -0.6428677439689636 -0.07240527868270874
0.032413139939308167 0.40131691098213196 -0.0032819011248648167
-0.025538839399814606 -0.33946287631988525 0.28781554102897644
-0.5347556471824646 0.07425668090581894 0.2079300731420517
-0.2394309639930725 -0.00027742190286517143 -0.11348460614681244
0.26722252368927 0.1734473705291748 -0.40281593799591064
0.22996479272842407 -0.46871504187583923 0.23414766788482666
0.5283152461051941 0.21243740618228912 -0.40172478556632996
-0.12809401750564575 0.3974911868572235 0.03694853559136391
0.31951144337654114 0.26955071091651917 0.3517579436302185
0.16032277047634125 0.003266602521762252 -0.3869047462940216
0.584435224533081 0.07568901032209396 0.24455690383911133
-0.3400731086730957 0.005274083465337753 -0.05697382241487503
-0.5290934443473816 0.39263716340065 -0.012924817390739918
-0.5726384520530701 0.12701483070850372 -0.24051274359226227
-0.0953151136636734 0.0008537573739886284 0.1538776010274887
0.2868073284626007 -0.4922700524330139 -0.24764446914196014
-0.18144425749778748 -0.08287760615348816 0.15988442301750183
0.3930313289165497 -0.12403339892625809 -0.2125045657157898
-0.005615005269646645 -0.6210309863090515 0.08809170871973038
0.429059773683548 -0.0026259683072566986 0.012962434440851212
0.40521150827407837 -0.23623767495155334 0.13543780148029327
0.1556495577096939 -0.0996875911951065 0.3156636357307434
0.12662099301815033 0.002516048029065132 0.22007419168949127
-0.5165354013442993 0.19495277106761932 -0.39551907777786255
-0.05677444487810135 -0.6235392689704895 0.12451458722352982
0.18110142648220062 0.0028680688701570034 -0.24177776277065277
0.1892997920513153 0.32762759923934937 -0.40290722250938416
-0.06191962957382202 0.0001949286088347435 0.22559382021427155
-0.3532450199127197 0.39998191595077515 -0.30803367495536804
-0.04609955474734306 -0.3387513756752014 -0.3383166790008545
-0.5721264481544495 0.1749071180820465 -0.1915733516216278
0.258192777633667 -0.6187017560005188 -0.18874166905879974
0.5823712348937988 0.039030227810144424 -0.17643572390079498
-0.39675256609916687 0.4143260419368744 -0.08314711600542068
0.31153324246406555 -0.37865713238716125 0.1959247589111328
0.09244386106729507 0.014541130512952805 -0.3978464901447296
-0.07356027513742447 -0.6210246086120605 -0.009435185231268406
-0.1850668340921402 0.4003564119338989 0.049461472779512405
-0.16738440096378326 0.3798902928829193 0.3437177538871765
-0.4299907982349396 0.0993136316537857 0.20526407659053802
-0.5644412040710449 0.04042302444577217 -0.14274035394191742
0.2747800052165985 -0.3750005066394806 -0.2934025526046753
-0.5733357071876526 0.29160889983177185 0.13768522441387177
-0.22371646761894226 -0.3755064904689789 -0.012969523668289185
0.2673245966434479 -0.0011581771541386843 0.23934529721736908
-0.36358752846717834 0.05422015115618706 0.34187182784080505
-0.120014488697052 0.3215067386627197 -0.39993909001350403
-0.24219383299350739 -0.25554630160331726 0.010258889757096767
0.33016517758369446 -0.6216232180595398 -0.008946239948272705
-0.5700765252113342 0.21140141785144806 0.3366462290287018
-0.553730845451355 0.37889364361763 -0.11865934729576111
0.41269391775131226 -0.16985954344272614 0.12872494757175446
-0.03956306725740433 -0.0021253544837236404 -0.18382970988750458
0.2328183948993683 0.21578700840473175 0.46180567145347595
0.047457046806812286 -0.6333010792732239 -0.3128827214241028
-0.5663361549377441 -0.0022197850048542023 0.11194959282875061
0.055176395922899246 -0.0035869621206074953 -0.3763425052165985
-0.49446725845336914 -0.09948092699050903 -0.12378450483083725
0.11713028699159622 0.3578478693962097 -0.4044003188610077
-0.022382564842700958 0.40046554803848267 0.22314590215682983
0.03520343452692032 -0.02674471214413643 0.4410644471645355
0.5077002644538879 0.0004401407204568386 -0.17447206377983093
0.03144720196723938 -0.617414653301239 -0.10126562416553497
0.04153960198163986 -0.6162711977958679 -0.044524043798446655
0.4090995490550995 -0.0008526816964149475 -0.16140705347061157
0.05450556054711342 -0.09817063063383102 -0.36820170283317566
0.11904193460941315 0.002550588920712471 -0.2396678775548935
-0.20290730893611908 -0.1341945230960846 0.13828487694263458
0.09505385905504227 -0.6144548654556274 -0.049064453691244125
-0.18188057839870453 -0.44108089804649353 -0.05842054635286331
-0.49751904606819153 0.3861260414123535 -0.1536010354757309
0.11219315230846405 0.38649624586105347 0.4611206650733948
-0.5470369458198547 -0.07616173475980759 -0.16377247869968414
0.2249448597431183 0.06462438404560089 0.4609625041484833
0.16185079514980316 0.0027192290872335434 -0.033361367881298065
0.48781248927116394 0.35540562868118286 -0.4051499664783478
-0.1330793797969818 0.3989821672439575 -0.3450620174407959
0.29841455817222595 0.32860174775123596 0.3447510600090027
-0.5486770868301392 0.07113496214151382 -0.3998594582080841
-0.2056276947259903 -0.007951432839035988 0.11566302925348282
0.051421549171209335 0.0018238862976431847 0.044350288808345795
0.5583668351173401 0.003410518169403076 -0.05996689200401306
-0.019008353352546692 -0.0016411710530519485 -0.09276053309440613
0.24701203405857086 0.3987087905406952 0.24557183682918549
-0.5763718485832214 0.20639780163764954 0.28781673312187195
-0.5654776692390442 -0.02168586291372776 -0.20179696381092072
-0.48947811126708984 -0.10682599991559982 -0.045172542333602905
0.11718633770942688 0.002578777028247714 0.2000662386417389
-0.5590330958366394 0.36377227306365967 -0.16636058688163757
-0.5052623748779297 0.0943918377161026 -0.14524289965629578
0.3349454998970032 -0.6212744116783142 0.03268054872751236
-0.41245025396347046 -0.08883550018072128 -0.3914225995540619
-0.1847759634256363 0.0013423534110188484 -0.07650039345026016
0.5837529301643372 0.36171284317970276 0.02430485561490059
0.14694583415985107 0.4004727602005005 -0.2068895846605301
0.580226719379425 0.26269134879112244 -0.0623234398663044
-0.5650498867034912 0.07247568666934967 -0.3076076805591583
0.2446109503507614 0.05998848378658295 0.4607583284378052
0.3755938410758972 -0.47832193970680237 0.07334119081497192
-0.1391564905643463 0.39921537041664124 0.25633907318115234
0.2828908860683441 -0.620022177696228 0.03757442161440849
0.24715477228164673 0.002919750288128853 -0.18450836837291718
-0.3107905685901642 -0.0009450959041714668 -0.20327091217041016
0.16429352760314941 0.22607524693012238 -0.40318408608436584
0.3225378096103668 -0.5558961033821106 -0.21653220057487488
-0.24652265012264252 0.35766807198524475 -0.40100282430648804
-0.32971084117889404 0.3963918387889862 -0.24061301350593567
-0.29914000630378723 -0.0018713298486545682 -0.09361790120601654
-0.48643606901168823 0.0007826334331184626 -0.08526372909545898
0.01789523847401142 0.19828085601329803 0.3502018451690674
0.3244837820529938 0.0878245010972023 0.3452710509300232
-0.4533870220184326 5.69585245102644e-05 0.012964497320353985
-0.5602302551269531 -0.018923170864582062 0.3413316607475281
0.09545544534921646 -0.2423841804265976 0.31532928347587585
0.025500783696770668 0.003279765136539936 0.3198140263557434
-0.4439675509929657 0.3987651467323303 -0.37358567118644714
0.10178162902593613 -0.6174729466438293 -0.015199203975498676
0.13423117995262146 -0.6215595602989197 -0.27319881319999695
0.0031220822129398584 0.0016379106091335416 -0.058954864740371704
0.44850054383277893 -0.30026790499687195 -0.050103578716516495
-0.17983275651931763 -0.44662249088287354 -0.08172637224197388
-0.06338199973106384 -0.42431238293647766 -0.27753114700317383
-0.2503563463687897 0.4011315703392029 0.204776793718338
-0.4497927725315094 0.12417224794626236 -0.018263312056660652
0.20010432600975037 0.40024319291114807 -0.1211448609828949
0.22920051217079163 0.0025370437651872635 -0.21893738210201263
0.09671305865049362 0.0025633377954363823 0.24010397493839264
-0.573097288608551 0.22655045986175537 0.3373950123786926
-0.3672100901603699 -0.038850799202919006 -0.03920149803161621
-0.031585123389959335 -0.37896597385406494 0.26194584369659424
0.1684059053659439 0.1443205326795578 -0.4014935791492462
0.3251981735229492 -0.37258094549179077 -0.2705385982990265
-0.28101056814193726 0.34878358244895935 -0.10963646322488785
0.05921487882733345 0.0025415439158678055 0.21849597990512848
0.06931229680776596 0.4165246784687042 0.3663061857223511
-0.4645560085773468 0.04107237979769707 -0.4032190442085266
-0.16800092160701752 0.3959293067455292 -0.36603912711143494
0.4415130615234375 -0.23193533718585968 -0.0052285813726484776
-0.09549017995595932 0.0015416685491800308 -0.1698990762233734
0.07656752318143845 0.18712684512138367 0.3469397723674774
0.45506593585014343 8.613616228103638e-05 -0.035989340394735336
0.4750600755214691 0.3997548818588257 -0.04389190673828125
-0.27552467584609985 0.35925576090812683 -0.09752435982227325
0.038727767765522 -0.6209087371826172 0.24889609217643738
-0.5764082670211792 0.23492762446403503 0.16351006925106049
0.2835744023323059 0.03319353237748146 -0.40302538871765137
0.4068526029586792 0.061481837183237076 -0.4050137400627136
-0.3094015419483185 0.09464876353740692 0.3438931107521057
0.3661342263221741 -0.0006330053438432515 0.25636225938796997
-0.5666477084159851 0.03923392668366432 0.06929302215576172
-0.4129837155342102 0.28970035910606384 0.34550026059150696
-0.43119898438453674 -0.0918344184756279 -0.05468650534749031
0.16865354776382446 -0.20377619564533234 0.31093016266822815
-0.08974241465330124 0.0014373352751135826 -0.229839026927948
0.39251598715782166 -0.5004163384437561 -0.050402842462062836
-0.30128541588783264 0.35563698410987854 -0.01572297140955925
0.5804567933082581 0.18014535307884216 0.29533660411834717
-0.23287254571914673 -0.23119468986988068 -0.07743643969297409
-0.3840036988258362 -0.0006241083610802889 -0.29913341999053955
-0.017596449702978134 -0.10852290689945221 0.29512089490890503
0.10772009193897247 -0.6538983583450317 -0.30716246366500854
-0.569495677947998 -0.0019253315404057503 0.07083483040332794
0.18343746662139893 0.002897351048886776 0.20127078890800476
-0.1402987837791443 -0.3133145868778229 -0.273612916469574
-0.14914268255233765 0.17989028990268707 -0.3995809853076935
0.03949764370918274 0.27553802728652954 0.4256882071495056
0.09694564342498779 0.05178987607359886 0.34475526213645935
0.5804997682571411 0.3500051498413086 0.2724267840385437
0.21735815703868866 -0.6181996464729309 -0.14825136959552765
-0.13339638710021973 -0.392390638589859 0.14204654097557068
-0.15086404979228973 -0.480629026889801 0.10839938372373581
-0.34675389528274536 0.0008376482874155045 0.11333893984556198
0.3125631511211395 -0.6247069835662842 -0.16306811571121216
-0.43068137764930725 -0.10215602070093155 -0.3424507677555084
-0.022035421803593636 -0.6234708428382874 -0.22249284386634827
-0.49896353483200073 -0.10313583165407181 -0.0204661525785923
-0.17205572128295898 -0.4356182813644409 0.05520160123705864
0.11496979743242264 -0.29905712604522705 0.31357625126838684
0.31789952516555786 -0.3196902871131897 0.24327470362186432
0.4777754545211792 0.40053674578666687 0.03826548904180527
0.2830252945423126 0.002673492766916752 -0.003464818000793457
-0.516228973865509 0.3988303244113922 -0.28473371267318726
-0.1587521731853485 -0.5927056670188904 -0.1575024276971817
0.17976780235767365 -0.617712676525116 -0.1993894875049591
0.5784168243408203 0.004743633326143026 -0.2905205190181732
-0.5426177382469177 0.0048435586504638195 -0.2557560205459595
0.0866507887840271 -0.31746891140937805 -0.3740592300891876
0.10707079619169235 0.3999527394771576 0.19749723374843597
0.17328909039497375 -0.08917724341154099 0.39709311723709106
0.39327383041381836 -0.5678744912147522 -0.04694902151823044
-0.20271995663642883 -0.0006202023942023516 -0.24074238538742065
-0.5660222768783569 0.02971101552248001 -0.32139426469802856
0.43715864419937134 -0.31762418150901794 -0.107136070728302
0.3002685606479645 -0.639056921005249 0.12576569616794586
0.21703216433525085 -0.10857405513525009 -0.3540734350681305
0.14450383186340332 -0.0006155339069664478 0.2736828029155731
-0.5053775310516357 0.1832411140203476 0.3434765338897705
0.20371027290821075 -0.6204341650009155 0.018034929409623146
-0.020021304488182068 -0.6144421100616455 -0.16612128913402557
0.2358154058456421 0.0011932337656617165 0.16694338619709015
0.09099972248077393 0.002995019778609276 -0.004584853537380695
0.021685531362891197 -0.38196706771850586 0.2665838599205017
0.2000063806772232 -0.6526277661323547 -0.2872142195701599
0.13505271077156067 -0.617550253868103 -0.13292092084884644
-0.5383300185203552 -0.06803153455257416 -0.19361428916454315
-0.2321355789899826 -0.00026026670821011066 -0.1357506364583969
0.23255017399787903 -0.6229529976844788 -0.2088622748851776
0.09678914397954941 -0.003623859491199255 0.3257862627506256
0.09491419047117233 0.42552173137664795 0.3934015929698944
0.4159913659095764 0.3989514708518982 -0.04515751451253891
0.23569823801517487 0.0023294156417250633 -0.27418363094329834
0.5841202139854431 0.22854691743850708 0.22376205027103424
-0.5752063393592834 0.2745039165019989 -0.1516026258468628
-0.07017237693071365 -0.6404809951782227 0.16082356870174408
0.33688992261886597 0.38965973258018494 -0.3984261453151703
0.035248447209596634 0.01688423380255699 0.3382817208766937
0.24979278445243835 0.39963793754577637 0.2418016493320465
-0.024483392015099525 0.29012733697891235 0.4036611020565033
0.03496694564819336 -0.6162067651748657 -0.16499502956867218
-0.01750740222632885 0.0015438452828675508 -0.006365819368511438
0.27604007720947266 0.3259938657283783 0.3459424376487732
-0.45489296317100525 0.11768128722906113 0.15438343584537506
-0.5704581141471863 0.03563437610864639 -0.03493032604455948
-0.11983424425125122 0.06055542454123497 0.34115636348724365
0.4325637221336365 -0.18727318942546844 -0.1099422425031662
0.558756947517395 0.006030348129570484 -0.3813953697681427
-0.12175527960062027 0.3995637595653534 -0.05994302034378052
0.2729119658470154 -0.23119640350341797 -0.32434454560279846
-0.5644864439964294 0.026034388691186905 -0.38890257477760315
-0.5357944369316101 0.3950099050998688 -0.2034098207950592
-0.21899951994419098 0.398086816072464 0.13350291550159454
0.46689850091934204 0.40349021553993225 0.16988223791122437
-0.4672417938709259 0.03725310042500496 -0.4042414426803589
-0.013718940317630768 -0.6339221596717834 0.1970948874950409
-0.11376853287220001 -0.4757283627986908 -0.22203409671783447
-0.0872274860739708 -0.24405492842197418 -0.3158248960971832
-0.20298250019550323 0.13273131847381592 0.34503328800201416
-0.2567291855812073 0.4014134407043457 0.19946420192718506
-0.24341094493865967 0.0032836534082889557 -0.35294193029403687
-0.14058677852153778 0.39787259697914124 0.024709640070796013
0.2426052689552307 -0.18153268098831177 0.2833830416202545
0.5403688549995422 0.19288817048072815 0.34484395384788513
0.3909502625465393 -0.525114893913269 -0.042303815484046936
0.14946644008159637 -0.18865391612052917 0.3104219436645508
-0.116655133664608 -0.34729236364364624 0.23560857772827148
-0.15132492780685425 0.3063732981681824 -0.40003713965415955
0.09638353437185287 -0.644687831401825 0.2311495840549469
-0.03254295513033867 -0.6144593954086304 0.04549865052103996
0.050929173827171326 0.3182930648326874 0.45755723118782043
-0.1357218325138092 -0.25758999586105347 0.22292986512184143
-0.4135424494743347 -0.10369137674570084 0.18183402717113495
-0.5619527697563171 0.3683921992778778 0.24276180565357208
-0.48183882236480713 0.39638784527778625 0.19971944391727448
0.12549425661563873 0.41537776589393616 0.45303669571876526
-0.17277340590953827 -0.37914735078811646 0.14958906173706055
-0.20433269441127777 -0.3276824951171875 -0.1743045449256897
0.025166217237710953 -0.6185449957847595 0.08269670605659485
0.4979832172393799 0.3197721838951111 0.34477558732032776
0.16085325181484222 0.3346811830997467 0.45840057730674744
-0.3830605745315552 0.042999327182769775 0.3406987488269806
0.2944880723953247 -0.46594271063804626 -0.24706144630908966
-0.5715068578720093 0.3337685763835907 0.027855128049850464
0.28481215238571167 0.03210252895951271 -0.4043354392051697
-0.17769192159175873 -0.405938982963562 0.0497966967523098
-0.5733646154403687 0.19024792313575745 0.008190343156456947
0.2956496775150299 0.4019613265991211 -0.19785921275615692
0.2700013816356659 -0.08742038160562515 0.3921390175819397
-0.19682173430919647 -0.38077232241630554 0.04123961925506592
0.09017465263605118 0.0030485112220048904 0.17502623796463013
0.4017014801502228 -0.07140450179576874 -0.187195286154747
0.5860435366630554 0.19813159108161926 0.04806588217616081
0.3348950445652008 -0.454084187746048 -0.19533060491085052
0.21784786880016327 0.4658879041671753 0.4005436897277832
0.06950834393501282 -0.005009146872907877 -0.3720291256904602
-0.09195083379745483 0.0013636692892760038 -0.03880912810564041
0.30013158917427063 -0.3786562383174896 0.2066117823123932
-0.14172400534152985 0.05653084069490433 -0.4015541970729828
-0.09368696063756943 -0.026952728629112244 -0.29799598455429077
0.5748937129974365 0.14564979076385498 0.33552226424217224
-0.22645963728427887 -0.10695408284664154 0.026103008538484573
-0.3576575517654419 0.002740210387855768 -0.30063533782958984
0.375856876373291 0.0004908787086606026 0.11646280437707901
-0.19333159923553467 -0.06214741989970207 0.14224401116371155
-0.07257334887981415 -0.6248699426651001 0.11230688542127609
-0.2594813406467438 0.39699557423591614 0.04480714350938797
0.13474701344966888 0.0015644229715690017 -0.34254908561706543
0.3601870834827423 0.07912953197956085 0.34393423795700073
0.04240605980157852 -0.6145950555801392 -0.16712959110736847
-0.5251622200012207 0.39176830649375916 0.06136847659945488
-0.44677481055259705 0.24547970294952393 0.3437501788139343
0.16399316489696503 0.15815943479537964 0.46418407559394836
0.3471930921077728 0.07989185303449631 -0.3960188031196594
-0.39026835560798645 0.08923182636499405 0.3299955129623413
-0.39851462841033936 -0.08942513167858124 0.3037354648113251
0.14893805980682373 -0.6453273892402649 -0.29239487648010254
0.29480260610580444 -0.21580573916435242 -0.31740623712539673
-0.4641411304473877 -0.0003065965138375759 0.04026685655117035
0.1947934478521347 0.0025817276909947395 -0.05062510073184967
0.09525437653064728 -0.6201395988464355 -0.03570473939180374
-0.28354087471961975 -0.00043952837586402893 0.04146937280893326
-0.2555566728115082 -0.003523103892803192 -0.04219077527523041
0.4391273558139801 -0.3656602203845978 -0.016205426305532455
0.5323351621627808 0.0028798896819353104 0.12388494610786438
0.044999148696660995 -0.0015182106290012598 0.3271647095680237
0.3516373038291931 -0.46229827404022217 -0.17765632271766663
-0.09587976336479187 -0.6429191827774048 -0.19871926307678223
0.5128260850906372 0.39983922243118286 -0.235081747174263
0.5770828723907471 0.03233145922422409 0.09790182113647461
-0.39354208111763 0.06956001371145248 -0.21048782765865326
-0.21392394602298737 -0.3049283027648926 0.110610730946064
-0.30236026644706726 -0.0004916926263831556 -0.248524472117424
-0.0162882748991251 0.039744991809129715 0.3443271219730377
-0.10518523305654526 -0.0026936056092381477 0.2512211203575134
-0.5566461682319641 -0.0501289889216423 -0.20515777170658112
-0.15224622189998627 0.00016180798411369324 -0.3346869647502899
0.01042807474732399 0.001930982107296586 0.0029191062785685062
-0.5721667408943176 0.24316146969795227 -0.13810908794403076
0.07572221010923386 0.2717875838279724 0.3453325927257538
-0.5773158669471741 0.1718256175518036 -0.004996943287551403
0.03599792346358299 0.04327956587076187 0.34455418586730957
-0.5732080936431885 0.24624082446098328 0.1999368518590927
-0.007476619444787502 0.3913179636001587 -0.39213642477989197
-0.36628517508506775 -0.0020463094115257263 -0.1045551523566246
0.2082362174987793 0.3437192440032959 0.45960742235183716
0.328236848115921 -0.40192732214927673 -0.20867274701595306
-0.23911221325397491 -0.050433941185474396 -0.06437567621469498
0.5342361927032471 0.2859858572483063 0.34519508481025696
-0.11837349832057953 -0.16095294058322906 -0.29044145345687866
-0.5701727271080017 0.1028728038072586 0.13981084525585175
-0.3539906442165375 -0.01329850871115923 0.17004795372486115
-0.12579232454299927 0.0010584378615021706 0.11907192319631577
-0.0027169722598046064 0.23995442688465118 0.35721540451049805
0.4539066553115845 0.4014974534511566 0.09259442985057831
-0.5211579203605652 -0.005438661202788353 -0.1652182936668396
0.3840135335922241 -0.5946292281150818 0.038231659680604935
0.14627084136009216 0.002600281499326229 -0.09534604102373123
-0.23990340530872345 -0.281434565782547 -0.07756805419921875
0.11697209626436234 0.46613597869873047 0.43766599893569946
-0.373710036277771 -0.05245077982544899 -0.09816141426563263
-0.14267519116401672 -0.15532007813453674 -0.28792881965637207
0.18240904808044434 -0.6238384246826172 -0.2636658549308777
0.025069421157240868 -0.6184791922569275 -0.1391502022743225
-0.48492610454559326 0.0012307236902415752 -0.25411084294319153
0.45021378993988037 0.004199221730232239 0.30391258001327515
-0.43644869327545166 0.38359344005584717 -0.3941296339035034
-0.5315696001052856 -0.07230404019355774 0.3127904236316681
-0.09039367735385895 0.0011133132502436638 -0.058877814561128616
0.14491644501686096 0.40020477771759033 0.1726987659931183
0.4217490255832672 0.3987407684326172 -0.3086303174495697
-0.06643576920032501 0.0015814639627933502 -0.17542912065982819
-0.4323439300060272 0.39888525009155273 -0.18680445849895477
-0.1066688597202301 0.20405210554599762 -0.4020027220249176
-0.4347938299179077 0.4001442492008209 0.2482285350561142
0.5833709239959717 0.2524922490119934 -0.029839137569069862
0.296602338552475 0.17472071945667267 0.45928722620010376
0.38029542565345764 0.3581238389015198 -0.4029799699783325
0.3037600815296173 -0.0030226423405110836 0.24462033808231354
-0.0686090886592865 -0.6289434432983398 0.17191150784492493
0.5780363082885742 0.32880961894989014 -0.11078392714262009
-0.5092057585716248 0.10139733552932739 0.15725620090961456
0.5554531812667847 0.23646150529384613 0.3431933522224426
0.3632643222808838 -0.26121577620506287 -0.2530253827571869
-0.04646683111786842 -0.012662106193602085 -0.33942314982414246
-0.26689770817756653 0.391462117433548 -0.09869664162397385
-0.41242772340774536 0.010206671431660652 0.34363293647766113
-0.08790545910596848 0.2774319648742676 0.3519844114780426
0.08658728003501892 0.46420034766197205 0.42831656336784363
0.027837328612804413 0.0013290075585246086 0.25141099095344543
-0.0687112957239151 -0.6429992914199829 0.16388358175754547
-0.3811548054218292 0.3988973796367645 -0.18702763319015503
0.5267339944839478 0.21458467841148376 -0.40498700737953186
0.1106148511171341 0.0006629116833209991 0.2694142758846283
-0.44109275937080383 -0.07665486633777618 0.33704549074172974
0.34551283717155457 -0.11749491840600967 0.2217654287815094
-0.5707190632820129 0.29854822158813477 -0.3583712875843048
-0.18205717206001282 0.08671404421329498 -0.4000324606895447
0.04587496072053909 0.21639685332775116 0.455422043800354
-0.3811355233192444 -0.07631522417068481 0.07689446210861206
0.32917556166648865 0.19994375109672546 0.4378998279571533
-0.004378042183816433 0.3996765911579132 0.30555063486099243
0.22949278354644775 0.003476482816040516 -0.1254066824913025
0.0636177733540535 -0.6202310919761658 0.09505598992109299
-0.1270662099123001 0.03114476054906845 -0.4006853997707367
-0.23552829027175903 0.0028145930264145136 0.3211146891117096
-0.1871946007013321 -0.4119018316268921 -0.08724093437194824
0.031112976372241974 0.2316213697195053 0.431322306394577
0.18871963024139404 0.007490803021937609 -0.38229119777679443
-0.22732220590114594 -1.8166378140449524e-05 -0.25382891297340393
0.5854213237762451 0.2533400058746338 0.25093933939933777
-0.3676193952560425 0.06510565429925919 -0.345656156539917
0.10724541544914246 -0.6179905533790588 -0.251130610704422
0.2152598649263382 0.0012082131579518318 0.13845643401145935
0.01391579583287239 -0.6188209652900696 0.027104344218969345
-0.017342953011393547 0.0002780267968773842 -0.28147652745246887
0.2532658278942108 -0.1158604621887207 -0.33724838495254517
0.17777878046035767 0.003635861910879612 -0.34171062707901
0.2538720965385437 0.003515151794999838 0.15506647527217865
-0.03828754276037216 -0.000783960334956646 -0.2399815022945404
0.5828069448471069 0.2542060911655426 -0.015803173184394836
0.14812283217906952 0.00017505139112472534 0.12283401191234589
0.15770380198955536 0.15871194005012512 0.46279436349868774
-0.22720515727996826 -0.3775121867656708 0.06480090320110321
0.2271868884563446 0.4001561403274536 -0.20934054255485535
-0.44537392258644104 0.22153340280056 -0.40192171931266785
0.2084062397480011 -0.11625830829143524 -0.3516843914985657
0.41632407903671265 -0.38448554277420044 0.0003795663360506296
0.005688645411282778 -0.6176080703735352 -0.10022152215242386
-0.12253816425800323 0.19015991687774658 -0.40190431475639343
0.06887754052877426 0.0019535748288035393 -0.1106535866856575
0.2596280574798584 -0.10769236832857132 0.27836373448371887
-0.09593075513839722 -0.6177920699119568 0.07641313225030899
-0.5135558247566223 0.11190203577280045 0.10589881986379623
-0.05869947001338005 -0.6143820881843567 -0.10367331653833389
-0.034424327313899994 -0.6174400448799133 0.008425191976130009
0.09602008014917374 0.0026223312597721815 -0.1650749295949936
-0.5696762800216675 0.26701778173446655 0.1282617151737213
0.10529644042253494 0.2771976590156555 0.34136420488357544
-0.011338600888848305 0.3971959352493286 -0.3478962182998657
0.17631745338439941 -0.6184214949607849 -0.17789192497730255
-0.30222418904304504 0.3999069631099701 -0.2722802460193634
-0.2442014366388321 -0.12184646725654602 -0.007628522347658873
0.27727311849594116 0.19657692313194275 0.3454262316226959
-0.03118075244128704 -0.09864611178636551 0.2877369225025177
-0.48774245381355286 -0.10664093494415283 0.25415733456611633
0.4011484384536743 0.0009439475834369659 -0.0753646269440651
0.34534192085266113 0.0011297212913632393 0.14573699235916138
-0.5525954365730286 -0.04960741102695465 0.3321794867515564
0.125674307346344 -0.016132909804582596 0.31918832659721375
-0.02427377924323082 0.00359032629057765 0.3303067982196808
-0.5584257245063782 0.0016097058542072773 0.17921502888202667
0.5771501660346985 0.02412569895386696 -0.1705995798110962
0.21401050686836243 -0.09118583053350449 0.39915233850479126
0.3770654499530792 -6.55059702694416e-05 -0.3095899224281311
-0.5722579956054688 0.09402362257242203 0.0771050751209259
0.250245064496994 -0.47343143820762634 -0.28222835063934326
0.20339131355285645 0.21781452000141144 -0.4013378620147705
-0.1397474855184555 -0.14416813850402832 -0.2732219994068146
0.039697978645563126 0.15209385752677917 0.4527914524078369
0.5802320241928101 0.09476503729820251 0.3172420859336853
-0.3765670955181122 0.004014160484075546 -0.003910986706614494
-0.16344191133975983 -0.5943810939788818 0.07694006711244583
-0.5710427165031433 0.005185903515666723 0.27010098099708557
0.20101897418498993 -0.6514729857444763 0.22307121753692627
0.04550643265247345 0.3473256826400757 0.440848171710968
0.011594734154641628 0.32782527804374695 0.3487485945224762
-0.5689671039581299 0.30415770411491394 -0.38371920585632324
-0.41527819633483887 -0.09033747017383575 -0.25917235016822815
0.08799127489328384 0.16197924315929413 0.3443002700805664
-0.376981258392334 0.060810890048742294 -0.3192780315876007
0.43800830841064453 -0.13016369938850403 -0.08808352053165436
0.4132865369319916 0.1411733329296112 -0.4052414298057556
0.17626994848251343 -0.22376465797424316 -0.36678367853164673
-0.5249332189559937 -0.09797293692827225 -0.19903990626335144
0.11991036683320999 0.23599226772785187 0.46351704001426697
0.2511592507362366 -0.3445395231246948 0.27376890182495117
-0.5670994520187378 0.36158984899520874 -0.28286033868789673
-0.14785286784172058 -0.4252363443374634 0.10214267671108246
0.2918829619884491 -0.5406056046485901 0.18252019584178925
0.01761506125330925 -0.5894564390182495 -0.30641499161720276
0.1524306982755661 0.002202098025009036 -0.3073526918888092
-0.567157506942749 0.0052112708799541 0.14460469782352448
0.1367385983467102 0.40238869190216064 -0.14815828204154968
-0.19157372415065765 0.395797461271286 -0.3817412257194519
0.2841583490371704 0.40209510922431946 0.2695882022380829
0.06411057710647583 -0.23915787041187286 -0.3697986304759979
-0.5735933780670166 0.2731161117553711 0.2106858491897583
0.4785836935043335 0.4000459611415863 0.07298220694065094
-0.5229308009147644 0.3779134750366211 -0.39840611815452576
-0.05312179774045944 -0.0008481685072183609 0.33036619424819946
-0.10918964445590973 -0.6186055541038513 -0.054086823016405106
-0.3419876992702484 0.003625834360718727 0.2685067653656006
0.07924152910709381 0.4024933874607086 0.13701486587524414
0.2665623426437378 -0.3698537051677704 0.24840185046195984
0.26297301054000854 0.39883342385292053 0.057519495487213135
0.3900449275970459 -0.4188825786113739 -0.05710870772600174
-0.1384172886610031 -0.6574334502220154 -0.16284799575805664
-0.4059385359287262 0.09787135571241379 -0.23604808747768402
-0.5514324903488159 0.253871351480484 0.33407673239707947
-0.3665424585342407 0.1863793432712555 0.3447693884372711
0.581394612789154 0.013098529540002346 -0.2499258816242218
0.22892506420612335 0.0028592878952622414 -0.1644376516342163
0.23797689378261566 -0.04691830277442932 0.3258695900440216
0.5831698775291443 0.027272216975688934 0.162013441324234
0.36271578073501587 -0.17703424394130707 0.1904946118593216
0.03951897472143173 0.055863309651613235 0.3453943133354187
0.3439299762248993 0.3996712565422058 -0.24435575306415558
0.0527464933693409 0.0023071751929819584 -0.04942086338996887
0.5511975288391113 0.4023147225379944 -0.2684643864631653
0.0005621605087071657 0.0017534401267766953 -0.13649070262908936
0.15615350008010864 0.08226945996284485 0.3416205644607544
-0.5761899948120117 -0.015438125468790531 -0.3618094027042389
-0.5051318407058716 0.3906305134296417 -0.39237871766090393
0.5775227546691895 0.042157284915447235 -0.09323105961084366
-0.3852642774581909 -0.07074318081140518 -0.016299255192279816
-0.5454078316688538 -0.04512800648808479 0.33864057064056396
-0.15094386041164398 -0.6508580446243286 0.059493232518434525
0.5212845206260681 0.4005594253540039 -0.15278416872024536
-0.4540914297103882 0.021787628531455994 0.3526499569416046
-0.5085363984107971 0.38610926270484924 -0.1320847123861313
-0.38203829526901245 -0.062263794243335724 -0.20006921887397766
0.1306253969669342 0.003086306154727936 0.19777637720108032
-0.44015878438949585 0.12457443028688431 0.34271466732025146
-0.4056980609893799 -0.08771564811468124 -0.07538974285125732
0.21293939650058746 0.09977197647094727 -0.4004347026348114
0.5854588150978088 0.24454575777053833 0.33194655179977417
0.3039857745170593 0.4010865092277527 -0.1444130837917328
0.16787561774253845 -0.3007301688194275 0.30728042125701904
-0.3128167986869812 0.30136704444885254 -0.40362513065338135
-0.08774727582931519 -0.13315850496292114 0.2580534815788269
0.050999339669942856 -0.5905585289001465 0.2538537383079529
-0.556376039981842 -0.04159540683031082 -0.08665403723716736
0.12456421554088593 0.35095304250717163 0.4631311893463135
-0.18358610570430756 -0.37989410758018494 0.1354239135980606
0.07425269484519958 0.24799944460391998 0.45976608991622925
-0.09978950768709183 0.39945295453071594 -0.20645636320114136
-0.11908430606126785 -0.27519989013671875 -0.2953752875328064
-0.25480324029922485 4.022754728794098e-05 -0.26493969559669495
-0.07035291194915771 -0.6278515458106995 -0.20738118886947632
-0.1307242065668106 0.39788001775741577 -0.06262535601854324
0.567598283290863 0.03376811370253563 -0.39359501004219055
0.07843878865242004 0.3989666700363159 0.3471623361110687
0.19202445447444916 0.12041042000055313 0.3413975238800049
0.2892729341983795 -0.4127451181411743 -0.24214109778404236
0.024676641449332237 0.001820969395339489 -0.16371214389801025
-0.570105791091919 0.14710912108421326 0.1662776619195938
0.25169724225997925 -0.591463029384613 -0.2787792682647705
0.02844903990626335 0.16737547516822815 0.3474747836589813
-0.1432512104511261 0.00040844641625881195 -0.22895489633083344
0.2274218052625656 0.0001133335754275322 0.3301146924495697
0.4156862199306488 -0.24180781841278076 -0.16303609311580658
0.3059961795806885 -0.6373130679130554 0.170554518699646
0.05083826929330826 0.0018236618489027023 -0.09612991660833359
0.03217314928770065 -0.6173014640808105 -0.08693096786737442
0.24752667546272278 0.2238704413175583 -0.40135520696640015
-0.3854070007801056 -0.07159329950809479 0.3260195255279541
0.07600536942481995 -0.6228880286216736 0.18995219469070435
0.4844968318939209 0.3138599693775177 0.3443659842014313
-0.09444962441921234 0.39780619740486145 -0.007413637824356556
-0.010474907234311104 0.36949414014816284 0.3456123471260071
0.41918519139289856 0.4004324972629547 -0.027911527082324028
0.2127649337053299 -0.5834512710571289 0.2380693256855011
0.0917079970240593 -0.6442557573318481 -0.2872311472892761
-0.47639915347099304 0.3869069814682007 0.020324965938925743
0.210423082113266 -0.6245472431182861 0.23645029962062836
-0.3741644322872162 0.03382343053817749 0.34311872720718384
0.26757413148880005 -0.6230291128158569 0.10010899603366852
0.4442954659461975 -0.2363031506538391 0.012218175455927849
-0.10585830360651016 -0.6251034140586853 -0.09689975529909134
-0.5331605672836304 0.09244554489850998 0.16814973950386047
-0.26016414165496826 0.3988521099090576 0.3110722601413727
-0.5245522856712341 0.3996642827987671 -0.07227063179016113
0.5843827724456787 0.1457095444202423 0.26184242963790894
0.28292885422706604 -0.07040122151374817 0.43509092926979065
0.2646828591823578 -0.6144106984138489 -0.13087400794029236
0.4279854893684387 -0.0009054811671376228 -0.16212619841098785
-0.46202659606933594 0.07021255046129227 -0.40396127104759216
-0.011609330773353577 -0.20638440549373627 0.29436859488487244
-0.3437625467777252 0.3542623221874237 -0.40073201060295105
0.4116789400577545 -0.37793928384780884 -0.05456315353512764
-0.13198572397232056 -0.2927541434764862 -0.2876688838005066
0.14102086424827576 -0.07805054634809494 0.33681148290634155
-0.14082272350788116 0.39872270822525024 0.06188863888382912
0.3019237220287323 0.00208415649831295 0.16894851624965668
-0.08368754386901855 0.0003925240598618984 0.20135176181793213
-0.18896985054016113 -0.4928947687149048 -0.01188243180513382
0.22023047506809235 -0.10338480770587921 -0.3516373932361603
0.3323734998703003 -0.002244114177301526 -0.26268187165260315
-0.40778276324272156 -0.08730337023735046 0.14270323514938354
-0.18319907784461975 -0.46205970644950867 0.005222353618592024
-0.13194134831428528 -0.6301871538162231 0.043532852083444595
0.03571915253996849 0.07401424646377563 -0.4032883048057556
0.16867461800575256 -0.6188163757324219 -0.24765169620513916
0.37806931138038635 0.0010246536694467068 -0.2706402838230133
0.07090340554714203 -0.1593630015850067 0.31252577900886536
0.069020576775074 0.16446982324123383 -0.40033039450645447
-0.4624256491661072 0.10004653036594391 -0.2221715897321701
0.050223901867866516 0.38657042384147644 0.42308875918388367
0.37812545895576477 -0.37705469131469727 0.10839157551527023
0.38443195819854736 0.40035298466682434 -0.16221995651721954
0.5866471529006958 0.0691167563199997 0.0653044655919075
-0.18602143228054047 -0.5943215489387512 -0.07060545682907104
0.3837096393108368 -0.38848257064819336 0.07464586198329926
-0.5710330009460449 0.34099769592285156 0.33673012256622314
0.3446970283985138 0.0007381858304142952 0.1577562391757965
-0.5463243722915649 0.08154989778995514 0.1357201188802719
0.21817457675933838 0.003328896127641201 0.15930801630020142
0.3012527525424957 -0.21961580216884613 -0.30420026183128357
0.34746405482292175 0.3995521664619446 -0.04386669769883156
0.05894150212407112 -0.4257453680038452 -0.3150366246700287
0.07170312851667404 -0.4736977219581604 0.2586526870727539
-0.5612474679946899 0.07261219620704651 -0.22236955165863037
-0.5396705269813538 0.06578139960765839 -0.33465075492858887
0.4519512951374054 -0.07959844917058945 -0.0717969760298729
0.23613286018371582 0.15338446199893951 -0.39969393610954285
0.5799645185470581 0.2009871006011963 0.19720135629177094
-0.1190437525510788 -0.575008749961853 0.15060682594776154
0.5820945501327515 0.3893669545650482 0.3416115641593933
-0.4934839904308319 0.09635746479034424 -0.3961566686630249
0.22002623975276947 0.3730776607990265 0.461102694272995
-0.48415547609329224 0.0177664402872324 -0.4033733010292053
0.43307942152023315 -0.1157141923904419 0.058560047298669815
-0.1058189645409584 -0.3560267984867096 0.2433713674545288
0.4394514858722687 -0.21355976164340973 -0.1025913655757904
-0.060613568872213364 -0.3099548816680908 -0.33423346281051636
0.02147611789405346 -0.6199478507041931 -0.14808087050914764
0.48882007598876953 0.3581157624721527 -0.4028176963329315
0.0072958096861839294 0.3771689832210541 0.34192538261413574
0.14020085334777832 -0.3806508183479309 -0.3506833612918854
0.2911456525325775 -0.0009497860446572304 0.23305894434452057
