-0.5635806322097778 0.3801301121711731 -0.05425356328487396
-0.23178955912590027 0.011751786805689335 -0.38873469829559326
-0.12644965946674347 -0.6274181008338928 0.06843604892492294
0.2973777651786804 -0.617733359336853 -0.04657641798257828
0.2471553534269333 -0.617919921875 -0.07705716043710709
-0.3789081871509552 0.0638064444065094 -0.29710856080055237
-0.24939557909965515 0.20806215703487396 0.34212726354599
-0.042231522500514984 0.09636035561561584 0.3438376486301422
0.5140840411186218 0.39971134066581726 -0.10057144612073898
0.24258051812648773 -0.6187848448753357 0.0884711816906929
0.2646278142929077 0.04346922039985657 0.3440783619880676
-0.4016391336917877 0.07912944257259369 -0.36793509125709534
0.2470841258764267 0.0023127561435103416 -0.17712688446044922
0.2992127537727356 0.40126901865005493 0.04736703634262085
-0.5172441005706787 0.09443604201078415 0.16409198939800262
0.31510961055755615 0.21890945732593536 0.4536273181438446
0.07969915866851807 -0.2272203266620636 -0.3759533762931824
0.27874207496643066 0.0026493407785892487 -0.12179137021303177
0.28543731570243835 -0.006570762954652309 0.46498045325279236
-0.5766109228134155 0.02132461778819561 -0.11931948363780975
0.27823957800865173 -0.6259118318557739 -0.1767706423997879
0.3241059184074402 0.07296476513147354 -0.4006611704826355
0.354364275932312 -0.2999442219734192 -0.2667262554168701
-0.24743664264678955 0.39601781964302063 -0.1234932541847229
-0.5584754347801208 -0.06833221763372421 -0.0231030136346817
0.07897026091814041 -0.6187356114387512 0.0617264024913311
-0.14061973989009857 0.01349556166678667 -0.3949717879295349
-0.0782720074057579 0.3660906255245209 -0.39829522371292114
-0.4820464253425598 0.00313323806039989 0.028174228966236115
0.4431067407131195 -0.3671315312385559 -0.04484642297029495
-0.4597996175289154 -0.10017495602369308 -0.3967246413230896
0.20518843829631805 -0.016555264592170715 0.29558640718460083
0.13263936340808868 0.0013235821388661861 -0.21593542397022247
-0.3469174802303314 0.20349247753620148 0.34272241592407227
0.3347170948982239 0.17617084085941315 -0.39961740374565125
-0.5783819556236267 0.019871102645993233 0.03282610699534416
0.15806633234024048 -0.6213690638542175 0.0451522171497345
0.3500133752822876 0.40163150429725647 -0.07594200223684311
0.11268077045679092 0.40153732895851135 0.019016243517398834
-0.014507881365716457 0.1619901806116104 0.38673967123031616
-0.022492054849863052 -0.556240439414978 -0.2872910797595978
0.4407308101654053 -0.1627277433872223 -0.09424298256635666
0.4065515697002411 -0.19231507182121277 -0.18956542015075684
-0.31986331939697266 0.4006955325603485 0.2973063886165619
0.42413565516471863 -0.3812437951564789 -0.005359383299946785
0.3496915400028229 -0.3275344967842102 0.2135465145111084
-0.3638187348842621 0.3352806866168976 0.3432685136795044
-0.4111305773258209 -0.025364525616168976 -0.39659613370895386
-0.36421987414360046 0.008612513542175293 -0.09326617419719696
0.18749688565731049 0.39880213141441345 0.19380809366703033
-0.07527870684862137 -0.5183053016662598 0.19336150586605072
-0.02982640080153942 -0.47886544466018677 -0.2830943763256073
-0.3120333254337311 0.26261958479881287 -0.40020376443862915
-0.5823447108268738 0.34478020668029785 0.06815796345472336
-0.03150494769215584 -0.5937414169311523 -0.285410076379776
-0.5831740498542786 0.1742139458656311 -0.09725465625524521
-0.5800100564956665 0.0364735871553421 -0.12728886306285858
0.05762210488319397 0.3899783194065094 0.37969592213630676
0.29635941982269287 -0.08485431969165802 0.2534601390361786
-0.4466487467288971 0.1148606389760971 0.3410959541797638
0.585523784160614 0.011055776849389076 -0.18112321197986603
-0.5648882389068604 0.33331409096717834 0.34117868542671204
0.4024676978588104 0.3905212879180908 -0.39348921179771423
0.1104070246219635 -0.28760433197021484 0.313266783952713
-0.42109188437461853 0.11021656543016434 -0.3441973328590393
0.013166605494916439 0.3145078718662262 -0.3982257843017578
-0.5554843544960022 -0.07372993230819702 0.21336886286735535
0.13107647001743317 -0.62037593126297 -0.22800832986831665
0.3700683116912842 -0.2287600189447403 -0.2444542795419693
-0.5844469666481018 0.15265822410583496 -0.32716673612594604
-0.5044927000999451 0.39904409646987915 -0.2363729476928711
0.24709151685237885 0.31743866205215454 -0.40040796995162964
-0.3692634701728821 0.07458014041185379 -0.39995068311691284
0.14620700478553772 0.0014065923169255257 -0.22785857319831848
0.2217850238084793 -0.6184539794921875 -0.1539192944765091
0.2776690721511841 -0.11333370208740234 -0.3279193639755249
0.34074392914772034 -0.6409265995025635 0.06686472147703171
-0.14109529554843903 -0.5449538230895996 0.12388245016336441
0.40451598167419434 -0.1376686841249466 -0.1953698843717575
0.2788039445877075 0.09300393611192703 -0.40063267946243286
0.27685102820396423 -0.29409825801849365 -0.326815128326416
-0.5767221450805664 0.311504065990448 -0.1102379709482193
-0.4556071162223816 0.39224064350128174 0.330049067735672
-0.40660616755485535 -0.08626814186573029 0.22663557529449463
0.0062512485310435295 -0.4649852216243744 -0.29823780059814453
-0.5248459577560425 0.34704163670539856 -0.10603992640972137
-0.04883918911218643 0.23750877380371094 0.40170979499816895
0.26726213097572327 0.0033621834591031075 -0.0733371376991272
-0.04656920209527016 -0.6457251310348511 0.20459511876106262
0.29331064224243164 -0.6194556951522827 -0.1554279327392578
0.19998759031295776 -0.3842649757862091 0.25859662890434265
0.533350944519043 0.008751754648983479 0.32339367270469666
-0.03516265004873276 -0.6406342387199402 0.17673447728157043
-0.5761268734931946 0.3542456030845642 -0.18927784264087677
-0.5409702062606812 -0.08588958531618118 0.20477187633514404
-0.11911313980817795 0.08730748295783997 0.3397831320762634
0.44526153802871704 -0.3413309156894684 -0.05033731460571289
-0.5752765536308289 0.34192273020744324 -0.3654186725616455
-0.5843509435653687 0.3210661709308624 -0.018094658851623535
0.20040826499462128 -0.005483551882207394 0.4635900557041168
-0.2631850242614746 0.011368934065103531 0.34008586406707764
0.2493562251329422 -0.6198418736457825 -0.005438323598355055
-0.5772438049316406 0.3482154607772827 -0.27593252062797546
0.21207410097122192 -0.6302371025085449 0.18755288422107697
0.22114740312099457 0.0029097851365804672 0.0609058178961277
-0.5753130316734314 0.08001665771007538 -0.12542316317558289
0.18153677880764008 -0.6344233751296997 -0.2758501172065735
-0.14311137795448303 -0.6323301196098328 -0.17837530374526978
0.2823668420314789 0.40147531032562256 -0.15580548346042633
-0.5639145970344543 0.3805297017097473 -0.30754148960113525
-0.5699964165687561 0.3678542375564575 0.26426464319229126
-0.5551621913909912 0.0835363045334816 0.10205533355474472
0.2741309404373169 0.19729918241500854 0.46420741081237793
-0.1592736840248108 0.4023951292037964 0.1043872982263565
0.017844183370471 0.0009614881128072739 0.03365751728415489
-0.5864999890327454 0.20450881123542786 0.29179075360298157
0.01951088011264801 -0.6552884578704834 0.2186966836452484
0.021474961191415787 -0.3696175813674927 -0.35855674743652344
-0.513256847858429 0.11176454275846481 -0.30267441272735596
-0.12077226489782333 0.24232232570648193 0.34821999073028564
-0.496710866689682 0.05921008810400963 -0.39481788873672485
-0.33615952730178833 0.39282476902008057 0.04248692840337753
0.5847112536430359 0.2037920504808426 0.0027029989287257195
0.2426433563232422 -0.256583571434021 0.28399601578712463
0.28569042682647705 0.0592159703373909 0.4631633460521698
-0.2420664280653 0.0001973174512386322 -0.03446182608604431
0.27084144949913025 0.0027635633014142513 -0.07958579808473587
0.5810123682022095 0.28665658831596375 0.20875146985054016
0.512589693069458 0.17937999963760376 -0.3986891806125641
-0.427949458360672 0.05610617250204086 0.3437143564224243
0.38046368956565857 -0.4972226023674011 -0.13013897836208344
0.2552759349346161 0.1118449717760086 0.4613021910190582
-0.2695528566837311 0.3993874192237854 -0.35060733556747437
-0.029899127781391144 -0.6228431463241577 -0.09721774607896805
0.3685877025127411 0.06744694709777832 -0.3992784023284912
-0.028654705733060837 -0.6198254227638245 0.11415796726942062
-0.3816298842430115 0.4001636803150177 0.2783833146095276
-0.512789249420166 -0.06716863065958023 -0.4031886160373688
0.18362398445606232 0.34520602226257324 0.3421972990036011
-0.4438062608242035 -0.10285761207342148 -0.30103570222854614
-0.13530342280864716 -0.6400178074836731 0.11130842566490173
-0.4199526906013489 0.2993863821029663 -0.40355807542800903
-0.22345811128616333 0.17959439754486084 0.3429352045059204
0.20815007388591766 -0.04290056973695755 0.46183425188064575
-0.06095258519053459 0.15509912371635437 0.3483794927597046
-0.4353182911872864 0.30102553963661194 0.3434128761291504
0.3278615176677704 0.02184554561972618 0.34378781914711
-0.37272781133651733 0.06336560845375061 -0.21290361881256104
0.15738911926746368 0.40004074573516846 0.3243532180786133
-0.07738558948040009 0.030800433829426765 -0.40117794275283813
-0.12831686437129974 0.39884743094444275 0.15842540562152863
0.0042853159829974174 0.0027259208727627993 0.24423524737358093
0.2350500077009201 0.0007129879668354988 0.18813765048980713
0.3719821870326996 0.0032651331275701523 -0.037240494042634964
-0.08818446099758148 0.30850252509117126 0.34619709849357605
-0.49566084146499634 0.00808533001691103 0.34813106060028076
0.032185181975364685 -0.6198796033859253 0.02612687088549137
-0.17469656467437744 -0.18543589115142822 -0.2214333564043045
-0.23144792020320892 -0.34059011936187744 -0.1004772037267685
0.39765769243240356 -0.0582587793469429 0.14934886991977692
0.5807042717933655 0.0365559458732605 0.16809560358524323
0.0960455909371376 0.4623876214027405 0.39922964572906494
-0.46419087052345276 -0.10565180331468582 0.1381000429391861
-0.5532127022743225 -0.07461638003587723 0.24208489060401917
-0.16242654621601105 -0.6033417582511902 0.08631650358438492
-0.5271353721618652 0.0030936538241803646 0.19011738896369934
0.24341915547847748 0.38936033844947815 -0.3925803005695343
-0.3777378797531128 -0.03228934854269028 -0.3855358064174652
0.58262699842453 0.19807520508766174 -0.25409775972366333
-0.568347156047821 0.36422520875930786 -0.2399924397468567
-0.4068298637866974 0.40725263953208923 -0.02335638366639614
-0.5313664674758911 0.20653893053531647 0.34243541955947876
0.26625683903694153 -0.654496431350708 0.16945992410182953
-0.05534132942557335 0.0044280411675572395 -0.362702339887619
-0.36584532260894775 0.008469462394714355 0.11030623316764832
-0.23387008905410767 0.39959296584129333 -0.09933292865753174
0.18267416954040527 -0.6289752721786499 -0.2591507136821747
0.023686453700065613 0.2414449155330658 0.4115501642227173
-0.379222571849823 -0.05022510141134262 -0.2221752256155014
0.12247076630592346 0.0013705163728445768 -0.1593349426984787
-0.312053382396698 0.3449944853782654 0.0006382007850334048
-0.14077678322792053 -0.2740263044834137 0.21109114587306976
-0.47717413306236267 -0.11136449873447418 0.24480532109737396
0.15116971731185913 0.4026719331741333 0.15814626216888428
-0.42258352041244507 0.14405739307403564 0.34060728549957275
0.36392486095428467 -0.45347920060157776 -0.1573391705751419
-0.1203993707895279 0.35942065715789795 0.3416309952735901
-0.2789004445075989 0.3996606767177582 0.05020206794142723
-0.560761570930481 0.09063252806663513 -0.06182991340756416
0.33689409494400024 0.34405022859573364 0.3440569341182709
0.18535959720611572 -0.16164810955524445 -0.36393824219703674
0.1477280557155609 0.21284963190555573 0.34195423126220703
-0.32324278354644775 0.39580097794532776 -0.38924679160118103
0.4444579482078552 -0.16484224796295166 0.024642063304781914
-0.03003973327577114 0.0010401713661849499 -0.3574446737766266
-0.09077195078134537 0.001262906938791275 -0.27183088660240173
-0.4579034149646759 0.3941422998905182 -0.25038495659828186
0.059385381639003754 -0.3885219991207123 0.2652364671230316
-0.22128883004188538 -0.1492648869752884 -0.14723610877990723
-0.5699416995048523 0.3641904890537262 -0.15768758952617645
0.07042142003774643 0.0007520035142078996 0.465059369802475
-0.25634774565696716 0.0004760622978210449 0.08115392178297043
0.2123269885778427 -0.042430754750967026 0.4640003740787506
-0.5781920552253723 -0.03327217325568199 0.1362573802471161
0.39391210675239563 0.0023224311880767345 -0.09159914404153824
0.23609109222888947 0.0030002582352608442 0.02294722944498062
-0.5373965501785278 0.3750474452972412 -0.3957552909851074
-0.19754363596439362 0.40153810381889343 0.01929059624671936
0.29546552896499634 -0.37683209776878357 0.25506576895713806
-0.5824257731437683 0.1767202615737915 -0.1069943830370903
-0.29256099462509155 0.003937103319913149 0.3110436201095581
-0.5562261343002319 0.09258733689785004 0.05682766065001488
0.2861386239528656 -0.6103549003601074 0.1937180906534195
0.36066731810569763 -0.5539283156394958 0.10777465999126434
0.1824629157781601 0.29174095392227173 0.3436160981655121
-0.09463504701852798 -0.6177358627319336 -0.136439710855484
0.005827052053064108 -0.6236963272094727 -0.244330495595932
-0.4661170542240143 0.007562029641121626 0.3614417016506195
-0.19495955109596252 0.36367741227149963 -0.40030357241630554
-0.36289897561073303 0.39090657234191895 0.020367929711937904
-0.12312063574790955 0.3760000169277191 0.3411262035369873
-0.1542530357837677 0.0026430576108396053 -0.04065000265836716
0.1263519674539566 0.3997857868671417 0.2615009844303131
-0.3194810450077057 0.4018641412258148 0.2228734791278839
-0.49773791432380676 0.35736992955207825 -0.13890168070793152
0.2666870355606079 0.0014525256119668484 -0.325092613697052
-0.35483452677726746 0.008723662234842777 0.3134344518184662
0.1792633831501007 0.4021570384502411 -0.08704649657011032
-0.32771795988082886 0.3461261987686157 0.014271248131990433
0.30421972274780273 0.0032178189139813185 0.06150134280323982
0.5804880261421204 0.03982415422797203 -0.3113892078399658
0.09483221173286438 -0.6201716661453247 0.02977609448134899
-0.22317084670066833 0.36126139760017395 0.34182360768318176
-0.44848036766052246 0.23597896099090576 0.34174323081970215
0.10295399278402328 0.004029691219329834 -0.3692733943462372
0.20808260142803192 0.0035090921446681023 -0.25742343068122864
0.5658033490180969 0.3928626775741577 -0.3897745609283447
0.13802756369113922 0.4017849862575531 -0.26520711183547974
0.02219543419778347 -0.20758730173110962 -0.36289942264556885
-0.5738423466682434 0.12037386745214462 -0.3896111249923706
0.09233460575342178 0.3306395411491394 0.34198811650276184
0.011473187245428562 0.002655770629644394 0.14109571278095245
0.513607382774353 0.39974507689476013 -0.2944416403770447
0.3098739981651306 -0.030638283118605614 0.4609616994857788
0.3449537456035614 0.18291550874710083 0.34405815601348877
-0.3720301389694214 -0.05188876762986183 0.15016983449459076
0.31233444809913635 -0.0015746252611279488 -0.29570621252059937
0.07933496683835983 0.07440650463104248 0.3437080681324005
0.0779811218380928 -0.42346879839897156 -0.3169783055782318
-0.482538104057312 -0.10726437717676163 -0.28006523847579956
-0.5791802406311035 0.04945361986756325 0.23039771616458893
0.3114817440509796 0.4300076961517334 0.43707460165023804
0.31483012437820435 -0.6410732865333557 -0.22508122026920319
-0.5787248015403748 0.006801325362175703 0.02317873015999794
0.1039399728178978 0.3286263346672058 0.46434634923934937
0.17426814138889313 0.0018074085237458348 -0.1928907185792923
0.4452134668827057 -0.055631741881370544 -0.04062771052122116
-0.550755500793457 0.08516485244035721 0.24442192912101746
0.3583749234676361 0.0027492172084748745 0.08992670476436615
-0.5080781579017639 0.37736421823501587 -0.0773191824555397
0.04146770387887955 0.007250726688653231 0.4596039354801178
0.3099665343761444 0.2790510952472687 0.3479171097278595
-0.5829579830169678 0.13537128269672394 -0.2200026512145996
-0.4136947989463806 0.15188384056091309 -0.39980894327163696
-0.06424365192651749 0.0020452626049518585 0.17314429581165314
0.32946813106536865 -0.13452966511249542 -0.29367387294769287
0.28025034070014954 -0.5493066906929016 0.20128464698791504
-0.090959332883358 0.0026503391563892365 -0.1083301231265068
0.40554916858673096 -0.25540080666542053 -0.18934930860996246
0.18597204983234406 0.029868774116039276 -0.3990010917186737
0.2786845266819 0.1221587136387825 -0.40064701437950134
0.24868416786193848 -0.45485952496528625 0.2215251475572586
0.2874150276184082 -0.155502051115036 -0.32006898522377014
-0.07124463468790054 -0.6168037056922913 -0.14424903690814972
-0.5784206390380859 0.35091251134872437 0.18311798572540283
0.389335036277771 0.4020274877548218 0.16848783195018768
0.15342098474502563 0.39699065685272217 -0.37936633825302124
0.5582321286201477 0.014554296620190144 0.34016484022140503
-0.11012440919876099 0.4004085063934326 -0.062029317021369934
-0.3955059349536896 -0.0020066252909600735 0.3384062647819519
-0.07517639547586441 0.2175317406654358 -0.40121808648109436
-0.21703661978244781 -0.19400441646575928 0.09716353565454483
-0.5709906220436096 0.3650707006454468 0.13432011008262634
-0.15413649380207062 0.001987915486097336 -0.21833546459674835
0.2518019676208496 -0.0331905260682106 0.3264939486980438
0.4094151258468628 0.0016871551051735878 -0.024717407301068306
0.16277937591075897 0.0015053251991048455 -0.2031305432319641
-0.0005951259518042207 0.1622532308101654 -0.3999328315258026
-0.37529051303863525 0.2882711589336395 0.341327965259552
0.2680221498012543 -0.24825112521648407 -0.3342186510562897
-0.40470045804977417 -0.08528555929660797 0.2884962856769562
-0.584346354007721 0.26813459396362305 0.12250784039497375
0.08137833327054977 0.28203263878822327 -0.398557186126709
0.27480825781822205 -0.6478500366210938 0.185814768075943
-0.46299901604652405 0.000813877210021019 -0.26731961965560913
-0.517894446849823 0.004342515021562576 0.15189172327518463
0.24301615357398987 -0.0007833214476704597 0.32000210881233215
0.2656315565109253 0.34620270133018494 0.34482404589653015
0.010907609947025776 0.34901055693626404 0.3424541652202606
-0.06267423927783966 0.0009367864113301039 0.17917102575302124
-0.3604786992073059 0.30740875005722046 -0.3995513319969177
0.5816898345947266 0.2852409780025482 0.20070713758468628
0.13186152279376984 0.39369580149650574 -0.3893202245235443
0.0959782525897026 -0.041789062321186066 0.31860285997390747
0.5766972899436951 0.2739125192165375 -0.00978645496070385
-0.19461368024349213 -0.38186728954315186 -0.13364098966121674
0.038962237536907196 0.07236623764038086 0.4649420976638794
-0.5756185054779053 0.056076936423778534 -0.0127258887514472
-0.0733417347073555 -0.6242212653160095 0.12604179978370667
-0.5795463919639587 0.12681318819522858 0.22839605808258057
0.2065725475549698 0.2339218109846115 -0.3996858298778534
0.2526718080043793 0.3379109799861908 0.3445532023906708
0.13586629927158356 0.05135926231741905 0.4649035632610321
0.21767842769622803 -0.5608076453208923 -0.2909933626651764
0.034360531717538834 0.3602144420146942 0.4471329152584076
-0.04589252918958664 -0.4816720485687256 -0.2698938846588135
-0.009559361264109612 -0.6223464012145996 -0.1530163735151291
0.358137845993042 0.22113269567489624 0.3441091477870941
-0.4474544823169708 -0.1037583127617836 0.155513197183609
-0.37274396419525146 0.056604478508234024 -0.04188552871346474
0.42933449149131775 -0.21103747189044952 -0.1436101198196411
0.2286570966243744 -0.4934123158454895 0.23373334109783173
-0.05318398401141167 -0.3911861777305603 0.21877002716064453
0.09589073807001114 -0.44853782653808594 0.260463148355484
0.40257692337036133 -0.3733564615249634 0.12284664064645767
0.17564931511878967 -0.004027413669973612 -0.3567832112312317
-0.1881418079137802 0.00031806668266654015 0.09428424388170242
0.04917040467262268 -0.08270047605037689 0.4351278245449066
-0.06380359828472137 -0.3924950957298279 0.21207180619239807
0.452009379863739 -0.0003677477943710983 -0.04777054861187935
-0.07533330470323563 0.03167847916483879 0.3417972922325134
0.5823462605476379 0.37692153453826904 -0.2209412306547165
-0.235783189535141 -0.22298748791217804 0.019119732081890106
-0.07263558357954025 -0.05761134997010231 0.26442089676856995
-0.0988268032670021 0.2284153699874878 -0.40101101994514465
0.1723271757364273 -0.6195820569992065 -0.20995870232582092
-0.06546228379011154 0.001502539962530136 -0.20000769197940826
0.46428021788597107 0.0016549713909626007 -0.047074511647224426
-0.44006118178367615 0.39871037006378174 -0.25347769260406494
0.31843802332878113 0.29414013028144836 0.3453412353992462
-0.5768699645996094 0.060449644923210144 0.1291336715221405
-0.041691120713949203 -0.0001812516711652279 -0.3041144013404846
-0.572030782699585 -0.0426362082362175 -0.056426651775836945
0.5836250185966492 0.06451116502285004 0.023239001631736755
-0.48080068826675415 0.11732900142669678 -0.20146165788173676
-0.025729438289999962 0.0013468023389577866 0.25378891825675964
0.14375139772891998 -0.05600855126976967 0.4607575535774231
0.23509003221988678 -0.3320584297180176 -0.34588494896888733
0.37006568908691406 -0.4368884265422821 -0.14222495257854462
-0.5742890238761902 0.3619348108768463 -0.14281272888183594
-0.43888550996780396 0.1340259462594986 0.3402380347251892
0.11493322253227234 -0.6206566691398621 0.19018566608428955
0.1589285284280777 0.0012272251769900322 0.05885273218154907
0.41143909096717834 -0.3497665822505951 0.12437956035137177
0.36537736654281616 -0.35592222213745117 0.19682961702346802
-0.578873336315155 0.06046781316399574 -0.06903183460235596
0.5823521018028259 0.347261905670166 0.0031883146148175
-0.18524347245693207 -0.5957008004188538 -0.020902495831251144
0.05252281576395035 -0.640713095664978 0.2228984832763672
0.25284892320632935 -0.37423214316368103 0.2620890140533447
-0.36378371715545654 0.047972455620765686 0.15331296622753143
0.23115670680999756 0.001967205200344324 0.17037396132946014
0.37213394045829773 -0.6357754468917847 -0.11857055127620697
0.19766868650913239 0.3980947434902191 0.3299737870693207
-0.06041974946856499 0.23058857023715973 -0.3990726172924042
-0.061184920370578766 0.3890358805656433 0.33773401379585266
0.3747701048851013 -0.44998082518577576 -0.13185293972492218
0.3366890847682953 -0.6293014287948608 -0.1927301436662674
-0.09565620124340057 0.39560574293136597 -0.38001811504364014
0.10527341067790985 0.3006502389907837 0.34199172258377075
-0.5775488615036011 0.14826197922229767 0.3320857584476471
-0.5818541646003723 0.24992771446704865 -0.16670995950698853
0.22050334513187408 -0.028049102053046227 -0.3374108672142029
0.0070868306793272495 -0.4795629680156708 0.24193711578845978
0.04475719481706619 -0.056747108697891235 0.31611162424087524
0.3377191126346588 -0.6263046264648438 0.03570118546485901
-0.3557976484298706 0.400502473115921 -0.3087005615234375
0.36031675338745117 -0.27989819645881653 -0.258594810962677
-0.36364760994911194 0.005483431741595268 0.3339080810546875
-0.4752480387687683 0.11381898820400238 -0.3632056713104248
0.34659796953201294 -0.6239893436431885 -0.040409959852695465
0.2683678865432739 0.40071356296539307 -0.16637659072875977
0.22505106031894684 0.21182844042778015 0.34295040369033813
0.4418238699436188 -0.29732105135917664 -0.08440472185611725
-0.5829554796218872 0.03242533281445503 -0.14663036167621613
-0.13985320925712585 -0.3341546654701233 0.2122238129377365
0.32070308923721313 0.40068456530570984 -0.33163681626319885
0.48675766587257385 0.4016469120979309 -0.17390033602714539
0.5766236186027527 0.008097957819700241 -0.10201340168714523
-0.17349344491958618 0.40174058079719543 -0.06093444675207138
0.20770378410816193 -0.5364769101142883 0.23891496658325195
-0.2243371456861496 0.0014303461648523808 -0.00853883009403944
-0.30025649070739746 0.3497779369354248 -0.1475367248058319
0.23897674679756165 0.46835756301879883 0.4179181456565857
-0.42385587096214294 0.005236203782260418 -0.023828405886888504
0.44817250967025757 -0.0024901800788939 0.03290573135018349
0.07730936259031296 0.4024766683578491 0.35291624069213867
-0.40890124440193176 0.003068448044359684 -0.25857919454574585
-0.46340420842170715 0.10718715935945511 -0.1726125180721283
0.005627092905342579 -0.6189661026000977 -0.16869206726551056
0.32804521918296814 0.025689667090773582 -0.39878177642822266
-0.18992160260677338 -0.2712766230106354 -0.20430004596710205
0.16733494400978088 -0.4542069137096405 0.2517845928668976
0.1099606454372406 0.40063178539276123 -0.37374579906463623
-0.5776720643043518 0.019547998905181885 -0.2271547019481659
-0.27239856123924255 0.39553630352020264 -0.09660059958696365
-0.21304690837860107 0.002718104049563408 0.32347121834754944
-0.23552587628364563 -0.09387568384408951 0.014861444011330605
0.1310669630765915 -0.08305749297142029 0.3706294000148773
-0.3959454894065857 0.006538711953908205 -0.265230268239975
0.026275895535945892 0.38550692796707153 0.33870407938957214
0.04008788615465164 0.11393315345048904 0.4641594886779785
0.3388010561466217 0.40221381187438965 0.18748044967651367
-0.5757976770401001 0.36524802446365356 0.12258157134056091
-0.18444322049617767 0.002495911903679371 -0.246603861451149
0.5807647109031677 0.15535882115364075 -0.09229317307472229
-0.08387728780508041 0.01636720448732376 0.3360212743282318
0.08886853605508804 0.0035391938872635365 -0.31802257895469666
-0.3333968222141266 0.0031416667625308037 0.10105807334184647
-0.13060997426509857 -0.648101270198822 0.06853165477514267
-0.059191834181547165 0.0010244110599160194 0.2105611115694046
-0.05941301956772804 0.002149708103388548 -0.1264040470123291
-0.1562272012233734 0.39997151494026184 0.27625131607055664
0.037857696413993835 0.12476655095815659 0.4380883574485779
-0.49045392870903015 0.16528581082820892 0.3407517373561859
0.19281692802906036 0.32896721363067627 0.46332305669784546
-0.0505913570523262 0.0013302699662745 -0.29891180992126465
-0.1823030412197113 -0.4661107063293457 -0.04825517162680626
-0.4880794882774353 0.105604387819767 -0.15609383583068848
0.021774183958768845 -0.6186013221740723 -0.18394620716571808
0.1536998152732849 -0.03227110579609871 0.31526902318000793
0.14666397869586945 0.4672590494155884 0.40015292167663574
0.1682925522327423 0.002114508766680956 0.07257460057735443
-0.40120652318000793 0.09150950610637665 -0.3069910407066345
0.3708861470222473 -0.14099010825157166 0.18880537152290344
0.3783687949180603 -0.6426072120666504 -0.0904240533709526
-0.4835551977157593 0.34544438123703003 -0.015873143449425697
0.4778119921684265 0.4010685086250305 -0.08292318135499954
-0.1277676671743393 0.3834584653377533 0.33870312571525574
0.2412072867155075 0.06135300546884537 -0.39833498001098633
0.029744582250714302 -0.014689801260828972 0.3136941194534302
0.07477183640003204 0.2369188368320465 -0.39884519577026367
0.3796207308769226 0.0236358605325222 0.34362897276878357
0.14766016602516174 0.40118005871772766 0.22861187160015106
-0.23770736157894135 -0.17713868618011475 -0.10204491019248962
0.1423983871936798 -0.6221464276313782 0.17261508107185364
0.03991709277033806 0.3922373652458191 0.42697858810424805
-0.38894832134246826 0.4207902252674103 -0.1095210611820221
-0.3038442134857178 0.11359697580337524 -0.39996930956840515
-0.17724309861660004 0.39232462644577026 0.33562448620796204
-0.35776418447494507 0.00654672272503376 0.12313086539506912
0.19990842044353485 0.4009620249271393 0.13211099803447723
0.22428542375564575 0.002457974012941122 -0.23456770181655884
0.014629486948251724 0.39858800172805786 0.3216814696788788
0.5812764763832092 0.31701499223709106 0.11712678521871567
0.3935948312282562 -0.5645143389701843 -0.048749931156635284
0.035132262855768204 0.0012883003801107407 -0.1829114407300949
-0.5256059765815735 -0.09005814045667648 -0.10023673623800278
0.4269636869430542 -0.07890892028808594 0.0972263365983963
-0.0636192187666893 0.40194880962371826 -0.1887034922838211
-0.17357823252677917 -0.43606388568878174 0.055066633969545364
0.25356683135032654 0.36933061480522156 0.34315142035484314
0.09663548320531845 0.00102176982909441 0.005680104251950979
0.29261499643325806 0.049231041222810745 0.4599469304084778
-0.5412095785140991 -0.08485516905784607 -0.3814043402671814
-0.1481741964817047 0.28303951025009155 0.34666314721107483
0.3876938223838806 -0.03651363402605057 -0.221818208694458
-0.2283160388469696 -0.0003831498324871063 0.03999746963381767
0.15128514170646667 0.41560420393943787 0.4512769281864166
0.2317320704460144 -0.5417047739028931 -0.28833040595054626
0.5840394496917725 0.23192152380943298 -0.02218952402472496
0.010482985526323318 -0.002018422121182084 0.31601765751838684
-0.5733633041381836 0.36463797092437744 0.25611862540245056
0.49585604667663574 0.002627997426316142 -0.27669820189476013
0.39041781425476074 0.4013114869594574 -0.06365407258272171
-0.48536795377731323 -0.10441573709249496 -0.21625354886054993
0.19137996435165405 0.003088679164648056 -0.36727041006088257
0.05035601928830147 -0.20361804962158203 0.30876901745796204
0.006499434821307659 -0.01243432704359293 0.2935344874858856
-0.5225143432617188 0.09201958030462265 -0.2855052947998047
-0.3810294270515442 -0.061227161437273026 -0.08407028764486313
0.4452401101589203 -0.1303846389055252 -0.05375155061483383
0.06821850687265396 -0.4184081256389618 0.26081031560897827
-0.4790727198123932 0.40262332558631897 0.11339079588651657
-0.41940492391586304 0.10598669946193695 0.1970098316669464
-0.5802639722824097 0.2731909453868866 -0.1626138836145401
0.045415740460157394 0.0009334131609648466 -0.05102461948990822
0.03675639256834984 -0.621228814125061 0.0928955152630806
-0.26492175459861755 0.007612608838826418 0.33344677090644836
0.33340710401535034 -0.5657481551170349 0.14657117426395416
0.14671503007411957 -0.6172595024108887 0.19939181208610535
0.5776098370552063 0.32983043789863586 -0.3879150450229645
-0.20694266259670258 -0.0012554884888231754 0.04199068620800972
-0.004166444297879934 -0.3864075839519501 -0.3034587502479553
0.43548041582107544 -0.2957867681980133 0.057651109993457794
-0.22476506233215332 0.0023837704211473465 0.19506236910820007
0.10203229635953903 0.4002370238304138 0.2674391567707062
-0.5756720304489136 0.1401122361421585 -0.39481502771377563
0.4809983968734741 0.001825224608182907 0.203915074467659
0.05756724253296852 0.31138765811920166 0.4646715521812439
0.582431435585022 0.19261135160923004 -0.345778226852417
-0.16245293617248535 -0.12078766524791718 -0.25017210841178894
-0.13072624802589417 0.00149824982509017 -0.2310773879289627
-0.29205119609832764 0.3982480466365814 -0.3790489137172699
0.22575579583644867 0.0018645229283720255 -0.12937426567077637
0.06956478208303452 0.4023291766643524 -0.012350783683359623
-0.577046811580658 -0.008808906190097332 0.2895697057247162
-0.5225598812103271 0.0036972512025386095 0.18740060925483704
-0.5782163143157959 0.04264220595359802 0.1435203105211258
-0.4519314169883728 0.005038264207541943 0.25503090023994446
0.00797028373926878 0.0007877908647060394 -0.16835542023181915
-0.36222633719444275 -0.019198674708604813 0.3016355633735657
-0.3630200922489166 0.019109688699245453 0.16164445877075195
-0.20810964703559875 0.40060877799987793 -0.2590928077697754
0.11646302044391632 0.040013719350099564 0.3434715270996094
0.4258705675601959 -0.07685615867376328 -0.14299723505973816
-0.10965840518474579 -0.2163950353860855 -0.2955155074596405
0.30168598890304565 0.40203264355659485 -0.3167248070240021
0.5842075347900391 0.230335995554924 -0.18623848259449005
-0.45393499732017517 0.011942973360419273 -0.39572444558143616
0.5843266844749451 0.3074530363082886 -0.141800194978714
-0.017823781818151474 0.0018817492527887225 -0.021930139511823654
0.5841159224510193 0.29099494218826294 -0.03808111697435379
-0.17372041940689087 -0.2634953260421753 0.1695833057165146
0.3047342300415039 -0.384255588054657 -0.2709580659866333
0.331315279006958 -0.17943936586380005 -0.28891098499298096
0.3870689570903778 -0.18626104295253754 -0.22436250746250153
0.18768666684627533 -0.5151440501213074 -0.305625319480896
-0.2932850122451782 0.3776337504386902 -0.12106781452894211
0.05540609732270241 -0.4487556517124176 -0.31315889954566956
-0.183260977268219 0.3504957854747772 -0.39919236302375793
-0.45982733368873596 -0.10603853315114975 -0.15129807591438293
0.34130093455314636 0.40348440408706665 -0.0759752169251442
0.44775691628456116 -0.0812205895781517 -0.026834843680262566
-0.14883950352668762 -0.38547077775001526 -0.186435267329216
0.06554635614156723 -0.002755858702585101 0.3156979978084564
0.22872403264045715 -0.3098375201225281 0.2929537296295166
0.531576931476593 0.40166205167770386 -0.18951469659805298
-0.03959548473358154 0.05452660471200943 -0.39935556054115295
-0.07489071786403656 0.3434208929538727 0.3429393172264099
0.2743569016456604 -0.5066351890563965 -0.2611095607280731
0.24534828960895538 0.08213085681200027 0.46209797263145447
0.34361931681632996 -0.16757017374038696 -0.2744280695915222
-0.1499079316854477 0.15218280255794525 0.3429665267467499
-0.12749424576759338 -0.11467552930116653 0.22343403100967407
-0.0009763098787516356 -0.46051448583602905 -0.29749777913093567
-0.5692006349563599 0.243241548538208 0.3358091413974762
0.07771986722946167 -0.6201967000961304 0.14071640372276306
-0.20880597829818726 -0.0022403784096240997 0.11579935997724533
0.03934849798679352 -0.6201221346855164 -0.23324467241764069
-0.36661383509635925 0.05567280948162079 0.08438146859407425
-0.2826966643333435 0.006293937563896179 -0.14288011193275452
0.020701931789517403 -0.4600842297077179 0.24674025177955627
0.4355517029762268 -0.21945005655288696 -0.11187714338302612
0.05989384278655052 0.0010014381259679794 -0.11684849113225937
0.20509755611419678 -0.6204953193664551 -0.21613724529743195
0.5626058578491211 0.39940381050109863 0.15684564411640167
-0.14614887535572052 -0.15275071561336517 0.20458287000656128
0.2881782054901123 -0.6153918504714966 -0.10644595324993134
-0.23697026073932648 0.40125027298927307 0.30512720346450806
0.3198595941066742 0.10311243683099747 0.4538211524486542
0.019152529537677765 -0.6012247800827026 0.24427218735218048
0.5844705700874329 0.29023849964141846 -0.22545506060123444
0.17419829964637756 0.00365326926112175 -0.27885597944259644
-0.5528863668441772 -0.05937305837869644 0.33677124977111816
0.197889506816864 0.4442576766014099 0.35794898867607117
-0.4971909523010254 0.12402896583080292 0.3183403015136719
-0.0010613398626446724 -0.44446074962615967 -0.2934061586856842
-0.373309850692749 0.40531986951828003 -0.015820952132344246
0.3781386613845825 -0.5767990946769714 0.06695514917373657
0.36719709634780884 -0.16175277531147003 -0.2520561218261719
0.5309025049209595 0.4007968604564667 -0.026475535705685616
0.06417036056518555 -0.5830283761024475 0.2563254237174988
-0.22045964002609253 0.0011291475966572762 -0.1079733818769455
-0.043610766530036926 0.40065738558769226 0.12425369024276733
0.34117573499679565 0.022689133882522583 -0.39862796664237976
-0.3169650733470917 0.0037216991186141968 -0.1362115740776062
-0.26811420917510986 0.39802104234695435 -0.2047537863254547
0.21515478193759918 -0.5134660601615906 -0.2945830821990967
0.5583552122116089 0.041736237704753876 0.342252254486084
0.1219920888543129 0.0015084503684192896 -0.14456942677497864
-0.08878496289253235 0.04342924430966377 -0.39940187335014343
0.19060266017913818 -0.6198935508728027 -0.16190314292907715
0.5224514603614807 0.0022185551933944225 0.07369976490736008
0.08617193251848221 -0.6481400728225708 -0.3115379512310028
0.3052830696105957 0.003126559779047966 -0.3726625144481659
0.5429345369338989 0.4007677137851715 0.30716943740844727
0.32064753770828247 0.002116678049787879 0.19621723890304565
-0.059442076832056046 0.0024067959748208523 0.22807714343070984
0.1530858427286148 0.42721283435821533 0.35585102438926697
0.2012690156698227 0.0026697637513279915 -0.08729172497987747
-0.17290231585502625 -0.6325129866600037 -0.0921000987291336
-0.4690069854259491 -0.10624489933252335 0.08200383931398392
-0.5088773369789124 0.0022007909137755632 -0.08149050176143646
-0.2797447443008423 0.1273379772901535 -0.401248961687088
-0.3053537607192993 0.2351406067609787 -0.40111517906188965
-0.18961340188980103 0.3950923979282379 -0.18508614599704742
0.09007550776004791 0.17115360498428345 -0.39963799715042114
0.5852799415588379 0.10818540304899216 0.056890472769737244
0.5819035768508911 0.14058305323123932 0.25935590267181396
0.24613186717033386 0.3998521864414215 0.12455149739980698
-0.5763869285583496 0.04961015656590462 -0.1371159851551056
-0.4912807047367096 0.17741422355175018 0.34079113602638245
-0.5407564043998718 0.19066594541072845 0.34352970123291016
-0.18867748975753784 -0.3848738670349121 -0.11862215399742126
-0.2679849863052368 0.003638538531959057 -0.23698976635932922
-0.5764706134796143 0.031060367822647095 0.22364313900470734
-0.030840780586004257 -0.49873238801956177 0.22276946902275085
0.08334510028362274 0.0038691754452884197 -0.3314594030380249
0.3283073306083679 0.39780163764953613 0.30657386779785156
0.13485658168792725 -0.568584144115448 -0.3174504041671753
0.47861576080322266 0.4020521640777588 -0.03820155933499336
-0.3739854097366333 0.4017392694950104 0.21628038585186005
-0.4688771367073059 0.016584480181336403 0.35877156257629395
0.4920611083507538 0.026214787736535072 -0.39741191267967224
0.3561441898345947 -0.40416672825813293 -0.1613081395626068
0.5070949196815491 0.003218522761017084 -0.2311653196811676
-0.12802137434482574 -0.5442385673522949 0.1452997624874115
0.06154599040746689 -0.04362759739160538 0.4598740041255951
0.5879331827163696 0.2174803912639618 -0.17980825901031494
0.306031733751297 -0.38392406702041626 0.181240975856781
-0.3799441456794739 0.07375817000865936 -0.1762983649969101
-0.09031470119953156 -0.46844878792762756 0.1827893704175949
0.039601925760507584 -0.23590418696403503 0.30800312757492065
0.3660306930541992 0.4024410843849182 0.14818884432315826
0.23602589964866638 0.40006840229034424 0.29634517431259155
-0.3008977472782135 0.4002370536327362 0.31148678064346313
0.08918527513742447 0.2715718150138855 0.34487801790237427
0.05197616666555405 0.0020089910831302404 0.00045075127854943275
0.0763268992304802 -0.3887638747692108 0.26698946952819824
0.17472480237483978 0.4016133248806 -0.14747396111488342
0.4181970953941345 -0.24329230189323425 0.11361044645309448
0.5821458697319031 0.1658981889486313 0.23165160417556763
-0.042699847370386124 0.15949009358882904 0.39462628960609436
-0.5428197979927063 -0.08408430963754654 -0.19623684883117676
-0.19886188209056854 0.0026336759328842163 -0.02948356233537197
0.5839110612869263 0.2932347059249878 0.29866641759872437
-0.5791094303131104 0.3290584087371826 0.2534920871257782
-0.5817715525627136 0.27761179208755493 -0.08258051425218582
0.1639346182346344 0.002578185871243477 0.22012293338775635
0.06355755776166916 0.40071621537208557 0.18271073698997498
0.1509093940258026 0.02037542127072811 0.46566876769065857
-0.18033218383789062 -0.6463857889175415 -0.026251835748553276
0.3123417794704437 0.27451351284980774 -0.40050679445266724
0.2410731315612793 0.002405296079814434 -0.18652869760990143
-0.02368282340466976 -0.6180042028427124 -0.17702731490135193
0.0015631592832505703 0.0010358436265960336 -0.12427256256341934
-0.07753870636224747 -0.619891881942749 -0.2480640411376953
-0.029444094747304916 0.40092408657073975 0.1256931573152542
-0.39947330951690674 0.08680843561887741 -0.24753400683403015
-0.519871711730957 0.39961379766464233 0.12007200717926025
-0.08007490634918213 0.0008675864664837718 -0.2997884750366211
0.41317927837371826 -0.37942761182785034 -0.08083534240722656
-0.5689406991004944 -0.05101421847939491 -0.04769139736890793
-0.2375698834657669 0.4002368450164795 -0.28163132071495056
-0.37287089228630066 0.3935576379299164 0.03339045122265816
-0.0026934794150292873 0.4024958908557892 0.19460169970989227
-0.027766523882746696 0.0029185637831687927 0.19143514335155487
-0.4554562270641327 0.003496999852359295 -0.04289961978793144
-0.39099371433258057 -0.0744084045290947 -0.3097398579120636
0.35342302918434143 -0.3746927082538605 0.19567175209522247
-0.5047386288642883 -0.1068790853023529 0.28717321157455444
-0.16178475320339203 -0.3700213134288788 -0.2392088919878006
0.1361401528120041 0.40088391304016113 -0.0876842513680458
-0.41313686966896057 -0.0910244807600975 -0.22039730846881866
0.24348901212215424 0.002934248186647892 -0.24114619195461273
-0.05813584104180336 0.0013329952489584684 0.16386210918426514
0.11943364888429642 0.4009724259376526 0.4579989016056061
-0.3871917426586151 0.07857324928045273 -0.03514358028769493
-0.4012129306793213 0.15591078996658325 -0.4009171426296234
0.37912413477897644 -0.4274051785469055 -0.11572745442390442
-0.30775871872901917 0.4104183316230774 -0.06896041333675385
0.2805677056312561 -0.6172243356704712 -0.05624544247984886
0.2080211043357849 -0.6184358596801758 -0.12519130110740662
-0.1860284060239792 -0.13648946583271027 -0.21068038046360016
0.06780610233545303 0.001037118025124073 0.07795108109712601
-0.355388879776001 0.3993735909461975 0.17342977225780487
-0.4159475266933441 0.3975673317909241 -0.3003341257572174
0.4797983765602112 0.4013177454471588 0.05441943183541298
-0.5071180462837219 -0.10411815345287323 -0.11332808434963226
-0.5407040119171143 0.004384561907500029 -0.253497451543808
-0.17026330530643463 -0.6416998505592346 -0.10742689669132233
-0.44291362166404724 -0.026123464107513428 0.353793203830719
0.3568319082260132 -0.5362844467163086 0.1149069219827652
0.15148548781871796 -0.6202780604362488 -0.01737593486905098
0.42171281576156616 0.0007766926428303123 -0.28756290674209595
-0.5818933248519897 0.35302451252937317 0.0645989328622818
0.10871023684740067 -0.10814816504716873 -0.37077105045318604
0.31620487570762634 0.41210347414016724 0.3716214895248413
0.05803769454360008 -0.6214613914489746 0.19377879798412323
0.36809974908828735 -0.3826632797718048 -0.18128105998039246
0.4687842130661011 -0.0007722157752141356 0.12843440473079681
-0.15777172148227692 -0.518456220626831 0.08967597037553787
-0.20048406720161438 0.2709086239337921 0.34456348419189453
0.4314868748188019 -0.014281255193054676 0.060769349336624146
0.12342744320631027 0.40225955843925476 -0.21826481819152832
0.2828296422958374 0.3967393934726715 0.34403669834136963
-0.008603032678365707 0.22677256166934967 -0.39944809675216675
-0.2946326732635498 0.2756497859954834 -0.4002644717693329
0.12908419966697693 0.0017331442795693874 -0.11701783537864685
-0.5734593868255615 0.05912339687347412 0.0032157711684703827
-0.43160539865493774 -0.06894196569919586 0.3450130820274353
0.02119169756770134 -0.41705039143562317 0.2437959909439087
0.11145738512277603 0.0028389133512973785 -0.23073609173297882
-0.35885483026504517 0.016574855893850327 -0.0691097229719162
-0.5249806046485901 0.0935828685760498 -0.03287174925208092
-0.5198087096214294 0.10663693398237228 0.10107337683439255
-0.5356622934341431 0.3929334878921509 -0.3943481147289276
0.0045320941135287285 -0.3444121181964874 -0.35851091146469116
-0.009330930188298225 0.0029246751219034195 -0.08286681026220322
-0.5219557285308838 0.39687663316726685 -0.015516446903347969
-0.5652951598167419 0.3754788935184479 -0.25087621808052063
0.38963502645492554 -0.475321888923645 0.030842896550893784
0.023023925721645355 -0.04127436503767967 0.3133949041366577
0.42229926586151123 0.39465463161468506 -0.3919221758842468
-0.43590056896209717 -0.09742622077465057 0.2863558828830719
-0.11864814162254333 -0.6438320279121399 0.12630802392959595
0.5704229474067688 0.018729373812675476 0.3421590030193329
0.24870960414409637 0.4028579592704773 -0.273408979177475
-0.4240942895412445 0.06382837891578674 -0.40127792954444885
0.23384009301662445 -0.6229425072669983 -0.02584397792816162
0.028491897508502007 0.2097720503807068 0.34877729415893555
-0.5816774964332581 0.34107640385627747 0.08268199115991592
-0.5640481114387512 -0.05937277153134346 0.2720445990562439
-0.20724304020404816 -0.2522605061531067 -0.178866446018219
-0.1274682730436325 0.003450877033174038 -0.10608743876218796
0.5638298392295837 0.006095566786825657 -0.3649839758872986
0.2970486581325531 0.0031518368050456047 -0.1627342253923416
0.41789567470550537 0.19958999752998352 -0.3991597890853882
0.5829092264175415 0.3349396884441376 -0.2211465686559677
0.18903730809688568 -0.13425219058990479 0.302601158618927
0.27290618419647217 0.40312185883522034 -0.24888485670089722
-0.13883870840072632 -0.0009991130791604519 0.2227839082479477
-0.12351983785629272 -0.6226871609687805 0.002751132007688284
-0.566167414188385 0.06014036014676094 -0.39903098344802856
0.1723545640707016 0.3553314507007599 -0.3989618718624115
-0.5704199075698853 0.36832863092422485 -0.168567955493927
0.08172446489334106 0.37224340438842773 0.4618840217590332
0.34699761867523193 -0.39176294207572937 -0.18810734152793884
0.5713445544242859 0.024539601057767868 0.336356520652771
-0.23983977735042572 0.017458554357290268 -0.39920827746391296
0.582857072353363 0.09751435369253159 0.19833765923976898
-0.3981737196445465 0.13628458976745605 0.34306326508522034
0.30067917704582214 0.15198564529418945 -0.400450199842453
0.5747557282447815 0.010112213902175426 -0.35753148794174194
-0.018014414235949516 -0.21421942114830017 -0.35304000973701477
0.26797381043434143 0.1145559549331665 -0.4011179208755493
0.02800176478922367 -0.6477969884872437 0.2075604498386383
0.04802561178803444 -0.6326749920845032 -0.3111051619052887
-0.132425457239151 0.0009719007648527622 -0.3076775372028351
0.2034529745578766 0.0017079849494621158 0.07300209254026413
-0.5799103379249573 0.3403847813606262 -0.24097999930381775
-0.5133733749389648 0.1045282706618309 -0.39575299620628357
-0.3492392301559448 0.3496004045009613 0.025182783603668213
0.1775512844324112 -0.618148148059845 -0.03434659168124199
-0.47354525327682495 0.0034580850042402744 0.026445187628269196
0.40597590804100037 0.14330148696899414 -0.3991936147212982
-0.4080091416835785 0.3959912061691284 -0.14902974665164948
-0.2356344610452652 -0.09865926951169968 -0.11440040171146393
-0.3773314654827118 -0.042880162596702576 -0.1650111824274063
-0.5782151222229004 0.020138096064329147 -0.1952352672815323
0.15077486634254456 0.002300678752362728 0.2851324677467346
0.4339493215084076 0.40064072608947754 -0.19041383266448975
0.39399659633636475 -0.560580313205719 -0.033147212117910385
-0.2449721246957779 0.4022188186645508 0.22942779958248138
-0.5226703882217407 0.003551994916051626 -0.07360046356916428
0.2998914122581482 -0.13172127306461334 0.2531062364578247
0.17160716652870178 0.3971579670906067 -0.386288046836853
0.21058423817157745 0.4682605564594269 0.40975651144981384
0.24476639926433563 0.0026196097023785114 0.11792293936014175
0.3249327838420868 -0.41194966435432434 -0.21537630259990692
0.4215051829814911 -0.02949381247162819 -0.16532589495182037
0.15717172622680664 0.0009369188919663429 0.1928887665271759
-0.2228781282901764 0.0021954779513180256 0.2219778299331665
0.2619054913520813 0.0028410153463482857 0.11888919025659561
-0.2437991499900818 -0.044584453105926514 -0.03254954516887665
0.2705058753490448 0.11363217234611511 0.46307483315467834
-0.414089173078537 0.09478799253702164 -0.3739472031593323
-0.07162398099899292 0.00336645171046257 -0.14171434938907623
-0.5559577941894531 0.08927697688341141 0.058770593255758286
0.5785940885543823 0.2827278673648834 0.10451395064592361
0.1400812417268753 -0.13523435592651367 -0.36953040957450867
-0.5816922783851624 0.02544722706079483 0.24691157042980194
0.10238657891750336 -0.6197456121444702 -0.04608958587050438
-0.5698723793029785 -0.0457671657204628 0.09931767731904984
0.5817041993141174 0.2861725687980652 0.007406703196465969
-0.3611257076263428 0.41324111819267273 -0.03337593376636505
0.44007712602615356 -0.12166161835193634 0.05117851495742798
-0.03825738653540611 0.001352738938294351 -0.2715250551700592
-0.055546898394823074 0.3991057574748993 0.23635348677635193
0.24310649931430817 -0.4185977876186371 -0.2800411581993103
-0.5819577574729919 0.3135485351085663 -0.22447563707828522
0.3734695315361023 0.0024618918541818857 0.10293132066726685
