-0.057327114045619965 -0.024500465020537376 0.27357974648475647
-0.49246999621391296 0.3419472277164459 -0.14169348776340485
-0.2898751199245453 0.003068136516958475 0.24666403234004974
0.18218033015727997 -0.6355616450309753 -0.25836798548698425
-0.06945225596427917 -0.6479439735412598 0.15074297785758972
-0.43558260798454285 0.22988714277744293 -0.3987422287464142
-0.5681065320968628 0.04633374884724617 -0.0476645827293396
-0.26507246494293213 0.39709070324897766 0.01246628724038601
-0.06436042487621307 0.0023547965101897717 0.048902250826358795
-0.5746449828147888 0.32973024249076843 -0.28490403294563293
-0.3179182708263397 0.16237521171569824 0.3421035706996918
0.5855084657669067 0.1731250137090683 -0.012291690334677696
0.4183516800403595 0.0009375140070915222 -0.058337949216365814
0.17414334416389465 -0.0010968931019306183 0.1505218744277954
0.009043627418577671 -0.2660037875175476 -0.36392414569854736
-0.0007833254639990628 -0.29220569133758545 0.3010202646255493
-0.3646380305290222 0.004810713697224855 0.1492004096508026
0.5661066770553589 0.38877221941947937 0.034925736486911774
-0.04150814190506935 0.0012659442145377398 0.23564574122428894
0.251280277967453 0.3948880434036255 0.33622121810913086
-0.3678604066371918 0.0049060070887207985 -0.17772924900054932
-0.35376864671707153 -0.0006849104538559914 -0.3971547782421112
0.3355177044868469 -0.6277716159820557 0.0227824654430151
0.20181827247142792 -0.6337551474571228 0.2384570688009262
-0.12391120940446854 -0.6407647728919983 0.1130380854010582
0.43591970205307007 0.15659555792808533 0.34497931599617004
-0.10338764637708664 -0.2576747536659241 0.2409471571445465
0.35694602131843567 0.18889795243740082 0.34665411710739136
0.38746070861816406 0.3994717299938202 0.3274739682674408
-0.2803955376148224 -4.478823393583298e-05 -0.11420582234859467
0.2321217656135559 0.396002858877182 0.14433430135250092
0.44691160321235657 -0.29802531003952026 -0.0006546398508362472
-0.19507922232151031 0.0014650318771600723 -0.156265527009964
0.2598874866962433 0.002817915752530098 -0.23092947900295258
-0.5617349147796631 -0.04622633382678032 -0.2919924855232239
-0.19598616659641266 0.2695019841194153 -0.39914900064468384
0.45392581820487976 0.00515394564718008 -0.22552260756492615
-0.3782293498516083 0.0721961259841919 -0.009934403002262115
0.23148633539676666 0.0027578305453062057 0.08890669792890549
-0.5692272782325745 0.0033450089395046234 -0.30102843046188354
0.36495429277420044 -0.33748310804367065 -0.23381724953651428
0.03857049718499184 0.23482073843479156 -0.3972124755382538
0.0024729808792471886 0.39737385511398315 0.07697858661413193
-0.1830662339925766 -0.374505877494812 0.10884972661733627
-0.29505348205566406 0.39801642298698425 0.10745221376419067
0.13933327794075012 0.30452004075050354 -0.393268346786499
-0.22958412766456604 -0.3221568465232849 -0.07734207808971405
0.23287884891033173 0.06795785576105118 0.34650158882141113
0.2950575649738312 -0.3821721076965332 0.19610318541526794
0.01609792746603489 0.033695902675390244 -0.3915110230445862
0.29752230644226074 0.0027327947318553925 -0.1714158058166504
0.41597750782966614 0.13371293246746063 -0.39715975522994995
-0.5866932272911072 0.010365579277276993 0.00033203139901161194
-0.18550913035869598 0.2694286108016968 -0.3970761001110077
-0.05591300129890442 0.04972710460424423 -0.39428624510765076
0.4640046954154968 0.05921893194317818 -0.40006643533706665
-0.2941780686378479 0.00045731663703918457 -0.24773472547531128
-0.5792441368103027 0.1941642165184021 0.29150357842445374
-0.28228580951690674 0.36249393224716187 0.3425407111644745
-0.4687587022781372 0.29510411620140076 0.3466980755329132
0.04560645669698715 -0.5664907693862915 0.25534674525260925
0.3353908061981201 -0.043980084359645844 0.3873857855796814
0.4997146725654602 0.0029802671633660793 -0.23541446030139923
0.10156805068254471 0.004095650743693113 -0.36383548378944397
-0.5666489005088806 0.043296195566654205 -0.3270270526409149
0.146974116563797 -0.389046847820282 -0.3501173257827759
0.4908720850944519 0.3962850272655487 -0.25590041279792786
-0.05705699697136879 0.288732647895813 0.3807339072227478
-0.18955621123313904 -0.40837153792381287 -0.06604926288127899
-0.5142010450363159 -0.10003150254487991 0.2844575047492981
-0.44356146454811096 0.3978489339351654 -0.31239020824432373
-0.21434855461120605 -0.27024948596954346 -0.13433992862701416
-0.0750342607498169 -0.5718657374382019 -0.24576810002326965
0.32742249965667725 -0.5906367897987366 -0.19503284990787506
-0.23689231276512146 -0.009366529993712902 0.01780897192656994
-0.1263904571533203 -0.3658095598220825 -0.2703273594379425
-0.09386426955461502 0.39005354046821594 -0.3867150545120239
0.20805923640727997 0.0018343161791563034 -0.11335371434688568
0.5817404389381409 0.38188987970352173 0.01546663511544466
-0.3456639349460602 0.39243146777153015 0.3322649896144867
0.1260707974433899 0.17228426039218903 0.3462952971458435
-0.2810012102127075 0.3948901295661926 0.29010888934135437
0.17828789353370667 -0.3205749988555908 -0.3537565767765045
-0.5817236304283142 0.3361276686191559 0.024470927193760872
-0.5682318806648254 0.21632371842861176 -0.09551355242729187
0.3717561960220337 -0.5728397369384766 0.062104482203722
-0.04019470885396004 -0.3838845491409302 0.22010107338428497
-0.5920162200927734 0.16487674415111542 -0.26579850912094116
-0.5413925051689148 -0.008374664932489395 0.13728837668895721
0.1024041473865509 -0.6263352036476135 0.2004292905330658
-0.3929673135280609 0.13057386875152588 -0.4012153446674347
0.03289298340678215 0.3746880292892456 -0.3902505338191986
-0.5377051830291748 -0.012001764960587025 -0.31866756081581116
0.49847373366355896 0.06294827163219452 -0.3936513364315033
-0.13435840606689453 -0.25319913029670715 0.22421753406524658
-0.0035248096100986004 0.0028266068547964096 -0.09141294658184052
0.09897614270448685 0.001908827107399702 0.21723347902297974
0.30280667543411255 -0.14308683574199677 -0.3079959452152252
0.11820750683546066 0.13674591481685638 -0.3968336284160614
0.5666598081588745 0.1380184143781662 -0.1980055272579193
0.24063239991664886 -0.6362225413322449 -0.23321953415870667
-0.18502329289913177 -0.2850821912288666 0.16806291043758392
-0.013263833709061146 0.393612802028656 0.32828718423843384
-0.5755348801612854 0.16377341747283936 0.13076850771903992
0.07567628473043442 -0.622366726398468 0.11211938410997391
0.36241620779037476 -0.39022454619407654 -0.15482474863529205
-0.5685654878616333 0.2930983603000641 0.31819212436676025
0.14362607896327972 -0.000150349922478199 0.2931744158267975
0.04880569875240326 0.0027609802782535553 0.07502920925617218
-0.1604008972644806 0.27221670746803284 -0.3940685987472534
-0.570024847984314 0.3117519021034241 0.07866941392421722
-0.36259227991104126 0.01152852550148964 -0.008892123587429523
-0.5525188446044922 -0.04795639589428902 0.3436128795146942
0.2623412609100342 0.30281519889831543 0.3474125564098358
0.05590038746595383 -0.00027931760996580124 0.02579331025481224
-0.4517684578895569 0.07859764993190765 -0.3913957476615906
0.32920265197753906 0.11936802417039871 0.40855562686920166
-0.47161030769348145 -0.11522423475980759 0.04195215180516243
-0.5679315328598022 0.19032973051071167 -0.36238688230514526
-0.5476081967353821 -0.07398798316717148 -0.16310743987560272
-0.024544019252061844 -0.6279261708259583 0.15025141835212708
-0.5611903071403503 -0.038501109927892685 0.2415437251329422
0.23193708062171936 -0.6114765405654907 0.009462433867156506
0.024219930171966553 -0.596052885055542 0.24449481070041656
0.567911684513092 0.16156841814517975 0.3023275136947632
-0.4145844876766205 0.39635270833969116 -0.24504542350769043
0.015362944453954697 0.012873046100139618 -0.3958171308040619
-0.5715689063072205 0.0647408738732338 0.1536799967288971
0.003818693570792675 -0.6155199408531189 -0.14691618084907532
0.05578044429421425 -0.3781092166900635 -0.3537333011627197
-0.10331182181835175 -0.6564229726791382 -0.20028766989707947
0.11450338363647461 0.0025310302153229713 -0.03556141257286072
-0.5132740139961243 0.401481956243515 0.16816051304340363
0.061657026410102844 0.0026489258743822575 -0.2712809145450592
-0.09545005857944489 0.002070870716124773 0.15384027361869812
-0.44614118337631226 0.20278431475162506 -0.40229231119155884
0.2338613122701645 -0.6237384676933289 0.17279677093029022
-0.43075400590896606 0.0885159820318222 0.34289664030075073
0.1618533581495285 -0.049258168786764145 0.31672152876853943
0.3881153166294098 -0.33407893776893616 0.15090477466583252
0.33680328726768494 -0.3679274022579193 -0.24481071531772614
0.30027851462364197 0.00305961724370718 0.06812172383069992
0.11982909590005875 0.3981778025627136 -0.06478216499090195
-0.5800087451934814 0.09778986871242523 -0.33282017707824707
-0.5333292484283447 0.3895858824253082 -0.03849443793296814
0.28683528304100037 0.003199493745341897 -0.10205228626728058
0.5850701332092285 0.32362100481987 -0.12802168726921082
0.04048750922083855 0.002170691266655922 -0.2630111575126648
0.05992661416530609 -0.6424756646156311 0.23656712472438812
0.3017580509185791 -0.14980477094650269 0.25492602586746216
0.3814830482006073 0.0015688911080360413 -0.17638565599918365
-0.38593652844429016 0.06463617831468582 -0.2789289951324463
-0.5197204351425171 0.11092043668031693 -0.38525837659835815
0.4682253301143646 0.3955915570259094 0.002891103271394968
-0.5101607441902161 -0.008571366779506207 -0.3593047857284546
0.3737824857234955 0.39800986647605896 -0.2849304974079132
0.5913355350494385 0.21988260746002197 -0.039774633944034576
0.35746392607688904 -0.40219223499298096 -0.1491973102092743
0.5754926204681396 0.18704810738563538 -0.13648353517055511
0.02331126481294632 -0.037123579531908035 0.39321839809417725
0.42649614810943604 0.3957914412021637 0.2583885192871094
-0.2992668151855469 0.00388026749715209 0.2950263023376465
0.22088567912578583 0.40013226866722107 0.0081287557259202
0.14330726861953735 0.16316762566566467 0.46616190671920776
-0.03459756821393967 -0.4874449670314789 -0.2679193913936615
0.1824934482574463 -0.623257040977478 0.08587659895420074
-0.40058884024620056 0.07594046741724014 -0.31446459889411926
-0.057937078177928925 -0.5076791644096375 0.21556980907917023
-0.47168272733688354 0.0041122352704405785 0.15849515795707703
0.2745080590248108 0.2873375713825226 0.34427985548973083
0.3653000593185425 -0.27382776141166687 0.19763019680976868
-0.3665372133255005 0.014089991338551044 -0.3077983260154724
0.2155137062072754 -0.615898072719574 -0.10766599327325821
0.22533577680587769 -0.0014646025374531746 0.22600536048412323
0.10360662639141083 -0.37473610043525696 -0.36623671650886536
-0.3761706054210663 -0.06977329403162003 0.2858004570007324
0.18003860116004944 -0.04986672103404999 -0.35859158635139465
0.04024530202150345 -0.619767427444458 -0.21638938784599304
-0.48475173115730286 -0.1150076761841774 0.06409696489572525
0.11358834058046341 0.002641027793288231 -0.12132563441991806
-0.19256672263145447 0.39869558811187744 -0.28833577036857605
-0.48189738392829895 0.005337229929864407 -0.39906442165374756
-0.11331282556056976 0.001797371543943882 0.05437798425555229
-0.42065027356147766 0.009084852412343025 -0.07059222459793091
-0.10039220005273819 -0.38068532943725586 0.2333943098783493
0.1986585110425949 0.39830154180526733 0.2826274633407593
0.44974222779273987 -0.1361316591501236 -0.0013960183132439852
0.38363906741142273 0.4076274037361145 0.35006678104400635
0.24547943472862244 -0.616775631904602 -0.11726082116365433
0.4441772699356079 0.3751399517059326 -0.3948885500431061
-0.18267180025577545 -0.4694657325744629 -0.03236072510480881
-0.2896031439304352 0.36150845885276794 -0.098657988011837
0.3838658332824707 0.00612256582826376 -0.36103108525276184
0.37739163637161255 -0.00030346307903528214 -0.2693580687046051
0.34331977367401123 -0.2729162573814392 -0.2974860668182373
0.5660692453384399 0.09253852814435959 -0.3279472887516022
-0.2215273380279541 -0.13868317008018494 0.11449677497148514
-0.5777025818824768 -0.009138357825577259 -0.3800401985645294
0.20401841402053833 0.004117057658731937 -0.36721739172935486
-0.551271915435791 0.09115201979875565 0.22663447260856628
-0.40733981132507324 0.005987647920846939 0.18072228133678436
0.1796926110982895 0.04554878547787666 -0.3932367265224457
-0.19356057047843933 -0.07009873539209366 -0.18113355338573456
0.28949886560440063 -0.6455913186073303 0.14947588741779327
-0.0469178780913353 -0.6148659586906433 -0.2700287103652954
-0.48332586884498596 0.10351177304983139 -0.03815145045518875
0.3008821904659271 0.003271369030699134 0.11809618771076202
0.24025408923625946 0.39838114380836487 -0.11342049390077591
0.16494058072566986 -0.621025025844574 0.1771593987941742
0.17690393328666687 0.0026770886033773422 -0.22788210213184357
0.5687651634216309 0.21096332371234894 0.21934513747692108
-0.1541135013103485 0.001764875603839755 -0.19479167461395264
-0.568963348865509 0.13961629569530487 -0.13284429907798767
0.2667366862297058 0.39381855726242065 -0.37293949723243713
0.32831287384033203 0.3329004645347595 0.400311678647995
-0.044518135488033295 0.39648139476776123 -0.2518725097179413
0.4398237466812134 -0.2881872057914734 -0.1087585836648941
0.5682411193847656 0.2970044016838074 0.18036441504955292
-0.0457378588616848 -0.04545784369111061 -0.34921884536743164
-0.22080682218074799 -0.10462765395641327 0.021515294909477234
0.36364462971687317 -0.0005287905223667622 0.1834375113248825
0.29404279589653015 0.0019536856561899185 0.19815124571323395
0.006400848738849163 0.0021639959886670113 -0.13590706884860992
0.21659483015537262 -0.3381620943546295 -0.3448393940925598
0.1274307817220688 -0.6162512898445129 0.04953611642122269
-0.06102989614009857 -0.127670556306839 -0.3185688257217407
-0.4352615177631378 0.3673677444458008 0.02039688266813755
0.1861688643693924 0.05123423784971237 -0.3924253582954407
0.5090683698654175 0.004309919662773609 -0.17975005507469177
0.407105952501297 0.39631232619285583 -0.08799510449171066
0.09039872884750366 0.36593955755233765 0.4605889916419983
0.12221673876047134 -0.0006567193195223808 -0.2693580090999603
0.03607616946101189 0.001106912037357688 0.26641392707824707
0.2073224037885666 0.45898038148880005 0.406573623418808
0.513314425945282 0.38721033930778503 0.30502721667289734
-0.5752938985824585 0.1084686890244484 0.004872143268585205
0.34991124272346497 0.06967639923095703 0.3472960889339447
-0.1025087758898735 -0.24312560260295868 -0.32172518968582153
-0.4124507009983063 0.011390594765543938 -0.3910408914089203
-0.18415509164333344 0.05210629105567932 -0.3980005383491516
0.5548495650291443 0.3955852687358856 -0.2184162437915802
-0.38048940896987915 0.39025047421455383 0.03315805271267891
-0.06802716851234436 -0.0495888814330101 -0.3256317377090454
0.06248147413134575 -0.6179835200309753 0.13204362988471985
0.5636359453201294 0.012227365747094154 -0.34149301052093506
-0.06243783235549927 0.0009758323431015015 0.22650830447673798
0.2979200482368469 0.0034369039349257946 -0.06784126162528992
-0.5608482360839844 -0.03359031677246094 0.01626691035926342
-0.5845029950141907 -0.0010547623969614506 0.33612382411956787
-0.5547081828117371 0.04127021133899689 0.32223817706108093
0.4214422106742859 -0.12584324181079865 -0.12076456099748611
-0.19684632122516632 0.3013458549976349 -0.4008486866950989
-0.5459954738616943 0.38786399364471436 0.05608537420630455
-0.20958825945854187 0.27983012795448303 -0.39856192469596863
-0.5329155325889587 0.00759193766862154 -0.25797730684280396
0.3679254949092865 0.3947972357273102 0.038621686398983
0.5315281748771667 0.3912239074707031 0.0946676954627037
0.5785200595855713 0.3816084563732147 -0.3815608620643616
0.5823466181755066 0.20806704461574554 0.05940238758921623
0.1266004592180252 0.31076154112815857 -0.39650610089302063
-0.5197016000747681 0.36075088381767273 -0.12054067105054855
0.34949612617492676 -0.6369157433509827 0.11216804385185242
-0.4604399502277374 -0.08899582177400589 -0.3906001150608063
-0.37554848194122314 0.047487739473581314 -0.3710993826389313
-0.2518572509288788 -0.22116991877555847 -0.023505765944719315
-0.2456647753715515 -0.00028156163170933723 0.016883494332432747
0.2288820743560791 -0.6167109608650208 -0.0042177122086286545
-0.4372115731239319 0.10504680126905441 0.09734047204256058
0.30298811197280884 -0.3750295341014862 -0.297614187002182
-0.582825243473053 0.26690739393234253 0.29746222496032715
0.053023893386125565 0.27830588817596436 0.35103628039360046
0.0978856086730957 0.3958277404308319 0.03243228793144226
0.11563744395971298 -0.07914349436759949 0.3754429519176483
-0.4806264340877533 0.40081918239593506 0.043245814740657806
-0.09678937494754791 -0.6277126669883728 0.04605510085821152
0.16615836322307587 -0.0008613802492618561 -0.3636817932128906
0.32462337613105774 -0.4254986047744751 0.15146808326244354
0.3788013756275177 -0.05124148353934288 -0.21484985947608948
0.03681188076734543 -0.12042112648487091 -0.36551690101623535
-0.03147546947002411 0.3945660889148712 0.23196695744991302
-0.4470747113227844 0.40344369411468506 0.1311686635017395
0.5857847332954407 0.19967874884605408 0.16186444461345673
-0.5753234028816223 0.31720849871635437 -0.12389914691448212
-0.3843907415866852 0.007725280709564686 -0.028905166313052177
0.32855933904647827 0.0030772723257541656 -0.2201177030801773
0.03210499882698059 0.027937641367316246 0.3454224467277527
0.3914266526699066 -0.31578919291496277 0.1518232822418213
0.5928286910057068 0.1349935680627823 0.06912627816200256
-0.25672727823257446 0.0850885808467865 0.34074002504348755
0.08017010241746902 -0.6147320866584778 -0.09022179991006851
-0.42165789008140564 0.0007391143590211868 -0.2962625324726105
0.2557273507118225 -0.6504114270210266 0.21069644391536713
-0.14089173078536987 0.002468652557581663 -0.09716039896011353
-0.5416598320007324 0.019210582599043846 -0.3997390866279602
0.5201617479324341 0.2504722774028778 0.3441188633441925
0.4197172224521637 0.09428547322750092 -0.3961000442504883
0.1723630726337433 0.0030077272094786167 0.2057236284017563
0.520666241645813 0.007398967631161213 -0.2996261417865753
0.40303853154182434 0.3997081518173218 -0.09729138016700745
-0.3353569805622101 0.002682833932340145 0.04493650421500206
0.28533053398132324 0.39695361256599426 -0.291916161775589
0.13054879009723663 0.4521617591381073 0.3673080801963806
0.3785175681114197 -0.060235049575567245 0.17200329899787903
0.30802398920059204 0.397856742143631 -0.08926059305667877
0.5822917222976685 0.37149131298065186 0.18416842818260193
0.2232920080423355 -0.06259782612323761 0.3146573603153229
-0.5719597339630127 0.15838806331157684 -0.18278495967388153
-0.3773578703403473 -0.048419732600450516 0.20546522736549377
-0.10179632902145386 -0.623333752155304 -0.15999312698841095
0.08303884416818619 -0.6210725903511047 -0.029157739132642746
-0.00769195007160306 0.17052149772644043 0.3845321536064148
0.09977386146783829 0.3994506001472473 0.13494689762592316
0.1644037365913391 -0.1747540682554245 0.3076343238353729
0.003591847373172641 0.0027700760401785374 -0.027285663411021233
-0.4892423450946808 0.3654084801673889 -0.1454506516456604
-0.2651717960834503 0.008534763008356094 0.32579949498176575
0.31167367100715637 0.40251490473747253 -0.17777816951274872
0.08106763660907745 -0.6137163043022156 0.16451787948608398
0.11462919414043427 0.003091805148869753 -0.1479194164276123
0.14957435429096222 -0.5580251812934875 -0.3132195472717285
-0.17275232076644897 -0.3831104338169098 0.05011115223169327
0.09211690723896027 0.0023301024921238422 -0.3245302438735962
0.25782835483551025 0.007857521064579487 -0.39442121982574463
0.4628641903400421 0.002884633606299758 0.2353993058204651
0.06869164854288101 -0.6232306957244873 0.02742905169725418
0.09693561494350433 0.0029998673126101494 0.08162307739257812
0.3645554482936859 -0.6320953369140625 0.10280557721853256
-0.5703924894332886 0.12384442985057831 -0.30730533599853516
-0.4213271737098694 0.401236891746521 -0.01032952219247818
0.34110531210899353 -0.5847805142402649 0.12631741166114807
0.19594189524650574 0.3895520269870758 0.3310036361217499
-0.3149281144142151 0.1953635811805725 0.34376949071884155
0.10493796318769455 0.46205389499664307 0.41392338275909424
0.031879257410764694 -0.4216691255569458 -0.3208048939704895
0.20232221484184265 -0.5997684001922607 -0.29133450984954834
0.029175879433751106 0.0026651311200112104 -0.1718585342168808
0.29772070050239563 0.12358148396015167 0.4618961811065674
-0.5725462436676025 -0.0058563146740198135 -0.27575695514678955
0.27080804109573364 -0.042169880121946335 0.2580597400665283
0.5864512920379639 0.22083202004432678 0.07040821015834808
-0.025449233129620552 0.20317699015140533 -0.3968857526779175
-0.07249757647514343 -0.54681396484375 -0.25445836782455444
-0.24493257701396942 -0.2514096200466156 -0.049760449677705765
-0.5869864821434021 0.2505282461643219 -0.19744908809661865
0.5854719877243042 0.22502915561199188 -0.30532386898994446
-0.18129433691501617 0.316558837890625 0.34298452734947205
-0.1038236990571022 -0.4163490831851959 0.19233104586601257
0.2969476580619812 -0.042492836713790894 0.4566820561885834
-0.0758071318268776 0.09109091758728027 0.34532925486564636
0.33409956097602844 0.0025582825765013695 0.10246692597866058
0.0796770304441452 0.46715179085731506 0.43052709102630615
-0.13803181052207947 -0.3993675112724304 -0.184553861618042
-0.018787192180752754 0.002387578599154949 0.25265103578567505
-0.04397991672158241 -0.6294514536857605 -0.215011328458786
-0.44451504945755005 0.4023153781890869 -0.3240998685359955
-0.5774877667427063 0.06980445981025696 -0.3187446892261505
-0.1794920116662979 -0.4620746970176697 0.02163863368332386
-0.2592553198337555 0.0002466212026774883 0.11545873433351517
0.3840672969818115 0.0037553058937191963 -0.3664481043815613
-0.05526727810502052 0.0025569256395101547 0.04286836087703705
0.29857704043388367 0.4103842079639435 0.3566502332687378
0.4550986588001251 -0.23437398672103882 -0.05409657955169678
0.5951653718948364 0.264748752117157 -0.07405837625265121
0.3312390148639679 0.0008164094761013985 -0.23049084842205048
-0.49334752559661865 -0.08757840096950531 -0.11454667150974274
-0.15795806050300598 -0.4874855577945709 -0.11143703013658524
0.20037852227687836 0.037531185895204544 0.3452557325363159
0.09006329625844955 0.46161219477653503 0.43432021141052246
0.0781378522515297 -0.622313916683197 -0.030681440606713295
-0.4517325162887573 0.3970741629600525 -0.02018185704946518
0.24846212565898895 0.3990508019924164 0.09587419033050537
-0.44052016735076904 0.1365840882062912 -0.3991692364215851
0.582884669303894 0.11487109214067459 -0.14628928899765015
-0.5789487957954407 0.020464051514863968 -0.268810510635376
0.27050793170928955 0.003454421181231737 -0.12067729234695435
-0.07822123914957047 -0.00010866113007068634 -0.1366727203130722
0.34693288803100586 0.07928624749183655 -0.39192360639572144
0.5769515037536621 0.11697246879339218 -0.11434926837682724
-0.06218775361776352 -0.49959835410118103 -0.26079022884368896
-0.5659195184707642 0.17244046926498413 -0.03755452111363411
0.18077287077903748 0.18498671054840088 -0.3959246575832367
-0.5676350593566895 0.06617657095193863 -0.13523919880390167
0.28413301706314087 0.0038618927355855703 0.031626660376787186
0.13408827781677246 -0.6387642025947571 0.250465989112854
0.5377352833747864 0.4011630415916443 -0.08412045985460281
-0.4125962257385254 0.09669406712055206 -0.03748053312301636
-0.007355975452810526 0.0016277497634291649 0.24257491528987885
-0.12524111568927765 -0.3919803202152252 -0.20786787569522858
-0.15718145668506622 0.11317182332277298 -0.4002583920955658
0.35850194096565247 0.0009579050820320845 0.12119226157665253
0.3568483889102936 -0.388449102640152 0.1457410454750061
0.10182859748601913 -0.6183488965034485 -0.26449108123779297
-0.19842663407325745 0.4022093415260315 0.20045359432697296
0.4327448904514313 0.3951009511947632 -0.1167878583073616
0.34419822692871094 -0.6531078815460205 0.11527682840824127
0.1539575308561325 -0.11776795983314514 -0.35397398471832275
-0.0477152056992054 0.0027891392819583416 -0.14299499988555908
0.5491137504577637 0.39104121923446655 -0.07721570879220963
-0.40459245443344116 9.059591684490442e-05 -0.3436603248119354
0.007557639852166176 0.3787776827812195 0.34076905250549316
-0.23390474915504456 0.05513091757893562 0.3415476381778717
-0.5251963138580322 -0.0905524417757988 0.02731463871896267
0.1980929672718048 0.00011680461466312408 0.236572265625
-0.40904849767684937 0.0054931011982262135 -0.16908065974712372
-0.5081784129142761 0.05265720188617706 0.34750181436538696
-0.05095968395471573 0.3952959179878235 0.287555456161499
0.5901954770088196 0.17816364765167236 -0.2934756875038147
-0.23679009079933167 -0.1600164920091629 -0.06114188954234123
0.28210604190826416 0.0038474579341709614 -0.020849958062171936
0.22035802900791168 -0.6149938106536865 -0.0021189055405557156
0.5951864719390869 0.2995181381702423 0.2102474868297577
-0.34698688983917236 0.0620308592915535 0.3387535810470581
0.3172863721847534 -0.374977171421051 0.21440532803535461
-0.029241099953651428 0.0003793984651565552 0.09000127762556076
0.15988445281982422 0.4659239947795868 0.38149017095565796
-0.07478412985801697 0.0018947375938296318 -0.215720072388649
0.02487380988895893 0.0027019819244742393 0.10215339064598083
-0.43356752395629883 0.40400683879852295 -0.14340521395206451
-0.14741632342338562 0.0015838539693504572 -0.2346859872341156
-0.2724180221557617 0.3976071774959564 0.19438238441944122
-0.19792984426021576 -0.29427558183670044 0.1560487002134323
-0.03792307898402214 0.2810573875904083 0.3539527952671051
-0.5055034756660461 0.0420316644012928 0.3441351354122162
0.2681877017021179 -0.613512396812439 0.05873826891183853
0.4357965588569641 -0.1369498074054718 0.01714872568845749
0.33956557512283325 0.07148323208093643 -0.39928215742111206
0.3314230442047119 -0.012550266459584236 0.36019712686538696
0.15807504951953888 0.4644061028957367 0.429605096578598
0.22161562740802765 -0.3587578237056732 -0.35682883858680725
-0.16565212607383728 0.001972062513232231 -0.02587423473596573
0.27878743410110474 0.32149145007133484 0.34167882800102234
-0.3707306981086731 -0.01991720125079155 -0.37918293476104736
0.5480826497077942 0.38819724321365356 -0.395237535238266
-0.584757924079895 0.22571362555027008 -0.02039514109492302
-0.3989328145980835 -0.002631658688187599 0.3163414001464844
-0.24105124175548553 0.40118271112442017 0.23172886669635773
0.517392635345459 0.4000377953052521 0.2224307805299759
-0.44657111167907715 0.3983694016933441 0.07948091626167297
0.3809278905391693 -0.48192957043647766 -0.09018898755311966
-0.38399094343185425 -0.05406426265835762 0.13242655992507935
0.32202911376953125 0.0035372436977922916 0.029502904042601585
0.3960333466529846 0.39511042833328247 0.31290361285209656
-0.015437637455761433 -0.22373951971530914 0.2951386868953705
-0.12414500117301941 -0.5207571983337402 -0.19003090262413025
0.4598841369152069 -0.1047656312584877 -0.034687384963035583
0.284567266702652 -0.18823562562465668 0.26512324810028076
-0.514698326587677 -0.10568592697381973 -0.23058302700519562
-0.5265324711799622 0.11044741421937943 -0.12001131474971771
-0.0791853815317154 -0.6214876174926758 0.020319214090704918
-0.2033919095993042 -0.0005691228434443474 -0.2725446820259094
0.5313189029693604 0.004921440500766039 -0.16624920070171356
0.0053192125633358955 -0.4848114848136902 0.24315184354782104
-0.13374309241771698 -0.0010133825708180666 0.20450833439826965
0.4098760783672333 -3.47398454323411e-05 0.06933727115392685
-0.4983513355255127 -0.10302586853504181 -0.2564445436000824
0.28983545303344727 0.002226811833679676 -0.18342815339565277
-0.5794620513916016 0.007996884174644947 -0.2571842670440674
0.3195668160915375 0.1189017966389656 0.3483065366744995
0.5794298052787781 0.2826741337776184 -0.029216252267360687
0.10943486541509628 0.28550413250923157 0.464801549911499
0.17749112844467163 0.17030400037765503 0.4656132757663727
0.3513360619544983 0.0009959982708096504 -0.22810615599155426
-0.43770432472229004 -0.10795988142490387 -0.11543348431587219
0.18827885389328003 -0.6157026290893555 -0.12411732971668243
0.023192627355456352 -0.6172302961349487 0.051843591034412384
-0.03406490385532379 0.193300262093544 -0.39541324973106384
-0.17756332457065582 -0.08872832357883453 -0.25655171275138855
-0.5344703197479248 -0.008098767139017582 -0.38084304332733154
0.40489739179611206 0.396565705537796 0.05467982962727547
0.373247891664505 0.3998458683490753 0.22983840107917786
-0.5391684174537659 0.1252913922071457 -0.39698290824890137
0.5839070677757263 0.19492755830287933 -0.08589286357164383
0.2963513135910034 -0.01544162631034851 0.27065587043762207
0.3313102126121521 0.3650204837322235 0.36420950293540955
-0.37647637724876404 -0.05577760934829712 -0.3840319812297821
-0.5096265077590942 0.27892476320266724 -0.39937078952789307
-0.4475696384906769 0.10118057578802109 0.3422674536705017
-0.5780908465385437 0.01240994781255722 -0.13743902742862701
0.2863366901874542 0.00996314361691475 -0.3864685297012329
-0.0538422055542469 -0.21923698484897614 0.2762710452079773
-0.5878183841705322 0.07485758513212204 -0.3112970292568207
-0.4864051640033722 0.3988945484161377 -0.12604130804538727
-0.023816147819161415 -0.45630839467048645 -0.2941577136516571
0.39750611782073975 -0.00017844978719949722 -0.24265813827514648
0.4218090772628784 0.3983477056026459 0.06915458291769028
-0.5627692937850952 -0.0084151616320014 -0.01583212986588478
-0.4003012478351593 0.07687569409608841 0.14509111642837524
-0.10851439833641052 -0.48107296228408813 -0.21510270237922668
0.444663941860199 -0.057928506284952164 0.040647562593221664
0.24832101166248322 -0.6178937554359436 0.12726633250713348
-0.11155062913894653 -0.1089889258146286 0.24279364943504333
0.33017343282699585 0.18615931272506714 0.344681978225708
-0.5911340713500977 0.0251663476228714 -0.15261390805244446
-0.1779307872056961 -0.36432522535324097 0.15685221552848816
-0.5771528482437134 0.24934369325637817 -0.02832985669374466
0.04506733641028404 -0.619151771068573 -0.14829422533512115
0.21159100532531738 0.0029195898678153753 -0.08908341079950333
-0.06408144533634186 0.11819320917129517 0.34491002559661865
-0.39135292172431946 0.031115001067519188 -0.3976452946662903
-0.1933579295873642 -0.010751758702099323 0.12716369330883026
0.3591543436050415 0.0013194689527153969 -0.05642873793840408
0.28048086166381836 0.0030059553682804108 -0.1214626207947731
-0.5231031775474548 0.07230610400438309 -0.40330439805984497
0.3103221654891968 0.13740068674087524 0.4416882395744324
0.576933741569519 0.2676658630371094 0.2997284233570099
0.09059106558561325 -0.6162788271903992 -0.14177128672599792
0.324905127286911 -0.5945152044296265 -0.21713244915008545
0.21311183273792267 0.39488518238067627 -0.3727063536643982
-0.4771919548511505 -0.09818591177463531 -0.3906637728214264
0.11102554947137833 -0.0005342140793800354 0.316103458404541
0.1111050397157669 0.0005570109933614731 -0.18278853595256805
0.06731022894382477 0.002177999820560217 -0.27116698026657104
0.5667637586593628 0.25520309805870056 -0.19434037804603577
-0.5834411978721619 0.2677426338195801 -0.05595679581165314
-0.3800494968891144 -0.031557489186525345 -0.015454365871846676
-0.37200871109962463 -0.05447680875658989 -0.35071226954460144
-0.5543423295021057 -0.08398137986660004 -0.23481470346450806
-0.04450022056698799 -0.6258165836334229 -0.052154991775751114
0.027982521802186966 0.40326252579689026 0.3586808741092682
0.5808539986610413 0.05529019236564636 -0.3695022761821747
-0.5580782294273376 -0.05092363804578781 0.19910676777362823
-0.16788643598556519 -0.2010023444890976 0.18862873315811157
-0.38101592659950256 0.19201640784740448 0.3454166352748871
-0.39262595772743225 -0.08489473909139633 -0.22092851996421814
-0.08569236844778061 0.3969199061393738 0.13353820145130157
0.10566694289445877 -0.00012402236461639404 -0.10332683473825455
-0.1566036492586136 -0.6455638408660889 -0.09600934386253357
-0.46504297852516174 0.39624136686325073 0.013882409781217575
-0.10476232320070267 0.24897362291812897 0.3789593577384949
0.03676225244998932 -0.6213195323944092 0.1676957905292511
0.26470309495925903 -0.4533722400665283 -0.26042380928993225
0.056032173335552216 0.09611612558364868 -0.39789214730262756
0.09228812158107758 0.0025804592296481133 -0.06312508881092072
0.3862728476524353 -0.6271538734436035 0.008041451685130596
-0.022620463743805885 0.38387665152549744 -0.39101240038871765
0.367654412984848 0.2507741153240204 -0.3949224352836609
-0.2491310089826584 -0.19307838380336761 0.03586454316973686
-0.5745024681091309 0.037719015032052994 0.3322458863258362
0.45253100991249084 0.0017176466062664986 -0.14323300123214722
-0.23155014216899872 -0.33379557728767395 -0.10457780212163925
-0.5278967618942261 0.30978086590766907 -0.39603787660598755
0.530714750289917 0.39342978596687317 -0.14948424696922302
0.3287466764450073 -0.0001669316552579403 0.32164466381073
-0.12713180482387543 -0.5790584087371826 -0.19561900198459625
0.3767991364002228 -0.6102874279022217 0.04778476804494858
0.32553014159202576 0.39791154861450195 -0.3033173382282257
-0.5514323711395264 0.3869574964046478 0.10912018269300461
0.06541077047586441 0.3967246413230896 -0.11829067021608353
0.07676967233419418 0.002958935685455799 -0.029861420392990112
0.2580772042274475 -0.6237508058547974 -0.07235267758369446
0.03633821755647659 -0.33550524711608887 -0.3526691794395447
0.3849067687988281 0.0005909977480769157 0.059205561876297
-0.4608733057975769 -0.09691300988197327 -0.15243437886238098
0.016240030527114868 -0.6181869506835938 -0.18849612772464752
0.5829166769981384 0.1706101894378662 -0.08846979588270187
0.09136244654655457 0.3958600163459778 -0.021383782848715782
-0.02772853709757328 0.39623016119003296 -0.006389306858181953
-0.014566607773303986 -0.6366659998893738 0.19016052782535553
0.1908404380083084 0.0027825599536299706 0.08909466862678528
0.03768393024802208 0.27217137813568115 -0.39479705691337585
0.3551904261112213 -0.05338378623127937 -0.2633396089076996
0.5861019492149353 0.3245156407356262 -0.29848453402519226
-0.3579387962818146 0.3941059410572052 0.04316020384430885
0.12981238961219788 0.0028898054733872414 0.04075022414326668
0.222395658493042 0.22831138968467712 0.34477898478507996
0.0664713904261589 -0.6526389718055725 0.23306991159915924
0.5504265427589417 0.39086344838142395 -0.01324126310646534
-0.4053365886211395 0.1084606871008873 0.3418176472187042
-0.5687063336372375 0.19038572907447815 0.12007322162389755
-0.11361884325742722 -0.47054004669189453 0.1601559817790985
0.5831905603408813 0.3445724546909332 0.25898000597953796
0.14643606543540955 0.0030061390716582537 0.0602768249809742
-0.34819495677948 0.0044543128460645676 0.044847626239061356
-0.3477882146835327 0.015159948728978634 0.3075011074542999
-0.05849412828683853 0.002157410606741905 -0.18430566787719727
-0.17394110560417175 -0.40695369243621826 0.08876374363899231
-0.007538540754467249 -0.621565580368042 -0.22885458171367645
-0.571824312210083 0.182388037443161 -0.39264053106307983
0.14681051671504974 0.0023410446010529995 -0.24360786378383636
0.44896939396858215 0.21947689354419708 0.3468572199344635
-0.3593035042285919 0.012532511726021767 -0.272458553314209
0.11602214723825455 0.331676721572876 0.3478909432888031
0.1760237067937851 0.0026080310344696045 -0.3407824635505676
-0.14175912737846375 -0.11255718767642975 -0.25383806228637695
0.5085877776145935 0.38523241877555847 -0.3898177146911621
0.3147723078727722 0.07658839225769043 0.44832488894462585
0.04416623339056969 0.3994869589805603 0.1471603512763977
0.5668199062347412 0.2605913281440735 0.34616655111312866
0.5652965903282166 0.009555628523230553 0.18112699687480927
0.28404420614242554 0.0035703498870134354 -0.10439131408929825
0.24878790974617004 -0.6143360137939453 -0.11555731296539307
0.032843977212905884 0.18590298295021057 0.4503794312477112
-0.18738700449466705 -0.37789133191108704 0.12853285670280457
0.3483939468860626 -0.0005137714324519038 0.2143079787492752
-0.3748299777507782 0.39205202460289 -0.2142355889081955
-0.13685859739780426 0.002182014286518097 -0.13524557650089264
-0.33269864320755005 0.001212310278788209 0.2118249535560608
-0.5607581734657288 -0.0353175587952137 -0.14890582859516144
-0.13897034525871277 0.00016282987780869007 0.15413729846477509
0.3520616590976715 -0.6178445219993591 -0.183428093791008
0.2734581530094147 0.3828112483024597 0.34708672761917114
0.5684345960617065 0.2641953229904175 0.1339750736951828
0.09145278483629227 -0.24365556240081787 0.31624719500541687
0.2487998902797699 -0.24266237020492554 0.28002825379371643
-0.3664990961551666 0.3981180787086487 -0.16407057642936707
-0.16708335280418396 0.3956540822982788 0.2105829119682312
-0.07357293367385864 -0.21439938247203827 0.27681654691696167
-0.2762203514575958 0.03202103450894356 0.3389745354652405
-0.049766745418310165 0.3973608613014221 0.1292315274477005
-0.1469038426876068 0.0017486346187070012 -0.2630891501903534
0.5701764225959778 0.39331144094467163 -0.06380117684602737
-0.4252585172653198 0.4015113413333893 -0.3379105031490326
0.09523260593414307 -0.5639409422874451 -0.3183791935443878
0.482149600982666 0.4000893235206604 0.14926908910274506
-0.584565281867981 0.30406397581100464 -0.326356440782547
0.22036799788475037 -0.615300178527832 0.1316400021314621
0.3177036941051483 0.24075788259506226 0.3455350697040558
-0.23865826427936554 -0.19943872094154358 -0.034895189106464386
0.27602899074554443 -0.04051738232374191 0.4562387466430664
0.4736691415309906 0.39769867062568665 -0.03181285038590431
-0.34980571269989014 -0.0066580260172486305 0.021490050479769707
0.40790894627571106 0.4013587534427643 -0.32184770703315735
0.5744746327400208 0.3686617612838745 0.2310762107372284
0.26832181215286255 -0.627362847328186 0.21339531242847443
0.025532172992825508 0.3152651786804199 0.3745656907558441
0.39433321356773376 0.0015343893319368362 -0.05310551077127457
-0.28056490421295166 0.21447975933551788 -0.4021605849266052
0.15957394242286682 -0.6243960857391357 -0.24886569380760193
-0.5593162775039673 -0.007932991720736027 -0.3833083212375641
0.008398499339818954 0.21557274460792542 0.4041691720485687
0.32409927248954773 0.0031596366316080093 -0.012805459089577198
-0.5219247937202454 -0.10978016257286072 0.02426835522055626
-0.031053751707077026 0.0013066139072179794 -0.25746914744377136
-0.429024875164032 -0.09576815366744995 0.21432630717754364
-0.2646448314189911 0.004673738963901997 0.278774231672287
0.2095807045698166 0.46704626083374023 0.38735494017601013
0.26687702536582947 0.4539797604084015 0.4320700764656067
0.06737065315246582 -0.3381410837173462 -0.3711880147457123
-0.052876364439725876 0.4030340909957886 -0.20508268475532532
0.4393002390861511 0.39367741346359253 0.13155637681484222
-0.1021982952952385 0.005490054376423359 -0.3751700520515442
-0.0736846849322319 0.39581072330474854 -0.10281921923160553
0.24331632256507874 0.25945600867271423 0.4652097225189209
0.43931102752685547 -0.17010316252708435 0.04981648176908493
0.12102800607681274 -0.06975871324539185 0.4421529471874237
-0.577721893787384 0.35250386595726013 0.2123188078403473
0.06594324111938477 0.002742961049079895 -0.031981777399778366
-0.34574994444847107 0.40094202756881714 -0.022738270461559296
0.10002393275499344 0.002928430214524269 -0.0636826753616333
-0.1578136831521988 0.10522456467151642 -0.39479538798332214
0.30650097131729126 0.4010131359100342 -0.18563330173492432
-0.22547809779644012 0.015273720026016235 0.3378544747829437
-0.05888625979423523 -0.4339601695537567 0.21364499628543854
0.06141091138124466 -0.6300041079521179 -0.27683383226394653
-0.5776163935661316 0.020737865939736366 -0.03032427839934826
-0.15597893297672272 0.35302016139030457 0.3438013792037964
-0.5873118042945862 0.045635513961315155 0.30708184838294983
-0.03949704393744469 0.14813388884067535 0.35020560026168823
0.4496823251247406 -0.1855587512254715 -0.10319211333990097
0.09543544054031372 0.45661139488220215 0.40938955545425415
0.3168262541294098 0.003111541038379073 0.09667852520942688
0.36436960101127625 0.3388151526451111 0.34553977847099304
-0.431403785943985 0.2085348218679428 0.3432673215866089
-0.5518302321434021 -0.005463385488837957 0.34292691946029663
0.5736392736434937 0.3929121196269989 0.1844104528427124
0.22305728495121002 -0.6232547163963318 -0.22916385531425476
0.29869315028190613 -0.6184980273246765 0.10751460492610931
-0.2337818592786789 -0.2529911398887634 0.008242107927799225
-0.5777288675308228 0.012334804981946945 -0.28560948371887207
-0.2641729414463043 -0.0006040250882506371 0.07247413694858551
-0.3895472288131714 -0.06373324245214462 -0.334379643201828
0.06918913125991821 0.397309273481369 0.17171694338321686
-0.5571281313896179 0.06251490861177444 0.07293067872524261
0.23986482620239258 -0.6198293566703796 -0.0854632705450058
-0.02605070173740387 0.005434143822640181 0.33159032464027405
0.4122304618358612 0.39811185002326965 0.1302596479654312
-0.5387008786201477 0.09084999561309814 0.06069932505488396
0.19700436294078827 0.0036819339729845524 0.15783293545246124
0.09835805743932724 -0.00379202701151371 0.3181055188179016
0.3133694529533386 0.0020132490899413824 -0.29741552472114563
0.5124025940895081 0.005600450560450554 0.20527459681034088
0.16039173305034637 -0.32817888259887695 0.3090619146823883
-0.37247204780578613 0.052792809903621674 -0.03204206004738808
0.27799275517463684 0.39642298221588135 0.11252287030220032
-0.3691943287849426 -0.03918680176138878 -0.3098485469818115
-0.189070463180542 -0.5789521932601929 -0.014723092317581177
0.3593541383743286 -0.22400636970996857 -0.24727800488471985
0.39386680722236633 -0.41817864775657654 0.04170217737555504
0.25704944133758545 -0.10803603380918503 -0.32286933064460754
0.31276851892471313 0.2727743685245514 -0.4001072645187378
0.26762327551841736 -0.36453744769096375 0.24162380397319794
0.41337940096855164 -0.09093111008405685 0.10510305315256119
0.5713834166526794 0.31201228499412537 -0.07842614501714706
0.15252232551574707 -0.617791473865509 -0.16978053748607635
0.586262047290802 0.16801105439662933 0.006643747445195913
-0.24523386359214783 0.39772579073905945 0.15771053731441498
0.22587983310222626 -0.1391170620918274 -0.3318914771080017
0.5694068670272827 0.32000452280044556 -0.13574913144111633
0.2729758024215698 0.4666224420070648 0.3867082893848419
0.2850167155265808 0.0005142278969287872 0.300316721200943
-0.4075150191783905 -0.005991851910948753 0.11083632707595825
-0.12329435348510742 -0.6038931012153625 0.14286859333515167
-0.5736128091812134 0.011107086203992367 -0.38511332869529724
0.005544132087379694 0.001804162748157978 -0.2828880250453949
-0.2232304960489273 -0.33002719283103943 -0.09822466969490051
0.3644813895225525 -0.6553977727890015 0.03808879852294922
0.24736757576465607 0.26576435565948486 0.46490830183029175
-0.03595517575740814 -0.4574851393699646 0.231130450963974
0.5657082200050354 0.24308231472969055 -0.25932008028030396
-0.5663743615150452 0.10059493035078049 -0.0458003468811512
0.013640515506267548 -0.6308025121688843 -0.2535626292228699
-0.5686579942703247 0.008547729812562466 -0.04384184256196022
-0.5765208601951599 0.13075612485408783 0.21887920796871185
-0.05341798812150955 0.0030558547005057335 0.04874484986066818
-0.43862995505332947 0.00033422885462641716 -0.3238380253314972
0.22418799996376038 -0.06352147459983826 0.45134425163269043
-0.044586122035980225 0.004230288788676262 0.17699311673641205
0.22039151191711426 -0.6580898761749268 0.2245650291442871
0.32444271445274353 0.0031394280958920717 -0.07929068803787231
0.5062441229820251 0.09087305516004562 0.34222620725631714
0.5734377503395081 0.2838379740715027 -0.030928071588277817
0.24809041619300842 0.318437784910202 0.46535176038742065
-0.4067392945289612 0.40212422609329224 0.017891107127070427
-0.3046981394290924 0.3338973820209503 0.33895379304885864
-0.5642525553703308 -0.03857194632291794 -0.3895588517189026
-0.36347922682762146 0.03829767554998398 0.12372076511383057
0.4951997995376587 0.3896127939224243 0.34451377391815186
-0.32933399081230164 0.3961500823497772 -0.18921951949596405
0.4094102680683136 -0.23585081100463867 0.12330882251262665
-0.11261134594678879 0.22903375327587128 0.3922097682952881
0.022216223180294037 0.0021895505487918854 -0.26620590686798096
0.43518906831741333 -0.38480135798454285 -0.05587514862418175
0.2796650826931 0.0032329780515283346 0.1469794064760208
-0.13169610500335693 0.002073652343824506 0.03486006706953049
0.2948112189769745 0.00267183780670166 -0.2516058683395386
0.11651927977800369 0.0016008047387003899 -0.2956677973270416
0.30144646763801575 0.003240576945245266 -0.08019278198480606
0.508209764957428 0.005677714012563229 -0.07367786765098572
-0.421532541513443 -0.08559742569923401 0.3404422700405121
0.32116198539733887 0.32806554436683655 0.42085424065589905
-0.05983307585120201 0.002164797857403755 -0.01416934933513403
-0.23597903549671173 -0.15034565329551697 -0.04699121043086052
0.02929624170064926 -0.6189097166061401 -0.1528661996126175
-0.5904264450073242 0.032936546951532364 -0.22960945963859558
-0.5023782253265381 0.16000106930732727 0.3396843373775482
-0.2457876205444336 0.39692771434783936 0.24798232316970825
-0.3653239607810974 -0.05012024566531181 0.2361687868833542
-0.06252549588680267 0.0023596915416419506 -0.04830509051680565
-0.05964488163590431 0.003199721686542034 0.051008258014917374
0.16889788210391998 -0.07487735897302628 0.42544931173324585
0.12382426112890244 -0.6213249564170837 -0.00414997199550271
-0.5151640772819519 0.04455477371811867 -0.40018171072006226
-0.03701721504330635 0.06593285501003265 -0.39547160267829895
-0.45263051986694336 -0.002608148381114006 0.29839280247688293
0.11542212218046188 0.3952719569206238 0.2878262400627136
-0.06451289355754852 -0.6180880665779114 -0.04652470350265503
0.48038533329963684 0.4011763334274292 0.15748409926891327
0.32738563418388367 -0.38283032178878784 -0.21041715145111084
0.45008930563926697 -0.28989630937576294 0.041615329682826996
-0.2169027030467987 -0.1720166653394699 0.06451157480478287
0.23012776672840118 0.09704161435365677 0.462196409702301
-0.509724497795105 0.0363851934671402 0.3463584780693054
-0.42812660336494446 0.000359212514013052 -0.32808223366737366
-0.3854523003101349 -0.07480230182409286 0.09542785584926605
-0.3843092620372772 0.29516956210136414 -0.39467164874076843
-0.15375114977359772 0.18645566701889038 -0.3967858850955963
-0.030029479414224625 -0.4119599759578705 -0.2972105145454407
-0.24562247097492218 -0.26606327295303345 -0.06804671138525009
0.09968632459640503 0.2236649990081787 -0.4007861018180847
0.4396582841873169 -0.11759460717439651 -0.062468379735946655
-0.08938217163085938 -0.625231146812439 0.05192431062459946
0.5830468535423279 0.03189700469374657 0.33447888493537903
0.03031754121184349 0.3979184329509735 -0.07581696659326553
0.42919546365737915 -0.26770225167274475 -0.10080309957265854
0.09858401119709015 0.0030038408003747463 -0.282274454832077
0.4696374833583832 0.002603472676128149 -0.19770796597003937
-0.13780611753463745 0.3200652301311493 -0.39464548230171204
0.32491639256477356 0.0014273086562752724 0.08397606760263443
-0.10137449949979782 -0.3430115878582001 -0.2938719093799591
-0.44510164856910706 -0.09953197836875916 -0.12875685095787048
-0.5285007357597351 0.39656221866607666 0.1259419322013855
0.5934988856315613 0.18354707956314087 -0.24848313629627228
-0.4012106657028198 0.005912213586270809 0.11171478778123856
-0.14038808643817902 0.08069731295108795 0.34101468324661255
0.3146872818470001 0.3904478847980499 -0.40105247497558594
0.5847672820091248 0.10785981267690659 0.1260620504617691
0.4584199786186218 0.39693450927734375 0.29559704661369324
0.5684182047843933 0.18198393285274506 0.10832439363002777
0.5720575451850891 0.07510844618082047 0.2207246720790863
0.2326033115386963 -0.22725652158260345 0.2907147705554962
-0.3608333468437195 0.10407880693674088 -0.39289504289627075
-0.4233357608318329 -0.0009492028038948774 0.3450077772140503
