0.19770120084285736 -0.6197401881217957 0.0003942446783185005
-0.54319167137146 0.0024107350036501884 -0.15569402277469635
-0.13721635937690735 -0.5691494941711426 0.13368423283100128
-0.5810736417770386 0.16216029226779938 -0.3445284068584442
-0.33715537190437317 0.4104838967323303 -0.12176467478275299
0.30435726046562195 0.027982985600829124 -0.4004991352558136
-0.49500274658203125 0.35391953587532043 -0.11965825408697128
-0.4159497916698456 0.2434767484664917 -0.40411078929901123
0.5767466425895691 0.2406163364648819 -0.26543623208999634
-0.34298691153526306 0.4144479036331177 -0.0485362783074379
-0.18053355813026428 0.40414440631866455 0.05294771492481232
-0.27966028451919556 0.3088627755641937 -0.400152325630188
-0.04847661405801773 -0.08256182074546814 0.2803506851196289
0.0451393686234951 -0.6228959560394287 -0.16340261697769165
0.23966997861862183 -0.08085431158542633 0.34985244274139404
0.48736223578453064 0.19750192761421204 -0.40110379457473755
-0.3860411047935486 0.004249194636940956 0.2677522301673889
0.19892853498458862 0.4030931890010834 -0.14669065177440643
0.575876772403717 0.34402450919151306 -0.23526905477046967
0.022597093135118484 -0.6003446578979492 0.24781981110572815
-0.062157317996025085 -0.23753151297569275 0.27589771151542664
0.2813839912414551 0.3992435932159424 0.335054486989975
-0.18044456839561462 -0.39338216185569763 0.030918113887310028
0.37075385451316833 -0.4542974829673767 -0.133785679936409
0.06567224115133286 -0.616473913192749 0.1165815219283104
0.31952735781669617 -0.3036947548389435 0.24086213111877441
0.5068444609642029 3.532739356160164e-05 0.14828750491142273
-0.10017918795347214 -0.6225721836090088 0.18247607350349426
-0.15134067833423615 0.2309347689151764 -0.40111786127090454
0.23234853148460388 -0.37011483311653137 0.28166013956069946
0.14545407891273499 -0.6513250470161438 -0.302863746881485
-0.578033447265625 0.029226157814264297 -0.0011720068287104368
-0.2524082064628601 0.4041379988193512 0.013098400086164474
-0.5595263838768005 -0.05645838752388954 -0.07434237003326416
0.17980323731899261 0.0010959776118397713 0.2120152711868286
-0.19803202152252197 -0.38062143325805664 -0.06923282891511917
0.05292533338069916 0.0030976273119449615 -0.22901782393455505
0.30209028720855713 -0.004527159966528416 0.46047624945640564
0.47877195477485657 0.4031696021556854 0.03631814569234848
0.2576647400856018 -0.000565764494240284 0.32708311080932617
-0.395348459482193 0.0033807121217250824 -0.2654470205307007
0.26336801052093506 0.0027516200207173824 0.09505841881036758
0.2319265455007553 0.002624030224978924 0.1258174329996109
-0.5368025302886963 -0.08073995262384415 -0.21851901710033417
0.2057245820760727 -0.3181314170360565 0.3004480302333832
0.21568308770656586 -0.6229539513587952 0.17963051795959473
0.4034990072250366 -0.0004498106427490711 0.1745784729719162
-0.12185833603143692 0.4019632339477539 -0.31394362449645996
-0.1739228516817093 0.40297219157218933 0.01616520620882511
0.03991720452904701 0.0013393424451351166 0.14495959877967834
0.5468432903289795 0.40190374851226807 -0.22016949951648712
-0.42873209714889526 0.0942671000957489 0.341985821723938
-0.5747056603431702 0.04524572193622589 -0.22040216624736786
0.27866029739379883 -0.5517449975013733 -0.25751304626464844
0.23267146944999695 -0.0666477158665657 -0.3474113345146179
-0.3378285765647888 0.002437557792291045 -0.31486231088638306
0.04983868449926376 -0.6159412264823914 0.17054127156734467
-0.18478688597679138 0.36601194739341736 0.339810848236084
0.06094614043831825 0.14478054642677307 0.46241191029548645
0.3155815899372101 -0.35143592953681946 0.23994328081607819
-0.3562805652618408 0.39637938141822815 -0.2601393461227417
0.29474031925201416 0.4023624658584595 -0.34948915243148804
0.059499237686395645 0.40173396468162537 0.10613608360290527
-0.49436497688293457 0.39881065487861633 -0.3944146931171417
-0.49350523948669434 0.39116790890693665 0.3388083577156067
0.07384460419416428 0.17259693145751953 0.34318214654922485
0.3057176470756531 0.29998117685317993 0.44736382365226746
-0.4051389992237091 -0.08549278229475021 0.07999710738658905
0.5612956881523132 0.3990088701248169 -0.07187854498624802
0.2292083501815796 0.20626498758792877 0.4658283591270447
-0.5694984793663025 0.24569708108901978 -0.3939937949180603
-0.1528688222169876 0.10841159522533417 0.34102383255958557
-0.5172572731971741 0.3991757333278656 0.05137768015265465
0.5320454239845276 0.3993704915046692 -0.35235336422920227
-0.13822691142559052 0.001908852718770504 -0.21611008048057556
-0.2909695506095886 0.39305397868156433 0.0022812429815530777
0.3380587100982666 0.40397897362709045 0.18924550712108612
0.05617133155465126 -0.20321772992610931 -0.370612233877182
0.027084942907094955 0.0824190303683281 0.41615012288093567
0.3683660626411438 -0.4356994926929474 -0.14639662206172943
-0.5768400430679321 0.201911062002182 -0.34320011734962463
0.2903292179107666 -0.00022709183394908905 -0.29035258293151855
-0.30035367608070374 0.3765878677368164 5.321178468875587e-05
0.5786305665969849 0.3455924987792969 -0.002000567503273487
0.14588652551174164 0.238602876663208 -0.4015938937664032
0.22235232591629028 0.003100482514128089 -0.3748222589492798
-0.5773075819015503 0.021130619570612907 -0.256998211145401
0.00158982933498919 -0.6199440956115723 0.026543818414211273
-0.5621420741081238 -0.053902219980955124 -0.2851269245147705
0.2301938384771347 -0.6219019293785095 0.22978252172470093
-0.08806964755058289 -0.6215346455574036 0.010950081050395966
0.3064764738082886 0.2306642085313797 0.4547102451324463
-0.17328578233718872 -0.5189936757087708 0.043904270976781845
0.030352551490068436 -0.4026121199131012 0.24952897429466248
0.4008635878562927 -0.0033376868814229965 -0.19438205659389496
-0.33907487988471985 0.07657644152641296 -0.40196865797042847
0.1517900973558426 -0.6205659508705139 -0.08040893822908401
0.29898974299430847 0.3687157928943634 -0.4010196626186371
0.12204994261264801 0.03097705915570259 0.4640197455883026
-0.4515816867351532 0.2768818140029907 -0.4022633731365204
-0.5593576431274414 0.06074747443199158 -0.39408794045448303
-0.04402623698115349 -0.6222488284111023 -0.07019714266061783
0.24401767551898956 0.003513716161251068 0.23389416933059692
0.07439400255680084 0.4032112956047058 -0.07761687785387039
0.3825008273124695 -0.12224534153938293 0.1771474927663803
0.5279914140701294 0.0034821853041648865 -0.22213467955589294
0.5799169540405273 0.317768394947052 -0.09687679260969162
-0.4878721833229065 -0.103156678378582 -0.35678452253341675
-0.35023191571235657 0.006867039483040571 0.11852903664112091
0.004684995859861374 0.002161901444196701 -0.2541673183441162
0.4206171929836273 0.3998536765575409 -0.24361303448677063
0.13789193332195282 0.003463740460574627 -0.3325577676296234
-0.05291851609945297 -0.543701171875 -0.2687768042087555
-0.41786274313926697 0.4066047966480255 -0.1591821014881134
0.03715663030743599 0.2535906732082367 0.4493851363658905
-0.5728586316108704 0.03193454071879387 -0.342505544424057
-0.5397474765777588 0.003279008436948061 0.3457046449184418
-0.4171711206436157 -0.09128274023532867 0.03297523409128189
-0.49591320753097534 0.09450510144233704 -0.06742692738771439
0.40775784850120544 0.0002743583172559738 0.04262635484337807
-0.570766031742096 -0.01353411003947258 0.21487616002559662
0.1952289640903473 -0.6240354776382446 -0.22493645548820496
0.5040578246116638 0.40346553921699524 0.16756805777549744
0.1463475078344345 -0.3829534351825714 -0.3347797095775604
-0.5720037817955017 0.2791374623775482 0.3388139009475708
0.519932210445404 0.35034024715423584 -0.401081383228302
0.34610515832901 -0.08168646693229675 0.21870417892932892
0.5809206962585449 0.2645932734012604 0.14171428978443146
-0.3564165532588959 0.01762228086590767 0.19719380140304565
0.19055767357349396 0.002299649640917778 -0.022424835711717606
-0.11523910611867905 0.3392151892185211 -0.39959239959716797
-0.09598027914762497 -0.6521235108375549 0.15712030231952667
-0.1402752697467804 -0.2190023511648178 0.2142200469970703
-0.5793173909187317 0.15655605494976044 -0.1584063172340393
0.0795784741640091 0.2531715929508209 -0.39995262026786804
0.13938158750534058 0.0022136876359581947 0.06746408343315125
-0.31587502360343933 0.0059014130383729935 0.24056629836559296
0.06344768404960632 0.2712636888027191 0.342081755399704
0.11405491828918457 -0.647011935710907 -0.3000643849372864
0.5001500844955444 0.39300769567489624 -0.3933877646923065
0.09652261435985565 -0.6220982074737549 -0.03986377641558647
0.4352196156978607 -0.02140999771654606 0.05530494078993797
0.3053362965583801 -0.5963475704193115 0.18073436617851257
0.2235458344221115 0.0030395900830626488 -0.08414952456951141
-0.1499994993209839 0.4020572304725647 -0.33302977681159973
-0.2032318413257599 -0.38071945309638977 0.009111716412007809
-0.1267475187778473 0.40133023262023926 0.11522000283002853
0.34712663292884827 -0.6248736381530762 0.05107919126749039
0.30235755443573 0.003261010395362973 -0.07673898339271545
0.45448267459869385 -0.013496708124876022 -0.030987832695245743
-0.12431295216083527 0.007393749430775642 -0.38146108388900757
-0.5790842771530151 0.27547451853752136 -0.057821471244096756
0.4014173448085785 -0.3172055184841156 0.13866110146045685
0.49909839034080505 0.3996872305870056 0.1005571112036705
-0.1844487190246582 -0.1351824700832367 -0.21066802740097046
-0.3429713249206543 0.09959494322538376 0.34229132533073425
-0.07535101473331451 -0.3828834295272827 0.2069108784198761
0.1495884209871292 0.38987997174263 0.33905521035194397
0.5805838704109192 0.1605076938867569 0.26844286918640137
0.3350919783115387 0.25357306003570557 0.42207401990890503
-0.5702112317085266 0.06160200014710426 -0.066249780356884
-0.38043099641799927 0.002506204415112734 -0.3892325460910797
-0.19018544256687164 -0.36858507990837097 -0.17821788787841797
-0.3592947721481323 0.4018424451351166 0.20784489810466766
-0.4902496337890625 0.39781197905540466 -0.01749124750494957
-0.03928766027092934 0.002638308797031641 -0.1674829125404358
0.16994965076446533 0.012074976228177547 -0.39702314138412476
0.3223785161972046 0.0029957350343465805 0.13749133050441742
-0.5012726187705994 0.4032982289791107 0.10498601198196411
0.06189293786883354 0.0026022717356681824 -0.24129268527030945
-0.5790542364120483 0.25591668486595154 -0.07869853079319
-0.23881392180919647 -0.28220799565315247 -0.012314051389694214
-0.08608511835336685 -0.1643003225326538 -0.31947410106658936
0.14715693891048431 -0.3026914894580841 -0.369915634393692
0.2447923719882965 0.2640071213245392 0.3405734598636627
0.1323939561843872 0.055498987436294556 0.4638000726699829
-0.05551585182547569 -0.0017054509371519089 -0.3210987448692322
0.487558513879776 0.4025135636329651 -0.18182982504367828
-0.17820151150226593 -0.5933995842933655 -0.0725727528333664
-0.5833538174629211 0.15239793062210083 0.12573406100273132
-0.16092781722545624 -0.21973085403442383 0.1888182908296585
0.026681674644351006 0.04212096706032753 0.39590683579444885
0.11836989223957062 0.10036017000675201 0.34128594398498535
0.5756390690803528 0.387808233499527 0.25458216667175293
-0.4660241901874542 0.12489256262779236 0.08548671007156372
-0.5770419836044312 0.1312538981437683 -0.1592857837677002
-0.3279320001602173 0.412961483001709 -0.0824274942278862
0.19979321956634521 -0.6214842796325684 -0.16487811505794525
0.12831361591815948 -0.6208689212799072 -0.12546268105506897
0.33124905824661255 0.001176353543996811 0.05846172198653221
-0.0696243941783905 -0.6361007690429688 0.1567685604095459
-0.23189425468444824 -0.14274735748767853 -0.11179786175489426
-0.16070985794067383 -0.052278365939855576 -0.23975469172000885
0.49611803889274597 0.0029530636966228485 -0.23897583782672882
0.15737539529800415 -0.06641275435686111 0.44649842381477356
-0.4156568944454193 0.003368233796209097 0.28377240896224976
-0.31460946798324585 0.4058593809604645 -0.0760175809264183
0.31095167994499207 0.07619590312242508 0.3442651927471161
0.2545199394226074 -0.6195386648178101 0.08864003419876099
0.40146470069885254 0.29149356484413147 0.3405361473560333
-0.5441911220550537 -0.07518237829208374 -0.09427342563867569
-0.46106696128845215 -0.1084236428141594 -0.028251873329281807
0.34924620389938354 -0.42282727360725403 0.12300706654787064
-0.10491893440485 0.3973684310913086 -0.3882361650466919
-0.036979470402002335 0.4033193588256836 0.12521950900554657
0.2612861394882202 -0.6242486834526062 -0.2671259939670563
0.4370795488357544 0.09406887739896774 -0.4019216299057007
-0.5801281332969666 0.14603549242019653 0.25984710454940796
0.5791160464286804 0.04099291190505028 0.23986244201660156
0.1260620355606079 -0.6232896447181702 -0.022249417379498482
-0.1644633710384369 -0.1376153528690338 -0.2406013458967209
0.0837579220533371 0.0034456318244338036 -0.11028753966093063
0.10325754433870316 -0.6299890875816345 0.21439723670482635
0.28279975056648254 -0.37742987275123596 -0.29393863677978516
-0.5619432330131531 0.07934794574975967 -0.257242888212204
0.2689296305179596 0.005869879852980375 0.4618651866912842
0.4287711977958679 -0.20874182879924774 -0.14231263101100922
0.3655095100402832 -0.00013402849435806274 -0.2264426201581955
0.17786438763141632 -0.6206952333450317 -0.22609937191009521
0.2223939448595047 0.002031906507909298 -0.3673052191734314
0.2940150499343872 -0.15897077322006226 0.26057547330856323
0.3657921254634857 -0.5097798109054565 0.09909586608409882
0.06798598170280457 0.2784646451473236 0.3438696563243866
0.06995539367198944 0.08777106553316116 0.4604946970939636
-0.5782399773597717 0.32136601209640503 -0.024319566786289215
0.4905605614185333 0.40334680676460266 -0.31657421588897705
0.3225664496421814 -0.45877522230148315 0.1606394201517105
-0.35841307044029236 0.40243998169898987 -0.3157544732093811
0.024111244827508926 -0.0016132625751197338 0.32216036319732666
0.18047736585140228 0.12319155782461166 -0.4002707600593567
0.3069034814834595 -0.19175824522972107 -0.3057904541492462
0.19787998497486115 -0.6184931397438049 0.18568718433380127
-0.3644481599330902 -0.038913462311029434 0.03768013045191765
0.2500511705875397 -0.3811192214488983 -0.2968367636203766
0.5012897849082947 0.08574378490447998 -0.40034759044647217
-0.02386579103767872 0.179688960313797 -0.4018230438232422
-0.1522008776664734 0.0017871540039777756 -0.06966548413038254
-0.1853918433189392 -0.35127314925193787 -0.1976868063211441
-0.25473326444625854 0.13142865896224976 -0.4025532007217407
0.26314499974250793 0.007432315032929182 0.462473064661026
0.34681129455566406 0.0026370626874268055 0.15346764028072357
0.44631344079971313 -0.1721276342868805 0.01655607298016548
-0.5759900808334351 0.29949042201042175 0.2091449350118637
-0.07407470047473907 -0.12163285911083221 0.26504194736480713
-0.30763867497444153 0.40681055188179016 0.17670881748199463
0.5753045082092285 0.012536689639091492 -0.36258664727211
0.1314498782157898 -0.6390020847320557 0.2232496440410614
0.4399740695953369 0.4031340181827545 0.29759642481803894
-0.5489441752433777 -0.07223589718341827 0.24786706268787384
0.17923425137996674 -0.6174329519271851 0.05113103613257408
-0.367873877286911 0.01831742189824581 0.14539316296577454
-0.11236132681369781 -0.6231183409690857 -0.0563167966902256
0.1980590671300888 0.40249598026275635 0.14383913576602936
-0.4063005745410919 0.36636120080947876 0.34344667196273804
0.4471482038497925 -0.1634332537651062 -0.052992865443229675
0.08634386956691742 0.40309450030326843 -0.029228342697024345
-0.4238831400871277 -0.09952250123023987 0.32552048563957214
-0.3700343668460846 0.06848891824483871 0.3394511640071869
-0.4551053047180176 0.027576012536883354 -0.4027200937271118
0.18807464838027954 0.3476907014846802 -0.40174439549446106
-0.5692911744117737 0.10126617550849915 0.13708798587322235
-0.14302363991737366 -0.5318514704704285 -0.1664610654115677
-0.12821920216083527 -0.6440548300743103 -0.19501876831054688
0.5715438723564148 0.008372288197278976 -0.3552149832248688
0.3609870970249176 0.0033019380643963814 -0.16050878167152405
0.5639249682426453 0.3954966366291046 -0.011543798260390759
0.5803129076957703 0.1476791501045227 0.11924435943365097
0.3344344198703766 0.0030463053844869137 -0.1255064159631729
0.1902402937412262 0.46988096833229065 0.3763865530490875
-0.07483164966106415 0.0041043879464268684 -0.07419649511575699
-0.5252526998519897 0.186513289809227 0.3448747992515564
0.5783775448799133 0.310489296913147 -0.14596529304981232
-0.2713949978351593 0.004402237944304943 -0.3268595039844513
-0.16396169364452362 -0.641890823841095 0.05900146812200546
0.37480053305625916 0.2531472444534302 0.340854287147522
-0.4330710172653198 0.39774683117866516 -0.26760512590408325
0.42707592248916626 0.40301093459129333 -0.09501770883798599
0.3499448001384735 -0.011414237320423126 -0.26641419529914856
-0.15608087182044983 -0.4963934123516083 -0.1460171490907669
0.44396543502807617 0.2847347557544708 -0.40056312084198
0.10719681531190872 0.0009865351021289825 0.293165385723114
0.49605146050453186 0.40370339155197144 0.10491885989904404
-0.4997245967388153 0.009758024476468563 0.30367663502693176
-0.1256486475467682 0.0899420753121376 -0.401228666305542
-0.5732254385948181 -0.013443514704704285 -0.3062935769557953
0.4703559875488281 0.001428503543138504 0.0031714520882815123
0.29059284925460815 -0.618066668510437 -0.06221935898065567
-0.5378588438034058 -0.07244125008583069 -0.3967568278312683
0.5793188214302063 0.1269674301147461 -0.02842920832335949
0.10031073540449142 -0.6158756613731384 0.17783524096012115
-0.11709488928318024 0.40442854166030884 0.312116801738739
0.15985529124736786 -0.6184996366500854 0.25261032581329346
-0.5813074707984924 0.18422435224056244 0.15901343524456024
0.11632714420557022 -0.12541455030441284 -0.366764098405838
0.27878978848457336 0.4016588628292084 -0.23649504780769348
-0.15049535036087036 0.0023717544972896576 -0.3100310266017914
0.441866010427475 0.3479449450969696 -0.3991338014602661
-0.16777728497982025 -0.34306132793426514 -0.22653453052043915
-0.3317194879055023 0.4004034399986267 -0.21002906560897827
-0.5670106410980225 -0.033450186252593994 0.0682964026927948
0.14757683873176575 -0.5520180463790894 0.25624147057533264
-0.3656199276447296 -0.005596441682428122 0.15201759338378906
0.34711143374443054 -0.512827455997467 -0.18348295986652374
-0.36616775393486023 0.0009990222752094269 0.2818152606487274
0.023102380335330963 0.3397079408168793 0.3657299876213074
-0.348705917596817 0.3982090353965759 0.30119648575782776
-0.17487473785877228 0.0015167160890996456 0.11672631651163101
0.19835323095321655 -0.6322885155677795 0.1944868266582489
0.079624705016613 -0.6412699222564697 -0.2731862962245941
-0.15515141189098358 -0.08691012859344482 -0.249714195728302
-0.5754737854003906 0.017056915909051895 -0.14179827272891998
-0.5212306976318359 0.0015674810856580734 -0.007370026782155037
0.3302333652973175 0.0023101926781237125 -0.006965982262045145
0.41685375571250916 -0.00011910524335689843 0.04136078059673309
0.2440720498561859 0.22148758172988892 0.33959320187568665
-0.3773619532585144 0.06303569674491882 -0.16831299662590027
-0.4196804165840149 -0.014327985234558582 0.34719571471214294
0.021614791825413704 -0.6206180453300476 -0.16906432807445526
0.4647209346294403 0.0009805341251194477 0.23768092691898346
-0.3412562310695648 0.4019623100757599 0.3282417356967926
-0.16356568038463593 0.0027315071783959866 -0.2102760374546051
0.08131437003612518 0.4513463079929352 0.3594475984573364
0.3971579074859619 0.047549713402986526 -0.4014873802661896
-0.4404575526714325 0.00520705059170723 0.25183698534965515
-0.5138095021247864 0.3341261148452759 -0.4027821123600006
0.2700920104980469 0.14874011278152466 0.46388041973114014
-0.17735405266284943 0.001627778634428978 -0.3278004825115204
0.020579703152179718 0.002476778347045183 -0.3306433856487274
0.1668270379304886 0.0026008933782577515 -0.29774588346481323
0.5768211483955383 0.20672288537025452 -0.2831330895423889
0.30390456318855286 0.013184497132897377 -0.397115558385849
0.156603142619133 -0.6202360391616821 -0.10024888068437576
-0.3914770483970642 0.005638186354190111 -0.019783683121204376
0.11238829791545868 0.0027765058912336826 -0.013415501452982426
0.02124665305018425 -0.6211248636245728 -0.02759384736418724
0.20239105820655823 0.0024549439549446106 -0.18988807499408722
0.17834433913230896 0.002956179901957512 -0.2726542055606842
0.19163571298122406 0.0026136236265301704 -0.32111886143684387
-0.16210143268108368 0.39798668026924133 0.33018985390663147
-0.07954104989767075 0.29943859577178955 0.34324589371681213
-0.48760557174682617 0.2769480347633362 0.34434887766838074
-0.08786613494157791 0.35372719168663025 0.34250837564468384
0.363504558801651 -0.41980859637260437 -0.15228286385536194
0.5770547389984131 0.20016223192214966 -0.3087897300720215
0.021513288840651512 -0.6203710436820984 0.0007733000093139708
0.4157531261444092 0.40379318594932556 0.17877745628356934
0.14582188427448273 -0.20797036588191986 0.31245848536491394
0.3741021454334259 -0.08101075887680054 0.17259100079536438
-0.17069683969020844 -0.05225895717740059 -0.2459266632795334
-0.38370048999786377 0.07254819571971893 0.2096811681985855
0.17125286161899567 -9.37851145863533e-05 0.24292835593223572
0.2143271267414093 -0.6197413206100464 0.07609880715608597
0.15432628989219666 -0.5535579323768616 -0.3132050037384033
0.21160028874874115 0.37940579652786255 0.4613009989261627
0.177652969956398 -0.6031448841094971 0.24915046989917755
-0.2105260044336319 -0.3716369569301605 0.06319189071655273
0.5253050923347473 0.02893528714776039 0.34241217374801636
0.03913238272070885 0.13725057244300842 0.34586769342422485
0.18807117640972137 0.0026184250600636005 -0.1922488659620285
-0.5737161636352539 0.15593299269676208 -0.38416215777397156
0.5202288627624512 0.4013862609863281 -0.21195057034492493
0.23739969730377197 -0.6174280643463135 0.09305164963006973
0.4386691749095917 -0.35128259658813477 -0.10692927986383438
0.34785008430480957 0.06910816580057144 0.34336286783218384
0.3208455741405487 0.0035380227491259575 0.12255816906690598
0.3530180752277374 0.0135141396895051 -0.3985619843006134
0.040186792612075806 0.4000857174396515 0.2938508093357086
0.554302990436554 0.005911367014050484 0.036171164363622665
-0.5775526762008667 0.18341191112995148 -0.3084413707256317
0.011327987536787987 -0.11588074266910553 -0.3622671961784363
-0.31313779950141907 0.00446223933249712 -0.1429174393415451
0.0700378343462944 0.4248487651348114 0.4459366798400879
0.5793397426605225 0.17597104609012604 -0.24637824296951294
-0.5098462700843811 -0.03096066229045391 0.35509732365608215
0.5590078830718994 0.399982750415802 0.1531781554222107
-0.4982640743255615 0.11776024848222733 -0.025838127359747887
0.5829972624778748 0.13259467482566833 -0.1408175677061081
0.44429251551628113 -0.1649298220872879 0.026192987337708473
-0.06832020729780197 0.0036239027976989746 -0.1260448545217514
-0.37033969163894653 0.37612080574035645 0.02654256671667099
-0.16699600219726562 0.15062908828258514 -0.4021705090999603
0.13542430102825165 0.2568940222263336 0.4604608714580536
-0.571652352809906 -0.031427763402462006 0.14545460045337677
0.11400995403528214 -0.5478758215904236 0.26108184456825256
-0.050997596234083176 -0.6310722827911377 -0.23315277695655823
0.5795374512672424 0.2885401248931885 0.05638030916452408
0.17620548605918884 -0.051671143621206284 0.45837029814720154
-0.2026425302028656 0.0026708152145147324 -0.3244844973087311
0.4519416093826294 0.38804683089256287 0.340424507856369
-0.45446524024009705 0.4040037989616394 0.2530793249607086
-0.5735111236572266 0.10673762857913971 -0.16917070746421814
0.20664221048355103 0.4015948176383972 0.1928759217262268
0.3676566183567047 -0.050851114094257355 0.1934492141008377
0.32788440585136414 -0.6400375366210938 0.09128859639167786
-0.5733451843261719 0.07968493551015854 -0.11332438141107559
0.08136413991451263 0.4024810194969177 0.013075834140181541
0.1368049532175064 0.0023608673363924026 0.18016056716442108
0.254800021648407 0.002053299453109503 -0.11146743595600128
-0.1296042501926422 -0.6091333627700806 0.14044472575187683
-0.5759909749031067 0.05162695050239563 0.20179963111877441
-0.0945388525724411 0.4021089971065521 -0.3101179897785187
-0.19868549704551697 0.332714319229126 -0.4005182981491089
0.28181082010269165 0.39783966541290283 -0.3885299265384674
0.5807552933692932 0.2556360065937042 0.04198169708251953
0.07787098735570908 -0.5530874729156494 0.2594279646873474
-0.002590695396065712 0.20685610175132751 0.40516120195388794
-0.4788537621498108 0.2469140589237213 0.3418165445327759
-0.04380067437887192 0.0033020609989762306 -0.16744442284107208
-0.3406365215778351 0.006492415443062782 -0.18563313782215118
0.123715341091156 -0.42851021885871887 -0.3177797198295593
0.4407043159008026 -0.16806206107139587 -0.09703978151082993
0.28000330924987793 -0.37692156434059143 0.2219855785369873
-0.5753042101860046 0.033902596682310104 0.20779679715633392
-0.42683476209640503 0.004099803976714611 0.09943073987960815
0.28680887818336487 -0.6186195015907288 -0.1382603943347931
-0.37380948662757874 -0.048536352813243866 -0.3457988202571869
0.5797793865203857 0.07309778034687042 0.040446940809488297
0.5772056579589844 0.014342943206429482 -0.2928590774536133
0.07296097278594971 0.21039500832557678 0.3435705900192261
0.41152694821357727 -0.07327407598495483 0.1220041960477829
0.05212089419364929 0.08401522040367126 0.4614794850349426
0.38895249366760254 -0.007842154242098331 -0.214528426527977
-0.5199695229530334 0.3783925771713257 -0.0538143515586853
0.46403768658638 0.3462701737880707 0.34268754720687866
0.40852150321006775 -0.3790898621082306 -0.020876554772257805
0.5818594098091125 0.1171993538737297 0.03174208849668503
0.5799753069877625 0.04907969757914543 0.17735059559345245
-0.27422255277633667 0.00746295927092433 0.3328714370727539
0.0942104160785675 -0.45617491006851196 -0.3178448975086212
0.48279649019241333 0.4023563265800476 -0.18223825097084045
0.24272768199443817 0.3364405930042267 -0.39980819821357727
0.06725215166807175 0.002266418654471636 0.2807517647743225
-0.38073650002479553 0.004440566524863243 0.25635215640068054
-0.23356430232524872 -0.20628581941127777 0.02430836856365204
-0.5506289005279541 -0.0667148008942604 0.03235682472586632
-0.05415799468755722 0.0021536145359277725 0.25034061074256897
0.3690875172615051 -0.24244549870491028 0.18915045261383057
0.3842643201351166 -0.4652489423751831 0.043062541633844376
0.09191504120826721 -0.6193241477012634 0.16435083746910095
0.1698223054409027 0.0021317314822226763 0.14655832946300507
-0.38230472803115845 0.07430703938007355 0.17210768163204193
0.4484734535217285 0.4027484059333801 -0.12622535228729248
-0.5595964193344116 0.06984160840511322 -0.05433432385325432
-0.5800358057022095 0.16251182556152344 -0.08133889734745026
-0.17173491418361664 -0.6079639792442322 0.03730979561805725
0.44265323877334595 0.40156084299087524 -0.17516595125198364
-0.04554026573896408 -0.08019516617059708 -0.34160706400871277
-0.18585442006587982 0.06570108979940414 -0.40195655822753906
0.26707664132118225 -0.26594460010528564 0.2753838300704956
-0.5805188417434692 0.027370326220989227 0.16740433871746063
0.5417216420173645 0.4021834135055542 0.022368133068084717
-0.40740057826042175 0.0032950229942798615 -0.24689188599586487
0.5083536505699158 0.0007541030645370483 0.1925468146800995
0.3268534541130066 0.002435743808746338 -0.03581661731004715
0.3710278272628784 -0.2888835072517395 -0.24566024541854858
0.2812638580799103 -0.14993193745613098 -0.3229277431964874
0.5808173418045044 0.052421484142541885 0.200153186917305
0.26949068903923035 -0.6186599731445312 -0.02420121431350708
0.05015752837061882 -0.6213874816894531 -0.11303351074457169
0.20164504647254944 -0.6285067796707153 -0.2532125413417816
0.04277031496167183 0.0031768446788191795 -0.200723797082901
0.10855819284915924 0.4023270606994629 -0.08643040060997009
0.5362416505813599 0.39082661271095276 0.34474486112594604
-0.17339234054088593 -0.44115933775901794 -0.10385344922542572
-0.42406705021858215 -0.09774447977542877 0.011920340359210968
-0.033113546669483185 -0.30969107151031494 0.28823789954185486
-0.17822657525539398 0.020187869668006897 -0.40183743834495544
0.11644293367862701 -0.2792750895023346 -0.37213534116744995
0.44341203570365906 -0.07654214650392532 0.02439260110259056
0.13570700585842133 0.33356574177742004 0.46399986743927
0.5787898898124695 0.11458107084035873 -0.10931646078824997
-0.5751221776008606 0.3285113275051117 0.230769544839859
-0.2588484585285187 0.40282073616981506 -0.2205696403980255
-0.03234197199344635 -0.616830587387085 0.15247222781181335
0.07215430587530136 -0.1273878663778305 0.31269338726997375
0.01727769523859024 0.2850739061832428 0.3507627844810486
-0.5096889734268188 0.007614820264279842 0.2807123064994812
-0.5710395574569702 0.0792178139090538 -0.12326518446207047
-0.37426066398620605 0.003542535472661257 0.31750667095184326
-0.46539026498794556 0.0998164638876915 0.11049135029315948
0.09891154617071152 0.05569048225879669 0.4642001688480377
-0.15525999665260315 0.392244428396225 0.3348838686943054
-0.3068349361419678 0.36676767468452454 -0.01732214167714119
-0.06996799260377884 0.40233877301216125 0.17450349032878876
-0.05307801812887192 -0.14243833720684052 0.2767260670661926
0.3483840525150299 -0.22390960156917572 -0.2717817723751068
-0.08757299184799194 0.0020956890657544136 -0.2725098729133606
-0.20743319392204285 -0.3455074727535248 0.11920226365327835
-0.5676690936088562 0.3626924157142639 0.15437035262584686
-0.37102994322776794 0.06589286774396896 -0.18980206549167633
-0.5759310722351074 0.3124556839466095 -0.3251143991947174
-0.39904841780662537 -0.015252746641635895 -0.39708584547042847
0.2431718111038208 0.09551572054624557 0.3451126515865326
0.3066391348838806 -0.20757903158664703 -0.3073425889015198
0.13274000585079193 0.14291264116764069 0.34049326181411743
-0.5534219145774841 0.00453341007232666 0.21740484237670898
0.14674094319343567 -0.6213549971580505 -0.06211981549859047
0.4686013460159302 0.06686313450336456 -0.40024232864379883
0.34283438324928284 -0.6248771548271179 -0.029665812849998474
-0.002001947956159711 0.00220752926543355 -0.2543250620365143
-0.5764389634132385 0.0076631829142570496 0.07634498924016953
-0.42479363083839417 0.00393895385786891 0.09915661811828613
0.5787670016288757 0.28959402441978455 -0.12920914590358734
-0.4337379038333893 -0.09900132566690445 0.25991424918174744
0.3394523859024048 -0.6232604384422302 -0.07213258743286133
0.44504374265670776 -0.24272598326206207 -0.004396084230393171
0.011702852323651314 0.001865503378212452 -0.056193090975284576
-0.16603517532348633 -0.04922158643603325 0.18815632164478302
-0.10383445024490356 0.20639154314994812 0.3567005693912506
0.19327856600284576 0.41066694259643555 0.45125216245651245
0.021466312929987907 0.11093147844076157 -0.40144413709640503
-0.07234490662813187 -0.6201484203338623 0.0863925889134407
-0.5818563103675842 0.3343641757965088 0.0529915913939476
-0.32823625206947327 0.4076349437236786 -0.10626375675201416
-0.5457581281661987 0.39317628741264343 0.1545722633600235
0.05507631227374077 -0.417248010635376 -0.31425729393959045
-0.5739708542823792 0.04451504722237587 0.14383502304553986
0.1688864380121231 -0.05688396841287613 0.4532894492149353
0.5232990980148315 0.40444135665893555 0.1420106440782547
-0.572222113609314 0.35130980610847473 -0.052229419350624084
0.3030548393726349 0.05644746124744415 0.3413637578487396
0.23311497271060944 -0.27702707052230835 -0.3463504910469055
-0.4633112847805023 -0.11171626299619675 0.037860363721847534
0.28435489535331726 0.002822388894855976 -0.09291576594114304
0.3841679096221924 -0.2005995213985443 0.16922104358673096
-0.37196919322013855 0.41504421830177307 -0.13377782702445984
0.01628931611776352 0.2563215494155884 0.35030025243759155
0.5792320966720581 0.34075066447257996 0.13695771992206573
-0.10447262227535248 -0.6550197005271912 -0.18795989453792572
-0.06286413222551346 0.011385181918740273 0.3303103446960449
-0.3428928852081299 0.004919665399938822 0.015575719065964222
-0.016751721501350403 0.4030831456184387 0.14162978529930115
0.5453367233276367 0.0038579837419092655 -0.2838275730609894
-0.4888090193271637 0.2897527515888214 0.3445080816745758
-0.5763112902641296 0.03810784965753555 -0.18174521625041962
0.03945242986083031 0.0030941469594836235 0.10508184880018234
-0.5557982325553894 -0.05921655893325806 0.04150659963488579
-0.20790249109268188 0.00125038530677557 0.02062179706990719
0.35406604409217834 0.17352119088172913 0.34158921241760254
0.5751095414161682 0.021295251324772835 -0.28243938088417053
0.13518662750720978 0.0029618702828884125 0.022008856758475304
0.4300825595855713 -0.35211265087127686 0.071730837225914
0.070081427693367 0.003059597685933113 -0.257219523191452
-0.033630795776844025 -0.6387031674385071 0.17848484218120575
0.42165252566337585 -0.12166249752044678 0.1032644584774971
-0.46568629145622253 0.3619404435157776 -0.17367775738239288
-0.20461151003837585 0.0021401112899184227 0.3270986080169678
0.3850517272949219 -0.3091912865638733 -0.22473904490470886
0.35201236605644226 -0.07067025452852249 0.21364551782608032
-0.051309965550899506 -0.06107361987233162 -0.3374449610710144
0.5774723887443542 0.34374794363975525 -0.07502935081720352
-0.5719093680381775 0.24270318448543549 0.3382103443145752
0.2567823827266693 0.4038219153881073 0.1455831229686737
0.1564963161945343 -0.6233073472976685 0.06833165884017944
-0.1835789978504181 0.07041191309690475 -0.4012193977832794
-0.11685959994792938 -0.29879260063171387 0.23750847578048706
-0.389308899641037 0.4020959734916687 0.189677894115448
-0.45047423243522644 0.04143910109996796 0.34868869185447693
-0.12417944520711899 -0.6277937293052673 -0.12632505595684052
0.5303019285202026 0.30883660912513733 -0.4010453224182129
-0.4407692551612854 0.0043874988332390785 0.026406412944197655
0.2866204082965851 -0.007981917820870876 0.46249037981033325
0.05610758066177368 -0.017622830346226692 -0.3703615963459015
-0.5648306012153625 0.3799200654029846 0.07547057420015335
0.1617342233657837 -0.6285179853439331 0.2047477513551712
0.3497617244720459 0.0013438784517347813 -0.291851669549942
-0.426639199256897 0.007957490161061287 0.3440891206264496
-0.37184804677963257 0.2703635096549988 0.34355276823043823
0.2281726598739624 0.3491561710834503 0.34075236320495605
0.08092489838600159 -0.0017998942639678717 0.3265116810798645
0.17081201076507568 0.0033444352447986603 -0.061158135533332825
-0.06175276264548302 0.3945060074329376 0.3333379030227661
0.02362886443734169 0.03567321598529816 -0.3998836576938629
0.3065677583217621 -0.37592920660972595 0.20734961330890656
-0.578393816947937 0.19183368980884552 0.12357281148433685
0.16770845651626587 0.4027644693851471 0.10752080380916595
0.2503410875797272 -0.6179296970367432 -0.09631244093179703
0.36628714203834534 -0.6271275281906128 -0.1402212381362915
-0.11775869131088257 0.001785106724128127 -0.28039735555648804
-0.22438479959964752 -0.35791170597076416 -0.10043635219335556
0.31400585174560547 -0.38219016790390015 0.18182018399238586
-0.5752003192901611 0.017054997384548187 0.10413660109043121
0.3311017155647278 -0.057900089770555496 0.4000030755996704
0.15856128931045532 -0.11409877240657806 0.31172946095466614
-0.5632265210151672 0.23657932877540588 -0.3976725935935974
-0.2347518354654312 -0.1465962827205658 -0.1084015965461731
-0.22762270271778107 -0.12298908829689026 0.05642770230770111
0.19743633270263672 0.40043267607688904 -0.38472604751586914
-0.07633588463068008 0.0014042286202311516 -0.28482797741889954
0.24782463908195496 0.35009461641311646 -0.4005066752433777
0.5747136473655701 0.015170474536716938 0.11046949774026871
0.3260763883590698 -0.057483360171318054 -0.2971414029598236
-0.12279444932937622 -0.6452274918556213 -0.12998342514038086
-0.46424928307533264 0.40103679895401 0.023551367223262787
-0.019869454205036163 -0.021340925246477127 -0.35025984048843384
-0.0005134595558047295 -0.23062583804130554 0.29922497272491455
0.0962098091840744 -0.0024611037224531174 0.28610220551490784
-0.002446188125759363 -0.43334609270095825 -0.2960651218891144
-0.4165840744972229 0.4141494929790497 -0.049172885715961456
0.4426679313182831 -0.35871946811676025 -0.062085654586553574
0.5028656125068665 0.2915809750556946 -0.4011174142360687
-0.21653127670288086 -0.17181560397148132 0.0786992684006691
0.27876952290534973 0.42383426427841187 0.34879475831985474
0.12018173187971115 -0.6168352961540222 0.15861807763576508
-0.5793806314468384 0.12148337066173553 -0.1587233543395996
-0.5761896371841431 0.021062543615698814 -0.037813134491443634
-0.0500749796628952 -0.6225860714912415 0.11011483520269394
-0.2582603394985199 0.3983965218067169 0.054790787398815155
0.5405914187431335 0.20241016149520874 -0.4009992182254791
-0.39346981048583984 0.40041258931159973 0.19629788398742676
0.26785704493522644 0.002986673964187503 0.18747016787528992
-0.5609394907951355 0.21479719877243042 0.34026917815208435
-0.26082050800323486 0.05814356356859207 -0.40178877115249634
-0.21387174725532532 -0.3412925899028778 0.10080583393573761
0.4412747621536255 -0.24633002281188965 0.04608165845274925
-0.4729045331478119 -0.033450111746788025 0.3558212220668793
-0.22478549182415009 0.004421728663146496 0.26464512944221497
0.1191510483622551 -0.2717333137989044 -0.37140071392059326
0.10603667795658112 -0.11562477797269821 -0.37406638264656067
0.3992310166358948 -0.03223281353712082 0.14713509380817413
-0.24203182756900787 0.0023307257797569036 -0.09478256851434708
-0.29632389545440674 0.4039340615272522 -0.28755834698677063
-0.23812201619148254 -0.16920728981494904 -0.046367619186639786
-0.2276289165019989 0.004646182991564274 -0.09483574330806732
-0.5748370885848999 0.011968543753027916 0.10353902727365494
-0.29311424493789673 0.006767604500055313 0.10265518724918365
-0.07584016770124435 0.40169858932495117 -0.3323598802089691
0.5804761052131653 0.18348659574985504 -0.10640670359134674
0.3170941174030304 -0.6273953318595886 -0.13344551622867584
0.2063933163881302 0.07534513622522354 0.34040728211402893
0.32255592942237854 0.0019340179860591888 0.1976620852947235
-0.47769495844841003 0.10491189360618591 -0.01796279475092888
0.30135852098464966 0.4344557225704193 0.3886934220790863
-0.4664272665977478 0.0051261079497635365 0.2011382132768631
-0.4307185113430023 0.09756719321012497 0.15824271738529205
-0.10224215686321259 -0.6401193141937256 -0.2019215077161789
0.07373109459877014 0.0026364214718341827 0.029143590480089188
0.44548675417900085 -0.2613767087459564 0.006291509605944157
-0.14936412870883942 -0.5853543281555176 0.11353881657123566
-0.07167993485927582 -0.19189059734344482 -0.32584577798843384
0.1518116295337677 -0.5733484029769897 0.2550848424434662
-0.5787606835365295 0.32217785716056824 0.043373361229896545
-0.10987946391105652 0.40270477533340454 0.17932714521884918
0.06664137542247772 0.28074464201927185 -0.3991486132144928
-0.5786858201026917 0.12252797186374664 -0.18011771142482758
0.027588574215769768 -0.503635048866272 0.25263115763664246
0.3062500059604645 0.39778876304626465 0.3348938524723053
-0.5258789658546448 0.1048089936375618 0.026769127696752548
0.15152721107006073 0.14199332892894745 -0.4007043242454529
-0.309299498796463 0.0029474380426108837 0.24193494021892548
-0.09065967053174973 0.4008771777153015 0.10144476592540741
0.04355020821094513 0.4037720561027527 0.2911244332790375
0.2665491998195648 -0.12453847378492355 0.27469518780708313
-0.4740961194038391 0.40182554721832275 0.04630093649029732
-0.41309311985969543 0.26828405261039734 0.344994455575943
0.07969852536916733 0.34844380617141724 0.34102997183799744
-0.13295792043209076 0.0016761645674705505 -0.24871355295181274
0.16695867478847504 0.13830992579460144 -0.4015677273273468
-0.5732499361038208 0.09659138321876526 -0.09407833963632584
0.22406986355781555 -0.6371419429779053 -0.2819671034812927
-0.051096659153699875 0.0027355544734746218 0.01124041061848402
-0.11047854274511337 0.2532610595226288 0.34590762853622437
0.3865571916103363 0.0016582343960180879 -0.09422914683818817
-0.24299447238445282 0.26478907465934753 -0.3998566269874573
0.26628661155700684 0.40177983045578003 0.04122878983616829
0.31380695104599 -0.03921210393309593 0.24239395558834076
0.4105392396450043 -0.03430509939789772 -0.18915803730487823
0.263621985912323 0.00333358533680439 0.029355760663747787
-0.20088402926921844 -0.3752392530441284 0.08469285815954208
-0.1039804071187973 0.007194085046648979 -0.3796611726284027
0.39213985204696655 -0.0012041500303894281 0.21690721809864044
-0.00321715185418725 -0.22817501425743103 -0.35612961649894714
-0.08875908702611923 0.002156608272343874 -0.23538097739219666
0.4417659044265747 -0.16053906083106995 0.038227424025535583
0.21524721384048462 0.3499904274940491 -0.4004870057106018
0.1854705661535263 -0.2380826473236084 -0.3620760142803192
0.44042450189590454 0.3290856182575226 -0.39955005049705505
0.3534347116947174 0.0019492590799927711 -0.355551540851593
-0.5790168046951294 0.15755993127822876 0.16692663729190826
-0.5703741312026978 0.3627120554447174 -0.1850370615720749
0.21121078729629517 0.4767378866672516 0.3978244960308075
0.564382791519165 0.009267331101000309 -0.08655635267496109
-0.571855366230011 0.07540908455848694 -0.2923182249069214
0.0973367914557457 0.40266576409339905 0.010159497149288654
-0.13030385971069336 -0.012668011710047722 0.22673237323760986
-0.5310359001159668 0.05890870466828346 0.3449256420135498
-0.024745725095272064 0.12004536390304565 -0.40272483229637146
0.3096407949924469 -0.02321953885257244 0.36470353603363037
0.38437917828559875 0.4015390872955322 -0.04956436529755592
-0.3742873966693878 0.40320679545402527 0.30917859077453613
-0.15490403771400452 -0.6355515122413635 -0.07694783061742783
0.36959442496299744 0.18830333650112152 0.34346696734428406
0.18825122714042664 -0.6451933979988098 -0.291198194026947
0.06679782271385193 -0.003303235163912177 0.3246196508407593
-0.40811166167259216 0.0023835296742618084 -0.3445330560207367
0.42764315009117126 0.4011572599411011 -0.2020692527294159
-0.09293204545974731 0.0031522344797849655 -0.3537387549877167
-0.23128382861614227 -0.3197227418422699 -0.08180747926235199
-0.06895710527896881 -0.620175302028656 0.03530900552868843
0.013800358399748802 -0.49984923005104065 -0.3012276291847229
-0.4757474660873413 -0.10626482963562012 -0.03619581460952759
-0.3258329927921295 0.10889802873134613 -0.4023208022117615
-0.576117217540741 0.12511666119098663 0.008440511301159859
0.304517924785614 -0.22746892273426056 -0.30865517258644104
-0.13020268082618713 -0.49265921115875244 0.14355780184268951
-0.3689705431461334 0.01249505952000618 -0.3996816873550415
0.5681431889533997 0.30630016326904297 -0.3952452838420868
0.10141129046678543 0.40221089124679565 -0.11311835795640945
0.029155010357499123 -0.4114454686641693 0.25028693675994873
0.20398689806461334 0.46462976932525635 0.4405248761177063
0.5801512598991394 0.16732531785964966 -0.07326396554708481
0.44218745827674866 -0.3465310335159302 0.024476448073983192
-0.4797801077365875 0.40401491522789 -0.3250606954097748
-0.22559873759746552 0.1803145408630371 -0.4023294448852539
0.50963294506073 0.4014322757720947 -0.11639378219842911
-0.08285636454820633 0.0018091937527060509 -0.2983227074146271
-0.4870286285877228 0.40173637866973877 0.32460832595825195
-0.09170615673065186 -0.10405407845973969 0.2540002465248108
-0.3644822835922241 0.018646355718374252 -0.37960076332092285
0.30000388622283936 0.4118749797344208 0.43528664112091064
0.1971990019083023 0.09891802072525024 0.46472200751304626
-0.28980669379234314 0.4021061956882477 -0.1428731232881546
0.22513917088508606 0.0031295008957386017 -0.018061138689517975
0.29757797718048096 0.0022585748229175806 0.21293137967586517
-0.5391439199447632 -0.0793621614575386 0.15375135838985443
0.20416684448719025 0.40193653106689453 0.22254107892513275
-0.5795809626579285 0.22240516543388367 0.1949174851179123
0.04973872750997543 0.1651868373155594 -0.40135514736175537
-0.5726040601730347 0.05052999407052994 -0.24986591935157776
0.23278950154781342 -0.6229535341262817 0.004548140335828066
-0.003612325992435217 0.1589936763048172 0.36842432618141174
-0.46249791979789734 0.10653563588857651 0.269610196352005
0.32389581203460693 0.3723315894603729 0.37438780069351196
-0.572924792766571 0.07714437693357468 -0.24490737915039062
0.3541618585586548 -0.37422990798950195 -0.2445189505815506
-0.5499404072761536 -0.06914425641298294 -0.3373236358165741
-0.4964132308959961 -0.014343788847327232 0.3556726276874542
-0.1819859892129898 -0.545369029045105 -0.01509389653801918
0.08423634618520737 -0.6197209358215332 -0.09792430698871613
-0.11056771129369736 0.004298806190490723 -0.08328483253717422
-0.1516132801771164 0.0004784543998539448 0.1793701946735382
0.07282234728336334 0.26758021116256714 0.45745494961738586
-0.1359330415725708 -0.23317813873291016 0.21780894696712494
-0.06991777569055557 0.001015733228996396 0.23816555738449097
-0.30596792697906494 0.0031819611322134733 0.22007830440998077
0.37884286046028137 0.0004888460971415043 -0.24101583659648895
0.3956318795681 -0.622516930103302 -0.0559186190366745
0.580619215965271 0.2556813359260559 0.2599851191043854
0.23558305203914642 0.003484993241727352 0.0505916029214859
0.39296531677246094 0.18643197417259216 -0.40061154961586
0.44286444783210754 -0.11077697575092316 -0.09076739102602005
0.5684561133384705 0.3080909252166748 0.34208953380584717
0.3878888189792633 0.24711140990257263 0.3434664309024811
-0.4823126494884491 0.3844209909439087 -0.39738962054252625
-0.5136079788208008 -0.0932978093624115 -0.10120560973882675
-0.11524003744125366 -0.36014991998672485 -0.2889399230480194
-0.3564481735229492 0.0247468464076519 0.23061318695545197
-0.04557247459888458 0.04191379249095917 -0.4009270668029785
0.3215567171573639 0.0019286833703517914 -0.2595547139644623
-0.49140575528144836 -0.10274330526590347 -0.07376266270875931
-0.21660278737545013 -0.19047026336193085 0.09496873617172241
0.2071172595024109 0.0029391851276159286 0.0862058773636818
0.02778281643986702 0.31916236877441406 0.44200536608695984
0.578624963760376 0.11688266694545746 -0.34217569231987
0.19542662799358368 0.002205194905400276 -0.3128896653652191
0.1583707332611084 0.4023013710975647 0.16904455423355103
0.14041927456855774 0.36400270462036133 -0.4000355899333954
0.06625030189752579 0.014123812317848206 -0.3918016254901886
-0.25053760409355164 0.002887377515435219 0.07914696633815765
-0.5409556031227112 -0.07866273075342178 0.13155724108219147
0.26665452122688293 0.3948592245578766 0.4614112377166748
-0.1025376170873642 -0.04327426850795746 -0.2966131269931793
-0.1040472611784935 0.003064029151573777 -0.10159841924905777
-0.5767430067062378 0.1544242948293686 -0.23735268414020538
-0.5708007216453552 0.062154218554496765 0.23862691223621368
0.37061062455177307 0.4028177261352539 -0.20693030953407288
-0.3914146423339844 0.0011980421841144562 0.09448063373565674
0.5701448917388916 0.39376139640808105 0.10707291215658188
-0.145157128572464 -0.3705742657184601 0.20257070660591125
0.03455761447548866 0.17565563321113586 0.4331795275211334
-0.0823579654097557 -0.6188086867332458 -0.07065820693969727
-0.3012421727180481 0.0020264030899852514 -0.1098451018333435
-0.22327889502048492 -0.17437560856342316 0.06417090445756912
-0.09621520340442657 -0.6190601587295532 -0.12277393043041229
0.18171848356723785 0.002096253912895918 -0.37157493829727173
0.27236494421958923 0.46556174755096436 0.4176860451698303
-0.5740545392036438 0.01158783957362175 -0.22897039353847504
0.45021316409111023 -0.02930566295981407 0.029419967904686928
-0.5790877342224121 0.19986529648303986 -0.10325274616479874
0.028602655977010727 -0.3366144299507141 -0.3646579384803772
-0.037014856934547424 -0.0988084003329277 0.28706061840057373
0.5706804394721985 0.391147643327713 -0.09746403992176056
0.035114042460918427 0.34395894408226013 0.4275965094566345
5.1249051466584206e-05 -0.4856719374656677 0.24487870931625366
