-0.07736020535230637 0.01549358107149601 0.27584245800971985
0.2047954648733139 -0.0771801546216011 0.2969452440738678
0.35237598419189453 -0.5316483378410339 0.11946750432252884
0.2830052375793457 0.3943849503993988 0.0853847786784172
0.2927877902984619 -0.06696569919586182 0.3148207366466522
-0.013508375734090805 -0.32615935802459717 -0.3415451943874359
0.5663842558860779 0.08266881853342056 0.20519667863845825
0.4926448464393616 0.008774579502642155 0.1927843540906906
0.3171532154083252 0.3720979690551758 0.4052358865737915
0.27570515871047974 0.0009297379292547703 -0.34122297167778015
-0.2273162454366684 -0.1892440915107727 -0.08808206766843796
0.5655797123908997 0.13955533504486084 0.3334425985813141
0.28089749813079834 -0.0034482800401747227 0.036190588027238846
-0.5081242322921753 0.39420589804649353 -0.37196019291877747
-0.4307357668876648 0.0037876588758081198 -0.3053235709667206
0.2664072513580322 -0.36722299456596375 0.24909640848636627
-0.28399190306663513 0.39021801948547363 -0.027069684118032455
-0.4575849175453186 0.002775828819721937 -0.2598884105682373
-0.29513004422187805 0.3640119731426239 -0.09397725760936737
-0.5206946134567261 0.010846322402358055 0.322476327419281
-0.036976296454668045 0.16295114159584045 0.40982523560523987
0.17797115445137024 -0.6218864917755127 -0.046293921768665314
-0.5571975708007812 -0.04442524164915085 -0.08471091091632843
0.1460774540901184 -0.6327071785926819 -0.1910901516675949
0.22434763610363007 0.013893459923565388 0.12297933548688889
-0.04397274926304817 0.4036787152290344 -0.00022007827647030354
0.5746220946311951 0.03296168893575668 -0.17188404500484467
-0.3360515832901001 0.016686778515577316 0.3001338541507721
0.38262489438056946 -0.48248884081840515 0.05596676841378212
0.2082185447216034 -0.33194249868392944 0.29416972398757935
-0.31390580534935 0.38924622535705566 0.1576334834098816
0.3697657585144043 0.39086759090423584 0.19895759224891663
-0.10503105819225311 -0.5171955823898315 -0.23748990893363953
0.1078781932592392 -0.6338632106781006 0.09242352098226547
-0.4242763817310333 -0.08038488030433655 0.15724784135818481
0.10595996677875519 -0.6487677693367004 -0.3177885413169861
0.3617819547653198 0.07058938592672348 0.3514734208583832
0.28346702456474304 -0.003002600511536002 -0.06562569737434387
-0.4139668047428131 0.40398532152175903 -0.2975412905216217
-0.16725291311740875 -0.6298450827598572 0.025667645037174225
0.5866777896881104 0.25128236413002014 -0.36997056007385254
0.3847806751728058 0.00568767124786973 -0.1310083568096161
-0.15265919268131256 0.4074421226978302 -0.2686389982700348
-0.2341931015253067 0.005455574952065945 -0.026919104158878326
0.18210430443286896 -0.002635357202962041 -0.31080397963523865
0.22741563618183136 -0.6186964511871338 -0.03081783652305603
-0.21675819158554077 -0.3645066022872925 0.05298693850636482
-0.20204254984855652 -0.19456812739372253 -0.19358700513839722
0.37148168683052063 0.1827891618013382 0.3481537699699402
0.3574405908584595 0.21840228140354156 0.3331649601459503
-0.11312559247016907 -0.2934279441833496 0.2524242699146271
0.5197558403015137 0.15433526039123535 -0.3905888497829437
0.2610616087913513 0.012769408524036407 0.06000256538391113
0.19454386830329895 -0.0030341779347509146 0.06666778028011322
-0.5210373401641846 0.00800410844385624 0.33664989471435547
-0.21202491223812103 0.3872021734714508 0.09828034788370132
0.4419724643230438 -0.1361600011587143 -0.036751653999090195
-0.23582139611244202 0.3860059380531311 0.3552796542644501
0.17749705910682678 0.2479606568813324 0.45720216631889343
0.26168152689933777 -0.021881256252527237 -0.32779473066329956
0.25965672731399536 -0.07691087573766708 0.4411943554878235
0.2779674232006073 -0.06227312609553337 -0.3309043049812317
0.39957481622695923 0.0007774726254865527 0.1593642681837082
-0.5335210561752319 -0.09499794989824295 -0.122703917324543
0.02633502706885338 0.3454305827617645 -0.40609297156333923
0.532273530960083 0.05775205045938492 -0.41333940625190735
-0.5344338417053223 0.012933180667459965 -0.2985437214374542
-0.08532857894897461 -0.4546104669570923 0.19120025634765625
-0.12382760643959045 -0.3442426025867462 -0.2832120656967163
0.24296921491622925 0.38879916071891785 -0.4105673134326935
0.5493221879005432 0.40382587909698486 -0.12016670405864716
0.18033164739608765 0.060875292867422104 -0.3989705741405487
-0.06476069241762161 0.3990152180194855 -0.334923654794693
0.4312871992588043 -0.13216227293014526 -0.13796411454677582
0.2684537172317505 -0.6128131747245789 0.0008558055851608515
0.3870762586593628 -0.6603182554244995 -0.01755042001605034
0.5847024917602539 0.28477931022644043 -0.05053732171654701
-0.02775612473487854 0.3556114733219147 -0.3893436789512634
-0.38164663314819336 0.07307347655296326 0.01363198272883892
-0.2965816855430603 0.36208754777908325 -0.4034518897533417
-0.5813778042793274 0.09184727072715759 -0.08472425490617752
0.06286376714706421 -0.004972147289663553 -0.2569981515407562
-0.5704575777053833 -0.051924820989370346 -0.27422603964805603
0.2987961769104004 0.3745594024658203 0.46565496921539307
0.1606689840555191 -0.6125997304916382 -0.0497274287045002
0.4404059648513794 -0.09880685806274414 -0.10592488199472427
-0.362599641084671 0.022784413769841194 0.058897532522678375
0.2133529782295227 -0.633239209651947 -0.2474183589220047
-0.5228577852249146 0.16755621135234833 -0.4136519432067871
-0.1804438978433609 -0.004373663570731878 -0.3649040162563324
-0.2407437562942505 -0.31759071350097656 0.04434614256024361
0.14079350233078003 -0.048849307000637054 -0.37530070543289185
0.27598482370376587 0.011408074758946896 -0.21696893870830536
-0.41178444027900696 0.009784079156816006 -0.3816540539264679
0.05832142382860184 -0.3935244381427765 0.2776847183704376
0.3471415936946869 0.3906416594982147 0.27369192242622375
-0.45308005809783936 0.40363627672195435 0.18397392332553864
0.25582048296928406 0.3873087167739868 -0.2188691645860672
0.08095388114452362 -0.366001695394516 -0.34800463914871216
0.2805573642253876 -0.6304460763931274 -0.10441239923238754
-0.5787484645843506 0.16186951100826263 0.2551335394382477
0.12486539036035538 0.007471523713320494 -0.40252622961997986
0.2163984775543213 -0.188274085521698 0.30177736282348633
-0.37390848994255066 0.024074425920844078 -0.0957467257976532
0.37618714570999146 -0.19673627614974976 0.16921187937259674
0.1599494218826294 0.0037282819394022226 0.25933951139450073
0.0858488529920578 -0.09330882877111435 0.34818151593208313
0.33482033014297485 -0.08259125798940659 0.23920364677906036
-0.07040222734212875 -0.43880143761634827 -0.2539973258972168
-0.5841004252433777 0.3532910943031311 0.06411498785018921
0.3547760248184204 -0.6484734416007996 0.024680588394403458
0.15432517230510712 -0.6346448063850403 0.21319106221199036
-0.3570864796638489 -0.023041801527142525 0.2940565049648285
-0.20033158361911774 -0.03052721731364727 0.10790219157934189
0.3648253083229065 -0.0051926663145422935 -0.1622258871793747
-0.49054214358329773 -0.1156950443983078 0.16409029066562653
-0.23420938849449158 -0.38466453552246094 -0.025940127670764923
-0.2350647747516632 0.25119802355766296 0.34769102931022644
0.5702376365661621 0.08280640840530396 0.35380420088768005
0.014722786843776703 0.011269206181168556 -0.40634995698928833
0.5857791304588318 0.3844340443611145 0.3142695128917694
-0.10228296369314194 0.005240248516201973 -0.09966880828142166
0.2557792365550995 -0.08773837238550186 -0.3356739282608032
0.2661822736263275 -0.6317226886749268 0.14467206597328186
-0.1372128576040268 -0.4431709945201874 -0.17427238821983337
0.16775837540626526 -0.5599545836448669 0.2412179410457611
-0.5642021894454956 0.18930521607398987 -0.2909803092479706
0.034299276769161224 0.40527498722076416 0.45304378867149353
0.15857651829719543 0.006127241067588329 0.18259432911872864
-0.141776904463768 0.0032818440813571215 0.1342858523130417
-0.574386477470398 0.3711007237434387 0.14766032993793488
-0.35842111706733704 0.3893347680568695 0.3488382399082184
-0.04222004860639572 0.4063614308834076 -0.11617214977741241
-0.16674791276454926 0.014961223118007183 -0.3156561553478241
0.15384840965270996 0.3871786296367645 -0.3726786971092224
0.31679999828338623 -0.15893791615962982 0.25479966402053833
-0.07525724172592163 -0.009393688291311264 -0.031116176396608353
0.262795090675354 -0.4649692475795746 -0.2696467936038971
-0.31989485025405884 0.23522807657718658 -0.3932195007801056
-0.49811190366744995 0.015518739819526672 0.1112813651561737
-0.49408289790153503 -0.09622669219970703 0.2649587392807007
-0.03561059385538101 0.1397280991077423 0.3486374616622925
0.3330700695514679 0.0006646884721703827 -0.20443540811538696
0.17225855588912964 -0.002541973255574703 -0.3559979200363159
0.5833685994148254 0.16085830330848694 -0.16046635806560516
-0.4888487160205841 -0.11245258152484894 0.13100683689117432
-0.4326494634151459 0.08954709023237228 -0.2701716721057892
0.5572072863578796 0.37925398349761963 0.34775060415267944
0.19210483133792877 -0.6635751128196716 -0.2694098651409149
0.3767426908016205 0.3917452096939087 -0.18968452513217926
-0.3196503818035126 0.40393495559692383 -0.1359584778547287
0.32025250792503357 0.21480591595172882 0.46030715107917786
0.1420898735523224 0.007986919954419136 0.1409805715084076
-0.5142124891281128 -0.08115294575691223 0.024552814662456512
-0.4092111587524414 0.34106454253196716 0.02627953700721264
-0.24790573120117188 0.3525257110595703 -0.3892928659915924
0.23145392537117004 -0.668343186378479 -0.28494498133659363
-0.22123995423316956 -0.011738806031644344 -0.09976956248283386
0.11926345527172089 -0.6301720142364502 0.22558441758155823
0.5772493481636047 0.3128407895565033 0.30096542835235596
0.2851722538471222 -0.3999782204627991 0.19756944477558136
0.31149184703826904 0.1349046528339386 0.45148250460624695
-0.46946826577186584 -0.11745605617761612 -0.1810804009437561
0.12577089667320251 -0.4509619474411011 -0.3172212839126587
-0.08048781007528305 0.006725710351020098 0.19017814099788666
0.4260396361351013 -0.25628989934921265 0.07550524920225143
0.13876332342624664 0.06451854109764099 0.45852750539779663
-0.5750599503517151 0.023228365927934647 -0.2251724749803543
0.3705914616584778 -0.2704334259033203 -0.2399359494447708
0.5936136841773987 0.35841047763824463 0.34442901611328125
0.4944213330745697 -0.0016197332879528403 0.07598893344402313
0.2572154104709625 0.014520437456667423 0.011450915597379208
-0.5750937461853027 0.37060391902923584 0.31604284048080444
0.4382078945636749 -0.2345442920923233 0.040702320635318756
0.17491686344146729 0.2435416877269745 -0.40352627635002136
-0.41864120960235596 0.2993028163909912 0.35083022713661194
0.00599490525200963 0.008817649446427822 -0.2929266691207886
0.10884033888578415 -0.005439691245555878 0.24158702790737152
0.3459562063217163 0.1535424143075943 -0.3893819749355316
-0.04607246071100235 0.4031839370727539 0.3326917290687561
0.06104046478867531 -0.6132940649986267 0.01761052943766117
0.15036635100841522 0.006233483087271452 -0.01667717471718788
0.33921003341674805 -0.17072921991348267 -0.2523066997528076
-0.04809723421931267 0.3892083764076233 0.02126634307205677
0.3990015983581543 0.15750491619110107 -0.39491358399391174
0.21012505888938904 -0.6126598119735718 -0.09343166649341583
0.14279191195964813 -0.0918227806687355 0.32712775468826294
0.29946479201316833 0.3994806408882141 -0.027473872527480125
0.3378716707229614 -0.6140528321266174 -0.00745273195207119
0.27707889676094055 0.19294148683547974 -0.39639338850975037
0.2557249963283539 -0.5322598814964294 0.20679862797260284
0.4224461019039154 -0.27028006315231323 -0.14328476786613464
0.2646771967411041 -0.4686424434185028 -0.27575400471687317
-0.3271368145942688 0.41200923919677734 -0.01699395664036274
0.2334176003932953 0.37784722447395325 0.45988625288009644
0.38752150535583496 -0.24918676912784576 -0.19491657614707947
-0.07556064426898956 -0.25058284401893616 0.2712070345878601
-0.23740239441394806 -0.1500680297613144 0.06956765055656433
0.05755234137177467 0.008885570801794529 -0.24446292221546173
0.27511221170425415 0.47570934891700745 0.39406007528305054
0.11991997063159943 0.3966679275035858 -0.06319836527109146
0.3239074945449829 0.012115937657654285 -0.023585302755236626
-0.37201088666915894 0.015930484980344772 -0.1728678196668625
0.21584689617156982 -0.6125544905662537 0.11462137848138809
0.2594851553440094 0.011323235929012299 0.1972467601299286
0.5681191086769104 0.13828855752944946 -0.33005791902542114
-0.07215898483991623 -0.6396739482879639 -0.20182786881923676
-0.3464297652244568 -0.008473331108689308 -0.11707797646522522
-0.1478365808725357 0.3907599151134491 -0.12547211349010468
-0.20238874852657318 -0.0082860654219985 -0.060101017355918884
0.054023683071136475 -0.1578134000301361 0.3005545139312744
-0.3389444053173065 0.34604522585868835 -0.19084566831588745
0.2771106958389282 -0.4265654385089874 -0.2543742060661316
0.20565305650234222 0.0138291846960783 -0.2253209352493286
0.19941525161266327 -0.6074153184890747 -0.23553141951560974
-0.22334535419940948 -0.11515727639198303 0.10209029167890549
-0.28349265456199646 0.013161619193851948 0.3356213867664337
-0.510537326335907 0.1026211753487587 0.05608588457107544
-0.15918155014514923 -0.15598833560943604 -0.22994928061962128
0.46730682253837585 0.41279706358909607 -0.38880455493927
0.1578321009874344 0.249681293964386 -0.4025702476501465
0.017292343080043793 -0.6166034936904907 0.18584518134593964
-0.383828341960907 0.07321173697710037 0.1225876435637474
0.44288137555122375 -0.008974095806479454 0.08614646643400192
-0.42023542523384094 0.1987532675266266 0.348194420337677
0.14995533227920532 0.004174360539764166 0.46025732159614563
-0.314512699842453 0.16814923286437988 -0.40758946537971497
0.04710877686738968 -0.039713770151138306 0.3132038116455078
-0.008919408544898033 -0.6243155002593994 0.04569751396775246
-0.1408030390739441 0.014427321031689644 0.11597159504890442
0.246956467628479 0.0008566042524762452 0.09981586784124374
-0.18487946689128876 0.3862258493900299 0.1306166797876358
-0.4221435487270355 0.10168284922838211 -0.24815179407596588
0.32582536339759827 0.39084291458129883 0.049265485256910324
0.5832528471946716 0.15353554487228394 -0.028318122029304504
0.23412784934043884 -0.0511929951608181 0.27970945835113525
0.175582155585289 0.01254329178482294 -0.1802220344543457
-0.23160968720912933 0.0018533933907747269 0.050193049013614655
0.4864051043987274 0.10237719863653183 0.3449380099773407
-0.35032129287719727 0.41242730617523193 -0.08060524612665176
-0.10055923461914062 -0.6230915188789368 0.09923800081014633
0.3127463757991791 0.3911983370780945 -0.05994604155421257
0.18493792414665222 0.003996420186012983 -0.12769049406051636
0.5625691413879395 0.3993690609931946 -0.1921633929014206
0.28290098905563354 0.18634025752544403 0.4548953175544739
0.44281578063964844 -0.35566893219947815 0.06483843177556992
0.5788408517837524 0.0006324555724859238 -0.2881353199481964
0.2019544243812561 0.0005809286376461387 0.010424988344311714
-0.5725691914558411 0.19431844353675842 0.28141602873802185
0.36599451303482056 0.011919804848730564 0.12689369916915894
-0.561845600605011 0.3820037543773651 -0.1376197338104248
0.3000103533267975 0.40271279215812683 0.3465324938297272
-0.2316020429134369 0.20104318857192993 -0.41323092579841614
0.3575130105018616 -0.6289903521537781 0.004468285478651524
0.3048618733882904 -0.00031308611505664885 0.2634117901325226
0.4323996901512146 0.3908804655075073 0.015856262296438217
0.2977347671985626 0.014678034000098705 0.20095615088939667
-0.47239261865615845 0.09678669273853302 0.29109424352645874
-0.5319728255271912 0.008227803744375706 0.0009978855960071087
0.33405759930610657 0.28217390179634094 0.3499454855918884
0.07584232836961746 -0.6693869829177856 0.23697935044765472
0.5720349550247192 0.2784348130226135 -0.35989075899124146
0.35579463839530945 -0.0015645490493625402 0.25011223554611206
-0.5912873148918152 -0.002194903790950775 0.13022984564304352
0.05496182292699814 -0.435626357793808 0.2675515413284302
0.016594059765338898 0.17829464375972748 0.3948040306568146
-0.24712304770946503 -0.384406715631485 -0.0236671082675457
0.5602984428405762 0.2390005737543106 -0.40317583084106445
0.10717577487230301 -0.6525315642356873 -0.28811779618263245
0.32078829407691956 -0.10262113809585571 -0.2883160412311554
0.34060099720954895 0.41366931796073914 -0.28482308983802795
0.5952114462852478 0.3568640351295471 -0.13620507717132568
-0.546087384223938 0.07182104885578156 -0.14749446511268616
-0.011246530339121819 -0.005858052521944046 -0.14607025682926178
0.430955171585083 0.007687131408601999 -0.03644079715013504
0.038635555654764175 -0.6256639361381531 0.09355288743972778
-0.3999795913696289 0.027214739471673965 -0.3952386975288391
0.254751592874527 0.4012003540992737 -0.05669517070055008
-0.43636465072631836 0.2234468311071396 0.3329588770866394
0.02239636331796646 -0.6220072507858276 -0.06731662899255753
-0.09780392050743103 -0.40781936049461365 -0.254095196723938
-0.27027082443237305 0.3953704833984375 0.19654157757759094
0.5596179962158203 0.010135876946151257 0.09445914626121521
-0.13677766919136047 -0.5758156180381775 0.13183744251728058
-0.5078237652778625 0.052018821239471436 0.32964643836021423
0.1903567761182785 0.39912745356559753 -0.10811787843704224
0.10647788643836975 0.09221439063549042 0.33403077721595764
-0.5928158760070801 0.18249019980430603 -0.010151972062885761
0.4388359487056732 -0.23404952883720398 0.01320238970220089
-0.2021428793668747 0.40387243032455444 0.32598868012428284
0.2558666467666626 -0.5277678966522217 0.21395492553710938
-0.17323611676692963 0.2927249073982239 -0.40262848138809204
0.4622924029827118 0.386372834444046 0.16708685457706451
0.23568464815616608 -0.6071978807449341 0.050822846591472626
0.16069062054157257 -0.0012310564052313566 -0.24514086544513702
-0.40522000193595886 -0.0429689884185791 -0.3855789601802826
0.25608721375465393 0.20695820450782776 0.4713173806667328
0.42212191224098206 -0.1292458176612854 -0.11894896626472473
-0.004617081955075264 -0.3419955372810364 0.28853264451026917
0.581141471862793 0.37459802627563477 -0.0018004735466092825
-0.5168096423149109 0.04169771075248718 -0.39557945728302
-0.5056500434875488 0.11364126205444336 -0.16208022832870483
0.19625641405582428 -0.011742427945137024 -0.056641753762960434
-0.5752551555633545 0.3305106461048126 -0.11241289228200912
0.26859650015830994 -0.04314667358994484 0.4587257206439972
0.4257787764072418 0.0157929677516222 0.3005574941635132
-0.28559914231300354 0.36703363060951233 -0.09225448220968246
-0.530678927898407 0.25247928500175476 -0.39635905623435974
-0.018947197124361992 0.3722243010997772 0.34624725580215454
0.10345494747161865 -0.5229504704475403 -0.3264567255973816
0.1937117725610733 0.37834084033966064 0.46263426542282104
-0.1761593073606491 -0.012975329533219337 -0.22863338887691498
0.08921875059604645 0.1922251582145691 -0.40977954864501953
0.3013160824775696 0.42514440417289734 0.42962178587913513
0.18938720226287842 -0.014808224514126778 0.2958385944366455
0.5212994813919067 -0.004109754227101803 0.17837665975093842
0.4452359974384308 0.2676078975200653 -0.38656947016716003
0.02420843578875065 -0.6182330846786499 -0.11020201444625854
-0.4168425500392914 0.09376880526542664 -0.06596337258815765
0.5708553791046143 0.011524491012096405 0.15547922253608704
0.38072142004966736 0.0036775243934243917 -0.3304094076156616
0.39910727739334106 -0.14210925996303558 0.13188044726848602
0.46369534730911255 0.06007135286927223 -0.4075829088687897
0.38972777128219604 -0.6606868505477905 -0.11476453393697739
0.5163335204124451 0.017076756805181503 0.3118881285190582
0.00883586797863245 0.06815724074840546 0.3573348820209503
0.20667524635791779 -0.004522302653640509 -0.018304407596588135
0.5688786506652832 0.2112652063369751 0.06785362213850021
0.12320433557033539 0.054602496325969696 0.45668965578079224
0.07604020833969116 -0.04413263499736786 0.3006073236465454
-0.11895176023244858 0.41105642914772034 -0.25878047943115234
0.2230924814939499 0.3927573263645172 0.45459339022636414
-0.4564915597438812 0.008976164273917675 -0.28189903497695923
-0.039486322551965714 -0.0037323858123272657 -0.0640568733215332
-0.3842347264289856 0.05601346865296364 0.3341123163700104
-0.15524053573608398 -0.01061194110661745 -0.1321205347776413
0.30500373244285583 0.015433534979820251 -0.33480992913246155
-0.06080034375190735 0.3989579677581787 0.2752433717250824
-0.5563251376152039 -0.05184445157647133 -0.0023237993009388447
-0.04945750907063484 -0.4280220568180084 -0.29492926597595215
0.23559577763080597 0.014306602999567986 -0.04026556760072708
-0.5607471466064453 0.22783306241035461 0.32784324884414673
0.5724773406982422 0.14184920489788055 0.29443588852882385
0.011167421005666256 -0.3912694752216339 -0.3325372040271759
0.29215487837791443 0.05404286086559296 -0.40022650361061096
0.2693786919116974 -0.6303617358207703 -0.01565476693212986
-0.08340020477771759 -0.4047558009624481 -0.2521412968635559
0.17620478570461273 -0.6246188879013062 0.18124976754188538
0.10226113349199295 0.4003066420555115 -0.06660670787096024
0.589040219783783 0.111495740711689 0.12604810297489166
-0.36641669273376465 0.06564506888389587 -0.3423120081424713
-0.18877476453781128 -0.4344375729560852 0.04521358013153076
-0.43408524990081787 0.38334256410598755 -0.13611643016338348
-0.004430237226188183 -0.6209920048713684 -0.29799413681030273
-0.5637226104736328 0.10705690830945969 -0.23482346534729004
-0.5172318816184998 0.029868800193071365 -0.409261018037796
0.5273703336715698 0.4041813313961029 -0.30248790979385376
-0.40466830134391785 0.17166678607463837 -0.3879590630531311
-0.5795696973800659 0.05696997418999672 -0.21261580288410187
-0.45744264125823975 0.39992842078208923 -0.059773895889520645
-0.15034417808055878 -0.2250453382730484 -0.2474891096353531
0.22164282202720642 -0.07697887718677521 0.3431132137775421
-0.16602204740047455 -0.5449005961418152 -0.08848336338996887
0.031380146741867065 0.41213732957839966 0.15030494332313538
-0.5725380778312683 -0.05071135237812996 -0.22596819698810577
-0.16300278902053833 -0.18093520402908325 -0.22711552679538727
-0.09389010071754456 0.03171790763735771 0.34985002875328064
-0.21573230624198914 -0.37876787781715393 0.06012985110282898
0.38166412711143494 0.0008757077157497406 -0.19988854229450226
-0.262247234582901 0.30808478593826294 0.3382982909679413
0.5501023530960083 0.3966473937034607 0.16983526945114136
-0.06899020820856094 -0.4573773741722107 0.21982499957084656
0.19676989316940308 -0.6334574222564697 -0.17285746335983276
-0.586113691329956 0.08046427369117737 -0.09996645152568817
-0.39416685700416565 0.09322961419820786 0.07327572256326675
0.13986501097679138 -0.003789833514019847 0.1577361822128296
0.30782321095466614 0.12451070547103882 -0.39779576659202576
-0.47244659066200256 0.09803556650876999 0.2923873960971832
0.22514507174491882 -0.17896267771720886 -0.3619117736816406
-0.2942093014717102 0.35514119267463684 -0.1568177044391632
0.2580571174621582 -0.27823159098625183 -0.3426380455493927
0.5796030759811401 0.28912854194641113 0.15017002820968628
0.18203027546405792 0.40141698718070984 -0.08310110121965408
-0.1932375729084015 -0.4225148558616638 -0.03282695263624191
0.55573970079422 0.3885723948478699 -0.00219453452154994
0.17013654112815857 0.31522178649902344 0.35824868083000183
0.1952284723520279 0.27322080731391907 0.33800065517425537
-0.42207518219947815 -0.10508139431476593 0.10741283744573593
-0.11989743262529373 0.0063458653166890144 0.24443815648555756
-0.2402113378047943 -0.01208028756082058 -0.05391548573970795
0.053099624812603 -0.6109221577644348 -0.2189282923936844
0.060451921075582504 -0.03257307782769203 -0.36961156129837036
-0.0327511802315712 -0.40730103850364685 0.23568211495876312
0.06772799044847488 0.11065549403429031 -0.4095354974269867
-0.46577179431915283 0.40010467171669006 0.05511391907930374
-0.36456388235092163 0.018738141283392906 -0.03982070833444595
-0.06293631345033646 0.14639322459697723 0.3627306818962097
0.27956071496009827 -0.005374523811042309 -0.2855367064476013
0.1620585173368454 -0.6118456125259399 -0.11297961324453354
-0.0609612800180912 0.1304944008588791 0.34195736050605774
-0.10954632610082626 0.10187002271413803 0.3552209138870239
0.572725772857666 0.14910799264907837 0.3467632830142975
0.3918604552745819 0.01658393256366253 0.294554740190506
-0.019106442108750343 -0.6112467646598816 -0.19759778678417206
-0.05035587027668953 0.3533802926540375 0.352782666683197
0.48167309165000916 0.41230809688568115 0.15796421468257904
-0.39844781160354614 0.3982456624507904 0.059305109083652496
-0.17797985672950745 -0.20221328735351562 -0.20280781388282776
0.3918066918849945 0.007132026366889477 -0.014327673241496086
-0.40139827132225037 0.202688530087471 -0.4048765003681183
0.4119897186756134 0.4132258892059326 -0.10780291259288788
-0.27653205394744873 0.010724610649049282 0.05237777531147003
-0.22570939362049103 -0.10064789652824402 -0.06266260147094727
-0.046330422163009644 0.3917352855205536 -0.22594794631004333
0.15584416687488556 -0.2283080667257309 0.30833572149276733
0.016996992751955986 -0.5261358618736267 -0.3064460754394531
-0.4104555547237396 0.15846073627471924 0.33280012011528015
0.38141393661499023 -0.33370134234428406 -0.21604162454605103
-0.041284073144197464 0.38437122106552124 -0.4097651243209839
0.2783505916595459 0.07524798065423965 -0.3986508548259735
0.048219140619039536 0.28287771344184875 0.3359622657299042
-0.5049899816513062 0.40517371892929077 -0.21006889641284943
-0.17280827462673187 -0.5867556929588318 0.03605597838759422
-0.44710591435432434 0.3932189643383026 0.027640800923109055
-0.399248868227005 0.24388228356838226 0.34739992022514343
-0.48782026767730713 0.33419644832611084 0.33129799365997314
-0.18433228135108948 0.34680745005607605 -0.4119277000427246
-0.46132802963256836 0.012167008593678474 0.34067705273628235
0.21178783476352692 0.08202500641345978 -0.3945003151893616
-0.3525420129299164 0.42190563678741455 -0.009474844671785831
0.36099228262901306 -0.4039537310600281 0.06611877679824829
-0.5813332200050354 -0.02764911763370037 0.344941645860672
-0.05003825202584267 -0.6323590278625488 -0.1716459095478058
-0.09661836922168732 0.1653699427843094 0.3769361972808838
0.04553162306547165 0.010123400017619133 -0.2610895335674286
-0.5137671232223511 -0.0013177746441215277 -0.2827354669570923
0.38919663429260254 0.007252788171172142 -0.19734340906143188
-0.10164333134889603 0.21328218281269073 0.4041467607021332
0.19973509013652802 -0.15268811583518982 -0.3451167643070221
-0.5853368043899536 0.1740804761648178 0.22548137605190277
-0.2256053239107132 0.14592191576957703 0.344104528427124
-0.47874850034713745 0.4083915054798126 0.23081879317760468
-0.559945285320282 -0.051155418157577515 0.055268142372369766
0.24984382092952728 -0.03359498083591461 -0.3301151692867279
-0.4298633933067322 0.3539521098136902 -0.19587482511997223
0.2384718954563141 -0.17107431590557098 0.2976107597351074
0.267875075340271 0.2480558305978775 -0.39799177646636963
-0.5693997144699097 0.30838990211486816 0.34002935886383057
0.28531405329704285 -0.011999399401247501 -0.1608305424451828
0.32271313667297363 0.40319347381591797 0.448651522397995
0.29557061195373535 0.4249593913555145 0.4149571657180786
0.3070312738418579 0.008844896219670773 0.0028881276957690716
-0.11499790847301483 0.407054603099823 -0.15747590363025665
-0.2598380446434021 -0.010445603169500828 -0.13549460470676422
-0.5044669508934021 0.3558042347431183 -0.08491890132427216
0.021218417212367058 0.3172353506088257 0.33682987093925476
0.1264294683933258 -0.0015473113162443042 0.1533423811197281
0.5103722810745239 0.3034718632698059 -0.3946811556816101
0.05816448852419853 -0.3720134198665619 0.31502223014831543
0.28721147775650024 0.15851575136184692 0.47627174854278564
0.4205698072910309 -0.22396180033683777 0.1382320076227188
-0.11791269481182098 0.2401314675807953 0.35105153918266296
0.1552203893661499 -0.008958532474935055 0.3202090263366699
0.2126639038324356 0.4072372019290924 0.16020913422107697
-0.20890295505523682 0.003347491379827261 -0.26491275429725647
-0.3558206856250763 -0.01908957026898861 0.19912436604499817
0.5899860262870789 0.3731223940849304 0.002366164233535528
-0.1739417016506195 -0.6280494928359985 -0.1291469782590866
0.16377082467079163 0.3848036825656891 0.08695229142904282
0.010247364640235901 -0.03411869704723358 0.29355862736701965
0.2599944770336151 0.39463138580322266 -0.1564556509256363
-0.24196217954158783 -0.20406946539878845 -0.09759838134050369
-0.5586785078048706 0.2529212236404419 -0.40385568141937256
0.3218640983104706 0.14514751732349396 0.34438633918762207
-0.3679220974445343 0.3977005183696747 0.0646502897143364
0.38158583641052246 -0.6482078433036804 -0.029932428151369095
0.16018761694431305 -0.003928530961275101 0.008325528353452682
-0.17257046699523926 -0.39909371733665466 0.0669979527592659
-0.09061138331890106 -0.004468591883778572 0.08571775257587433
-0.11925298720598221 -0.6443573832511902 0.13298457860946655
-0.5794081091880798 0.34524455666542053 -0.30862393975257874
-0.5731561183929443 0.3294700086116791 0.23974791169166565
0.4019469916820526 -0.23866121470928192 -0.23253895342350006
-0.11571762710809708 0.012023692950606346 -0.1936492919921875
-0.34118255972862244 0.36888882517814636 -0.4120182693004608
-0.2772325873374939 0.33655112981796265 -0.06741773337125778
0.27199018001556396 -0.0412626750767231 -0.32259365916252136
0.3477334976196289 -0.24150805175304413 -0.2545555830001831
-0.0044621797278523445 -0.00447671115398407 -0.27849361300468445
-0.08727103471755981 0.3437741696834564 -0.3925265073776245
-0.38037118315696716 0.06272012740373611 -0.14146482944488525
-0.2577506899833679 0.3980647325515747 0.21582141518592834
-0.06131025403738022 -0.3100307881832123 -0.33352506160736084
-0.3887735903263092 0.016440099105238914 0.1612299680709839
-0.4165760278701782 0.052306368947029114 -0.3879314959049225
0.24660085141658783 0.00783662497997284 0.11778497695922852
0.03224998712539673 -0.6134108304977417 -0.08667824417352676
-0.13154137134552002 -0.6394060254096985 -0.09659534692764282
-0.12322717905044556 0.4061300754547119 -0.19395895302295685
0.04665915295481682 -0.010980596765875816 0.17897826433181763
-0.22389821708202362 0.40038228034973145 -0.24209117889404297
-0.5028237700462341 0.3844235837459564 -0.31450214982032776
-0.14709024131298065 -0.6374332308769226 -0.04269897937774658
0.06984282284975052 -0.6305344700813293 -0.22241662442684174
0.4571414589881897 0.41235488653182983 -0.08356393128633499
0.29626667499542236 0.12412963807582855 0.46211498975753784
0.5211069583892822 0.17491859197616577 -0.39982345700263977
0.22508090734481812 0.320705771446228 -0.4112304747104645
0.10214972496032715 -0.06778641790151596 0.3202652037143707
0.06398473680019379 -0.6418427228927612 -0.3255794644355774
0.289630264043808 -0.008592622354626656 -0.3751791715621948
-0.12861128151416779 -0.5895046591758728 -0.1627914309501648
0.3208300769329071 0.3676384687423706 0.353566437959671
-0.4443809688091278 -0.004994235001504421 0.31229138374328613
-0.5769137740135193 0.0320156067609787 -0.27957940101623535
-0.1266840696334839 -0.3767932951450348 -0.2596941292285919
-0.5866380333900452 -0.03612890839576721 -0.07340802252292633
0.022299719974398613 0.016278276219964027 -0.3917740285396576
-0.1524403840303421 -0.4519593417644501 0.08615823090076447
-0.10548591613769531 -0.0051817321218550205 -0.32365185022354126
-0.40639904141426086 0.09560460597276688 -0.08233743160963058
0.5479703545570374 0.39119917154312134 -0.0728878378868103
-0.11895071715116501 0.39877888560295105 0.12025816738605499
-0.1019667237997055 -0.0006587757961824536 0.2626723647117615
0.35205915570259094 0.38724592328071594 -0.023080669343471527
-0.5045033097267151 0.008336428552865982 -0.16434292495250702
-0.40676116943359375 0.33587008714675903 0.35073205828666687
0.19861635565757751 -0.13987703621387482 0.292909175157547
0.04916679859161377 -0.6308602094650269 -0.0706334114074707
0.21575778722763062 0.001386601128615439 0.1249542087316513
0.40179872512817383 0.009487025439739227 0.20380498468875885
-0.3941473364830017 0.42582017183303833 0.00816352665424347
-0.09132357686758041 -0.020750341936945915 0.2646595239639282
-0.5330306887626648 0.09484390169382095 0.17625869810581207
0.18917834758758545 -0.3413271903991699 -0.3807012438774109
0.34899359941482544 0.2359684258699417 0.34037071466445923
-0.5146877765655518 0.28202441334724426 -0.41381874680519104
0.09203886240720749 -0.6183878779411316 0.14823095500469208
-0.0014606316108256578 -0.6062591671943665 -0.24623723328113556
-0.154491126537323 -0.3704622685909271 -0.24750728905200958
0.15694740414619446 -0.6169988512992859 0.21007117629051208
-0.479295015335083 0.2501811981201172 -0.3910377323627472
0.15880921483039856 0.3877333104610443 -0.4053681790828705
-0.3775924742221832 0.40776872634887695 -0.04555806145071983
0.0764457955956459 0.4269554913043976 0.39251086115837097
0.2979050278663635 -0.012989494949579239 -0.2582870423793793
0.3990570604801178 -0.3328307271003723 0.11920209974050522
-0.04824010282754898 0.10050515085458755 0.3574899137020111
0.3698132336139679 0.39351657032966614 0.07095170766115189
-0.16656261682510376 0.38449615240097046 -0.37479352951049805
-0.4366276264190674 0.3536638021469116 -0.20187170803546906
0.07190005481243134 -0.00629012007266283 0.03242870420217514
-0.2948305308818817 0.3708108365535736 -0.39861926436424255
0.5889429450035095 0.10974718630313873 -0.1766425520181656
0.5723294019699097 0.04200044646859169 0.08585970848798752
-0.15513624250888824 -0.13159365952014923 -0.2377733737230301
0.4109478294849396 -0.05564068630337715 0.09289771318435669
0.2105061113834381 0.4004483222961426 0.03957749903202057
-0.5789849162101746 0.047175098210573196 0.18664444983005524
-0.4203592836856842 -0.1097068041563034 0.006544951815158129
0.3530280888080597 -0.4217471778392792 -0.18760642409324646
0.43227437138557434 -0.0273175947368145 0.0726151317358017
-0.43708279728889465 0.013035987503826618 -0.33045709133148193
0.3843761086463928 -0.39874306321144104 -0.03006555698812008
0.37062695622444153 -0.2816336154937744 -0.22505217790603638
-0.5695996880531311 0.3121645748615265 0.11549724638462067
-0.12968096137046814 -0.6572480201721191 0.05970137566328049
-0.4657706618309021 0.009599885903298855 0.13178999722003937
-0.04298222064971924 0.41365641355514526 -0.3789375424385071
-0.33088192343711853 0.414264440536499 -0.10022939741611481
0.40629953145980835 -0.42583999037742615 -0.04146239161491394
0.3802397847175598 0.41243207454681396 -0.18336766958236694
-0.3072192072868347 0.015887388959527016 0.3309504985809326
-0.5662025809288025 0.3649805188179016 0.1569124311208725
0.352214515209198 -0.0032577896490693092 0.3486195504665375
0.2798066735267639 -0.639849841594696 -0.1738320142030716
0.03223764896392822 -0.3615976870059967 -0.3636586368083954
0.2673302888870239 -0.02372531220316887 0.4581112563610077
-0.2472943216562271 0.11617998778820038 0.3336785137653351
0.49249762296676636 0.007868463173508644 -0.26519474387168884
-0.554441511631012 -3.467302303761244e-05 0.18191680312156677
0.4388943612575531 0.2140379697084427 0.3324829339981079
0.275105744600296 -0.4949288070201874 0.17919278144836426
0.3915135860443115 -0.36504483222961426 0.11512592434883118
0.18157371878623962 -0.008717548102140427 0.28390371799468994
-0.5558311343193054 -0.052654340863227844 -0.40447893738746643
0.44789183139801025 0.10826463997364044 0.35586634278297424
0.009616637602448463 0.002555130748078227 -0.2314317375421524
0.33805233240127563 -0.04082954674959183 0.2328214794397354
-0.3376132547855377 0.1424221396446228 0.33143964409828186
-0.13897517323493958 -0.010115277022123337 -0.12015820294618607
0.3094562590122223 -0.00791925098747015 -0.15581323206424713
-0.4548552334308624 0.03066599741578102 0.3693850636482239
-0.3984984755516052 0.017589982599020004 0.2803731858730316
0.22514496743679047 -0.007289087865501642 -0.21337297558784485
0.48411279916763306 0.393672376871109 0.23366466164588928
0.33087417483329773 0.3640139102935791 0.3749527037143707
-0.4915837347507477 0.19173648953437805 0.34747055172920227
-0.29184186458587646 0.3121025264263153 0.3316318690776825
0.572125256061554 0.20859013497829437 -0.14067000150680542
-0.4578579366207123 0.41249316930770874 -0.2749190032482147
0.5542443990707397 0.40772223472595215 -0.15159280598163605
0.5825254321098328 0.19253551959991455 0.22973774373531342
-0.5483680367469788 -0.06933924555778503 0.32983970642089844
0.18258193135261536 -0.6206741333007812 -0.02600262686610222
-0.015300571918487549 -0.22671064734458923 0.3028813898563385
-0.26489922404289246 0.39576229453086853 -0.3392680585384369
-0.19182509183883667 -0.34196481108665466 -0.2177286595106125
0.3088264763355255 0.011864960193634033 -0.05385368689894676
-0.08230537921190262 -0.631085216999054 -0.16817672550678253
-0.34098508954048157 0.010049876756966114 0.12782521545886993
-0.018727030605077744 -0.5381810665130615 0.22421228885650635
-0.2227250337600708 0.3655964434146881 -0.4019652009010315
0.38601863384246826 -0.06271488219499588 0.135213702917099
0.1963149905204773 0.2860269248485565 -0.40865930914878845
0.2051246017217636 -0.46400028467178345 0.24407799541950226
-0.5753405094146729 0.28940871357917786 -0.06658773869276047
0.2805485129356384 -0.6126964688301086 0.17369921505451202
0.5880338549613953 0.08203324675559998 0.2645840346813202
-0.18398931622505188 -0.6494927406311035 -0.031077247112989426
0.10213014483451843 0.4338938295841217 0.3691849708557129
-0.31246301531791687 0.026122398674488068 0.32769012451171875
0.30778780579566956 -0.05162477120757103 0.44764283299446106
-0.13723120093345642 -0.5878434777259827 -0.19206899404525757
-0.046931616961956024 -0.5188388228416443 0.2139638215303421
-0.4229535162448883 0.1709962636232376 0.33460497856140137
-0.3898683488368988 -0.00948906410485506 -0.025967875495553017
0.11138058453798294 -0.6109786629676819 -0.10338521003723145
0.5774205327033997 0.2075391411781311 -0.021940119564533234
0.17446880042552948 -0.09028217941522598 0.39666858315467834
0.4269939363002777 -0.15584374964237213 0.08852248638868332
0.22937552630901337 -0.6257212162017822 -0.18336506187915802
0.34593865275382996 0.2944175899028778 0.3333653211593628
-0.5591282844543457 0.3864438533782959 0.2676350474357605
0.1646486520767212 0.38914674520492554 0.14096756279468536
-0.42170780897140503 0.0999099388718605 -0.240812748670578
-0.535869836807251 0.010946812108159065 0.2640046179294586
0.21569354832172394 0.4010908007621765 -0.009125424548983574
-0.26619574427604675 -0.0033869228791445494 0.19852949678897858
-0.011661406606435776 0.00550085911527276 0.16715843975543976
-0.5771068334579468 0.2886970639228821 -0.15398231148719788
0.31826743483543396 0.3901980519294739 0.3408907353878021
0.03941064327955246 0.055840883404016495 0.38918766379356384
0.3370293974876404 -0.5819721817970276 0.12155283987522125
-0.25886237621307373 0.3192678987979889 -0.3943661153316498
0.3176819384098053 0.40363943576812744 0.2632076144218445
-0.38027966022491455 0.35478097200393677 -0.19056110084056854
-0.3687358498573303 0.056193720549345016 -0.2049250453710556
0.5723510384559631 0.38742566108703613 0.05978100746870041
0.011340111494064331 -0.6115109920501709 -0.002403551246970892
0.07914657890796661 0.4287877380847931 0.44109293818473816
-0.19601772725582123 0.41152435541152954 0.056947819888591766
-0.13589857518672943 0.05669156461954117 -0.3928789794445038
-0.3758419156074524 0.04207790642976761 -0.05523205175995827
-0.024490566924214363 -0.16303174197673798 -0.35244104266166687
0.25580793619155884 -0.17354629933834076 -0.32698166370391846
-0.2150743156671524 -0.011274676769971848 -0.2930814325809479
-0.16430790722370148 -0.24826523661613464 -0.26227596402168274
0.5931911468505859 0.20293444395065308 0.15663209557533264
-0.44009312987327576 0.09761273115873337 0.01030001975595951
-0.38754338026046753 -0.04963953047990799 0.3359505534172058
0.19697456061840057 -0.6613719463348389 0.19881607592105865
0.39069250226020813 0.4017031490802765 -0.3407616913318634
0.11278989166021347 -0.6351559162139893 -0.08200353384017944
-0.47496163845062256 0.11313318461179733 0.13099387288093567
-0.45334750413894653 -0.10283993929624557 0.09646762907505035
-0.10714449733495712 -0.6250390410423279 0.1559385359287262
-0.217609241604805 -0.1838110238313675 -0.12246572226285934
-0.0032226010225713253 0.0014959537656977773 -0.09774570912122726
0.5003676414489746 -0.0015897485427558422 -0.38773220777511597
-0.03742796555161476 -0.522007167339325 0.22385095059871674
-0.20338529348373413 -0.07685986161231995 -0.170615091919899
0.24720311164855957 -0.5461810231208801 -0.27063459157943726
0.22766970098018646 -0.6252140998840332 -0.21596775949001312
-0.07392877340316772 -0.0035777632147073746 -0.39820024371147156
0.5754554867744446 0.254175066947937 -0.07949739694595337
-0.582481324672699 0.2991405427455902 -0.10466046631336212
-0.5632027387619019 0.3363341987133026 -0.36079540848731995
-0.1722526252269745 -0.10420748591423035 -0.22271959483623505
-0.2137429416179657 -0.0551091767847538 -0.12894782423973083
-0.05430775135755539 0.09703334420919418 -0.41119226813316345
0.026624785736203194 -0.6264160871505737 0.0014345463132485747
-0.17503921687602997 -0.6559631824493408 0.036098018288612366
0.16581615805625916 0.41455522179603577 -0.024961501359939575
0.12163333594799042 0.42826545238494873 0.4530932307243347
-0.568756639957428 0.36719924211502075 0.06873573362827301
0.16921618580818176 -0.6153022646903992 -0.02814512699842453
-0.1890656054019928 -0.5428498387336731 -0.0234820693731308
-0.04052562639117241 0.4082435965538025 0.08871815353631973
-0.19383352994918823 0.005407141987234354 0.21319815516471863
-0.5501430034637451 -0.05771597474813461 -0.052254121750593185
-0.10739768296480179 0.34057995676994324 0.35485854744911194
-0.37287047505378723 0.04819853976368904 -0.40813666582107544
-0.44516196846961975 0.004142932593822479 -0.37594830989837646
0.5678020119667053 0.30122873187065125 -0.11457595229148865
-0.04156573489308357 0.1863074004650116 0.4026103615760803
-0.44794392585754395 0.012515234760940075 -0.29598936438560486
0.13705965876579285 0.002727553015574813 0.30487388372421265
0.33841249346733093 0.2792721092700958 0.38634970784187317
-0.05998074263334274 0.38761693239212036 -0.38362669944763184
0.3343007266521454 0.26875168085098267 0.4512518644332886
0.058862507343292236 -0.05353961139917374 0.32483261823654175
-0.1695013791322708 -0.21885719895362854 -0.23233401775360107
-0.4057167172431946 -0.09084069728851318 -0.28505775332450867
-0.4625697135925293 0.39416563510894775 -0.18397200107574463
-0.21740424633026123 -0.1515129953622818 0.06702886521816254
0.12723667919635773 -0.44551023840904236 0.25718793272972107
0.31184810400009155 0.030749458819627762 0.41319936513900757
-0.05693848058581352 -0.35498252511024475 0.270457923412323
0.2670459449291229 -0.6164563298225403 0.1472655087709427
-0.030643517151474953 -0.0002688838867470622 -0.267456591129303
-0.07935841381549835 0.006102619227021933 0.1519036442041397
0.5930498838424683 0.17046909034252167 0.023426970466971397
0.04511024430394173 -0.002218826673924923 0.26896950602531433
-0.35200151801109314 -0.02085903286933899 0.2949901223182678
-0.1291586458683014 -0.0070648579858243465 0.1993374526500702
-0.4373667240142822 0.37688925862312317 -0.16139434278011322
-0.5825439095497131 0.012821842916309834 0.32304248213768005
-0.3645455837249756 0.012413913384079933 0.2641003131866455
-0.13676129281520844 0.031513653695583344 0.35355129837989807
0.2928473651409149 0.4694453477859497 0.42427536845207214
-0.014306474477052689 -0.4214757978916168 0.2317189872264862
-0.08738512545824051 0.38693955540657043 0.022946689277887344
0.0884716734290123 0.0051428284496068954 -0.3717878460884094
-0.04000118002295494 -0.09977589547634125 0.2918890714645386
0.3555724620819092 0.4133204519748688 0.34032243490219116
0.4762338697910309 -0.005258108023554087 0.10668476670980453
0.04011845961213112 0.14589251577854156 0.463350385427475
0.2996657192707062 -0.42596012353897095 -0.25064966082572937
0.31280311942100525 0.39161956310272217 0.46447479724884033
0.09162192046642303 0.015574044547975063 -0.3682807981967926
0.2650834023952484 0.3293609023094177 0.4678131639957428
0.5311391353607178 0.10862413048744202 -0.4053347110748291
0.06390097737312317 -0.6305159330368042 0.19097721576690674
-0.3932884931564331 -0.08896974474191666 -0.21862846612930298
-0.0037181824445724487 0.4057014286518097 0.2670499086380005
0.1422075480222702 0.1773039847612381 -0.4127560555934906
-0.4336661994457245 0.009072231128811836 0.36246636509895325
0.10738160461187363 -0.6415624022483826 0.21350854635238647
-0.19746041297912598 0.009021962061524391 -0.1867930293083191
-0.5226678848266602 0.0042486549355089664 0.3387145698070526
0.030432337895035744 -0.6257059574127197 0.04351993277668953
0.353056401014328 -0.4605550467967987 -0.13866668939590454
0.37919139862060547 -0.4522155523300171 0.0828365609049797
-0.4604593515396118 0.10566814988851547 -0.26621362566947937
-0.5780453085899353 0.16289053857326508 0.2595706582069397
-0.3927130103111267 0.09861041605472565 0.01532603707164526
0.5859200954437256 0.2160560041666031 0.30581405758857727
0.5681304335594177 0.0011660904856398702 0.01869361102581024
0.2511877715587616 -0.3787282109260559 0.23104016482830048
-0.3840954601764679 -0.07999619841575623 0.0781351700425148
-0.4700477421283722 0.12480345368385315 0.06416380405426025
-0.37379059195518494 0.07428046315908432 -0.1766083538532257
0.1356034129858017 -0.002789984690025449 0.13666151463985443
0.2745475172996521 0.4033721387386322 -0.22011883556842804
0.42181596159935 0.4095119833946228 -0.08175358921289444
0.010552248917520046 -0.01300840638577938 0.3112252354621887
-0.21534453332424164 -0.06044577807188034 -0.19051747024059296
0.39274585247039795 -0.32315418124198914 -0.2104824334383011
0.2251802682876587 -0.6377695798873901 -0.2861420512199402
0.08964572101831436 -0.31605273485183716 -0.3716150224208832
-0.5715050101280212 0.25418007373809814 0.34814587235450745
0.14552415907382965 0.05264374986290932 0.35650137066841125
-0.008221457712352276 0.41234102845191956 0.21866923570632935
-0.0455227829515934 0.3122250437736511 -0.3948199152946472
-0.20390236377716064 -0.061642955988645554 0.136457622051239
0.24764303863048553 0.0035852063447237015 -0.07189388573169708
0.2838956415653229 0.014034681022167206 0.09436041861772537
0.10104350745677948 0.2089633047580719 0.355228453874588
0.23913678526878357 0.3990897238254547 0.2647378742694855
-0.00042347708949819207 0.014284281060099602 -0.08819103240966797
0.017468148842453957 -0.0008208633516915143 -0.20302610099315643
-0.4327574372291565 0.1064375564455986 0.33196571469306946
0.19078871607780457 0.01038323249667883 0.3433438837528229
0.17692287266254425 0.31790539622306824 0.4623745381832123
0.11906368285417557 0.2784886658191681 -0.3911727964878082
0.3227907717227936 0.27087295055389404 0.40596744418144226
-0.5000625252723694 0.09510193020105362 -0.33820098638534546
-0.40792956948280334 -0.10869074612855911 0.2883177697658539
0.0027815070934593678 -0.6243405938148499 -0.04891454055905342
-0.13145139813423157 -0.0066664512269198895 0.037504345178604126
0.3620738685131073 0.38992270827293396 0.04971306771039963
-0.5000584721565247 0.044726379215717316 -0.40262332558631897
-0.32124805450439453 0.005479633342474699 -0.23163534700870514
0.029551593586802483 -0.6196740865707397 -0.12154307961463928
0.023709390312433243 -0.39112064242362976 0.2719850242137909
-0.04780178517103195 -0.6200959086418152 -0.16157402098178864
-0.46043121814727783 0.029758963733911514 0.34949249029159546
0.35161229968070984 -0.0068422951735556126 -0.2252378761768341
0.28999873995780945 0.39762601256370544 -0.09058818966150284
0.4481346607208252 0.40053296089172363 -0.16840796172618866
0.2534893751144409 0.336581826210022 0.3352835178375244
0.44106999039649963 -0.3527921438217163 -0.01775475963950157
