0.1777692586183548 0.42816972732543945 0.3675473630428314
-0.06419546902179718 -0.6260021924972534 -0.22163483500480652
0.27075517177581787 0.0016217436641454697 0.05017169937491417
-0.37297528982162476 -0.05209621787071228 -0.03547851741313934
0.5605242252349854 0.00482433196157217 0.23216283321380615
-0.3613302707672119 0.007473533973097801 -0.2066115438938141
0.37086236476898193 -0.5436656475067139 -0.1310994029045105
-0.03837146982550621 0.39887648820877075 0.24787253141403198
0.20881827175617218 0.31937649846076965 0.4606352150440216
-0.21661759912967682 0.008269913494586945 0.3348577320575714
0.21170103549957275 0.08282454311847687 -0.4009365439414978
-0.4060399830341339 0.3555421829223633 -0.19632184505462646
-0.5793797373771667 0.018879665061831474 0.06310934573411942
0.040064211934804916 -0.6244636178016663 0.19460217654705048
0.2810157835483551 0.0013631880283355713 0.2677899897098541
0.22875580191612244 -0.6187878251075745 0.10828589648008347
-0.06840555369853973 -0.6346771717071533 0.15554091334342957
-0.2604798972606659 0.0030174297280609608 -0.25175127387046814
0.23262210190296173 -0.6212971806526184 -0.14989785850048065
0.2864152193069458 0.18903383612632751 -0.4022972285747528
0.43615901470184326 -0.0015484130708500743 -0.08136168122291565
-0.4931595027446747 0.3990841507911682 -0.12380290031433105
0.2463725209236145 0.000460856594145298 0.24427595734596252
0.5766619443893433 0.0308686550706625 0.01939317211508751
-0.48449549078941345 0.27230897545814514 -0.4025621712207794
0.239066943526268 0.3326982259750366 0.46214815974235535
0.06378199905157089 0.10952777415513992 0.3473190367221832
-0.06839362531900406 0.3996407091617584 0.16035178303718567
0.029102426022291183 0.2961474657058716 0.38689255714416504
0.4401613771915436 0.39850500226020813 -0.3808673322200775
0.49298280477523804 0.0010178652592003345 -0.043025124818086624
-0.3242380619049072 0.007631934247910976 0.33100447058677673
-0.061374370008707047 0.12890011072158813 0.3472098410129547
-0.3709598481655121 0.005855431780219078 -0.15772180259227753
-0.5496830344200134 0.04145628586411476 -0.4006732702255249
0.08819542080163956 -0.4829505383968353 0.2630646824836731
-0.03623468801379204 0.4008171558380127 -0.3054647445678711
0.4761486351490021 0.40155544877052307 0.27038711309432983
0.07473448663949966 0.37245699763298035 0.34402966499328613
-0.16475093364715576 0.4006045162677765 -0.24621862173080444
0.28259652853012085 0.0019788462668657303 -0.09516628831624985
0.4756424129009247 0.0009078411385416985 -0.1488526612520218
-0.45211485028266907 0.292984277009964 0.34539666771888733
-0.5002502799034119 0.3968782126903534 -0.3894502818584442
0.15803368389606476 -0.00013259192928671837 0.09388959407806396
-0.1060246154665947 -0.04649689421057701 -0.29763108491897583
-0.14161664247512817 0.16782411932945251 -0.4031040668487549
-0.28134065866470337 0.39935576915740967 0.18986839056015015
0.05631624534726143 0.0009555099532008171 -0.03313116729259491
-0.5770789980888367 0.06828974187374115 0.08477777987718582
-0.32012876868247986 0.007860332727432251 -0.3947376310825348
0.20314882695674896 -0.0003057587891817093 -0.1113256886601448
0.3251020908355713 0.07820389419794083 0.3545680642127991
0.5607280731201172 0.307069331407547 -0.39742228388786316
0.38090258836746216 -0.6458241939544678 -0.02163318172097206
-0.5831413269042969 0.3096994459629059 -0.12783023715019226
0.023136664181947708 6.475113332271576e-05 -0.10098820179700851
0.02253151684999466 0.1358792632818222 0.3710345923900604
0.20371444523334503 -1.4850986190140247e-05 0.08001598715782166
-0.02318175695836544 0.4010791778564453 0.22184725105762482
0.06016157940030098 0.0005146167241036892 -0.16462254524230957
-0.5110539197921753 0.1537601798772812 -0.4006907045841217
-0.48929181694984436 -0.10794134438037872 -0.1680055558681488
-0.5390845537185669 -0.08646231144666672 0.17625698447227478
-0.5853661298751831 0.3112882673740387 -0.21157394349575043
-0.430256724357605 0.2195822149515152 -0.4016176164150238
-0.42220157384872437 0.4006319046020508 -0.21633395552635193
0.27065080404281616 -0.0035654124803841114 0.3192526698112488
0.3226678967475891 -0.01651543378829956 0.2351544350385666
0.1312265545129776 0.2813810408115387 0.34088146686553955
-0.43391868472099304 0.4026538133621216 -0.052020736038684845
-0.1544073075056076 0.07860541343688965 -0.40048038959503174
0.014235157519578934 -0.0006265019765123725 0.049463093280792236
0.007083720527589321 -0.2589791417121887 -0.3646458387374878
0.26121264696121216 0.4002779722213745 -0.16469773650169373
0.07669389992952347 0.4432460069656372 0.40954095125198364
0.18356917798519135 0.18970054388046265 0.46590012311935425
0.19261017441749573 0.21784135699272156 -0.40024498105049133
-0.18535764515399933 -0.5080238580703735 -0.011443382129073143
0.31075605750083923 -0.08221602439880371 0.3769235908985138
-0.3646807372570038 0.4054880142211914 -0.17383414506912231
0.25411635637283325 0.0011102729476988316 -0.34898507595062256
-0.16934950649738312 -0.2115791290998459 0.17969493567943573
0.35509544610977173 0.0021135013084858656 0.10756321996450424
0.3529524505138397 -0.551417887210846 -0.170615553855896
-0.22769638895988464 -0.1426420360803604 0.07069029659032822
-0.14973857998847961 -0.0037229023873806 0.20396260917186737
-0.5130218267440796 -0.027933422476053238 0.3551655411720276
-0.02005232870578766 0.0005109040066599846 0.3056226670742035
0.4832567274570465 0.4001491665840149 0.05688071995973587
0.11601019650697708 0.0335521325469017 0.464516818523407
0.06621427834033966 0.22205957770347595 -0.39976561069488525
0.5160385370254517 0.39796823263168335 -0.10022809356451035
-0.040770698338747025 0.0013414783170446754 -0.1679919809103012
-0.22007744014263153 0.003520702477544546 0.30702605843544006
0.2706206738948822 0.000506590586155653 -0.34851154685020447
0.03051089495420456 0.0008302903734147549 0.15443792939186096
0.13380493223667145 -0.0010593459010124207 0.3056960999965668
0.01946808584034443 0.0002342218067497015 -0.13509106636047363
0.3369486331939697 -0.6504520177841187 -0.18916760385036469
0.018679024651646614 0.3125855326652527 0.36743202805519104
-0.24038878083229065 -0.3401218354701996 -0.06183145195245743
-0.4785000681877136 0.16296207904815674 0.3383055627346039
-0.5154547691345215 0.30196723341941833 0.3435671031475067
0.27892160415649414 0.3300975561141968 0.34211766719818115
-0.31813061237335205 0.2856265902519226 -0.40377432107925415
-0.45321187376976013 0.002288167830556631 0.34519433975219727
0.03292088955640793 -1.1922325938940048e-05 -0.005918133072555065
0.5802833437919617 0.38488250970840454 -0.2810007631778717
0.026002971455454826 0.28633201122283936 0.3479577302932739
-0.22442951798439026 -0.32509875297546387 -0.13866528868675232
-0.09918638318777084 0.0004943842068314552 -0.30704396963119507
-0.036048997193574905 -0.6189888715744019 -0.1382148712873459
0.3347444236278534 0.23313462734222412 0.42784470319747925
0.307031512260437 0.3712831139564514 0.3433474004268646
0.00835974421352148 0.09876985847949982 0.348054438829422
-0.31486931443214417 0.0009201783686876297 -0.19000937044620514
-0.4188944399356842 -0.0956626906991005 -0.06092497706413269
-0.16911444067955017 0.40014031529426575 -0.3725466728210449
-0.5773448944091797 0.08468230068683624 0.2814858853816986
-0.23242005705833435 -0.3062577545642853 -0.10552705824375153
0.38984575867652893 -0.53152996301651 -0.05270560830831528
0.4902876615524292 0.002543233335018158 -0.257972776889801
-0.22132477164268494 -0.37200331687927246 0.050742387771606445
-0.14768442511558533 -0.5685487985610962 -0.17947129905223846
0.48645317554473877 0.3981677293777466 0.007638254202902317
0.08156419545412064 0.000710638239979744 0.2407570630311966
0.04616940766572952 0.0015172762796282768 -0.2609791159629822
0.28789880871772766 -0.6224433183670044 -0.10281817615032196
0.5489157438278198 0.39883410930633545 -0.3708348870277405
-0.027877312153577805 -0.62082839012146 -0.01489664800465107
-0.034063566476106644 -0.6461347341537476 -0.26523926854133606
0.07327140867710114 -0.0810602679848671 0.407269150018692
0.2415902465581894 0.3999977111816406 -0.11776630580425262
-0.4449352025985718 -0.0025615859776735306 -0.39337944984436035
-0.00846346840262413 0.036331772804260254 -0.40196099877357483
-0.22219692170619965 0.28973186016082764 0.3431599736213684
0.33006325364112854 0.0006224536336958408 -0.3206593990325928
0.44276905059814453 -0.2959251403808594 0.042651087045669556
0.2859996259212494 -0.4530026614665985 -0.2564683258533478
0.26261451840400696 0.1814907193183899 0.3444300889968872
0.35316184163093567 -0.5053120851516724 -0.17709514498710632
0.03142504021525383 0.11326931416988373 0.44648662209510803
0.30173802375793457 0.26037782430648804 -0.4016578495502472
-0.2822379767894745 0.20393967628479004 -0.4027009606361389
0.43909868597984314 -0.3007039427757263 -0.08317817002534866
0.28892630338668823 0.0018681008368730545 0.3121706247329712
-0.3720764219760895 0.0030631031841039658 0.15144334733486176
-0.5526614785194397 0.07959315180778503 0.09729369729757309
0.24432334303855896 0.399545282125473 -0.32998061180114746
0.2742946743965149 0.008572510443627834 -0.39126455783843994
-0.402737021446228 0.007321660406887531 -0.37565258145332336
0.4300117492675781 0.07401233166456223 0.34347644448280334
0.5795460939407349 0.27595439553260803 -0.26160696148872375
-0.26953360438346863 0.39878129959106445 0.2925410568714142
0.1952887922525406 0.22737427055835724 0.34155216813087463
-0.5805479288101196 0.19614452123641968 -0.04495204985141754
0.07169989496469498 0.40051183104515076 0.1819181889295578
0.48964691162109375 0.39742860198020935 -0.29446664452552795
0.07757586240768433 -0.5352962613105774 -0.31794410943984985
0.33388611674308777 0.1910911649465561 -0.40158289670944214
0.1864074468612671 0.17949992418289185 0.3429327607154846
-0.4685445725917816 0.3866479694843292 -0.4020562171936035
0.5810903906822205 0.04790474474430084 0.17741107940673828
-0.013312140479683876 0.40166473388671875 0.19593670964241028
0.3651348054409027 -0.23002362251281738 -0.25164780020713806
0.288312166929245 0.3978882133960724 0.10026748478412628
0.010292422026395798 0.003241313621401787 0.2293451875448227
0.4137958586215973 0.0009065358899533749 -0.32936376333236694
0.21015524864196777 0.0016015013679862022 -0.31358981132507324
-0.3977656066417694 -0.0803913101553917 -0.06612782925367355
-0.5405070781707764 -0.001194310374557972 -0.038352690637111664
-0.13831199705600739 0.015375685878098011 -0.3953413963317871
0.10184279829263687 0.4673921763896942 0.42644691467285156
-0.5284868478775024 0.39644408226013184 0.23946824669837952
0.34235891699790955 0.3989811837673187 -0.2947108745574951
0.19392764568328857 -0.5089097619056702 -0.3084133267402649
0.31059640645980835 0.11377300322055817 0.3495490849018097
-0.02338101528584957 0.40289899706840515 0.23962466418743134
0.31506767868995667 -0.011888080276548862 0.2344995141029358
0.16312958300113678 -0.10606864839792252 -0.36844468116760254
-0.021219346672296524 0.0010569202713668346 -0.20360194146633148
0.5739301443099976 0.38921159505844116 0.33099037408828735
-0.12377679347991943 -0.21937710046768188 -0.28789472579956055
0.5763481259346008 0.02499462105333805 -0.16476169228553772
0.5476405620574951 0.3978763520717621 0.2000143975019455
0.14266037940979004 0.0010322751477360725 -0.2782948911190033
0.4232226312160492 -0.05341818928718567 -0.15730977058410645
0.42826706171035767 -0.1286281794309616 -0.1468413770198822
-0.21738311648368835 0.0006178617477416992 -0.17584866285324097
0.2783345878124237 0.39268189668655396 0.46002376079559326
0.583660364151001 0.12045987695455551 0.11104173958301544
0.40910470485687256 -0.31771913170814514 -0.18839725852012634
-0.35481777787208557 0.4165600538253784 -0.09803681075572968
0.3397364914417267 0.4015158712863922 -0.28620409965515137
0.1564662754535675 0.16442860662937164 -0.40174996852874756
0.20164088904857635 0.3982859253883362 0.11114639043807983
0.5802943706512451 0.30051013827323914 -0.3522046208381653
-0.23456627130508423 0.4007733464241028 -0.38222357630729675
-0.5840151309967041 0.27992886304855347 -0.23834922909736633
0.20010966062545776 0.39945679903030396 -0.2512536644935608
0.1459873616695404 -0.16409814357757568 -0.3702664375305176
0.167129248380661 0.13303722441196442 0.464141309261322
0.08472304046154022 -0.6200029850006104 -0.16785119473934174
0.5787173509597778 0.0772438645362854 -0.1724959909915924
-0.34519511461257935 0.0465637743473053 0.33830776810646057
0.41741877794265747 0.00481540709733963 0.28709322214126587
-0.1184670478105545 -0.3101893961429596 -0.29529473185539246
-0.09134674072265625 -0.6210636496543884 0.001431006588973105
-0.410460501909256 0.34862905740737915 0.024503882974386215
0.1789887547492981 -0.6218562126159668 -0.04021046310663223
0.579730212688446 0.1383187621831894 -0.08673357218503952
0.5629992485046387 0.2908068597316742 0.3375919759273529
0.023785239085555077 -0.00077520014019683 0.32442721724510193
0.09689754992723465 0.4009150564670563 0.2177453488111496
0.5800655484199524 0.13180267810821533 -0.3322809636592865
0.28460803627967834 0.20167730748653412 0.34480777382850647
0.3004944324493408 -0.6219708323478699 -0.18929116427898407
-0.24732795357704163 0.40202760696411133 -0.3473414480686188
0.470504492521286 0.0013290672795847058 -0.12327246367931366
0.4302046000957489 -0.03917376324534416 -0.14997994899749756
-0.44786104559898376 0.006227605976164341 0.276912659406662
0.35153040289878845 -0.003199868369847536 -0.22832389175891876
-0.5850706696510315 0.2291591763496399 -0.14500205218791962
-0.1407276839017868 -0.6396322846412659 0.046056948602199554
0.4374980032444 0.4005131721496582 0.011774564161896706
-0.3280554711818695 0.00674084946513176 0.21688300371170044
-0.09788955748081207 -0.3104293942451477 -0.3071897625923157
-0.35572370886802673 0.4124391973018646 -0.028839748352766037
-0.1990988403558731 0.010656692087650299 0.3388047516345978
-0.08960415422916412 0.002863677218556404 0.016708292067050934
0.26347002387046814 0.46921291947364807 0.3769306540489197
0.40109771490097046 -0.2867347300052643 0.14281710982322693
-0.4642576575279236 0.11417914927005768 0.2653604745864868
0.11021825671195984 -0.528045117855072 -0.32185664772987366
-0.5825083255767822 0.07283566892147064 -0.3157584071159363
-0.15598148107528687 -0.004793216940015554 0.1850253939628601
-0.5618283748626709 0.00412198668345809 0.08086684346199036
-0.36882856488227844 -0.025963090360164642 0.2961762547492981
-0.39180171489715576 -0.075151726603508 0.06412966549396515
-0.5271246433258057 0.05585462227463722 0.33923283219337463
-0.07632187008857727 0.213435560464859 0.4018653631210327
-0.5236258506774902 0.36271539330482483 -0.0724094808101654
0.035076990723609924 -0.0001813182607293129 -0.07771791517734528
0.5696468353271484 0.007910526357591152 -0.21569286286830902
0.578327476978302 0.16461913287639618 -0.1088527962565422
-0.35717305541038513 0.03151703625917435 -0.4009474515914917
0.011093996465206146 -0.6228538751602173 -0.14537160098552704
0.2870575487613678 0.20598413050174713 0.45891690254211426
0.2515330910682678 0.39970022439956665 -0.1765686273574829
-0.359042227268219 0.3063037693500519 0.3429344594478607
0.009657650254666805 0.0017593679949641228 -0.14018681645393372
-0.352152943611145 0.004585915245115757 0.13440071046352386
-0.2999421954154968 0.001388769829645753 -0.332687109708786
-0.07353024929761887 -0.1281614452600479 0.2675698697566986
0.42887821793556213 0.39996540546417236 -0.11594709753990173
0.14361608028411865 -0.5072555541992188 -0.3183434009552002
0.30524149537086487 0.030815424397587776 0.3484571874141693
0.2111617624759674 0.004871666431427002 0.4670470058917999
-0.2901003062725067 0.40035563707351685 0.2976144850254059
-0.3859981298446655 0.06728778034448624 0.3385656476020813
-0.005827099550515413 -0.62703537940979 -0.2365562468767166
0.19269655644893646 0.00063339713960886 0.11658194661140442
0.5795207619667053 0.226046621799469 -0.051385290920734406
0.42124509811401367 -0.06285587698221207 0.09273622184991837
0.5773980617523193 0.09202653914690018 0.1907135546207428
-0.5832321047782898 0.17314806580543518 -0.3080773651599884
-0.04209832847118378 0.0010541705414652824 -0.09482608735561371
-0.4318101704120636 0.08456955850124359 0.34211307764053345
-0.05202995613217354 0.0012906878255307674 -0.07632455974817276
0.46774226427078247 0.40058740973472595 0.1899181306362152
-0.493165522813797 0.4000547230243683 0.09302697330713272
-0.02673717588186264 0.40045276284217834 -0.07514508068561554
0.5717791318893433 0.011463898234069347 0.10938245803117752
0.21575827896595 -0.6196746230125427 -0.17524001002311707
-0.576328694820404 -0.032523516565561295 0.20900128781795502
0.090315081179142 -0.6176958680152893 -0.3193313479423523
0.2651374936103821 0.001128421165049076 -0.0819343701004982
-0.1769748479127884 0.0003249663859605789 -0.05297882482409477
-0.5747361779212952 -0.048607707023620605 -0.3382829427719116
0.1274510622024536 0.0016775354743003845 -0.19139863550662994
-0.2245548665523529 0.22066542506217957 -0.4017932415008545
-0.1570013016462326 -0.471416175365448 0.09913719445466995
0.16840606927871704 -0.22405605018138885 -0.36858975887298584
-0.31890085339546204 0.006266712211072445 0.059018731117248535
0.05624627694487572 -0.07200464606285095 0.4162824749946594
0.02521010860800743 0.17887014150619507 0.3881506025791168
-0.5819607973098755 0.23355171084403992 0.014587879180908203
-0.21732337772846222 0.06930235028266907 -0.4013140797615051
0.4030812382698059 -0.0013429148821160197 0.0036370379384607077
0.35509219765663147 -0.27919963002204895 0.2059251219034195
0.5176314115524292 0.3308124244213104 0.3395608961582184
-0.5210754871368408 0.00293582770973444 -0.10446682572364807
-0.5079155564308167 0.10100673884153366 0.34717464447021484
-0.5797042846679688 0.028067762032151222 -0.3635511100292206
0.5787966847419739 0.15533867478370667 -0.2406553477048874
-0.15106499195098877 0.40039220452308655 -0.11734992265701294
0.2771622836589813 -0.6483224630355835 -0.24359671771526337
0.11036129295825958 -0.6181836724281311 -0.2608361840248108
0.16695889830589294 -0.07188594341278076 0.4181671440601349
0.5141268372535706 0.4004068970680237 0.1733856201171875
0.40951991081237793 -0.1275244802236557 -0.19228820502758026
-0.025217389687895775 -0.6424530148506165 -0.28201666474342346
-0.12209829688072205 0.0015591287519782782 -0.10817290097475052
0.2491852343082428 -0.34273138642311096 0.28312382102012634
0.11648740619421005 0.003635161556303501 0.28213727474212646
0.27129098773002625 0.47178953886032104 0.374900221824646
0.39866435527801514 0.37771356105804443 0.341528981924057
0.4203543961048126 -0.3225855231285095 0.10659746080636978
0.43942052125930786 -0.07800833135843277 0.05016147717833519
-0.17257055640220642 -0.6119486689567566 -0.1272442638874054
0.049607668071985245 -0.0039074900560081005 0.3277227580547333
-0.33546680212020874 0.002643117681145668 0.28327152132987976
0.5793472528457642 0.06700358539819717 0.26694396138191223
-0.2789168655872345 0.003102473448961973 -0.21824651956558228
0.06363049149513245 0.39973965287208557 0.265790730714798
0.31264394521713257 -0.0003132219426333904 -0.3528493344783783
0.0875418558716774 0.400565505027771 0.45552384853363037
0.12861427664756775 -0.08141709864139557 0.3252272605895996
0.01690012961626053 0.40118318796157837 -0.33597955107688904
0.4619390368461609 -0.00035514868795871735 -0.3042530417442322
0.28280848264694214 0.39882078766822815 0.13470593094825745
-0.5774194598197937 0.061869438737630844 0.014169641770422459
0.3252904713153839 -0.009046400897204876 0.4561338424682617
-0.4116137623786926 -0.08753837645053864 0.11646400392055511
0.23927590250968933 -0.49369218945503235 -0.2876386344432831
0.45886626839637756 0.39147675037384033 -0.3954950273036957
0.46340909600257874 0.39870110154151917 -0.246132031083107
-0.31905698776245117 0.14472481608390808 -0.40230804681777954
0.15779836475849152 -0.6217457056045532 0.022705266252160072
0.317239910364151 -0.6417465806007385 -0.16376426815986633
0.19759322702884674 0.0015825964510440826 -0.07820634543895721
-0.5729395747184753 0.36856716871261597 0.032124314457178116
0.23745141923427582 0.0011595538817346096 0.02217845618724823
0.18117451667785645 -0.6212050318717957 -0.015091735869646072
0.1248539462685585 0.4121719300746918 0.45658743381500244
0.4923861026763916 0.001901881187222898 0.1806565672159195
0.28780829906463623 -0.6538985967636108 -0.22643634676933289
-0.3733489513397217 0.009590092115104198 -0.10445818305015564
-0.13427774608135223 0.0021822922863066196 -0.35767364501953125
-0.47239452600479126 0.10440796613693237 0.27716997265815735
-0.5455085635185242 0.03894341364502907 -0.39901742339134216
0.29955992102622986 -0.003003209363669157 0.24115543067455292
-0.5830444097518921 0.3135475218296051 0.1751147359609604
-0.3100566565990448 0.4002520442008972 0.0776018500328064
-0.5493468642234802 0.37923234701156616 0.12244207412004471
-0.5073548555374146 0.398661732673645 0.21695895493030548
0.5797623991966248 0.11659560352563858 0.18910086154937744
-0.04753892496228218 -0.6218697428703308 0.14154434204101562
-0.26714035868644714 0.008257677778601646 0.33227428793907166
-0.2397644817829132 -0.22742824256420135 -0.10695512592792511
-0.5142337083816528 0.3923884332180023 -0.08033178001642227
0.3419651687145233 0.4004986882209778 -0.10018908977508545
0.5620704889297485 0.398044615983963 -0.03099123388528824
0.5699896216392517 0.3914884924888611 -0.16986550390720367
-0.5774546265602112 0.13179321587085724 0.2620730996131897
0.449811726808548 -0.28428512811660767 -0.003452993929386139
-0.3859274089336395 -0.002796788699924946 0.01352610532194376
-0.2679464519023895 0.39309340715408325 -0.17806361615657806
0.2265707105398178 -0.6189769506454468 -0.1265282779932022
0.30006393790245056 -0.6216412782669067 -0.07785115391016006
-0.3731330335140228 -0.04755251854658127 0.2521008551120758
0.5804697275161743 0.21848338842391968 0.05368933826684952
0.0971451997756958 -0.6221140027046204 0.038359854370355606
-0.02234463393688202 0.4003972113132477 0.016277706250548363
0.0831160768866539 0.4015759527683258 -0.07819202542304993
-0.23904725909233093 -0.10243874043226242 -0.08202870935201645
-0.5672385692596436 0.04164019599556923 0.13546913862228394
-0.017214246094226837 -0.4651247262954712 -0.2944790720939636
0.3822276294231415 -0.2976263463497162 -0.23351891338825226
-0.39341554045677185 0.20394858717918396 0.3425442576408386
0.2852415442466736 0.0026508625596761703 -0.21647599339485168
-0.5130546689033508 0.3931320011615753 0.047509536147117615
-0.5822387933731079 0.29294338822364807 0.014868734404444695
0.3278796076774597 0.4129076302051544 0.3820645213127136
-0.43958261609077454 0.04637380316853523 0.34793585538864136
0.33332595229148865 -0.36665552854537964 0.2196280062198639
-0.1523556411266327 -0.14217965304851532 -0.26035022735595703
-0.05516921728849411 -0.3900246024131775 0.21299579739570618
-0.4712066352367401 -0.10765065997838974 -0.26033759117126465
0.09736059606075287 0.39744359254837036 -0.38735291361808777
0.2591381371021271 0.4022514224052429 0.2536414563655853
0.47094061970710754 0.3986440896987915 0.04782851040363312
0.22277192771434784 -0.4265971779823303 -0.29632899165153503
-0.4841879904270172 -0.0508621484041214 -0.3962140679359436
-0.10677915066480637 0.002558339387178421 0.2963658571243286
0.24365831911563873 0.4247608780860901 0.44855785369873047
-0.2529224455356598 0.40202856063842773 -0.37256041169166565
-0.5052374601364136 0.3986089527606964 -0.20207470655441284
0.29889941215515137 -0.37542593479156494 0.23074369132518768
-0.41567113995552063 0.07627524435520172 -0.4010186493396759
-0.34821176528930664 0.006618767976760864 -0.39723631739616394
-0.18165844678878784 0.39965346455574036 0.2264556735754013
0.012842097319662571 -0.5012986660003662 -0.30854469537734985
-0.1286027729511261 0.39918053150177 -0.38450971245765686
0.20480240881443024 -0.0007809922099113464 0.06726843118667603
0.032367005944252014 0.38521409034729004 0.43425557017326355
0.04948173463344574 -0.3193666636943817 -0.3680916428565979
7.94196967035532e-05 0.39355626702308655 0.328965961933136
-0.16077853739261627 0.39651331305503845 -0.18348686397075653
-0.3764629065990448 0.008561988361179829 -0.1894918829202652
-0.057271480560302734 0.40003103017807007 -0.13050828874111176
0.0352717787027359 0.3961675465106964 0.3458676040172577
0.36096957325935364 0.08850473910570145 0.3452484607696533
-0.04975137487053871 -0.13286352157592773 0.285637766122818
0.3771165609359741 -0.19731101393699646 -0.23649020493030548
0.3368166387081146 -0.5660040378570557 -0.204375222325325
-0.4050776958465576 0.40687525272369385 -0.0056364526972174644
0.2619152069091797 0.0018912451341748238 0.04145096242427826
0.30457788705825806 0.02554432675242424 0.34509414434432983
-0.044742368161678314 -0.6229876279830933 -0.14893588423728943
-0.13443312048912048 0.11110050976276398 -0.39962610602378845
0.5802130103111267 0.31097692251205444 0.26589494943618774
0.20135949552059174 -0.5574638843536377 0.24002930521965027
0.40301868319511414 0.00021033640950918198 -0.015009903348982334
0.32601261138916016 0.16228704154491425 0.44423437118530273
-0.3018695116043091 0.00435755867511034 0.1689435839653015
-0.14017030596733093 0.40091317892074585 -0.1843029409646988
-0.3872334361076355 0.3988800644874573 0.046018462628126144
-0.12303071469068527 0.0007534418255090714 0.0672324150800705
0.07962701469659805 0.17320725321769714 0.3445185422897339
0.15174143016338348 -0.00010624201968312263 0.054936230182647705
0.19540566205978394 -0.6074252724647522 -0.30605390667915344
-0.3380163609981537 0.3471013009548187 0.34101054072380066
0.019061842933297157 0.40042972564697266 -0.1007237508893013
0.15867149829864502 -0.5311650633811951 -0.32045644521713257
0.06032581627368927 0.0012981044128537178 0.2108941376209259
0.578781008720398 0.23605528473854065 -0.186125710606575
-0.4880247712135315 0.12020601332187653 0.24982738494873047
-0.16155774891376495 -0.3715035319328308 0.17597101628780365
0.18467096984386444 0.4671958088874817 0.3708523213863373
0.13185958564281464 0.00038694683462381363 0.13341768085956573
-0.2305554449558258 -0.3290382921695709 -0.11098327487707138
-0.07709382474422455 -0.6186187267303467 0.003061155788600445
-0.08267147094011307 0.266880601644516 0.3676985800266266
0.3683297336101532 -0.21291515231132507 0.1907319277524948
0.23662614822387695 -0.2152760922908783 -0.3469005227088928
0.08164175599813461 -0.21413783729076385 -0.37505611777305603
-0.022426463663578033 -0.475888729095459 0.23492762446403503
-0.5785747170448303 0.006288367789238691 0.031010257080197334
0.294869065284729 0.1414833813905716 -0.4015668034553528
0.4191189408302307 0.12595905363559723 -0.4014192819595337
0.29494836926460266 -0.10713446140289307 0.257804811000824
0.30472448468208313 -0.5177947878837585 -0.23207271099090576
0.0141548290848732 -0.6247931718826294 -0.07293618470430374
-0.1552022397518158 0.09637024253606796 0.34464749693870544
0.5761314630508423 0.30547285079956055 -0.049790043383836746
0.04381435364484787 0.05248602479696274 -0.4003105163574219
-0.023238111287355423 0.33623242378234863 -0.3993586301803589
-0.4209623634815216 0.12677611410617828 -0.4001695513725281
0.5760416388511658 0.34170687198638916 0.3300003409385681
0.41638004779815674 -0.3458311855792999 0.11150316148996353
-0.4751630127429962 -0.08710832893848419 -0.4031609296798706
0.5413812398910522 0.39929357171058655 0.10395891964435577
-0.08211998641490936 0.0017503388226032257 -0.10237325727939606
-0.31895726919174194 0.004859215579926968 0.3270632326602936
-0.3738202750682831 0.017931390553712845 0.16083966195583344
0.205356165766716 0.20835687220096588 0.3424749970436096
0.344959557056427 -0.4095303416252136 0.13074356317520142
0.43573102355003357 -0.007019693497568369 -0.003858745563775301
0.32080721855163574 -0.6190484762191772 0.02285480685532093
-0.052452873438596725 0.27814504504203796 -0.4006449580192566
-0.02726512774825096 -0.45838475227355957 -0.2913275361061096
0.026645204052329063 0.2231418788433075 0.3503093719482422
-0.11109262704849243 -0.09102590382099152 0.24398134648799896
0.29660749435424805 -0.6124143600463867 0.18811821937561035
-0.13944344222545624 0.09321323782205582 -0.4008389115333557
-0.5492187142372131 0.0034222500398755074 -0.38399556279182434
-0.23464861512184143 -0.04539983719587326 -0.12157505005598068
-0.1075703576207161 -0.5654873847961426 0.1757437139749527
0.4416160583496094 0.3993430435657501 -0.1784370243549347
0.11216754466295242 0.3090634047985077 0.465498685836792
-0.5168473124504089 0.1274736523628235 0.34014859795570374
0.09800215065479279 -0.04854338616132736 0.45739516615867615
0.14098189771175385 0.39648041129112244 0.08249077945947647
-0.5729243159294128 0.1202838271856308 -0.3930113613605499
0.040119901299476624 -0.6196471452713013 0.14657768607139587
-0.16138377785682678 0.3031895160675049 0.3451347351074219
-0.006704430561512709 0.3981727063655853 -0.37874817848205566
-0.5538246035575867 -0.07097601890563965 0.02042919397354126
0.23392058908939362 -0.6187000870704651 0.014927187003195286
-0.48362457752227783 -0.10986357927322388 -0.19677428901195526
0.1516048163175583 -0.47548672556877136 -0.3185858428478241
-0.574112057685852 0.07029532641172409 0.32602259516716003
-0.3685745596885681 -0.009903615340590477 -0.19898483157157898
0.08840778470039368 0.1281147599220276 -0.40216735005378723
-0.035398803651332855 0.24200154840946198 0.399264395236969
0.34887784719467163 -0.1824370175600052 0.21144454181194305
-0.2947012782096863 0.0009338827803730965 -0.21358013153076172
-0.5838058590888977 -0.016243305057287216 0.29936888813972473
0.3199789822101593 -0.5302169322967529 -0.21944887936115265
0.024925420060753822 0.4018213450908661 -0.26679328083992004
0.20495343208312988 -0.46217864751815796 0.24307648837566376
-0.35860776901245117 0.009060978889465332 -0.09967835992574692
0.5137056708335876 0.4003742039203644 -0.2348891645669937
-0.4658887982368469 0.38859155774116516 -0.3983621895313263
-0.5752807259559631 0.027115782722830772 0.15899498760700226
-0.42820414900779724 0.25732216238975525 0.3434581458568573
0.052482109516859055 -0.622840404510498 0.1466505378484726
0.46106141805648804 0.3555436432361603 0.34360480308532715
-0.4076617360115051 -0.08173280954360962 0.3233073651790619
0.38280412554740906 0.002202044241130352 -0.18421199917793274
-0.1187484860420227 -0.42719656229019165 0.15780611336231232
-0.10319375991821289 0.00010563951218500733 0.19500574469566345
-0.16613636910915375 0.26544690132141113 -0.39911597967147827
-0.21587389707565308 0.164481058716774 0.34672775864601135
0.1524965763092041 0.40093252062797546 -0.22164961695671082
-0.4264741837978363 0.2934037744998932 -0.4033074975013733
0.26327091455459595 -0.5806849002838135 -0.2743426561355591
-0.46838751435279846 -0.10998024791479111 -0.01946081407368183
-0.16167199611663818 0.001984063535928726 -0.23123182356357574
-0.08523459732532501 -0.6180047988891602 -0.16972662508487701
0.3549113869667053 0.1262144148349762 -0.4018450379371643
-0.579408586025238 0.12382443994283676 -0.051013167947530746
-0.5839143395423889 0.24717092514038086 -0.3254989683628082
-0.2752457559108734 0.003322118893265724 -0.24348416924476624
-0.31759798526763916 0.19141174852848053 0.3445107340812683
0.5705978274345398 0.39718538522720337 -0.2910047769546509
-0.09315290302038193 0.14268219470977783 -0.4020169675350189
-0.23630966246128082 0.4012962877750397 0.02261669933795929
0.11280843615531921 -0.08419269323348999 0.3476206362247467
-0.5784587860107422 0.191428542137146 -0.15476974844932556
-0.2262817770242691 -0.00033381429966539145 -0.059227440506219864
-0.1968390792608261 0.39943453669548035 0.1353544145822525
-0.578359842300415 0.019346123561263084 -0.22837021946907043
-0.15426282584667206 -0.358529657125473 0.19101956486701965
0.2800881564617157 -0.0823405310511589 0.4029143154621124
0.2756843864917755 -0.6178346276283264 -0.04909691587090492
0.5810506343841553 0.16211889684200287 0.22948428988456726
0.5006271600723267 0.3986610174179077 -0.02793215401470661
0.049400802701711655 -0.6206021308898926 -0.14254595339298248
0.07868097722530365 -0.15141750872135162 0.3173353374004364
-0.3462428152561188 0.2667261064052582 -0.4010816514492035
-0.06483589857816696 0.00017721019685268402 0.2628857493400574
0.5734753608703613 0.033465731889009476 0.20118339359760284
-0.11632592231035233 -0.38558128476142883 -0.23159272968769073
-0.3924486041069031 0.4014977514743805 -0.37128838896751404
0.4772965908050537 0.4007836580276489 -0.22850023210048676
-0.5752410888671875 -0.011716920882463455 -0.29464471340179443
0.20853270590305328 -0.3338170647621155 -0.3579098582267761
0.3771359920501709 0.4010477066040039 -0.2577257752418518
-0.06905917078256607 -0.5272276401519775 -0.2649998366832733
-0.08311747759580612 -0.4158564805984497 -0.2616122364997864
-0.5425922274589539 -0.08133258670568466 0.054781146347522736
0.08675048500299454 0.44684576988220215 0.36014819145202637
-0.5675861835479736 -0.04260098561644554 0.20779478549957275
0.20656494796276093 -0.023914460092782974 0.3230801820755005
-0.07391058653593063 -0.6311916708946228 -0.21742548048496246
-0.5852656364440918 0.2549087703227997 0.03161979094147682
0.09592980146408081 -0.6382392644882202 -0.3180139660835266
0.327039510011673 -0.6279364824295044 -0.14308661222457886
-0.5052292943000793 -0.09367427974939346 0.3337041139602661
-0.17927443981170654 0.40072643756866455 0.05748666077852249
0.08730122447013855 0.42173370718955994 0.3990785777568817
-0.3487151265144348 0.4047650098800659 -0.014813557267189026
0.4865429699420929 0.40006116032600403 0.20755700767040253
-0.12566432356834412 0.005510391667485237 -0.386062353849411
0.18733815848827362 0.3990078568458557 0.2410285323858261
0.3302250802516937 0.003115061204880476 -0.09092079848051071
-0.08580543845891953 -0.5268699526786804 0.19163456559181213
0.02382201887667179 -0.6290944814682007 0.19610929489135742
-0.11607614904642105 -0.5918855667114258 0.16138006746768951
0.006833953782916069 0.001599478186108172 0.24489779770374298
-0.4610762298107147 0.08515244722366333 -0.4026068150997162
-0.11751759052276611 -0.6287645697593689 -0.03290984407067299
0.012816810980439186 -0.23532898724079132 -0.3621470332145691
-0.41552820801734924 0.052057571709156036 -0.40291792154312134
0.21531043946743011 0.008913017809391022 -0.39547139406204224
-0.518457293510437 0.10166418552398682 -0.37843525409698486
-0.5781124234199524 -0.0204777829349041 -0.05038469284772873
0.03548385202884674 -0.24119019508361816 -0.36948686838150024
-0.16466110944747925 0.22336478531360626 -0.4015926122665405
0.29635170102119446 -0.05555940791964531 0.2589045464992523
0.17737600207328796 0.3992900550365448 0.011431315913796425
0.3342934548854828 0.05385545268654823 -0.4010922908782959
-0.41534870862960815 0.38964730501174927 0.33535391092300415
-0.5773999094963074 0.09190040826797485 -0.05025040730834007
-0.22552689909934998 -0.29988572001457214 -0.13027961552143097
-0.03987736627459526 -0.6169360876083374 -0.19061057269573212
0.4402707815170288 -0.20787997543811798 -0.09677530080080032
-0.3629547357559204 0.3971858024597168 0.050066251307725906
0.23812885582447052 0.39906445145606995 0.2535441815853119
0.11069072037935257 0.400723934173584 -0.23292462527751923
0.0337979719042778 -0.45806917548179626 -0.31073543429374695
0.19051209092140198 0.39800405502319336 0.13768263161182404
0.08102995902299881 0.0015769638121128082 0.30739670991897583
-0.5476752519607544 0.07601536810398102 -0.3678985834121704
0.5370428562164307 0.1112922802567482 -0.40045008063316345
0.011209503747522831 0.0016974937170743942 0.2836337983608246
-0.07432929426431656 -0.6192371845245361 -0.10315859317779541
-0.26870107650756836 0.32492607831954956 -0.39942142367362976
0.17961755394935608 0.39826729893684387 0.11048495769500732
-0.2555256485939026 0.1551400125026703 0.34430983662605286
-0.4522753059864044 0.11976967006921768 0.1781994253396988
-0.23711435496807098 -0.30388355255126953 0.02085440419614315
-0.5319212079048157 -0.08897256851196289 -0.028443070128560066
0.02905392274260521 -0.633604109287262 -0.2963837683200836
0.20561103522777557 0.001570004504173994 -0.20298230648040771
0.028907567262649536 -0.4788295030593872 0.25519829988479614
-0.3763573169708252 -0.04606451466679573 0.14542245864868164
0.3000998795032501 -0.14765238761901855 -0.31022703647613525
0.05264133960008621 0.0021692272275686264 -0.2893362045288086
0.1665235161781311 0.07430155575275421 0.4649532437324524
-0.17184652388095856 -0.09378894418478012 0.1843758225440979
-0.010247242636978626 0.4008895456790924 -0.18200278282165527
-0.0837579146027565 0.01015741191804409 -0.3930094242095947
0.11073870956897736 -0.6194552183151245 -0.3182717263698578
-0.4194343090057373 0.004991155117750168 -0.026374833658337593
0.01832423359155655 0.1713719666004181 -0.4017484188079834
-0.5830936431884766 0.15465275943279266 0.14869530498981476
0.16676440834999084 0.31992989778518677 -0.40133628249168396
-0.006258336827158928 -0.35426682233810425 -0.3542759418487549
0.22801131010055542 -0.009204568341374397 0.29358163475990295
0.5795943140983582 0.04332699999213219 -0.013098404742777348
-0.013203180395066738 0.40204083919525146 -0.12146157771348953
-0.20608235895633698 -0.20267099142074585 0.12272512167692184
-0.011005247011780739 0.2636549472808838 0.3953627943992615
-0.21409711241722107 -0.07141981273889542 0.11253040283918381
-0.23159226775169373 0.004568923264741898 -0.36645179986953735
-0.29425376653671265 0.0012499652802944183 0.13306286931037903
0.3620772063732147 -0.5649160146713257 0.10464833676815033
-0.3193756937980652 0.4012933075428009 0.18522034585475922
-0.030349964275956154 0.001490938477218151 0.02601264789700508
0.5232833027839661 0.39802372455596924 -0.015761198475956917
0.3904464542865753 0.39841124415397644 -0.323422908782959
-0.49045318365097046 0.3833005726337433 -0.39532482624053955
0.2935466170310974 0.0012625133385881782 -0.25115275382995605
-0.40371382236480713 0.40055862069129944 -0.22254790365695953
0.39425480365753174 -0.41013744473457336 -0.013068439438939095
-0.5255958437919617 0.39917927980422974 -0.21430698037147522
0.4449530839920044 -0.2523650527000427 0.033906228840351105
-0.4869353771209717 -0.10726368427276611 0.11455488204956055
0.16018325090408325 -0.3120507597923279 -0.37504082918167114
-0.21407902240753174 -0.327030748128891 -0.16774366796016693
0.2389214038848877 -0.6199513673782349 -0.054214365780353546
-0.20783253014087677 -0.18888616561889648 0.11096125841140747
-0.4134874641895294 0.003560083918273449 -0.3220541775226593
0.10475965589284897 -0.5377331376075745 -0.3216054141521454
0.5799248814582825 0.1764334887266159 0.09471827745437622
-0.2408221811056137 -0.09632865339517593 -0.04382126033306122
-0.5809416174888611 0.02691197395324707 0.0032035086769610643
-0.2382199466228485 -0.2895585596561432 -0.07873339205980301
-0.10022369772195816 -0.1303378790616989 -0.3101365268230438
-0.11008034646511078 0.39734596014022827 -0.11316866427659988
0.11645494401454926 -0.6190095543861389 -0.23688265681266785
0.03711782023310661 -0.3075908124446869 -0.36874276399612427
-0.09767160564661026 0.001459028571844101 -0.22227858006954193
0.23489271104335785 0.0012439414858818054 -0.11562255769968033
-0.061379946768283844 -0.4075855314731598 -0.26788321137428284
-0.01829838939011097 0.0010619014501571655 -0.2707698941230774
0.4830048978328705 0.3894713222980499 0.34096381068229675
0.06540456414222717 0.4002704322338104 -0.2018323391675949
-0.5663495063781738 -0.01942194253206253 0.3411352038383484
-0.37410029768943787 0.4040723443031311 -0.018597763031721115
-0.40636372566223145 0.004883318208158016 -0.16693469882011414
-0.3818764388561249 0.0024741734378039837 0.15023505687713623
-0.1466289609670639 -0.6321833729743958 -0.09641245752573013
-0.44851797819137573 0.10894101858139038 -0.009838598780333996
0.25605863332748413 -0.6325750946998596 0.16150197386741638
-0.3999255895614624 -0.0012721819803118706 0.2709728479385376
0.11413850635290146 0.002483304589986801 0.02115214802324772
0.1454743593931198 0.18851040303707123 0.34246373176574707
-0.36218100786209106 0.00480956956744194 -0.21883010864257812
0.08765578269958496 0.21958202123641968 0.34385642409324646
-0.226437047123909 -0.36378777027130127 -0.11694327741861343
0.06569470465183258 0.023042304441332817 0.3441876471042633
-0.23886854946613312 -0.13954082131385803 -0.012215572409331799
-0.5712831616401672 0.0016052466817200184 0.2765379846096039
-0.5771334767341614 -0.003987038973718882 0.14401476085186005
0.32378053665161133 0.0881233736872673 0.344091534614563
-0.291567862033844 0.0011493731290102005 -0.32848966121673584
0.19147783517837524 -0.30079567432403564 -0.3614373803138733
-0.3916819989681244 -0.07232285290956497 -0.09224701672792435
0.4900144934654236 0.00042091961950063705 0.0812172144651413
0.3819713592529297 0.13262659311294556 -0.40158239006996155
0.10897702723741531 0.015502849593758583 0.4656745195388794
-0.5010784864425659 0.09773285686969757 -0.07145816087722778
0.1443948596715927 0.3982798457145691 -0.007314590271562338
0.15755824744701385 -1.888815313577652e-05 0.07064936310052872
-0.054735951125621796 0.08840639144182205 0.343529611825943
0.23047731816768646 0.0011922689154744148 0.017338059842586517
-0.34960272908210754 0.3778090178966522 0.030651573091745377
-0.5792108178138733 0.2813137173652649 -0.12793250381946564
-0.42194488644599915 0.3983736038208008 -0.29144957661628723
-0.5814681053161621 0.18181216716766357 0.21986381709575653
0.030177295207977295 0.15365630388259888 0.41678380966186523
-0.531883955001831 -0.09169429540634155 0.13212643563747406
0.3030551075935364 -0.17656081914901733 0.2536451518535614
0.546451985836029 0.4010067284107208 0.10246050357818604
0.2781161069869995 0.0026534711942076683 0.11191228777170181
0.27035170793533325 0.3732687532901764 0.46219173073768616
0.12037476152181625 0.40034711360931396 -0.17121043801307678
0.4586092531681061 0.3987892270088196 -0.20552226901054382
-0.11063125729560852 -0.6556400060653687 0.12593196332454681
-0.03586158901453018 -0.0003543907660059631 0.08529430627822876
-0.17788611352443695 0.40036192536354065 -0.36772212386131287
-0.17689232528209686 -0.38910824060440063 0.06855278462171555
-0.40712711215019226 0.39164477586746216 0.012138468213379383
0.2328316867351532 -0.6219354271888733 -0.15147006511688232
0.5786558389663696 0.13053491711616516 -0.23935313522815704
-0.42244017124176025 0.10015086084604263 -0.40108975768089294
-0.4899275600910187 -0.10794603079557419 -0.13523231446743011
0.38660767674446106 -0.39401867985725403 0.039643291383981705
-0.11271721124649048 -0.405805379152298 -0.23994702100753784
0.33627206087112427 -0.28054627776145935 -0.2858756184577942
-0.18109004199504852 -0.5256205797195435 -0.06778530776500702
-0.20694243907928467 0.017704416066408157 -0.395102322101593
0.04384864866733551 0.2663589119911194 0.3495541512966156
-0.1644711196422577 0.1618446260690689 -0.40158811211586
0.5254933834075928 0.39829185605049133 -0.10630834102630615
0.2696740925312042 -0.09291350841522217 -0.3327123522758484
-0.2906484305858612 0.16651788353919983 -0.40333065390586853
-0.4246232211589813 0.10231917351484299 0.3361315131187439
-0.45073598623275757 0.10442319512367249 -0.30802854895591736
-0.12967157363891602 -0.3684770464897156 -0.28602683544158936
-0.41901013255119324 0.3995874524116516 0.21833278238773346
0.0032530007883906364 0.001333562657237053 0.31257814168930054
-0.1697620004415512 -0.49318286776542664 0.06873691827058792
-0.5762617588043213 0.046115994453430176 -0.21640847623348236
0.5186399817466736 0.4018228054046631 -0.22525906562805176
-0.16114135086536407 0.38696449995040894 0.33559948205947876
0.005378889385610819 -0.6368957161903381 -0.3031437397003174
0.16418419778347015 0.20130151510238647 0.342105895280838
-0.5844973921775818 0.2523660659790039 -0.09431011974811554
-0.4745961129665375 -0.11004739254713058 -0.384450227022171
-0.12151110917329788 -0.6285640001296997 -0.07462617009878159
-0.03732655569911003 0.2045731544494629 -0.40390628576278687
0.22133371233940125 0.47025060653686523 0.4058835804462433
-0.4962293207645416 0.0950225293636322 -0.08145398646593094
0.20394597947597504 -0.03359449654817581 0.46522608399391174
-0.34444698691368103 0.4014517664909363 -0.36996784806251526
0.053277090191841125 0.0010490571148693562 -0.009500441141426563
0.10559149831533432 0.050159625709056854 -0.4020802974700928
-0.4732878506183624 0.396967351436615 0.3280608654022217
0.10302799195051193 0.17601819336414337 0.4628888666629791
-0.4439350664615631 -0.10825905948877335 0.2970406413078308
-0.19926270842552185 0.3270847201347351 -0.3987988829612732
0.11570290476083755 -0.6222209334373474 0.1130305752158165
0.11816537380218506 0.40072908997535706 -0.3266525864601135
0.3647051453590393 -0.4641587734222412 0.09590490162372589
0.1663699895143509 -0.08405184000730515 0.3230505883693695
-0.10827147960662842 0.2161075323820114 0.39463749527931213
-0.034880999475717545 -0.6223734021186829 -0.10624876618385315
0.1898861825466156 0.23688164353370667 0.46406322717666626
0.47757765650749207 0.13942942023277283 0.34408804774284363
0.1608148217201233 -0.038975801318883896 0.321934312582016
-0.3728708326816559 0.004718840587884188 -0.2860122323036194
0.41829636693000793 0.3939073979854584 -0.3928229808807373
0.044177908450365067 0.29430344700813293 0.4641953110694885
0.05718405544757843 0.2647048532962799 0.3478938341140747
-0.031246386468410492 0.0975474938750267 -0.40113160014152527
-0.3565421998500824 0.002548543270677328 -0.14754077792167664
-0.5277363061904907 0.19272322952747345 0.3458311855792999
0.3931911587715149 -0.4958460032939911 -0.023421762511134148
-0.22437363862991333 -0.17096872627735138 0.06375078856945038
0.20032013952732086 -0.002183307893574238 0.2613944411277771
0.2597254812717438 0.40122801065444946 -0.14078478515148163
0.10339749604463577 -0.16801200807094574 -0.3740730285644531
-0.1470833271741867 -0.6535688638687134 -0.12026151269674301
0.5769979357719421 0.2924923002719879 -0.00798304844647646
-0.20066168904304504 0.00217816443182528 -0.21655939519405365
0.18145021796226501 -0.007758391555398703 0.324881374835968
0.1708802431821823 0.39855775237083435 0.18730878829956055
0.07445098459720612 0.001939777284860611 -0.30516746640205383
-0.5789907574653625 0.11226517707109451 0.07638320326805115
-0.3763450086116791 -0.04987538605928421 -0.23456168174743652
-0.38672181963920593 0.00402618246152997 -0.2855760157108307
-0.5762420296669006 -0.01667649857699871 -0.04001806303858757
0.5813435316085815 0.3102273941040039 -0.1805301457643509
0.38276025652885437 0.15841569006443024 0.343670129776001
0.10500015318393707 0.0018114419654011726 -0.25305959582328796
0.2106008529663086 0.06790138781070709 0.46554216742515564
0.24038293957710266 -0.17245346307754517 -0.3481755256652832
-0.055115751922130585 -0.001566816121339798 -0.22182869911193848
0.02459035813808441 -0.5276114344596863 -0.30629441142082214
-0.5840425491333008 0.18806993961334229 0.06045661121606827
-0.5023373365402222 0.11233644932508469 -0.2122194468975067
0.17256253957748413 0.09811120480298996 0.46502721309661865
0.08844488859176636 -0.04219065606594086 0.32442912459373474
-0.08487098664045334 -0.26371756196022034 0.2634095847606659
-0.06730882823467255 -0.647423505783081 -0.23560379445552826
-0.07447028905153275 0.08869828283786774 -0.4009435772895813
0.2619510889053345 -0.6232503652572632 0.08109501004219055
0.35921862721443176 0.024259332567453384 -0.40075331926345825
0.276101678609848 0.3989695608615875 0.17097017168998718
0.17835089564323425 -0.39308756589889526 0.2551732361316681
-0.2282024472951889 -0.0018388382159173489 0.03228019177913666
0.44767969846725464 -0.1923568844795227 -0.005303478334099054
0.09393294155597687 0.0017800061032176018 0.08471091836690903
0.05689719691872597 -0.2969522178173065 -0.3675520718097687
-0.18358780443668365 -0.6035494804382324 -0.08216280490159988
0.05664251372218132 -0.6200627088546753 0.06279857456684113
