0.1134798601269722 -0.05393979698419571 0.32128068804740906
0.28546836972236633 0.003871575929224491 -0.21489615738391876
0.10187754780054092 0.17232000827789307 -0.4005345106124878
-0.40691807866096497 0.005793089512735605 -0.35008442401885986
0.2147311121225357 -0.6200612783432007 -0.0009884961182251573
0.2016698718070984 -0.01989813521504402 0.29613855481147766
0.2990465462207794 0.2610066831111908 -0.4031672477722168
-0.17953379452228546 -0.3767074942588806 -0.1843530237674713
0.49254900217056274 0.3985777497291565 -0.3286576569080353
0.2873294949531555 0.004705398343503475 -0.1122092753648758
-0.3601894974708557 0.01787068322300911 0.008815990760922432
-0.5795018672943115 0.2525310516357422 -0.024024222046136856
0.3149896264076233 0.40063706040382385 0.1707371324300766
0.25558793544769287 0.0009138165041804314 -0.11164864897727966
-0.1792004555463791 0.001086799195036292 0.1451004445552826
0.3302607536315918 -0.6521681547164917 0.11211864650249481
0.5809763073921204 0.06137768179178238 0.041815876960754395
-0.017277371138334274 -0.6424732208251953 -0.2528257668018341
-0.12571461498737335 0.0044000521302223206 0.009797760285437107
-0.2647770047187805 0.38343092799186707 -0.08083032816648483
0.4502958059310913 0.3879289925098419 0.3421676456928253
0.5375170111656189 0.4005962312221527 0.10389755666255951
-0.059283386915922165 -0.4979897737503052 0.2128482460975647
0.14302469789981842 0.37730497121810913 -0.40031304955482483
-0.08992528915405273 -0.6451812386512756 -0.20014353096485138
-0.2418861985206604 -0.13262861967086792 -0.0351564884185791
-0.5720594525337219 0.007745031733065844 -0.07488902658224106
0.15330275893211365 -0.14473667740821838 0.30947211384773254
-0.2361915111541748 -0.05178554728627205 -0.043512266129255295
-0.10869007557630539 0.4000435769557953 0.07966066151857376
-0.25813454389572144 0.39919793605804443 -0.3474480211734772
0.4316546320915222 0.39959457516670227 0.3115447163581848
-0.18308089673519135 0.3426591157913208 -0.3979727327823639
-0.08859740942716599 -0.16173985600471497 0.2587459087371826
0.12103680521249771 0.46930065751075745 0.44047874212265015
0.026570400223135948 0.2363361120223999 -0.3982994854450226
0.2419656664133072 0.3988376259803772 0.34557077288627625
-0.3993854522705078 0.3983151614665985 -0.2521274983882904
0.13302259147167206 -0.3591781556606293 -0.3748700022697449
0.04319649189710617 0.09345646947622299 -0.4013541638851166
0.28466060757637024 -0.38044753670692444 0.2098831832408905
0.556740939617157 0.39842426776885986 0.09080503135919571
0.012340805493295193 0.3999425172805786 0.17864519357681274
0.10228075832128525 0.0024365982972085476 -0.3300148546695709
0.1516374945640564 0.2772584557533264 -0.40123698115348816
0.2737654447555542 0.004157485906034708 0.13806527853012085
0.3644046187400818 -0.6327919363975525 -0.1435350626707077
-0.05066594481468201 -0.6419163346290588 0.21513360738754272
-0.3741491138935089 0.0711919292807579 0.12453609704971313
0.03245801478624344 0.19788098335266113 -0.4006170928478241
-0.4613935649394989 0.39468103647232056 -0.0074392021633684635
0.2153933048248291 0.0035058087669312954 0.15416043996810913
0.018425963819026947 0.24131420254707336 0.3521266281604767
0.10755443572998047 0.0032019405625760555 0.16050168871879578
0.5388601422309875 0.4022524952888489 -0.3538784384727478
0.07548046112060547 -0.5204669833183289 -0.3213798701763153
-0.4694317579269409 -0.09564166516065598 -0.02422889694571495
-0.3646353483200073 0.3940086364746094 -0.21904630959033966
-0.5698949098587036 0.07803063094615936 -0.3965176045894623
0.47037795186042786 -4.82071191072464e-05 -0.09363142400979996
0.27578651905059814 0.13115306198596954 0.46275052428245544
-0.5516220331192017 0.07095395028591156 0.34678953886032104
0.0974201187491417 0.0026627192273736 -0.28760573267936707
0.2926444709300995 -0.029657701030373573 0.273069828748703
-0.17766539752483368 -0.15937340259552002 -0.2282881885766983
0.5752274990081787 0.3864280879497528 -0.08196660876274109
0.3490007221698761 0.39991676807403564 -0.1796131730079651
0.24466772377490997 -0.5342118144035339 0.22274482250213623
-0.5784444212913513 0.1405705213546753 0.16061216592788696
0.3481680154800415 0.003947937861084938 0.049699991941452026
-0.500769853591919 -0.017435884103178978 0.353140264749527
-0.04285270720720291 0.0033782823011279106 -0.1909153312444687
-0.5126662850379944 0.1929951310157776 0.34299665689468384
-0.5754680037498474 0.06083245202898979 0.3114001154899597
0.11425559967756271 -0.6216845512390137 0.10191310942173004
-0.5813890099525452 0.01414272841066122 0.2847241461277008
0.22891905903816223 -0.6296517848968506 -0.22668489813804626
-0.25290071964263916 0.39795511960983276 0.07956673949956894
-0.19662296772003174 0.2202707976102829 -0.39916107058525085
0.057618945837020874 -0.11157640069723129 -0.36844733357429504
-0.571049690246582 0.049663983285427094 -0.10191384702920914
-0.05409746244549751 0.0026191396173089743 -0.27043309807777405
-0.3963133990764618 0.09956423193216324 -0.37353411316871643
-0.4087750017642975 0.026092270389199257 0.3466433584690094
0.33728915452957153 0.148930162191391 0.39725834131240845
0.14461660385131836 0.3987818956375122 -0.23607008159160614
0.21789082884788513 -0.6164532899856567 -0.05214685574173927
0.04791174456477165 -0.515662670135498 0.25801461935043335
-0.12398326396942139 0.39931726455688477 -0.24601978063583374
0.19172242283821106 -0.6190011501312256 0.10480529814958572
-0.5403041839599609 0.00922253355383873 -0.2678776979446411
0.09069576859474182 0.39974290132522583 0.14605820178985596
-0.2300579845905304 -0.11514770984649658 0.06108950823545456
0.40519189834594727 -0.012635343708097935 0.1225152537226677
-0.5759356021881104 0.00041722413152456284 0.21371223032474518
0.08849185705184937 -0.6215941309928894 0.02543444186449051
-0.265207976102829 0.39934617280960083 -0.2622162699699402
-0.24083440005779266 -0.3536953628063202 -0.032553531229496
0.283097505569458 0.398036390542984 -0.39245477318763733
-0.49879011511802673 -0.10818558931350708 -0.19282305240631104
0.10425472259521484 -0.08603611588478088 0.3194821774959564
0.11628450453281403 0.3997441232204437 0.23403222858905792
0.30375805497169495 0.06703545153141022 0.4637313783168793
0.35535287857055664 0.0040524424985051155 -0.0874699056148529
-0.30678993463516235 0.01195256132632494 -0.39811599254608154
0.416422039270401 0.06484989821910858 -0.40207070112228394
-0.21078382432460785 0.39924657344818115 0.039336346089839935
0.48080429434776306 0.11637513339519501 0.34391000866889954
0.10192360728979111 -0.6195021867752075 -0.11309631913900375
-0.404780775308609 -0.0007391022518277168 0.07160341739654541
0.41057533025741577 -0.263580858707428 -0.18828405439853668
0.5275017619132996 0.19475769996643066 -0.3958745002746582
-0.036875203251838684 0.3990960121154785 -0.19880439341068268
-0.057891421020030975 -0.4369910955429077 -0.271720290184021
-0.4084557592868805 0.32339078187942505 0.3464440405368805
-0.18184243142604828 -0.206057608127594 -0.22126469016075134
0.13676966726779938 0.39939969778060913 -0.26970374584198
0.07768446207046509 -0.08330997824668884 -0.37446165084838867
0.20861315727233887 -0.3983844816684723 -0.3002411127090454
-0.15385600924491882 0.07298637181520462 0.34305787086486816
-0.37987419962882996 0.0006028693169355392 -0.3324336111545563
0.23680546879768372 -0.12562590837478638 0.28926965594291687
-0.42369702458381653 0.0062132710590958595 -0.02418091893196106
-0.4021558165550232 -0.0928049311041832 -0.3305165767669678
0.578081488609314 0.09793398529291153 0.29324251413345337
-0.4573770761489868 -0.039062466472387314 0.352580189704895
0.16818174719810486 -0.6238518953323364 -0.28302201628685
0.2543104290962219 -0.2144262045621872 -0.3393933176994324
0.22703005373477936 0.0026511726900935173 0.037010785192251205
-0.21817506849765778 -0.13641345500946045 0.10650307685136795
-0.14605745673179626 -0.6458302140235901 -0.11572849750518799
-0.5039566159248352 0.1858452558517456 -0.39877960085868835
0.07327598333358765 0.0029276288114488125 -0.011629884131252766
-0.17660187184810638 -0.5364840030670166 0.06329633295536041
-0.30136674642562866 0.3682575225830078 -0.008843333460390568
0.5317546129226685 0.23794052004814148 0.34568825364112854
0.10166743397712708 -0.6197376847267151 0.026007676497101784
-0.5729169845581055 0.034976497292518616 -0.3905562162399292
-0.5237399339675903 0.3456575274467468 -0.06134307011961937
0.03388619422912598 0.0025750789791345596 0.2584936022758484
-0.15903852880001068 0.0026895683258771896 0.1520228385925293
0.040432095527648926 0.24781586229801178 0.35616037249565125
0.3201638460159302 0.40103796124458313 0.20666293799877167
-0.5683632493019104 0.01477603055536747 -0.3874325156211853
-0.47731319069862366 -0.11532414704561234 -0.2049081027507782
0.44237640500068665 -0.3098244369029999 0.010980872437357903
-0.10658834874629974 -0.0712052583694458 -0.30515819787979126
-0.5125294923782349 0.05695720016956329 -0.40005674958229065
-0.48418644070625305 0.009540754370391369 -0.3363790512084961
0.020121868699789047 0.018850263208150864 0.4470269978046417
0.17830945551395416 0.003204755485057831 0.05031168460845947
-0.569705069065094 0.006721330340951681 0.11300522089004517
-0.16050247848033905 -0.6533433198928833 -0.1373245269060135
0.5822942852973938 0.27390819787979126 -0.25446271896362305
-0.5430028438568115 -0.003987536765635014 -0.19321562349796295
-0.11730790883302689 -0.002921193838119507 -0.20100459456443787
0.3296274244785309 -0.4390411078929901 -0.21055059134960175
0.37850335240364075 -0.17999058961868286 0.17416726052761078
0.5757377743721008 0.31731095910072327 -0.3944787383079529
0.40111809968948364 0.2158198356628418 -0.4037010669708252
0.1434674859046936 -0.6472334861755371 -0.2926582396030426
-0.49572643637657166 0.39968380331993103 0.05715420842170715
-0.38947656750679016 0.09393850713968277 -0.30149704217910767
-0.42815595865249634 -0.057850420475006104 0.34068530797958374
0.5818896293640137 0.18035337328910828 -0.2235429286956787
-0.17596270143985748 -0.3796516954898834 -0.20446275174617767
-0.5659719705581665 0.19810934364795685 -0.39572665095329285
0.5832102298736572 0.30844011902809143 0.10533028841018677
-0.5500475764274597 0.39048194885253906 0.30585190653800964
0.07678581774234772 -0.32354551553726196 -0.3748176693916321
-0.5821991562843323 0.21835997700691223 0.07786261290311813
0.17920085787773132 0.062359973788261414 -0.4010542035102844
0.052229512482881546 0.39922964572906494 -0.2620891332626343
-0.5804901123046875 0.28895652294158936 0.18581217527389526
-0.5798530578613281 0.2041051834821701 -0.14558586478233337
0.43509048223495483 -0.3221585750579834 -0.13855154812335968
0.5696556568145752 0.39643943309783936 0.21728970110416412
0.32375648617744446 0.32039809226989746 0.34383100271224976
0.44631311297416687 0.001641036942601204 -0.20221510529518127
-0.33342045545578003 0.3757248818874359 0.03251872956752777
-0.4622466564178467 0.1161615252494812 -0.2927547097206116
0.09373299032449722 0.003292887704446912 -0.30306190252304077
0.5731727480888367 0.009135447442531586 -0.18460911512374878
0.2295902818441391 0.0017170263454318047 0.2684437334537506
0.3365855813026428 0.18796110153198242 -0.4012897312641144
-0.576464831829071 0.3069802522659302 0.3358757793903351
0.11536554247140884 0.002386915497481823 -0.18339160084724426
0.005081740207970142 0.3997686505317688 0.10560399293899536
0.011925178579986095 0.055870119482278824 0.39133504033088684
0.25303542613983154 0.10262499004602432 0.345132976770401
0.5840557813644409 0.25692760944366455 0.30974873900413513
0.41200295090675354 0.000970965251326561 -0.35743609070777893
0.15581046044826508 0.003356274450197816 -0.00020125077571719885
0.42361918091773987 -0.2713260352611542 0.10396552085876465
-0.035534415394067764 0.40108999609947205 0.09099557250738144
-0.511532187461853 0.11165576428174973 0.0984189510345459
-0.19928351044654846 0.0010732980445027351 0.09683333337306976
-0.5782402157783508 0.3407208323478699 -0.14785121381282806
-0.5781930685043335 0.1486961990594864 -0.12752416729927063
-0.5776834487915039 0.32700130343437195 -0.15825843811035156
-0.5134840607643127 0.39377903938293457 0.10568194836378098
0.2542853057384491 -0.04597921296954155 0.3310719132423401
0.5393165349960327 0.4000250995159149 0.2042405605316162
-0.08498828858137131 -0.6240378618240356 0.005422462243586779
-0.5057903528213501 0.24157841503620148 0.3458212614059448
0.3994748890399933 0.40170997381210327 0.03580170124769211
0.28391000628471375 0.16246113181114197 -0.40280744433403015
-0.21086445450782776 0.004159857518970966 0.3066966235637665
-0.3681119978427887 0.032879456877708435 0.3414250612258911
0.32673242688179016 0.1371183693408966 0.4113156795501709
0.2235211282968521 0.39835336804389954 0.008872581645846367
0.544401228427887 0.0038710525259375572 0.15963557362556458
-0.5733953714370728 -0.0037359516136348248 -0.3314513564109802
0.3300653398036957 -0.32229167222976685 0.22991135716438293
0.039652835577726364 -0.09784474223852158 0.3132997453212738
-0.4413931667804718 -0.1092774048447609 -0.16609345376491547
0.1367434561252594 -0.3778736889362335 -0.35830074548721313
-0.3605867922306061 -0.008679090067744255 -0.22423656284809113
-0.12864108383655548 -0.000833696685731411 -0.2714116871356964
-0.5732008218765259 0.013101386837661266 0.08592633157968521
-0.24153074622154236 0.013129198923707008 -0.3970161974430084
-0.12292402237653732 0.39805591106414795 -0.35716110467910767
-0.10649903118610382 0.3788551986217499 -0.39799848198890686
-0.26879963278770447 0.4013915956020355 0.2465815395116806
0.34699925780296326 0.29176777601242065 -0.4021972119808197
0.1965760439634323 -0.16709913313388824 -0.36016252636909485
0.4445071816444397 0.4004485011100769 0.27623897790908813
-0.5346355438232422 0.021507706493139267 -0.3969579041004181
-0.07494553178548813 0.003737779799848795 0.03801998496055603
0.3502761125564575 0.003875419497489929 -0.17900268733501434
0.4424888789653778 0.21824735403060913 0.3436708450317383
-0.5505121946334839 0.3857882022857666 -0.230712890625
-0.4836759567260742 0.23557280004024506 0.3445970416069031
0.580310046672821 0.07225006073713303 0.02599097043275833
0.1546047329902649 0.07786097377538681 -0.4004877805709839
-0.2356579303741455 -0.09184344857931137 -0.07952257990837097
0.18015675246715546 0.0029192836955189705 -0.19931067526340485
-0.42432597279548645 0.011805789545178413 -0.4029191732406616
0.4449000954627991 -0.22696936130523682 -0.0005405519623309374
0.3510495126247406 0.03466606140136719 -0.40269094705581665
0.11917227506637573 -0.3914146423339844 -0.325899600982666
0.2522171437740326 -0.6197566986083984 0.06416703015565872
-0.2057425081729889 0.003784632310271263 -0.11611241847276688
-0.113462895154953 0.3867802321910858 -0.39455461502075195
-0.42255133390426636 0.37103816866874695 0.3430972397327423
-0.540095865726471 0.3883551359176636 0.12004515528678894
0.440021812915802 -0.1617538034915924 -0.09759555011987686
0.30120986700057983 -0.09351139515638351 0.25147563219070435
0.5679128170013428 0.050402406603097916 0.339603453874588
0.5806930065155029 0.054528988897800446 0.2277490794658661
0.10200415551662445 0.0021454114466905594 -0.09614261984825134
-0.5335515737533569 0.09840506315231323 -0.37693122029304504
-0.16260690987110138 0.002224409021437168 -0.07210282236337662
0.1835685819387436 -0.6236643195152283 0.04199926182627678
0.06632871925830841 0.0035698935389518738 0.05984717234969139
-0.024559728801250458 -0.007043986115604639 0.28177645802497864
-0.10653096437454224 0.0006975699216127396 -0.2988901436328888
-0.12112165242433548 -0.14823290705680847 0.23820193111896515
-0.5372077226638794 0.057891905307769775 -0.4003034830093384
-0.20474137365818024 -0.2402956634759903 -0.1839807629585266
0.2803654670715332 -0.6223897337913513 0.042317986488342285
-0.46048930287361145 0.041010621935129166 -0.39988330006599426
0.36206957697868347 0.0006788731552660465 -0.338559091091156
0.08720275014638901 -0.09159810096025467 0.38187384605407715
-0.5799733996391296 0.06791873276233673 0.24211683869361877
-0.4642643332481384 0.11888015270233154 0.01915079541504383
0.030485274270176888 0.0019800039008259773 -0.24013227224349976
-0.5284160375595093 0.3947257399559021 -0.19437319040298462
0.3941890299320221 -0.16135495901107788 0.1512226164340973
0.38316044211387634 -0.6402020454406738 0.02237205021083355
-0.4431084394454956 -0.10749851912260056 0.12104890495538712
0.16330058872699738 0.0032031440641731024 0.01638367958366871
0.2434791773557663 -0.6208173036575317 0.03544283285737038
0.259631484746933 0.0007269552443176508 -0.3211907148361206
0.25989001989364624 0.3963893949985504 -0.36385002732276917
-0.3636755347251892 0.012755680829286575 0.3384867310523987
0.2820472717285156 -0.045232970267534256 0.4634755253791809
-0.5792850255966187 0.22255843877792358 0.23225116729736328
0.3274901807308197 0.19774696230888367 -0.4030058979988098
0.3346584737300873 -0.580685019493103 0.1448277235031128
0.4388299286365509 0.2611793279647827 -0.40358272194862366
-0.034855425357818604 -0.18358980119228363 -0.34929710626602173
-0.00260937656275928 -0.6199022531509399 0.04382826387882233
0.2447148561477661 -0.4751071333885193 0.2249230146408081
0.36824148893356323 -0.5320339798927307 0.10147030651569366
-0.5807088017463684 0.34294363856315613 0.08401627838611603
-0.22922223806381226 0.39650198817253113 -0.13217926025390625
-0.22557929158210754 0.06637229770421982 -0.39979514479637146
-0.459124356508255 0.21204471588134766 0.34367188811302185
-0.19587793946266174 0.3991442620754242 -0.10108590871095657
0.16873905062675476 0.27379876375198364 0.3424313962459564
0.09986355155706406 -0.008825485594570637 -0.37938448786735535
0.2308931201696396 -0.6373077630996704 0.20867498219013214
-0.5793282985687256 0.11628314107656479 -0.2928844094276428
0.2754497826099396 -0.07504814118146896 0.45611509680747986
-0.0019940868951380253 -0.6239559054374695 0.15707220137119293
-0.36211395263671875 -0.0303366556763649 -0.047475337982177734
0.2815465033054352 -0.6219471096992493 -0.13686268031597137
-0.26159921288490295 0.004823711235076189 -0.35801368951797485
0.5276209115982056 0.39755934476852417 -0.3635696768760681
-0.4048890471458435 0.4104906916618347 -0.1586170345544815
0.1507025808095932 0.0023502421099692583 -0.35958626866340637
-0.4467565715312958 0.008126419968903065 0.3509122431278229
-0.4606282413005829 0.08680467307567596 -0.3997077941894531
-0.3404949903488159 0.39852073788642883 -0.3361111879348755
0.02308710478246212 0.34721359610557556 -0.3979279398918152
0.047578874975442886 -0.050217293202877045 -0.37204211950302124
-0.1853988766670227 -0.43369877338409424 0.0001706741750240326
-0.38329851627349854 0.2691222131252289 0.34600579738616943
-0.12770268321037292 -0.47531837224960327 0.15531428158283234
-0.5769225358963013 0.3400363326072693 -0.04385245218873024
0.11454865336418152 0.024785570800304413 -0.4008371829986572
-0.16167347133159637 0.0025824536569416523 -0.15646414458751678
0.23573315143585205 -0.6182767748832703 0.22473102807998657
-0.031581588089466095 0.39684656262397766 -0.38061192631721497
0.27890247106552124 -0.6206411123275757 0.008901032619178295
0.324938029050827 0.0014538681134581566 0.17906786501407623
-0.013198405504226685 -0.6244385242462158 -0.19760726392269135
0.06712417304515839 0.3963145911693573 -0.39446884393692017
-0.4914119243621826 -0.11133314669132233 -0.13691838085651398
-0.13698914647102356 0.39858388900756836 -0.11725116521120071
0.11699187010526657 0.003476864192634821 -0.29031047224998474
0.4715368151664734 0.40169739723205566 0.13938452303409576
-0.3016393780708313 0.40042078495025635 0.09469716995954514
-0.3380294144153595 0.39201733469963074 -0.18362265825271606
0.5291734933853149 0.3993203341960907 -0.3252719044685364
-0.009786441922187805 0.0037596961483359337 0.1018223837018013
0.45680347084999084 0.2696893513202667 0.3455713093280792
-0.40777891874313354 0.1987137794494629 0.34339258074760437
-0.5618855357170105 0.0457441546022892 0.13601595163345337
0.3105355501174927 -0.6211133599281311 -0.08533550053834915
-0.017322931438684464 -0.6219826340675354 -0.018142377957701683
0.09771844744682312 0.3968386650085449 -0.3796963393688202
-0.007689425256103277 -0.642027735710144 -0.2919060289859772
0.3551176190376282 0.018321577459573746 -0.4021875560283661
-0.3431283235549927 0.056072741746902466 0.34178394079208374
0.24831081926822662 -0.5652754902839661 0.21801088750362396
-0.08224421739578247 0.10339708626270294 -0.4006173014640808
0.09941228479146957 -0.26219144463539124 -0.3754845857620239
0.2693560719490051 -0.6188961863517761 -0.0007611471228301525
-0.14968259632587433 -0.5618302226066589 0.11816820502281189
-0.12550459802150726 0.39783769845962524 -0.33460259437561035
0.05915086343884468 0.3950527012348175 0.3368089199066162
-0.4591332674026489 0.4027577042579651 -0.012439054436981678
0.06260988116264343 0.0027626212686300278 0.04381345957517624
-0.48896899819374084 0.10735524445772171 -0.027790512889623642
-0.2213273048400879 0.4017488956451416 0.24774795770645142
0.2555379569530487 0.004233058542013168 -0.20946846902370453
0.2823447585105896 -0.20139071345329285 -0.31855788826942444
0.3453528881072998 0.0016716616228222847 -0.23829761147499084
-0.5683462619781494 -0.038554027676582336 -0.20281106233596802
0.32328900694847107 -0.09529267251491547 0.369390070438385
0.08043395727872849 -0.08016931265592575 0.36232298612594604
-0.5764798521995544 0.3057859241962433 0.31123700737953186
-0.5226408243179321 0.3935511112213135 -0.21433387696743011
0.014302864670753479 0.3503916561603546 0.34232962131500244
-0.5004332661628723 0.18089908361434937 0.3416931629180908
0.5768576860427856 0.07106540352106094 -0.2642787992954254
-0.3679937422275543 0.3989679515361786 0.11278470605611801
-0.11580217629671097 0.09634189307689667 0.3411310911178589
0.32254698872566223 0.35567599534988403 0.3774136006832123
0.03811119869351387 -0.6225172877311707 0.09205925464630127
-0.3491196930408478 0.0036269607953727245 -0.35029006004333496
-0.5102253556251526 0.005173166748136282 -0.23472248017787933
0.09165515005588531 -0.6230279803276062 -0.25994673371315
0.3685348331928253 -0.5154854655265808 -0.1434352993965149
-0.04293179512023926 -0.6240692138671875 -0.2792128920555115
0.2819783687591553 0.4005569517612457 0.30385008454322815
0.015158431604504585 0.004068942740559578 0.15470808744430542
0.5567358732223511 0.27266252040863037 -0.4020048975944519
0.4168734848499298 -0.14721447229385376 -0.18045182526111603
-0.5724722146987915 -0.021530017256736755 0.2932731509208679
0.16616880893707275 0.0016508027911186218 0.24963143467903137
-0.5781654715538025 0.32324936985969543 -0.0179640743881464
0.5820843577384949 0.13898111879825592 0.16531768441200256
0.5811834931373596 0.11087511479854584 -0.10348951071500778
0.34856486320495605 0.4010370373725891 0.0057300240732729435
0.04843999445438385 -0.07378604263067245 0.34564584493637085
0.025581998750567436 -0.62303626537323 -0.3069790005683899
0.36126670241355896 -0.6120879650115967 -0.15044136345386505
-0.24323232471942902 0.2545449733734131 0.34349989891052246
-0.5735390186309814 0.06293696165084839 -0.3895781934261322
0.4474613070487976 0.4023861587047577 0.26484429836273193
-0.1734512448310852 -0.560650110244751 0.07452672719955444
-0.17451846599578857 0.18339978158473969 -0.40016141533851624
0.10066854953765869 -0.2778022885322571 0.3184652626514435
0.5815046429634094 0.16967613995075226 0.2822156250476837
0.22786714136600494 -0.19622762501239777 0.29171204566955566
0.07439146190881729 0.4005173146724701 -0.013462701812386513
0.440853476524353 -0.09698546677827835 -0.10293538868427277
0.4138266444206238 -0.0005734269507229328 -0.3313715159893036
-0.36784589290618896 0.008074820972979069 -0.07658372074365616
-0.1288641393184662 -0.5590850710868835 -0.20415610074996948
0.29024234414100647 -0.619985818862915 -0.1023072600364685
0.5796470046043396 0.27966490387916565 0.08343009650707245
0.4917057454586029 -0.00035658536944538355 -0.07041912525892258
0.18439410626888275 0.39898794889450073 -0.20450672507286072
0.5775206089019775 0.016449181362986565 -0.01866963319480419
-0.5803101658821106 0.2789551317691803 -0.24432840943336487
-0.2550658881664276 0.043602295219898224 0.34305092692375183
-0.5800617337226868 0.3306902348995209 -0.30622512102127075
-0.48911088705062866 -0.11419844627380371 0.32072627544403076
0.20335665345191956 -0.3763664662837982 0.2772296369075775
0.31402572989463806 0.16212421655654907 0.3446040749549866
0.38026052713394165 -0.0004020486958324909 -0.33570757508277893
0.5774874091148376 0.1078651174902916 -0.11437299102544785
0.3947604298591614 -0.42364299297332764 -0.07466183602809906
0.16342492401599884 0.2879340350627899 -0.4015100300312042
-0.17792010307312012 0.23568806052207947 -0.4022473096847534
-0.36438632011413574 -0.0341126024723053 -0.323545902967453
-0.1423269659280777 -0.25906887650489807 0.21500033140182495
-0.025089243426918983 0.0030831608455628157 0.13954609632492065
-0.5444766879081726 0.38835886120796204 0.15577705204486847
-0.5781496167182922 0.13950380682945251 -0.21970191597938538
0.35678890347480774 0.3129913806915283 0.3455439805984497
0.36129331588745117 -0.0022460343316197395 0.21122802793979645
0.020893476903438568 0.0017272518016397953 -0.19849786162376404
0.16712301969528198 -0.6206040978431702 -0.06757987290620804
0.09393119812011719 -0.6232662796974182 -0.048291947692632675
0.5763115286827087 0.3941802978515625 0.058510031551122665
-0.380141943693161 0.03798941150307655 -0.2229367047548294
-0.578773021697998 0.18934482336044312 -0.024126488715410233
-0.3895227909088135 0.41400307416915894 -0.13638703525066376
-0.5822522640228271 0.29839324951171875 -0.1490791290998459
0.25235864520072937 0.0011965169105678797 -0.28918856382369995
-0.5705196857452393 0.35877397656440735 0.18262739479541779
-0.16829778254032135 -0.25517967343330383 -0.2412315011024475
-0.19696925580501556 -0.38430845737457275 -0.14704005420207977
0.29151809215545654 0.399419903755188 -0.027845798060297966
-0.04334920644760132 0.002460021059960127 -0.10280169546604156
-0.16938292980194092 0.002030857838690281 0.14238408207893372
-0.14250098168849945 0.18264959752559662 0.34464162588119507
0.546367347240448 0.04670017585158348 -0.39794033765792847
-0.4211212396621704 0.09168383479118347 0.3406909704208374
-0.49761974811553955 -0.09502460807561874 -0.3994099199771881
0.29399722814559937 0.3669145703315735 0.46731725335121155
0.14329981803894043 0.14277440309524536 0.47102856636047363
0.1363922506570816 -0.6325535774230957 -0.2648034989833832
0.5810911655426025 0.17328833043575287 0.2178618460893631
-0.3513425886631012 0.04547831416130066 -0.3959023356437683
-0.46371182799339294 0.05309058725833893 0.3497907221317291
-0.21871113777160645 0.40028467774391174 -0.15490680932998657
-0.14378216862678528 -0.21210701763629913 0.2121896594762802
0.21970228850841522 -0.266645222902298 0.2942838668823242
0.15784697234630585 0.0038237078115344048 0.005506006069481373
0.30734220147132874 0.009173577651381493 -0.39319363236427307
0.3189484179019928 0.4028947353363037 0.2598763704299927
0.1473727524280548 0.0019544241949915886 -0.3091706931591034
-0.2455243468284607 0.0012201201170682907 -0.0521358922123909
-0.4305959641933441 0.09128087759017944 -0.23839543759822845
-0.056204985827207565 -0.6188714504241943 -0.15481090545654297
0.24038267135620117 -0.37927231192588806 -0.31736424565315247
0.22271013259887695 0.39766719937324524 0.07596854120492935
0.5449388027191162 0.0028537586331367493 -0.33017870783805847
0.5811496376991272 0.3046586215496063 -0.03003733418881893
-0.12848643958568573 -0.396404504776001 -0.20557355880737305
-0.5741230249404907 0.13206928968429565 -0.1427067369222641
-0.35333213210105896 -0.007768756709992886 -0.27502894401550293
0.44847142696380615 -0.08796390146017075 -0.07750728726387024
-0.029368937015533447 -0.6250350475311279 -0.1427736133337021
-0.5744309425354004 0.11605487763881683 -0.154934823513031
0.044472891837358475 -0.026718737557530403 0.32731199264526367
0.0551866814494133 0.2935487627983093 -0.3988775908946991
0.01953594572842121 0.33520272374153137 0.3695794343948364
0.27426615357398987 0.4588882327079773 0.36004742980003357
-0.5810655951499939 0.11724430322647095 0.2915000319480896
0.2491925060749054 0.22901000082492828 0.4632391631603241
-0.2307174652814865 0.00247881468385458 -0.15745116770267487
-0.16237932443618774 0.27792367339134216 0.3474453091621399
0.22582672536373138 0.0036869863979518414 0.16045646369457245
0.447401762008667 -0.07639780640602112 -0.08872311562299728
-0.31607377529144287 0.004182838369160891 0.10033723711967468
0.32952767610549927 -0.27855345606803894 -0.2930610179901123
-0.019052352756261826 -0.6218867301940918 0.1288464069366455
0.01643308438360691 0.3622005581855774 0.3417811989784241
-0.4994840621948242 -0.120210662484169 0.2600453794002533
0.5779628157615662 0.388984739780426 -0.0854494646191597
-0.15582294762134552 -0.46418824791908264 -0.14882053434848785
0.07255478948354721 0.0033316751942038536 -0.301811158657074
-0.23886580765247345 -0.001606963574886322 -0.09718819707632065
-0.49213188886642456 0.40085822343826294 0.2879073917865753
0.33083972334861755 0.24125845730304718 0.3444158732891083
0.5826854109764099 0.2568254768848419 -0.14845257997512817
-0.09193751960992813 -0.01518819760531187 -0.3133082091808319
0.09708311408758163 -0.6307379603385925 -0.27142688632011414
-0.4998708963394165 0.39905017614364624 0.11195839196443558
-0.12019467353820801 0.3995271921157837 0.13378965854644775
0.3597276210784912 -0.5891584753990173 0.10318323224782944
0.5814655423164368 0.1880333423614502 0.09633321315050125
-0.5794937014579773 0.10000330954790115 -0.36248794198036194
0.48053622245788574 0.12798303365707397 0.34308168292045593
0.22433821856975555 0.00010676868259906769 0.13366428017616272
0.2419496327638626 0.003170774318277836 -0.1020631268620491
0.004771432373672724 0.4000090956687927 0.17192396521568298
-0.06791144609451294 0.4002189338207245 -0.19159072637557983
0.028093386441469193 0.12388751655817032 0.42949455976486206
0.1935083270072937 0.0035716798156499863 -0.23892842233181
0.1851676106452942 0.16518722474575043 0.3415721654891968
0.18539515137672424 0.4537610411643982 0.36474254727363586
0.5822618007659912 0.21522623300552368 -0.06423858553171158
-0.3480353355407715 0.03303892910480499 0.3395875096321106
-0.37148937582969666 0.3528651297092438 0.026753952726721764
0.2896604835987091 -0.09469091892242432 -0.3216152787208557
-0.43562379479408264 0.004738808609545231 -0.09897506237030029
0.2767758071422577 -0.3610423505306244 0.27062150835990906
-0.19896861910820007 -0.39297381043434143 -0.008126093074679375
-0.4068511724472046 0.005090328864753246 -0.2054990828037262
0.430936336517334 0.009549964219331741 0.33292701840400696
-0.015701182186603546 0.014037329703569412 -0.39589154720306396
0.4832460284233093 0.06250963360071182 -0.3975817561149597
-0.00521500688046217 -0.6237161159515381 0.08245968818664551
0.025126773864030838 0.3094553053379059 -0.3992122709751129
0.2598825693130493 -0.6210729479789734 -0.1624802201986313
0.011897318065166473 0.09091170132160187 0.34516018629074097
0.5777144432067871 0.0971856415271759 -0.3696272075176239
-0.5248732566833496 -0.000957859680056572 -0.10112106055021286
0.023469550535082817 0.24326246976852417 0.3628760278224945
0.5811785459518433 0.17247162759304047 0.2417868971824646
0.06227128207683563 0.3981158137321472 0.07957926392555237
-0.07376834750175476 -0.4402427673339844 -0.25422701239585876
0.1584993302822113 0.3982398509979248 0.17655226588249207
-0.5771512985229492 0.2738904058933258 -0.009782757610082626
0.5172655582427979 0.4007977545261383 -0.24642066657543182
0.41968849301338196 0.40163230895996094 0.119475819170475
-0.43304330110549927 0.4039919674396515 -0.13673554360866547
0.3943765461444855 -0.3849033713340759 -0.0972956195473671
0.20493218302726746 -0.6203272342681885 0.16215452551841736
-0.2909485399723053 0.0023038932122290134 0.12764348089694977
0.02923370897769928 0.39856988191604614 0.22214248776435852
0.31109127402305603 0.40004658699035645 0.060345299541950226
0.5821094512939453 0.09257954359054565 -0.13197413086891174
-0.3225289285182953 0.31950902938842773 0.3426995277404785
-0.5805079340934753 0.33359605073928833 -0.07683613151311874
-0.5821182727813721 0.2746833264827728 -0.20026279985904694
0.10883158445358276 -0.5283553004264832 -0.31600672006607056
0.5527774691581726 0.006728244014084339 0.2494955211877823
0.06845196336507797 0.0028668087907135487 0.19399361312389374
0.3695710301399231 -0.4001083970069885 0.07728644460439682
-0.23610934615135193 -0.11351178586483002 0.020162856206297874
0.2420513927936554 0.35636377334594727 0.3417932093143463
0.044106997549533844 0.3991416394710541 -0.06061722710728645
-0.15810297429561615 -0.12470636516809464 -0.25517749786376953
0.22940054535865784 -0.578196108341217 -0.2869919240474701
0.08709271997213364 -0.6218594908714294 0.11966153979301453
0.16929548978805542 -0.6221186518669128 -0.15894557535648346
0.30489569902420044 0.005085151642560959 0.18568634986877441
-0.2272108495235443 -0.1317293494939804 0.07821331918239594
-0.44122689962387085 -0.097283735871315 0.1965625286102295
0.3012014329433441 0.000787392258644104 -0.30848854780197144
0.2505432665348053 -0.03520466387271881 0.3226221799850464
0.5849257111549377 0.1866525262594223 0.19795915484428406
0.5028442740440369 0.22910360991954803 -0.40335240960121155
-0.17084066569805145 0.384366899728775 -0.39530619978904724
-0.4630010426044464 0.0038422709330916405 -0.3996603488922119
-0.5512410402297974 0.11736305803060532 -0.3944174349308014
-0.18565161526203156 -0.28353211283683777 0.16504575312137604
0.27954840660095215 0.09161525219678879 -0.4029174745082855
0.37996670603752136 -0.3729347586631775 -0.22606311738491058
-0.5465425848960876 0.07309284806251526 0.3416781425476074
-0.4574715495109558 0.3194258511066437 0.34575942158699036
0.17005425691604614 0.0960797592997551 0.3428928256034851
0.37372341752052307 -0.14216530323028564 0.18070217967033386
0.5184823870658875 0.40112537145614624 0.03456678241491318
-0.1050083190202713 0.004590248689055443 -0.037412699311971664
0.26549726724624634 0.30321037769317627 0.3437516987323761
0.3052791655063629 -0.6353411078453064 -0.1529063731431961
0.12949612736701965 -0.1363978236913681 0.3176821768283844
0.05781859531998634 -0.24659627676010132 -0.370575487613678
-0.22993746399879456 -0.018997974693775177 -0.1341940313577652
0.33848074078559875 -0.168269082903862 0.2181110680103302
-0.4074556827545166 0.4043812155723572 -0.15014712512493134
0.2664255201816559 -0.6532704830169678 -0.2485751509666443
0.4422386586666107 -0.2277340590953827 -0.09409703314304352
0.3363169729709625 0.3125949203968048 0.34625479578971863
0.13153210282325745 0.0026583848521113396 0.06020247936248779
0.4539802670478821 0.40222838521003723 0.1055200845003128
0.31851544976234436 -0.5914196372032166 -0.2218792587518692
0.21844296157360077 0.0034148290287703276 0.12836240231990814
-0.09994373470544815 0.3573037087917328 -0.3961974084377289
-0.4869752526283264 0.13798606395721436 0.344252347946167
0.31022995710372925 -0.4306817948818207 0.1769481897354126
0.07498198747634888 -0.6202438473701477 0.05412685126066208
-0.05616428703069687 0.39937904477119446 0.2863892614841461
-0.41320541501045227 0.4001152515411377 -0.2991388440132141
0.1501605361700058 0.04336201399564743 -0.4018895626068115
-0.22991834580898285 -0.35384273529052734 0.06811704486608505
0.3344748020172119 0.00352563988417387 0.11227145791053772
-0.11207765340805054 -0.0028552368748933077 0.24240760505199432
-0.2457657903432846 0.2737713158130646 -0.3976937532424927
0.14028340578079224 0.09653878957033157 0.34470686316490173
-0.13595131039619446 0.19295521080493927 -0.4024451971054077
-0.1791505366563797 -0.6535775661468506 -0.0775972232222557
-0.06832362711429596 0.15658289194107056 0.3907487690448761
-0.3984488248825073 -0.0804804190993309 0.026109153404831886
-0.3949751853942871 0.4079707860946655 -0.13806603848934174
0.11989478766918182 0.003202547784894705 0.10332027822732925
0.2752695679664612 -0.604234516620636 0.20664171874523163
-0.07362361252307892 -0.2497633546590805 -0.3220534324645996
0.13307783007621765 -0.07757499068975449 -0.36983630061149597
-0.41687390208244324 -0.09700281172990799 0.12050352990627289
-0.5691117644309998 0.18918977677822113 -0.3964252471923828
0.10276863723993301 -0.6234039068222046 -0.2473926842212677
-0.5721805095672607 0.045599564909935 -0.20775049924850464
0.4226045310497284 -0.24091780185699463 -0.16008545458316803
0.22371995449066162 -0.13115260004997253 0.29609471559524536
-0.48742860555648804 0.3949572443962097 -0.15958277881145477
0.4290752112865448 -0.37606170773506165 -0.0615837536752224
-0.5783032774925232 0.23163342475891113 0.24724081158638
-0.41747140884399414 -0.08748836815357208 0.02625528909265995
0.03732408955693245 0.0021471772342920303 0.14523161947727203
0.33342239260673523 -0.6313540935516357 -0.10001803189516068
0.20562110841274261 -0.6198036670684814 0.17130713164806366
0.27748462557792664 0.004091167356818914 0.1723099648952484
0.19424235820770264 0.004082800354808569 -0.12402654439210892
0.08851946890354156 0.4471164643764496 0.43716979026794434
-0.5759917497634888 -0.023499442264437675 0.05403745919466019
-0.49321654438972473 -0.10054325312376022 -0.06383810192346573
0.5327179431915283 -0.0009017253760248423 -0.3429195284843445
-0.16825854778289795 0.0019055309239774942 0.1440856009721756
0.3173414468765259 0.0030297567136585712 0.1943107396364212
0.1508031040430069 0.3985119163990021 -0.016521263867616653
0.311993271112442 -0.6343883275985718 0.10265953093767166
0.18989397585391998 0.27988678216934204 0.34307870268821716
0.5276198387145996 0.40099871158599854 0.22299274802207947
0.3073119819164276 -0.5935116410255432 -0.23174981772899628
0.0353875532746315 -0.3963031768798828 -0.3139408826828003
0.29684147238731384 0.400451123714447 -0.19783946871757507
0.38017982244491577 0.0028920266777276993 0.004391164518892765
-0.1498984843492508 0.018470702692866325 0.3388288915157318
-0.13075770437717438 -0.20297645032405853 -0.2897443175315857
0.2661695182323456 0.3578026294708252 -0.40208521485328674
0.2559220492839813 -0.3401721119880676 0.2780238091945648
0.2965069115161896 -0.24256280064582825 0.25459569692611694
0.19433915615081787 0.0754411593079567 0.3423117399215698
0.0799417644739151 0.3977833390235901 0.03542590141296387
-0.2143765538930893 0.16528485715389252 0.3453724980354309
-0.07627768069505692 -0.0017102276906371117 -0.14372773468494415
0.03696257993578911 -0.04515909403562546 -0.3738924264907837
0.5809606313705444 0.10458916425704956 0.10291565954685211
0.32059746980667114 -0.6206371188163757 0.032040294259786606
0.5449236631393433 0.008469773456454277 0.31173431873321533
0.30172738432884216 0.002595847239717841 0.2150353193283081
-0.157502219080925 0.004094534553587437 0.30887383222579956
-0.1229516863822937 0.2018018513917923 0.3961453139781952
-0.20400603115558624 0.2847804129123688 -0.3984467685222626
0.5802819132804871 0.05686391890048981 -0.0860365778207779
0.2248370498418808 -0.4835781455039978 0.23929956555366516
-0.18054385483264923 -0.3663356900215149 -0.21574188768863678
-0.03936055302619934 -0.2297675758600235 -0.34592264890670776
0.17856594920158386 -0.37547239661216736 -0.356538325548172
-0.5452242493629456 0.10307280719280243 0.04656354710459709
-0.4418627917766571 0.39799535274505615 -0.03753529489040375
0.18211470544338226 0.0030708741396665573 0.19378355145454407
0.2773840129375458 0.39891207218170166 -0.2202049046754837
0.39771243929862976 -0.33331286907196045 0.15236322581768036
-0.06363151967525482 0.001958242617547512 -0.2718917429447174
-0.2732449173927307 0.397848516702652 -0.07412086427211761
0.22719377279281616 0.07704974710941315 0.46871817111968994
0.3574059307575226 0.15756645798683167 0.3449382185935974
-0.1357777714729309 0.0026492923498153687 -0.060345254838466644
-0.24609385430812836 -0.22132620215415955 0.0048459782265126705
0.5073628425598145 0.4002971649169922 0.3251122832298279
0.39567336440086365 -0.45806553959846497 -0.032767392694950104
-0.4734078049659729 0.2698332667350769 -0.3993212878704071
-0.05066192150115967 -0.29370012879371643 0.28315305709838867
0.13955503702163696 -0.07911033183336258 0.45337384939193726
-0.38797783851623535 0.08145029097795486 0.17290227115154266
-0.3325546383857727 0.0062408787198364735 -0.2973388433456421
-0.25708454847335815 0.28405582904815674 0.34395453333854675
-0.4061880111694336 0.3983139991760254 0.3338610529899597
0.17929451167583466 0.3969087302684784 0.09894747287034988
-0.3386652171611786 0.23352336883544922 0.3450103998184204
0.1100899875164032 0.0030812984332442284 0.20024238526821136
0.3856734335422516 -0.1319136619567871 -0.2444937378168106
-0.38720235228538513 -0.07192492485046387 -0.26464200019836426
0.22242280840873718 0.003155822865664959 0.22514744102954865
0.2627562880516052 0.4016660451889038 0.27585098147392273
0.2740691602230072 0.01698625646531582 -0.40092822909355164
0.5703905820846558 0.3982618451118469 0.10125887393951416
0.341173380613327 0.19655758142471313 -0.4020831286907196
0.44978952407836914 -0.16568168997764587 -0.016008231788873672
-0.5237281918525696 0.09395312517881393 0.18165647983551025
0.3962305784225464 0.4000447690486908 0.016763459891080856
0.18880116939544678 0.39825406670570374 0.18372860550880432
-0.09780743718147278 0.1481763869524002 0.34556329250335693
0.49580153822898865 0.39961546659469604 -0.06588822603225708
-0.5764915943145752 0.07445994764566422 -0.3440529704093933
-0.2171386033296585 -0.339873731136322 -0.1560685932636261
-0.5684080123901367 -0.04773901030421257 -0.30630090832710266
-0.30403637886047363 0.0004560172092169523 -0.20036768913269043
0.5599455237388611 0.00796396192163229 0.10257915407419205
0.29011785984039307 0.3995210528373718 0.10157252848148346
0.19346867501735687 0.3989812135696411 -0.1821780502796173
-0.5806340575218201 0.14877434074878693 0.3348926603794098
-0.28503865003585815 0.4007967710494995 0.27558809518814087
-0.2785443663597107 0.0032394840382039547 -0.015677880495786667
-0.025354143232107162 0.00392382126301527 0.18376417458057404
0.5805163383483887 0.07141409814357758 0.14290079474449158
0.0601627416908741 -0.21108710765838623 -0.37051501870155334
0.5807454586029053 0.17830601334571838 0.013440397568047047
0.05908608064055443 -0.2045164555311203 0.31077051162719727
-0.30973201990127563 0.38786765933036804 -0.021669307723641396
0.3161504566669464 0.3223615288734436 0.34794965386390686
0.5800572633743286 0.08201088756322861 0.0023536758963018656
0.0328238382935524 0.23008213937282562 0.46947258710861206
0.05882769078016281 0.3983711302280426 -0.18675819039344788
0.004375260788947344 -0.625038206577301 -0.23110049962997437
0.3761865794658661 0.0027214910369366407 0.03206956759095192
-0.37370431423187256 0.1660793423652649 -0.4019211530685425
-0.42274507880210876 -0.08294595032930374 0.33442097902297974
0.05732725188136101 0.33481958508491516 -0.40047135949134827
-0.5373225808143616 -0.07644990086555481 0.3117973804473877
0.31676191091537476 -0.06437087804079056 0.3486563563346863
-0.2941606342792511 0.27488112449645996 -0.40146294236183167
-0.18739713728427887 -0.45731812715530396 0.000493144616484642
0.2911410331726074 -0.37790077924728394 -0.2965368628501892
0.580154538154602 0.1332191824913025 0.10725700110197067
0.03519532084465027 0.24688543379306793 -0.39804011583328247
0.3449246883392334 0.400456964969635 0.0515197329223156
0.13508521020412445 -0.04922264814376831 0.328985333442688
-0.25865626335144043 0.39877399802207947 0.1268889605998993
0.43140512704849243 0.0009214985184371471 -0.10594073683023453
-0.09838662296533585 -0.1127924695611 0.25344839692115784
0.387717604637146 0.002356965560466051 0.10314496606588364
0.3641655445098877 -0.547844648361206 0.09666796028614044
0.5827280282974243 0.2842666208744049 0.1938011348247528
0.019421178847551346 0.33998075127601624 0.3933663070201874
0.38570529222488403 -0.3424297571182251 0.16648899018764496
0.1537463366985321 0.14864179491996765 0.4684855043888092
-0.5783382654190063 0.08314310014247894 0.20968419313430786
-0.08769496530294418 0.2688463032245636 0.39988765120506287
-0.02338075079023838 0.3080945312976837 0.3476444482803345
0.1598629653453827 0.0021742284297943115 -0.18215584754943848
-0.23023901879787445 -0.3122476637363434 0.06318297982215881
-0.449690043926239 0.004545394331216812 -0.22541405260562897
0.26532700657844543 -0.3917917013168335 -0.27151188254356384
0.2699078321456909 -0.1862121969461441 -0.3350503742694855
0.1401892751455307 0.002011082135140896 -0.1730404496192932
-0.07719859480857849 -0.41673922538757324 0.19828735291957855
-0.20240521430969238 0.0035706902854144573 -0.19190388917922974
-0.33787593245506287 0.06882455945014954 -0.3977746367454529
0.3325555622577667 -0.5995100736618042 0.1375270038843155
-0.34739530086517334 0.3783907890319824 0.013568397611379623
0.3175901174545288 0.17931629717350006 0.34810739755630493
0.32343775033950806 0.09679101407527924 0.44003501534461975
-0.1243932917714119 -0.4743138551712036 -0.20306244492530823
0.05088827386498451 -0.6237309575080872 0.05169573426246643
-0.03121526911854744 0.39747655391693115 -0.38609930872917175
0.2507065236568451 0.004161984659731388 -0.14475558698177338
0.16723716259002686 0.0033944053575396538 0.27269408106803894
0.33950793743133545 0.39877623319625854 -0.30281007289886475
-0.41512516140937805 0.006006401963531971 0.21332402527332306
0.13479718565940857 -0.6216453313827515 -0.08737589418888092
-0.21359872817993164 0.39757686853408813 -0.36947837471961975
0.09540276974439621 -0.058756206184625626 0.32373666763305664
0.28261053562164307 0.001272733323276043 -0.26896360516548157
0.08751938492059708 0.2966083884239197 -0.4014960825443268
0.14471186697483063 0.004245473071932793 -0.01545669324696064
0.038848571479320526 -0.6360279321670532 -0.2579396665096283
0.023787325248122215 -0.17638655006885529 0.30661094188690186
0.10154400020837784 -0.4721589982509613 -0.31643757224082947
0.26294535398483276 -0.08666139096021652 0.35672688484191895
-0.29454705119132996 0.005940962582826614 -0.356684148311615
-0.0654401183128357 0.0034234465565532446 0.04898671805858612
0.39269477128982544 -0.48069652915000916 0.02187587320804596
-0.500074028968811 -0.1095549538731575 0.02206224575638771
-0.3987605571746826 0.07710082083940506 0.147903710603714
0.2110864669084549 -0.051094356924295425 0.4696635901927948
-0.07933203130960464 -0.6236869692802429 -0.16226111352443695
0.26895999908447266 0.017536215484142303 0.33885127305984497
-0.15371133387088776 0.395673006772995 -0.3885827362537384
0.14354105293750763 -0.020950037986040115 0.4728511869907379
0.28278282284736633 -0.03569500148296356 0.4641669988632202
-0.5817367434501648 0.21128951013088226 0.28579723834991455
-0.44112685322761536 -0.024423273280262947 0.35299623012542725
0.20805621147155762 0.06375441700220108 0.34315627813339233
-0.11139970272779465 0.0027796030044555664 -0.05470605194568634
0.4011879861354828 -0.2523009479045868 -0.2018805295228958
-0.09289632737636566 -0.6245217323303223 -0.053280845284461975
0.07830380648374557 -0.619567334651947 -0.1422361582517624
0.17520619928836823 0.32054296135902405 0.46783336997032166
0.07595260441303253 -0.379402756690979 -0.3432808816432953
0.3917233645915985 0.4002097547054291 -0.3268571197986603
-0.16386443376541138 -0.03747803345322609 0.1935189962387085
0.14501281082630157 -0.6242498755455017 -0.22010032832622528
0.45586997270584106 0.396854043006897 0.3471515476703644
-0.11249716579914093 -0.3824842870235443 0.18671733140945435
-0.5733280181884766 -0.014563502743840218 0.24092987179756165
0.5796670913696289 0.18470358848571777 -0.342093825340271
-0.050962090492248535 -0.3815688490867615 0.24169611930847168
-0.1457146406173706 -0.6498032808303833 -0.1151154562830925
-0.22351840138435364 -0.2510765492916107 0.07279852032661438
-0.11187110096216202 0.0025601431261748075 -0.13334962725639343
