0.3167960047721863 0.40860339999198914 0.35519707202911377
0.003826308762654662 -0.46413376927375793 0.24251781404018402
0.32705068588256836 -0.36604785919189453 -0.2891203463077545
0.38931936025619507 -0.48988965153694153 -0.0031869839876890182
-0.15973104536533356 -0.42779844999313354 0.09103555232286453
0.013284794986248016 0.38056299090385437 -0.39998000860214233
0.09920047223567963 -0.6454728841781616 -0.3111838102340698
0.29537758231163025 0.02108418196439743 0.3434141278266907
-0.14779970049858093 0.006874827668070793 0.30356335639953613
0.4269300401210785 0.1014094203710556 -0.40517914295196533
-0.12491177767515182 -0.0004644980654120445 0.1751771718263626
-0.10397454351186752 -0.323104590177536 0.2431718409061432
0.3489096462726593 0.002770212944597006 -0.16731691360473633
0.4319544732570648 -0.07754919677972794 -0.14727453887462616
0.07240708917379379 0.0022497079335153103 0.22056515514850616
0.25085291266441345 -0.3449268341064453 -0.33881422877311707
0.4224657118320465 0.21743713319301605 -0.40448909997940063
0.4467678666114807 -0.2058723121881485 -0.013870260678231716
0.20022781193256378 0.32278120517730713 -0.4060014486312866
0.27792829275131226 0.07551936060190201 -0.40281611680984497
0.2125861793756485 -0.0774930939078331 0.37807029485702515
-0.006381558254361153 0.0019476357847452164 0.14816883206367493
0.01639832928776741 -0.6250893473625183 0.13375768065452576
0.17074322700500488 0.2813245356082916 -0.40408119559288025
0.5607153177261353 0.004950174130499363 -0.24067004024982452
-0.03361271694302559 -0.4042736887931824 0.22762218117713928
-0.4878947138786316 0.2366451472043991 0.34475675225257874
0.03362468630075455 0.0011490427423268557 0.26211652159690857
0.2529134154319763 0.21331200003623962 0.34426939487457275
0.16203182935714722 0.001889198087155819 0.18885041773319244
0.35924336314201355 -0.38738813996315 -0.1872730702161789
0.48978570103645325 0.3690020740032196 -0.407306432723999
0.5534824132919312 0.002553110010921955 -0.25597086548805237
-0.13544486463069916 0.0010926136747002602 -0.023933876305818558
-0.5163852572441101 0.3973667323589325 0.14449697732925415
-0.5321173667907715 -0.08758249878883362 -0.21173697710037231
-0.14047859609127045 -0.3895854651927948 -0.19154135882854462
0.21155180037021637 -0.446414589881897 0.24030937254428864
0.12248305231332779 0.0021578683517873287 -0.18788376450538635
-0.45210954546928406 0.11364583671092987 0.2845601439476013
0.5037185549736023 0.4005694091320038 -0.2712414264678955
-0.5793899893760681 0.22623135149478912 0.017091546207666397
0.14925938844680786 -0.6149799823760986 0.25646117329597473
0.08047530055046082 0.16913507878780365 -0.4045093357563019
0.4291667938232422 -0.015774879604578018 0.05020524188876152
0.0264466293156147 0.3178083896636963 0.44179797172546387
-0.01276896521449089 -0.6252666115760803 0.11240721493959427
-0.2546635568141937 -0.002440847922116518 0.029925238341093063
0.29020220041275024 -0.014880124479532242 0.4642064869403839
0.05263008922338486 0.2933128774166107 0.34997206926345825
-0.5825521349906921 0.1795969009399414 -0.19787076115608215
-0.5051600337028503 -0.10421722382307053 -0.12216487526893616
0.5808189511299133 0.3871729075908661 -0.2794303894042969
-0.37200331687927246 0.05681588500738144 -0.10863637179136276
0.2036774903535843 -0.623545229434967 -0.06023797392845154
0.37756213545799255 -0.6334326863288879 -0.1224793866276741
0.07499386370182037 0.0038940245285630226 -0.3655768930912018
0.27832573652267456 0.0010836201254278421 0.34514036774635315
0.1979670226573944 0.400547057390213 0.06835202872753143
0.12803813815116882 -0.31964218616485596 0.3159976303577423
-0.2336239069700241 0.4003596305847168 0.05341978371143341
0.20967930555343628 0.0019090548157691956 -0.1471083164215088
0.07180888950824738 -0.4876672923564911 0.2576340436935425
-0.5431721806526184 0.25737500190734863 -0.3991077244281769
0.3736408054828644 -0.6293379664421082 -0.09445613622665405
0.2623762786388397 -0.469254732131958 -0.2732826769351959
-0.1740722954273224 0.22761599719524384 0.34730756282806396
-0.5748755931854248 0.025015922263264656 -0.38024061918258667
-0.07637498527765274 -0.2664128541946411 0.2678626775741577
-0.5842345356941223 0.17200128734111786 0.007889305241405964
-0.3789275288581848 -0.06661764532327652 0.1344320923089981
-0.41151461005210876 -0.08767150342464447 -0.3889150619506836
0.3143364489078522 0.23038263618946075 0.3428508937358856
0.520691454410553 0.004854637198150158 0.13803735375404358
0.2233639806509018 -0.0002739774063229561 -0.3645356595516205
-0.39626193046569824 -0.08451499789953232 -0.353277325630188
-0.32482361793518066 0.0010837018489837646 0.11114247143268585
0.08668968081474304 -0.21519578993320465 -0.37799084186553955
-0.1416700929403305 0.17913199961185455 -0.40357673168182373
0.11950981616973877 0.34643301367759705 -0.40561941266059875
-0.2029549926519394 0.3990950882434845 -0.2648574113845825
0.23670603334903717 0.40288984775543213 0.3417539894580841
0.07780808955430984 -0.6455078125 -0.314171701669693
0.0617578886449337 -0.0702618882060051 0.31248635053634644
-0.4917968511581421 0.019124094396829605 -0.4025052487850189
0.2103676199913025 0.002379938028752804 -0.3167906105518341
-0.049883268773555756 -0.3863537907600403 0.22242948412895203
0.47882702946662903 0.0027212444692850113 -0.2588742971420288
-0.3540716767311096 -0.005297852214425802 0.02055663987994194
-0.5758705735206604 0.06999322772026062 -0.11966278403997421
0.3964327871799469 -0.1590603142976761 0.14697344601154327
0.20000016689300537 -0.3828231990337372 0.27071115374565125
0.23195283114910126 0.39537206292152405 -0.3803291320800781
-0.577444314956665 0.016115695238113403 0.2904408872127533
-0.5199363827705383 0.08846579492092133 -0.26274749636650085
-0.02755577862262726 0.0013223246205598116 -0.003465415444225073
-0.04863189533352852 0.12643611431121826 -0.4047812819480896
-0.348734974861145 0.39418843388557434 -0.3988223075866699
-0.3693212568759918 0.4031440019607544 -0.025307876989245415
-0.05473439395427704 -0.21877233684062958 0.27963516116142273
-0.16176758706569672 -0.06832852959632874 0.1920667439699173
-0.15870314836502075 0.0009226859547197819 -0.01643771305680275
-0.25778472423553467 0.016160059720277786 0.3446485698223114
0.4645557403564453 0.059867653995752335 -0.4056946635246277
-0.3216854929924011 0.36000320315361023 0.030810121446847916
0.29322901368141174 0.46785739064216614 0.4154273271560669
0.5857678055763245 0.3020230233669281 -0.21622119843959808
-0.17996670305728912 -0.08050528168678284 0.17185766994953156
0.3002242147922516 -0.14137966930866241 -0.31131088733673096
-0.0697341039776802 0.0010176681680604815 -0.17602303624153137
0.08433157950639725 -0.6236963868141174 -0.17369712889194489
0.3171955943107605 -0.5583148002624512 -0.22098980844020844
0.3366408348083496 4.8808753490448e-05 0.010994666256010532
-0.5727065205574036 -0.00029515638016164303 0.04304082691669464
0.4391569495201111 -0.14365366101264954 0.045724812895059586
-0.4422893822193146 0.3606109619140625 -0.40561556816101074
0.3593699634075165 -0.0004231231287121773 -0.2849953770637512
-0.46089664101600647 -0.1101551204919815 0.15076932311058044
0.1931053251028061 -0.21549741923809052 0.3019782602787018
0.10358477383852005 -0.07395061105489731 0.32145822048187256
0.1360456943511963 0.0019539790228009224 -0.20927000045776367
-0.24369274079799652 -0.3519495129585266 -0.042970869690179825
0.43521425127983093 0.024781638756394386 0.3410188853740692
0.46175384521484375 0.3589589297771454 -0.4061903953552246
0.21511565148830414 -0.6243720650672913 -0.22393183410167694
-0.4570596218109131 0.0449250191450119 -0.40249958634376526
-0.3970410227775574 0.136701762676239 0.34380194544792175
0.4178731441497803 0.4003905951976776 0.2969203293323517
0.34865814447402954 0.10321907699108124 -0.4017476439476013
0.21584416925907135 -0.6245778799057007 -0.22447644174098969
0.5849329829216003 0.0805865004658699 -0.21752500534057617
-0.4823189675807953 -0.10776092857122421 -0.3882961869239807
-0.5756508111953735 0.020806971937417984 -0.0001754467375576496
0.029478540644049644 0.2842884957790375 0.3978830575942993
-0.5833876729011536 0.23991793394088745 0.28513872623443604
-0.555979311466217 0.37918058037757874 -0.3992125391960144
0.21359090507030487 -0.6197051405906677 0.16618187725543976
0.3409789800643921 0.17963248491287231 0.34527865052223206
-0.47776898741722107 0.16302670538425446 0.33804255723953247
-0.46438008546829224 0.011687329038977623 -0.40226495265960693
-0.1224745661020279 -0.3966301679611206 -0.20805718004703522
-0.20246347784996033 0.26090556383132935 -0.4036802351474762
0.035156816244125366 0.00199707318097353 -0.06336255371570587
-0.166575625538826 -0.5546059608459473 0.07189743965864182
0.2861214280128479 -0.38405048847198486 -0.2873718738555908
0.2965886890888214 0.002572716912254691 -0.02510296180844307
0.022812388837337494 0.22339573502540588 0.4184756875038147
-0.37343698740005493 0.039247289299964905 -0.3191826045513153
0.567258358001709 0.3975362479686737 -0.1699826419353485
-0.2099730521440506 -0.0004070536233484745 -0.07352856546640396
0.029354680329561234 0.0019413195550441742 0.057929400354623795
0.3832971155643463 -0.22192557156085968 0.16277413070201874
-0.5815189480781555 0.3249349594116211 -0.32551077008247375
-0.3989158868789673 0.3579365909099579 0.04973003640770912
0.5852533578872681 0.07685934752225876 0.025660505518317223
0.02612096443772316 0.3040175437927246 0.4474940299987793
-0.2612306773662567 0.3981492221355438 0.05061955749988556
0.38081875443458557 -0.3184797465801239 0.16380269825458527
-0.5766044855117798 0.03754866495728493 -0.35984739661216736
0.29964083433151245 -0.6495923399925232 0.1563737839460373
0.23601824045181274 -0.622042179107666 -0.024068685248494148
-0.5580155253410339 0.07300515472888947 -0.32498666644096375
0.4114798307418823 0.10098519176244736 -0.4054015576839447
0.03658510372042656 0.24734646081924438 -0.4017511010169983
-0.18223750591278076 -0.587283194065094 0.022511517629027367
0.30351707339286804 0.4008183777332306 -0.31710103154182434
-0.06403976678848267 0.3996593952178955 -0.23646016418933868
-0.47285017371177673 -0.002089644316583872 0.10880831629037857
-0.5637070536613464 0.00850469246506691 -0.39804887771606445
0.5733729004859924 0.19662821292877197 -0.399079293012619
0.0640442743897438 0.0011201752349734306 -0.07535900175571442
0.28010183572769165 -0.06367915868759155 0.44553303718566895
0.2709003686904907 -0.4794052541255951 -0.26500800251960754
-0.3073362410068512 0.3999764323234558 -0.3468378782272339
0.18074683845043182 0.2706622779369354 0.3422376811504364
-0.2781097888946533 0.18745730817317963 0.345242440700531
-0.3660127818584442 -0.0019856812432408333 -0.3339860439300537
0.03334105387330055 -0.019038362428545952 0.456371545791626
0.014512551948428154 0.2302517592906952 0.3480278253555298
0.4445061981678009 -0.14848089218139648 0.0017581917345523834
-0.5831694602966309 0.20542630553245544 -0.20040063560009003
-0.24156084656715393 -0.2088203728199005 0.006756959017366171
0.2443888634443283 -0.015376639552414417 0.3229919672012329
-0.11270187795162201 -0.20762751996517181 0.24010205268859863
0.2422262579202652 0.01437744777649641 0.3354063928127289
-0.5794586539268494 0.31665945053100586 -0.08438054472208023
0.227536141872406 0.2141943871974945 0.34289905428886414
-0.3782595694065094 -0.06640572100877762 -0.2702814042568207
-0.22560861706733704 -0.37949079275131226 -0.002527940319851041
-0.03465134650468826 0.27942436933517456 0.3960419297218323
-0.584526002407074 0.27546045184135437 -0.16934850811958313
0.2520604431629181 0.39329633116722107 -0.381707102060318
0.513724684715271 0.39846619963645935 -0.29290756583213806
-0.3182882070541382 -0.0013220300897955894 -0.1706821322441101
-0.4994242787361145 0.08486815541982651 0.3480628430843353
-0.13697856664657593 0.0007539624348282814 -0.0611271858215332
0.12489259988069534 -0.3397655189037323 -0.3745076656341553
0.5266599655151367 0.002430991968140006 -0.21488885581493378
0.45080024003982544 -0.00028467923402786255 -0.1416405588388443
-0.5788547396659851 0.019634272903203964 0.08518542349338531
0.02937508374452591 0.31856879591941833 0.3858618140220642
-0.5802783370018005 0.21054375171661377 -0.3925113081932068
-0.578598141670227 0.19526204466819763 0.07707242667675018
0.1986554116010666 0.47173070907592773 0.37664613127708435
-0.4748265743255615 0.3994038999080658 0.08201612532138824
0.4487614631652832 -0.22893139719963074 -0.025736793875694275
0.5709186792373657 0.007685485761612654 -0.08781088143587112
0.13802117109298706 0.08947193622589111 0.34472599625587463
0.2134990096092224 0.4002304673194885 0.21231359243392944
-0.24013593792915344 -0.34070709347724915 0.011020688340067863
-0.5638630986213684 -0.05200294777750969 -0.10866165906190872
0.12746581435203552 -0.21741947531700134 -0.37311673164367676
-0.41175347566604614 0.15775266289710999 0.3434997797012329
0.07272948324680328 0.0018904497846961021 0.1793896108865738
-0.12623997032642365 -0.0013007735833525658 0.20384734869003296
-0.3774983286857605 -0.0639619305729866 -0.21618954837322235
0.44189321994781494 -0.3173530101776123 -0.086915023624897
-0.45956289768218994 0.15391629934310913 -0.40239688754081726
-0.5706058144569397 0.00980326347053051 -0.14284329116344452
0.4065805673599243 0.013606468215584755 -0.4038656949996948
-0.30715489387512207 0.0010545332916080952 0.25202786922454834
-0.580550491809845 0.14550398290157318 0.2702622711658478
-0.4905834197998047 0.015641039237380028 0.35174211859703064
-0.5562093257904053 0.005636890418827534 -0.17699536681175232
0.30282071232795715 0.45707201957702637 0.4410511553287506
-0.09665907919406891 -0.0007929457351565361 -0.3283170163631439
0.5824236273765564 0.2524261474609375 0.18144257366657257
0.37628135085105896 0.0017452430911362171 -0.11963227391242981
-0.2813819348812103 0.391269326210022 0.3399312496185303
-0.41581931710243225 -0.003468143753707409 0.14480312168598175
-0.37373724579811096 -0.06207582727074623 -0.33827975392341614
0.33413639664649963 0.032088760286569595 0.36099085211753845
0.5753487348556519 0.3934096693992615 0.05388251319527626
-0.11626393347978592 -0.5510632991790771 0.15292640030384064
0.36383143067359924 -0.05110662803053856 0.19366557896137238
0.4054851233959198 0.03791666403412819 0.3450019061565399
0.208847314119339 0.21867021918296814 -0.4038070738315582
0.008441617712378502 0.16522474586963654 0.38617292046546936
0.1695934683084488 0.001520700752735138 -0.09236928075551987
-0.45659196376800537 0.3482417166233063 -0.17050409317016602
-0.11232753843069077 0.39955031871795654 0.12890902161598206
-0.5774135589599609 0.013217350468039513 0.19234377145767212
-0.5774595141410828 0.2174312323331833 -0.31778684258461
0.3253295421600342 0.3052966296672821 0.3759799301624298
-0.5744196772575378 0.008872076869010925 0.0376720130443573
0.2335871458053589 -0.3569885492324829 -0.34693482518196106
0.36991438269615173 -0.09564748406410217 -0.24478104710578918
0.5839660167694092 0.3370218276977539 0.009558860212564468
-0.43454059958457947 0.05091056227684021 -0.4035540521144867
-0.5740434527397156 0.01671838015317917 -0.24487829208374023
0.29301217198371887 0.00787392072379589 -0.39523035287857056
0.25661060214042664 -0.2753409743309021 -0.33736202120780945
-0.3697035014629364 -0.040676411241292953 -0.2997933626174927
0.429872989654541 -0.37222200632095337 0.058068376034498215
-0.3988409638404846 0.1726556420326233 0.3451479375362396
0.05958203971385956 -0.5867200493812561 -0.3180558979511261
0.2240426391363144 -0.35671859979629517 -0.34763237833976746
0.5690289735794067 0.39971867203712463 0.2766686677932739
0.5809303522109985 0.03870611637830734 0.19510285556316376
0.5722756385803223 0.008556127548217773 -0.1489897072315216
0.43868523836135864 -0.23162679374217987 -0.11086811870336533
0.2111930400133133 -0.6209565997123718 -0.20409686863422394
-0.13962289690971375 -0.16188456118106842 -0.28004124760627747
0.5045732855796814 0.39954686164855957 0.1944228708744049
0.03714850917458534 0.001808499451726675 -0.2978609800338745
-0.11922480165958405 0.001251846901141107 -0.01416507177054882
0.5843573808670044 0.21903780102729797 -0.3517187535762787
0.2510106563568115 -0.6205770373344421 -0.1164674386382103
-0.41997596621513367 -0.09849786013364792 -0.18545889854431152
-0.04621126502752304 -0.31136512756347656 -0.34228530526161194
-0.16166716814041138 -0.38624709844589233 0.1143345832824707
-0.18535196781158447 0.3990713357925415 -0.22953467071056366
0.01435902714729309 0.23462264239788055 0.3826170265674591
-0.27953484654426575 0.18280526995658875 0.3453575074672699
-0.07781244069337845 0.002019749954342842 -0.07853639870882034
0.36189255118370056 0.2995750606060028 0.3432600498199463
-0.23843757808208466 -0.08958937972784042 -0.06895273923873901
-0.5800731182098389 0.024314668029546738 0.30263787508010864
-0.5819869041442871 0.3092833459377289 -0.3360658288002014
-0.46392837166786194 -0.002542993053793907 -0.02612837217748165
0.3411397635936737 -0.6205860376358032 0.09859948605298996
0.5829558372497559 0.3792857229709625 -0.144996777176857
0.3799915909767151 0.39697954058647156 0.3139195740222931
-0.5768648386001587 0.003780751023441553 -0.25589340925216675
-0.1841834932565689 -0.21553461253643036 -0.22277064621448517
0.5203835368156433 0.39894506335258484 -0.01647053100168705
-0.5763431191444397 0.04824189096689224 0.2580297291278839
-0.42976343631744385 0.30018165707588196 -0.40298426151275635
-0.5651904940605164 -0.04432867467403412 0.21057771146297455
-0.2327599972486496 -0.09416300803422928 0.06629081815481186
-0.5262287855148315 0.3956398069858551 0.09968921542167664
0.1582377701997757 0.0023648529313504696 -0.32460817694664
-0.16116999089717865 -0.3010159730911255 0.19267462193965912
-0.4309047758579254 0.10883058607578278 -0.03641568496823311
0.3033934235572815 0.3301408886909485 0.3437335193157196
0.5831214785575867 0.2824345827102661 -0.18922562897205353
0.5409194231033325 0.004492254927754402 -0.2263016402721405
-0.007010562811046839 0.39928045868873596 0.07133165001869202
0.2717761993408203 0.042035821825265884 0.34503981471061707
0.5809463262557983 0.3120865821838379 -0.02042815089225769
0.36063382029533386 -0.2683071196079254 -0.2573125958442688
0.12653079628944397 0.40061044692993164 -0.173320934176445
0.5850395560264587 0.33999085426330566 -0.21544624865055084
-0.379520446062088 0.15612618625164032 0.3453066349029541
0.2556580603122711 -0.07325027883052826 0.2872612774372101
-0.2137875109910965 0.11750251799821854 -0.4030390679836273
-0.056406889110803604 -0.4305330812931061 0.21217773854732513
0.1510462462902069 -0.6206151247024536 -0.07288280129432678
0.4333362877368927 0.0005678338930010796 -0.06729331612586975
0.5774374008178711 0.14935262501239777 0.2758493721485138
0.057476043701171875 0.10968621075153351 0.3446170389652252
0.31195878982543945 0.36954933404922485 0.45483049750328064
-0.36755049228668213 0.006160903722047806 -0.22439169883728027
0.10544751584529877 0.4054428040981293 0.45265474915504456
-0.4770752787590027 -0.11095913499593735 -0.12753792107105255
-0.3829440772533417 0.06198777258396149 0.2665850818157196
0.26676690578460693 -0.2641814053058624 0.2728571891784668
-0.3061746656894684 0.39940133690834045 -0.24296312034130096
-0.10392490774393082 0.0005641559837386012 0.1263967901468277
0.10218390077352524 -0.106871597468853 -0.3749634027481079
0.03114037588238716 0.3354159891605377 0.34709858894348145
-0.1391436904668808 -0.4812938868999481 0.12565161287784576
0.15142670273780823 0.0012103640474379063 -0.21629315614700317
0.02837347239255905 0.10677965730428696 0.44552499055862427
0.4150366187095642 0.00018046144396066666 -0.010169871151447296
0.12679481506347656 -0.5863158106803894 0.2576194405555725
0.33791717886924744 0.23408512771129608 0.34545332193374634
-0.5757308602333069 0.08874175697565079 -0.1061260923743248
-0.5770301222801208 0.013253984972834587 -0.24103981256484985
0.2592765688896179 0.0018458361737430096 0.18880216777324677
0.3209063410758972 0.3113473951816559 0.44716525077819824
-0.13245612382888794 0.002366085071116686 -0.04779202863574028
-0.15915542840957642 -0.00032077403739094734 -0.27970296144485474
0.38067877292633057 0.4005446434020996 -0.04054367542266846
0.49071192741394043 0.002656982745975256 0.2523741126060486
-0.37059271335601807 0.12447939068078995 -0.40444886684417725
0.0867818146944046 -0.6240209341049194 -0.2034820020198822
-0.47254642844200134 0.005394722335040569 -0.354281485080719
-0.09821885824203491 0.042097169905900955 -0.40309765934944153
-0.02125505916774273 -0.6224433183670044 0.012817694805562496
0.24701440334320068 -0.6219348311424255 -0.1410287767648697
-0.5784473419189453 0.32374414801597595 -0.325528621673584
-0.5836787819862366 0.3055872917175293 -0.14228685200214386
0.33255910873413086 0.10924933850765228 0.43807685375213623
-0.04704061523079872 -0.3735162019729614 -0.3369688391685486
-0.23988313972949982 -0.12083268910646439 -0.008765294216573238
-0.16251906752586365 0.3999800682067871 -0.2126733958721161
0.3023987114429474 0.2531698942184448 -0.40505918860435486
-0.37110066413879395 0.0007984517142176628 -0.28687334060668945
0.0848715677857399 -0.6198402047157288 -0.2664625346660614
-0.4930717349052429 -0.0031197071075439453 0.21330848336219788
0.17824411392211914 0.22474099695682526 0.34337693452835083
0.35416463017463684 -0.19612231850624084 -0.2708667814731598
0.0025867666117846966 -0.005605846177786589 -0.35932523012161255
-0.05281144753098488 0.1476118415594101 0.3506198525428772
-0.09478055685758591 0.3680594563484192 0.34158411622047424
-0.27421581745147705 0.2731982469558716 0.3442325294017792
-0.48121917247772217 -0.11034771800041199 -0.24656374752521515
-0.5442792773246765 0.1314346194267273 0.3454863727092743
0.23450933396816254 0.001838006777688861 -0.08096656203269958
0.3768709897994995 0.001829627901315689 0.11325109004974365
0.062279924750328064 0.3503803312778473 0.45865771174430847
0.31679126620292664 0.036401450634002686 0.37201353907585144
-0.4184187650680542 0.08860191702842712 -0.4016876518726349
-0.1310204118490219 -0.6555024981498718 -0.12386559695005417
0.21001863479614258 -0.012559927068650723 -0.3430432081222534
0.11413689702749252 0.001528899185359478 -0.1293003410100937
-0.10911194235086441 0.00012350070755928755 0.19424353539943695
0.263010174036026 0.46648773550987244 0.42879772186279297
0.3327176868915558 -0.001621830277144909 0.21841523051261902
0.5855104923248291 0.2207990437746048 0.13676835596561432
-0.4837629199028015 0.10770641267299652 -0.10774695128202438
-0.09860240668058395 -0.6247860789299011 0.04688478261232376
0.24495412409305573 0.3507503271102905 0.34295472502708435
0.5846233367919922 0.32217851281166077 -0.2708127200603485
-0.4096442759037018 0.09442175179719925 -0.3992195129394531
0.3600235879421234 -0.6428850293159485 -0.04604840278625488
-0.22178606688976288 0.2506553530693054 0.3460681736469269
-0.1385357677936554 -0.4035549759864807 -0.1867988556623459
0.22796089947223663 0.002021930180490017 -0.02457086369395256
-0.03531992435455322 -0.6203436851501465 -0.07006815820932388
0.3948982059955597 -0.08160413056612015 -0.21670548617839813
0.035000354051589966 0.0024136132560670376 0.18722254037857056
0.11218822747468948 0.4727955162525177 0.3885078728199005
-0.18163418769836426 0.00016773398965597153 -0.20665904879570007
0.04815755784511566 -0.6231269240379333 -0.01170109398663044
0.31166529655456543 0.019131487235426903 0.4455272853374481
0.5063351988792419 0.4014005959033966 0.16763709485530853
-0.32927992939949036 0.004052591975778341 0.2741498053073883
-0.25603413581848145 0.3332991898059845 -0.4026893377304077
0.3561394512653351 0.34105268120765686 -0.4054386615753174
-0.520250678062439 0.09678474813699722 0.018346086144447327
-0.024443889036774635 -0.6245153546333313 0.07444100081920624
0.582185685634613 0.09172256290912628 -0.28603655099868774
-0.41792094707489014 0.058069102466106415 0.3462963104248047
0.581575334072113 0.22429479658603668 0.21127286553382874
0.17329497635364532 -0.3051280975341797 0.31061267852783203
0.2676459550857544 0.0023087719455361366 -0.014853538013994694
-0.23710262775421143 -0.05017874017357826 0.023555489256978035
0.12431152164936066 0.25840166211128235 -0.4034753441810608
-0.5085598230361938 0.4000333249568939 0.2654668390750885
-0.18511350452899933 -0.48701125383377075 -0.04163297265768051
-0.07646346837282181 -0.635786235332489 -0.22262811660766602
0.2884843051433563 0.40089958906173706 0.08926799893379211
0.16604292392730713 0.1095823124051094 0.34200429916381836
0.282699853181839 -0.6253675222396851 -0.13373827934265137
-0.4696279764175415 0.3913140892982483 -0.016381174325942993
0.058647118508815765 0.2839192748069763 0.46209388971328735
-0.06318597495555878 -0.623329222202301 0.05041542649269104
0.29289138317108154 0.002460052724927664 -0.11892816424369812
-0.3718251883983612 -0.04183002561330795 -0.012094363570213318
0.29294145107269287 0.2505801022052765 -0.40336281061172485
-0.16736920177936554 -0.5972450375556946 -0.1286575049161911
-0.24499817192554474 0.001149776391685009 -0.24617543816566467
-0.4806467592716217 0.3919620215892792 -0.1625409722328186
0.5830851197242737 0.13307568430900574 -0.330888956785202
0.4245786666870117 0.40012848377227783 0.2824589014053345
0.3836210072040558 -0.19810576736927032 0.16743682324886322
-0.3711621165275574 0.03565412387251854 -0.1782546043395996
-0.18010351061820984 0.39757412672042847 -0.3675747215747833
0.0798751637339592 0.13502444326877594 -0.4045771360397339
-0.5838735699653625 0.1799858957529068 -0.15571168065071106
0.0714581161737442 0.42402419447898865 0.437772661447525
0.5578070878982544 0.31609368324279785 0.3427726924419403
-0.5375876426696777 -0.08556941151618958 0.2274627387523651
0.3476018011569977 0.0020263371989130974 -0.023756489157676697
-0.12479299306869507 -0.18506836891174316 0.23247407376766205
-0.2511877417564392 0.4006364941596985 0.21564410626888275
0.08811397105455399 -0.5654450058937073 0.2589397430419922
-0.16394701600074768 0.3958736062049866 0.33232325315475464
0.3650459051132202 0.3966863751411438 0.28337448835372925
0.5807435512542725 0.21436187624931335 -0.2450011670589447
0.08627539128065109 0.0015901888255029917 0.11072736978530884
0.2921484112739563 -0.622169554233551 0.06768568605184555
-0.5752813220024109 0.3474498689174652 -0.18865369260311127
-0.3600924015045166 0.0034343171864748 -0.2787153124809265
0.581172525882721 0.16470055282115936 0.21718855202198029
-0.032839585095644 -0.11674899607896805 0.28955432772636414
0.21853944659233093 0.33225277066230774 0.46374642848968506
0.11952829360961914 0.0020237555727362633 0.16056159138679504
0.31156447529792786 -0.0017199433641508222 0.4531867206096649
-0.5800421833992004 0.015246028080582619 -0.24057705700397491
0.050888679921627045 -0.4212212562561035 0.2550828158855438
-0.2097262293100357 0.40099668502807617 0.04675724357366562
0.06972557306289673 0.0025726696476340294 -0.3568834364414215
0.25015127658843994 0.003560476005077362 0.19182099401950836
0.24886023998260498 -0.6214694976806641 -0.044426996260881424
-0.13177284598350525 -0.04977814853191376 -0.27885425090789795
-0.06053634360432625 -0.49156641960144043 0.2117716521024704
-0.18243645131587982 -0.37883123755455017 -0.18974772095680237
-0.21993695199489594 -0.37946373224258423 -0.09311161190271378
0.054838769137859344 -0.622879147529602 -0.2434847503900528
-0.4397163987159729 0.007375325076282024 -0.40086472034454346
0.034285981208086014 -0.09825634956359863 -0.36892208456993103
0.230314239859581 -0.45245859026908875 -0.2915183901786804
0.2598772346973419 -0.1319447010755539 0.2750971019268036
-0.4947654604911804 0.09785963594913483 0.19183515012264252
-0.17310000956058502 -0.5461680889129639 -0.11377179622650146
0.06880415976047516 -0.6233431696891785 0.10276409238576889
-0.4638615846633911 0.10725598782300949 0.285498708486557
-0.34687933325767517 0.39963117241859436 -0.3314439356327057
-0.39753758907318115 0.3984246253967285 0.28436702489852905
0.4375229775905609 -0.1268540471792221 0.060068801045417786
-0.2273954302072525 -0.37928879261016846 -0.013750361278653145
-0.15374819934368134 0.16666018962860107 -0.4038582742214203
0.275928795337677 0.00208781729452312 0.08135033398866653
0.08763743937015533 0.39934608340263367 -0.32113975286483765
-0.5204820036888123 0.39043164253234863 -0.015630220994353294
0.41218242049217224 -0.041722141206264496 0.11576104164123535
0.43609827756881714 -0.11849438399076462 0.054750390350818634
0.10950411856174469 -0.6226795315742493 -0.13665436208248138
-0.5824283361434937 0.3272036612033844 -0.24566276371479034
-0.08940322697162628 -0.14480659365653992 -0.3187277019023895
-0.21694202721118927 -0.07179702073335648 0.11170285195112228
0.47430163621902466 0.0014057219959795475 -0.27350226044654846
0.37941357493400574 0.0030487366020679474 0.005475185811519623
0.028537722304463387 -0.6159168481826782 -0.30580973625183105
0.17063204944133759 -0.6275784969329834 -0.30876269936561584
-0.0742533802986145 -0.6232766509056091 -0.036561012268066406
0.13535624742507935 -0.6243281960487366 0.08322864770889282
-0.010345869697630405 -0.49656862020492554 0.23963136970996857
-0.5695366263389587 0.0970754474401474 -0.3952491283416748
-0.575976550579071 0.3511662185192108 -0.2602475881576538
0.1326865702867508 -0.6260198354721069 0.20199638605117798
-0.17836636304855347 0.0005296580493450165 -0.11300831288099289
-0.5382866263389587 -0.0833754912018776 -0.1512468010187149
-0.5502373576164246 -0.004161899443715811 0.13837066292762756
-0.18686717748641968 0.3898478150367737 -0.39706122875213623
0.21355178952217102 -0.19682689011096954 -0.35541582107543945
-0.23062105476856232 -0.09157021343708038 0.08317762613296509
0.2014385461807251 -0.10576045513153076 -0.36136460304260254
-0.23915338516235352 -0.275900661945343 -0.08360758423805237
0.26595500111579895 -0.001166364410892129 0.263273686170578
0.3159509301185608 -0.6220428347587585 0.03969208151102066
-0.19061331450939178 -0.3284904956817627 -0.20420385897159576
0.5437678098678589 0.2034222036600113 -0.4051126539707184
-0.23013892769813538 -0.0017526792362332344 -0.022698044776916504
-0.013032445684075356 -0.6228255033493042 0.0020458295475691557
-0.15360993146896362 0.008008773438632488 -0.3898899555206299
0.18058347702026367 0.15652908384799957 0.34406325221061707
-0.14156001806259155 -0.4966125190258026 0.12132749706506729
0.05116797983646393 0.0018684391397982836 0.11868537962436676
0.18835581839084625 -0.648493766784668 -0.2907809019088745
0.499755859375 0.0010740729048848152 -0.05600941181182861
0.2496800422668457 -0.6187562346458435 -0.016772594302892685
0.3410193622112274 -0.6465521454811096 -0.1428755670785904
0.5015042424201965 0.398876428604126 0.22371241450309753
-0.2172795981168747 -0.2551504969596863 -0.1660267561674118
-0.20281106233596802 0.22080959379673004 0.346386194229126
-0.5724544525146484 0.08647144585847855 -0.13802731037139893
-0.1148233637213707 -0.6247748732566833 0.04482832923531532
-0.1431274265050888 -0.6425564885139465 -0.17840351164340973
0.35624006390571594 -0.0005365512333810329 -0.2996519207954407
-0.5841359496116638 0.31563109159469604 0.11541566252708435
0.23860116302967072 0.19747048616409302 -0.40355926752090454
-0.5000659227371216 -0.1071590706706047 0.077510304749012
-0.0884920060634613 0.0008517031092196703 0.07984781265258789
-0.20050856471061707 -0.37136954069137573 0.1264278143644333
0.571744441986084 0.007821950130164623 -0.36475738883018494
0.1654297560453415 0.3990463316440582 -0.3161056339740753
-0.09725086390972137 0.0014146699104458094 -0.1258375495672226
-0.12205984443426132 -0.6250248551368713 0.021482720971107483
0.2750343978404999 0.0013287123292684555 -0.05367112159729004
-0.45836180448532104 0.39553335309028625 -0.21743515133857727
0.39805346727371216 0.4014110863208771 -0.10787124186754227
0.0846109390258789 0.39686810970306396 0.36864563822746277
-0.2843150496482849 0.3689713478088379 -0.06925886869430542
-0.5837500095367432 0.1705307811498642 -0.32304292917251587
0.15235649049282074 0.2854388654232025 0.34380415081977844
0.12232217937707901 -0.6250407695770264 -0.1471235305070877
0.014550908468663692 0.0006666146218776703 0.1183343231678009
0.1422646939754486 0.0022161509841680527 -0.3401848375797272
0.22544972598552704 0.0029118983075022697 0.3326699733734131
-0.14889992773532867 0.005498052574694157 0.3124963641166687
0.19258098304271698 0.001214819960296154 -0.17123477160930634
-0.15157315135002136 0.00015722820535302162 -0.2069791853427887
-0.1597483605146408 -0.39507561922073364 -0.15754608809947968
-0.5820372700691223 0.26735952496528625 0.3114989697933197
0.11657984554767609 0.0021627359092235565 0.1334364116191864
0.4475128650665283 -0.012147859670221806 -0.01892443746328354
0.5269973278045654 0.09007042646408081 -0.40595707297325134
-0.21483388543128967 0.0005417531356215477 -0.0176840927451849
0.1977861225605011 0.3565455675125122 -0.4083220660686493
-0.4404202103614807 0.0800216868519783 0.34691712260246277
-0.06830857694149017 -0.5237693190574646 -0.2645552158355713
0.42971867322921753 0.3083154559135437 0.3454338312149048
0.3182068169116974 0.12945173680782318 0.39035841822624207
-0.13521553575992584 -0.6342419385910034 -0.028230510652065277
0.24764837324619293 0.3955366909503937 0.29421156644821167
0.5255246758460999 -0.0015597841702401638 -0.3333665728569031
0.5085899233818054 0.12120459228754044 0.3450792729854584
0.23188699781894684 0.40062108635902405 -0.16496481001377106
-0.44921717047691345 0.0977897122502327 -0.4032641649246216
0.04662935435771942 -0.6235963702201843 -0.12381702661514282
0.29371511936187744 0.33569052815437317 -0.4050295054912567
-0.1731640249490738 -0.2464369237422943 0.1751096248626709
0.36422809958457947 -0.05023525282740593 0.19242285192012787
0.3606288433074951 0.002500056754797697 -0.15393559634685516
-0.07202941179275513 -0.621219277381897 -0.005295402370393276
0.3677249848842621 0.011830507777631283 0.3399256765842438
-0.17955496907234192 -0.4888748526573181 0.025460444390773773
0.13461105525493622 -0.6547707319259644 0.23793739080429077
0.5020703673362732 0.0026895003393292427 -0.18332214653491974
-0.5797680020332336 0.3484170734882355 0.24540264904499054
-0.506937563419342 -0.002491530030965805 0.04027099162340164
-0.5737316012382507 0.0025277354288846254 -0.36126983165740967
0.06544472277164459 -0.6249920129776001 0.11829818785190582
-0.36240723729133606 0.3645506799221039 0.03723800182342529
-0.5826864242553711 0.280931681394577 0.1597769409418106
0.1732368916273117 -0.006627061404287815 0.3183204233646393
0.4757158160209656 0.3952842354774475 0.33991989493370056
-0.11004136502742767 -0.0034084406215697527 0.252599835395813
0.08616633713245392 0.4006042778491974 0.14359727501869202
0.03219763562083244 0.06903093308210373 0.3476511836051941
0.3109588325023651 0.21883012354373932 0.3667774796485901
-0.5752103924751282 0.0814623013138771 0.28524190187454224
0.2885970175266266 0.3511436879634857 -0.4041036367416382
-0.5728992819786072 -0.013629988767206669 -0.006717201322317123
-0.11525547504425049 0.0002585155889391899 -0.25679612159729004
0.20268462598323822 -0.46338707208633423 0.24329213798046112
0.13246771693229675 0.09030716121196747 0.46481868624687195
0.3267096281051636 -0.6254735589027405 -0.04154559597373009
-0.5835875272750854 0.1841750144958496 0.0017052057664841413
0.4664929211139679 0.00032089388696476817 -0.1843736171722412
-0.07671662420034409 0.06759629398584366 -0.40304428339004517
0.28324317932128906 0.356357216835022 0.460473895072937
-0.576536238193512 0.011546275578439236 -0.2478247880935669
0.4392124116420746 -0.27439507842063904 -0.11093925684690475
0.5176906585693359 0.39995938539505005 -0.19950512051582336
-0.38194942474365234 0.2979782223701477 0.34609588980674744
-0.23420028388500214 -0.2622038722038269 -0.11026333272457123
-0.04359395056962967 0.39639517664909363 0.3303107023239136
0.15084074437618256 0.04591973125934601 0.3447912633419037
-0.508902907371521 -0.0026497524231672287 -0.06090899556875229
0.022574255242943764 -0.6220294833183289 -0.08009763807058334
0.025563206523656845 0.10675475746393204 0.37009790539741516
-0.05373409390449524 -4.9037858843803406e-05 -0.31796538829803467
0.12464442849159241 -0.40059971809387207 0.2631870210170746
0.03086809068918228 -0.22840407490730286 -0.36743664741516113
0.24587585031986237 -0.24748912453651428 0.28531306982040405
0.31285151839256287 0.08514295518398285 0.3574675917625427
-0.47390252351760864 0.3923068642616272 -0.02217220887541771
-0.37068113684654236 0.0538407601416111 0.33235466480255127
-0.5564628839492798 0.38856077194213867 0.08945748209953308
-0.23274290561676025 -0.2923802137374878 -0.10843458771705627
-0.3886179029941559 0.06753358244895935 -0.22957651317119598
-0.5760116577148438 0.04635697603225708 0.21174222230911255
-0.4178774058818817 0.3936878740787506 -0.2578573524951935
-0.10964225977659225 0.18943187594413757 0.39282751083374023
-0.14213351905345917 0.2889868915081024 0.3476911187171936
0.40805020928382874 0.05425511673092842 0.34384608268737793
0.322002649307251 0.40387192368507385 0.17667441070079803
-0.08739401400089264 -0.6089602708816528 -0.24731729924678802
0.3729793429374695 0.1307409107685089 -0.4045681655406952
0.18853969871997833 -0.6244624853134155 0.10755298286676407
-0.27283138036727905 0.4009445905685425 0.17734754085540771
-0.5762050151824951 0.04639078304171562 -0.26326677203178406
-0.43983981013298035 0.35040995478630066 0.0385938435792923
0.017290569841861725 0.28110185265541077 -0.40343379974365234
0.4414561986923218 -0.1917029470205307 -0.0923893004655838
0.10228468477725983 0.00010960269719362259 -0.15252824127674103
0.25457313656806946 -0.3747928738594055 0.25769543647766113
-0.5421981811523438 0.37663033604621887 0.3446669578552246
0.19130821526050568 -0.3691129982471466 -0.361185759305954
0.06518924981355667 -0.5395191311836243 0.257376104593277
-0.030160443857312202 0.3997831642627716 0.10630130022764206
0.23608215153217316 0.1817282885313034 0.34223422408103943
0.4456280469894409 -0.06503140926361084 -0.010228213854134083
-0.03690708056092262 -0.09285322576761246 -0.3455333411693573
-0.5815989375114441 0.21223637461662292 0.07503702491521835
0.286268949508667 0.0015381262637674809 0.20306973159313202
0.10428886860609055 0.0012339893728494644 -0.19405867159366608
-0.3148631751537323 0.3202017545700073 -0.4029197692871094
-0.4996795356273651 0.10972527414560318 -0.02831222675740719
0.009814206510782242 -0.6084703207015991 -0.30139991641044617
0.4417097270488739 -0.23087482154369354 -0.09335784614086151
-0.39897435903549194 0.3960074484348297 -0.27782824635505676
0.07421666383743286 0.001686739269644022 -0.10112297534942627
0.1733100861310959 0.4016783833503723 -0.10629201680421829
-0.5711884498596191 0.3386342525482178 0.3238222002983093
0.27220311760902405 0.4699641764163971 0.39326921105384827
-0.2249079793691635 -0.20899976789951324 0.08467843383550644
-0.06432414799928665 0.35815632343292236 -0.40608713030815125
0.3102245628833771 0.1735396683216095 0.34618622064590454
0.5603416562080383 0.1930505782365799 0.3419029116630554
-0.5618061423301697 0.06619242578744888 -0.15163931250572205
-0.5829259753227234 0.1306270956993103 0.28921765089035034
-0.1198362186551094 -0.01845168136060238 0.23917368054389954
0.3471187353134155 -0.6309815645217896 -0.0459420382976532
-0.22459977865219116 -0.36458128690719604 -0.12779484689235687
-0.15779681503772736 -0.5196861028671265 0.09251285344362259
-0.14573974907398224 0.39911121129989624 -0.0795697420835495
-0.492767333984375 0.10206682980060577 0.015652181580662727
-0.5759979486465454 0.3458922803401947 0.11040282249450684
-0.0267630685120821 -0.6266828179359436 -0.22053773701190948
0.11298123002052307 0.0018504848703742027 -0.21869613230228424
0.5727149248123169 0.04995092749595642 0.33318838477134705
0.20223362743854523 -0.011850478127598763 -0.3463326394557953
-0.32408303022384644 0.3784319758415222 -0.15210141241550446
-0.42306891083717346 -0.09752508997917175 0.22037893533706665
-0.45682036876678467 -0.004617589991539717 -0.10344798117876053
-0.16124503314495087 -0.39067184925079346 0.10305272042751312
0.580649733543396 0.0930948406457901 0.12706729769706726
0.01721198670566082 -0.24283970892429352 -0.3649153411388397
0.3674080967903137 -0.2069764882326126 -0.24691228568553925
-0.3678584098815918 0.003159673884510994 0.04231772944331169
0.4070923626422882 0.0006913449615240097 -0.004586211871355772
0.06195521727204323 -0.4977254867553711 0.2583882212638855
0.3801162540912628 -0.49048304557800293 0.049622777849435806
-0.34668096899986267 0.4026915431022644 0.1529204547405243
0.17682009935379028 -0.02271302416920662 0.31785550713539124
-0.14074769616127014 -0.31975916028022766 -0.2760084569454193
-0.5772634148597717 0.353432834148407 0.30379462242126465
0.15974265336990356 0.0013534191530197859 -0.27014508843421936
-0.15414372086524963 0.3907710313796997 0.33795031905174255
-0.4236316680908203 0.3973023295402527 0.16660797595977783
-0.44089797139167786 0.3686698377132416 -0.18389244377613068
-0.09477479010820389 0.001506228232756257 0.17813585698604584
0.07519949227571487 -0.581719696521759 0.2580377757549286
-0.19225063920021057 0.4012904465198517 0.2782500684261322
-0.46511679887771606 0.08542025089263916 0.34393176436424255
0.23848970234394073 -0.10988446325063705 -0.34680330753326416
-0.3040972650051117 0.17718933522701263 -0.4052659571170807
-0.5768657326698303 0.11591266840696335 -0.13997726142406464
0.05713987350463867 0.2839713990688324 0.3433597981929779
0.4757272005081177 0.4001585841178894 -0.08425632119178772
0.11964959651231766 -0.6511645913124084 0.251272588968277
-0.4287317395210266 -4.9989670515060425e-05 -0.3004682660102844
-0.5162141919136047 0.3933142423629761 0.059419382363557816
0.20101574063301086 0.40101251006126404 0.22269271314144135
0.5168302655220032 0.1314094364643097 0.34204864501953125
0.31595155596733093 0.0030466653406620026 -0.1969897598028183
0.5867013931274414 0.36075150966644287 -0.3412339687347412
0.34068742394447327 -0.21318931877613068 -0.28380000591278076
0.2126450538635254 0.002450014464557171 0.036021169275045395
-0.399227112531662 -0.03593180701136589 -0.3985094428062439
0.39321666955947876 0.0012954790145158768 -0.3233882188796997
0.3876905143260956 -0.533064603805542 -0.07188531756401062
0.4284849464893341 0.4007125198841095 0.20396818220615387
0.39994242787361145 0.0011022351682186127 0.20112892985343933
-0.5754274725914001 0.35704705119132996 -0.16045987606048584
-0.31321144104003906 0.3954150676727295 -0.19991974532604218
-0.015222909860312939 0.24986185133457184 -0.40371692180633545
-0.07329732924699783 -0.4480372369289398 -0.26007890701293945
-0.21903839707374573 0.40038779377937317 -0.008344865404069424
-0.17820991575717926 0.002039507497102022 -0.03267692029476166
-0.5825904607772827 0.16160891950130463 0.2609630227088928
-0.2905704975128174 0.3563413918018341 -0.02917362004518509
0.31451472640037537 0.3208066523075104 0.39911481738090515
0.2718527019023895 -0.2997077405452728 -0.3310907483100891
-0.4584563970565796 0.27714765071868896 -0.40516066551208496
0.5844612717628479 0.10181266069412231 -0.15007080137729645
0.04516048729419708 0.3847538232803345 -0.3989209234714508
0.2581714689731598 0.3589212894439697 -0.4050964415073395
0.5772740244865417 0.0150115005671978 -0.0438070148229599
-0.1367299109697342 -0.5087834596633911 0.12854531407356262
0.08536678552627563 0.4136219918727875 0.3559829890727997
-0.2268371731042862 -0.07474584877490997 -0.14022929966449738
0.3428064286708832 -0.6479746699333191 -0.14730800688266754
-0.526256799697876 -0.07781276106834412 -0.40436917543411255
0.16049078106880188 -0.6232097744941711 -0.05919623374938965
-0.5174186825752258 0.10221171379089355 0.09991344064474106
-0.13495823740959167 -0.1942405104637146 -0.2822674810886383
-0.09722128510475159 -0.6360980868339539 -0.1803603172302246
0.017332565039396286 -0.2376239150762558 0.3079456090927124
0.21903695166110992 0.06815402209758759 0.34134531021118164
0.32468381524086 0.002198456786572933 0.07442561537027359
0.07785370945930481 0.4149750769138336 0.4488775432109833
0.07079698145389557 0.03266134113073349 0.34358111023902893
0.24472051858901978 -0.00010241963900625706 -0.3263748586177826
0.443266361951828 -0.18505707383155823 -0.05623272806406021
-0.5692751407623291 0.06525488197803497 0.033882271498441696
-0.1996779888868332 0.395560085773468 -0.09236972779035568
-0.47272902727127075 0.20811419188976288 -0.4021359384059906
0.03548416122794151 0.2623209059238434 0.35211023688316345
-0.1374131143093109 0.4001255929470062 -0.20681491494178772
-0.5305963754653931 -0.0893080085515976 0.30570563673973083
0.08332710713148117 0.46574142575263977 0.4362117648124695
0.22629745304584503 0.2753223180770874 -0.4050644636154175
-0.4775359630584717 0.11470892280340195 0.01150094997137785
0.2921006977558136 0.0021584797650575638 0.1377912014722824
0.08147294074296951 -0.41166943311691284 -0.31647148728370667
0.364200234413147 -0.0680772140622139 0.19471414387226105
-0.5803410410881042 0.2989422380924225 -0.2999071180820465
0.25739216804504395 0.002278147265315056 -0.03432800620794296
0.3623584508895874 0.002537165302783251 -0.13334012031555176
-0.29626014828681946 0.4020529091358185 0.2688615620136261
0.23644061386585236 0.4007834196090698 -0.24963156878948212
0.3627724051475525 -0.08885348588228226 0.19322265684604645
0.5573707818984985 0.403106689453125 -0.27043741941452026
-0.3763359785079956 0.08025529235601425 0.3421344459056854
-0.23188623785972595 -0.36568495631217957 0.05250142887234688
0.06910582631826401 -0.5906370282173157 0.25713664293289185
0.03040926158428192 0.056276947259902954 0.383280873298645
0.38127774000167847 -0.4209648370742798 0.03291556239128113
0.10384906828403473 0.0017181327566504478 -0.22587275505065918
-0.5776942372322083 0.0281831081956625 0.17550919950008392
-0.00048661098117008805 -0.6240302920341492 0.07295697182416916
-0.47630247473716736 -0.11124145239591599 0.12717096507549286
-0.5312306880950928 0.15916000306606293 0.3417994976043701
0.010865944437682629 0.02953125163912773 -0.4010940194129944
0.03742410987615585 -0.06770072132349014 0.42720121145248413
-0.4650866389274597 0.10998334735631943 0.09524747729301453
-0.37179070711135864 0.05016542971134186 -0.40159371495246887
0.1463397741317749 -0.11309044808149338 0.31378626823425293
0.5483744144439697 0.0051063047721982 -0.017926480621099472
-0.36567771434783936 0.4005870521068573 0.006698598153889179
0.3955467641353607 0.40097200870513916 -0.19790580868721008
0.5807018876075745 0.04210693761706352 -0.20048993825912476
0.2973354160785675 -0.6184840798377991 -0.042151931673288345
-0.10838665068149567 -0.003435233375057578 0.25769034028053284
-0.5148801803588867 -0.09860214591026306 -0.072599858045578
-0.4091050624847412 -0.004498641472309828 0.0854882076382637
-0.2398654818534851 -0.2477540671825409 -0.08152347803115845
0.28909608721733093 -0.11884596943855286 -0.32258233428001404
0.14947818219661713 -0.6250942349433899 -0.17489276826381683
-0.5745924711227417 0.05173264443874359 0.18335524201393127
-0.5714901685714722 0.03771143779158592 0.05304365232586861
-0.5410754084587097 0.0595780573785305 0.3440300226211548
-0.5725281834602356 0.022053496912121773 -0.389270156621933
-0.16810518503189087 -0.5511957406997681 0.06889205425977707
0.41712406277656555 -0.3725872039794922 -0.1752161681652069
-0.14420154690742493 -0.6528844833374023 -0.09709620475769043
0.023611752316355705 -0.6212668418884277 -0.12776240706443787
-0.16762948036193848 0.40157350897789 0.24802374839782715
-0.48542454838752747 0.0025322576984763145 -0.3586956560611725
0.32295936346054077 -0.3614636957645416 -0.2946372926235199
0.07996335625648499 0.4391501247882843 0.3598648011684418
0.4136616289615631 -0.21903876960277557 -0.18167176842689514
-0.5813458561897278 0.3298394978046417 -0.023911746218800545
-0.5745024085044861 0.039231959730386734 -0.1551096886396408
-0.4980390965938568 0.39225077629089355 0.0675363540649414
0.10238867998123169 0.0038244882598519325 0.2596481442451477
