-0.23719479143619537 0.08842124044895172 0.34217801690101624
0.3452717661857605 -0.16349628567695618 0.21025270223617554
-0.16047810018062592 0.0015588272362947464 -0.07776583731174469
-0.4960198402404785 0.002033416647464037 0.27682244777679443
-0.236139714717865 -0.06840838491916656 0.013968735001981258
0.20278696715831757 -0.4472939670085907 0.24270379543304443
0.17049746215343475 0.0019678256940096617 0.09643580764532089
0.08433987945318222 0.0026743561029434204 -0.03226544335484505
0.358275443315506 -0.37504228949546814 0.18554925918579102
0.44403329491615295 -0.001042230986058712 -0.04222237318754196
0.10222168266773224 0.40121808648109436 -0.3588228225708008
0.0392952598631382 0.39721444249153137 0.3699529767036438
0.15288138389587402 -0.6200007796287537 -0.05948515981435776
-0.3902275860309601 0.07190625369548798 -0.29312580823898315
0.283517986536026 0.29532766342163086 0.34283018112182617
-0.5767761468887329 0.14785824716091156 -0.09080590307712555
0.395577609539032 -0.6094210147857666 -0.04089910537004471
0.027383126318454742 -0.06135072186589241 0.31370803713798523
0.06878533959388733 0.110909603536129 0.4637109637260437
-0.42541638016700745 -0.05820775032043457 -0.39860621094703674
0.5776084661483765 0.04214086756110191 0.1948705017566681
0.23239116370677948 -0.03755323961377144 0.4654340147972107
-0.13332641124725342 5.044403951615095e-05 0.207077294588089
0.5501477718353271 0.39791160821914673 0.2899475395679474
-0.2606445252895355 0.23864753544330597 0.3441678285598755
0.1778963953256607 0.0011816071346402168 -0.07619605958461761
0.2824884057044983 0.40065139532089233 -0.2535737156867981
0.01645723544061184 0.26458823680877686 0.38252025842666626
-0.12774886190891266 -0.6524865627288818 0.08407362550497055
0.25689512491226196 0.002719854936003685 0.034566961228847504
0.06980514526367188 -0.6008784174919128 -0.3181276023387909
0.39018040895462036 -0.5710417628288269 -0.07990264147520065
0.3155083656311035 0.24973081052303314 0.43051937222480774
-0.0816662386059761 0.0030684499070048332 0.1574382781982422
0.4325510561466217 0.2086641639471054 0.3440747559070587
-0.45831841230392456 0.39869987964630127 -0.28531643748283386
0.20010679960250854 -0.6254648566246033 -0.21993958950042725
-0.18303760886192322 0.1840081661939621 -0.4013626277446747
-0.24337798357009888 0.40203309059143066 0.22932977974414825
-0.10946907848119736 0.39944344758987427 -0.028073949739336967
0.008608720265328884 -0.19111667573451996 0.30215317010879517
-0.17503488063812256 -0.2495937943458557 -0.24450844526290894
0.3729647397994995 -0.14368027448654175 -0.24922257661819458
-0.1017865240573883 -0.021551264449954033 -0.30295005440711975
-0.2242063730955124 -0.2372838854789734 0.08635406196117401
-0.23950086534023285 -0.35787129402160645 -0.06942304968833923
0.06490553915500641 0.013956431299448013 -0.39334413409233093
0.5245736241340637 0.003288926323875785 0.2739957869052887
0.10555478930473328 -0.1675543487071991 -0.3711071014404297
0.01689756289124489 -0.6237882971763611 0.19185277819633484
-0.07523597776889801 -0.6216750741004944 0.05063202232122421
0.3501127064228058 -0.00020753219723701477 0.19112886488437653
-0.14080899953842163 0.001890768064185977 0.06277479231357574
-0.4417102336883545 -0.10460993647575378 0.05655360966920853
0.4149335026741028 -0.0012883078306913376 0.14390286803245544
0.10199053585529327 -0.6225289702415466 -0.20986369252204895
-0.37670639157295227 0.06845077872276306 -0.3384753465652466
0.13224934041500092 0.42424675822257996 0.45369771122932434
-0.32964032888412476 0.4000518023967743 -0.30681607127189636
-0.49715369939804077 0.001108730211853981 -0.3082985579967499
-0.08901150524616241 -0.6203545331954956 -0.038219913840293884
-0.48899176716804504 -0.10691305994987488 -0.05397879332304001
0.2960863411426544 -0.2091277688741684 0.25333160161972046
-0.23854738473892212 -0.3041873276233673 -0.08158061653375626
0.06979356706142426 0.3993828296661377 0.17340031266212463
0.28653818368911743 -0.5659013986587524 -0.2527792751789093
-0.3290824294090271 0.008280404843389988 0.3309388756752014
0.17426539957523346 0.0019497387111186981 0.20117197930812836
0.02543185092508793 -0.00028817635029554367 -0.21537818014621735
0.09514427185058594 -0.009073738008737564 -0.3688873052597046
-0.565976083278656 0.33102238178253174 0.3371024429798126
0.03850860148668289 0.002455268520861864 0.021025655791163445
-0.36659562587738037 0.050363145768642426 0.32988259196281433
-0.1201050654053688 0.06428566575050354 -0.3985311686992645
-0.2827146053314209 0.401424765586853 0.2044922411441803
-0.5700632929801941 0.07386663556098938 0.19165697693824768
-0.040822748094797134 -0.4290385842323303 0.22429537773132324
0.40798431634902954 0.0003488566726446152 -0.05214418098330498
0.43827909231185913 -0.3710635006427765 -0.05943765491247177
-0.4259251058101654 0.0019798018038272858 -0.19828255474567413
0.5652105808258057 0.38508084416389465 -0.38767197728157043
0.3631872534751892 -0.11619634926319122 0.19789621233940125
-0.5582095980644226 -0.06266205757856369 0.06976871937513351
-0.5454658269882202 0.004719674587249756 0.14541536569595337
0.3157271146774292 -0.07542476058006287 0.3776371479034424
-0.41420409083366394 -0.00020817783661186695 -0.396700382232666
-0.40845009684562683 -0.06615857034921646 -0.39789023995399475
0.3391471207141876 -0.5015398263931274 -0.1942010372877121
0.08089511096477509 -0.13133393228054047 0.3148374855518341
0.15682831406593323 -0.24397318065166473 -0.36992982029914856
-0.14632537961006165 -0.11300572752952576 -0.255855530500412
0.0749826580286026 -0.4560185670852661 -0.3160652220249176
0.03353050351142883 9.227787086274475e-05 -0.15584857761859894
0.1595858782529831 0.0022109015844762325 0.25767913460731506
0.5591892600059509 0.025692777708172798 -0.3944713771343231
0.1265806406736374 -0.6413599848747253 0.21572087705135345
0.06869903951883316 0.1496613770723343 0.345808744430542
0.04779623821377754 0.002836220897734165 0.23811493813991547
0.04496903344988823 0.0031195851042866707 0.1393062174320221
0.1419132649898529 0.002102129627019167 0.10819627344608307
0.326585054397583 0.28928884863853455 -0.40269020199775696
-0.03533123433589935 -0.5368926525115967 0.22521553933620453
0.2834923267364502 -0.031421370804309845 0.4638890326023102
-0.058144960552453995 -0.6198143362998962 0.019931819289922714
-0.1704789251089096 -0.4850751757621765 -0.12850163877010345
-0.4097117781639099 -0.001347547397017479 0.07042376697063446
0.05328080430626869 -0.6289429664611816 -0.2568802833557129
-0.49257466197013855 -0.05047459527850151 0.3489048182964325
-0.3908838629722595 0.06300531327724457 -0.28190624713897705
-0.485548734664917 0.07247834652662277 0.3480457067489624
-0.5550072193145752 0.38421934843063354 -0.3741002380847931
-0.5420860052108765 -0.025705384090542793 0.34594643115997314
-0.09991880506277084 0.002874605357646942 -0.1035214215517044
0.3791978359222412 0.09121145308017731 -0.39949801564216614
-0.5759479403495789 0.035679891705513 0.09518615901470184
0.5492701530456543 0.3969293236732483 0.24805520474910736
-0.4220273792743683 0.09942782670259476 -0.167066290974617
0.5799643993377686 0.3435574173927307 0.1979464888572693
0.20082101225852966 -0.3586242198944092 0.3003650903701782
-0.5812384486198425 0.0039390199817717075 -0.3373660147190094
0.39007601141929626 0.21788060665130615 0.3440220057964325
-0.47677081823349 0.1042451411485672 0.1543203741312027
-0.5752008557319641 0.20681849122047424 -0.39084529876708984
0.2673707902431488 0.3974769115447998 0.31348371505737305
-0.11787570267915726 0.008435482159256935 -0.391058087348938
-0.15731839835643768 -0.11724457889795303 -0.2570023238658905
-0.5393650531768799 -0.08735863119363785 -0.26119691133499146
0.3138810694217682 0.23226287961006165 0.3461243212223053
0.2330625206232071 -0.6214941143989563 -0.017654789611697197
0.2892496585845947 -0.39633724093437195 0.18245771527290344
0.08683383464813232 0.1770341545343399 0.4634668529033661
0.21606500446796417 0.3991256654262543 0.16546465456485748
-0.41674020886421204 0.0052328938618302345 0.08492530882358551
0.4960329830646515 0.2712724804878235 0.34380537271499634
0.5817877054214478 0.2990739643573761 -0.34182992577552795
0.22812633216381073 -0.4095301926136017 0.22902846336364746
-0.4352438449859619 0.06204100325703621 0.3456427752971649
-0.36893191933631897 0.01602044701576233 -0.3818570077419281
0.032957371324300766 -0.39846253395080566 0.24963107705116272
-0.24974851310253143 0.39976274967193604 -0.3277899920940399
-0.3103902041912079 0.39504387974739075 -0.1767537146806717
-0.34665951132774353 0.0027953465469181538 0.09285145998001099
0.20849892497062683 -0.09015021473169327 0.33099690079689026
-0.1794777810573578 -0.0008382446831092238 0.14179816842079163
-0.15496094524860382 0.20036254823207855 -0.4036441743373871
0.5763679146766663 0.11710068583488464 0.27649277448654175
-0.516921877861023 0.10949275642633438 -0.13378554582595825
-0.42970505356788635 -0.10165165364742279 -0.11738498508930206
-0.2221958488225937 -0.13230469822883606 -0.15184897184371948
-0.5495876669883728 0.1433723121881485 -0.40152111649513245
0.26819154620170593 0.3968994617462158 -0.3720189332962036
0.21918052434921265 0.0009776530787348747 -0.2187458574771881
-0.004992280155420303 -0.09928968548774719 -0.35478445887565613
0.2604403793811798 0.000989121850579977 -0.2972017526626587
0.06060256063938141 0.31283512711524963 0.3434896469116211
-0.011699489317834377 0.3995572328567505 -0.3127872347831726
-0.18102753162384033 -0.5238012075424194 0.02283451147377491
0.17816241085529327 0.002847103402018547 0.004181102849543095
0.15300710499286652 -0.62189781665802 0.07315877825021744
0.2528126537799835 0.40010926127433777 -0.03746894374489784
0.3374840319156647 0.39804133772850037 0.29051417112350464
0.19272738695144653 -0.48431092500686646 -0.3042774200439453
0.11389294266700745 0.0024391612969338894 0.20940586924552917
-0.5754092335700989 0.07393816113471985 0.3381388783454895
-0.24685348570346832 0.39987850189208984 0.3269346356391907
0.3615630269050598 -0.12906688451766968 0.196663960814476
0.1679534614086151 0.0017472049221396446 0.17824430763721466
0.22066114842891693 0.40278610587120056 0.3495057225227356
-0.2707884907722473 0.40397024154663086 0.18009714782238007
-0.17957520484924316 -0.48052456974983215 -0.09463523328304291
-0.5276473760604858 0.07896336168050766 -0.40293624997138977
-0.11945042759180069 0.0018969587981700897 0.11483315378427505
0.36661386489868164 0.2669306993484497 -0.40024104714393616
-0.0992359071969986 -0.19547535479068756 -0.3088420033454895
-0.22363677620887756 -0.05043401941657066 -0.1480194330215454
-0.49724897742271423 0.28886252641677856 0.3436952233314514
-0.2874108850955963 0.0006699757650494576 0.09699077904224396
-0.42048829793930054 -0.018363168463110924 0.3439663350582123
-0.41827234625816345 0.10002005100250244 -0.14556899666786194
0.5814866423606873 0.03188282251358032 -0.3303624093532562
-0.5796388983726501 0.3456210494041443 -0.34419599175453186
0.5795764327049255 0.18823933601379395 0.27003443241119385
-0.123895563185215 0.34262946248054504 0.3443145453929901
-0.5601410865783691 0.012418013997375965 -0.3980599045753479
0.28954067826271057 0.0022109695710241795 -0.2136407047510147
-0.38970890641212463 0.05887626111507416 0.3412318825721741
0.3256113827228546 0.00023266160860657692 -0.23671039938926697
0.0013237246312201023 0.4013614356517792 -0.0639885663986206
-0.4714120328426361 0.00498071126639843 -0.33836331963539124
0.3454035520553589 -0.42934706807136536 -0.19116030633449554
0.2990530729293823 0.3137792646884918 0.3431987166404724
0.35209253430366516 0.0019415710121393204 -0.15249069035053253
-0.36495092511177063 0.010984819382429123 -0.07878582179546356
0.26727962493896484 -0.03141867741942406 -0.3253605365753174
-0.19855839014053345 -0.36813560128211975 0.12949052453041077
0.4835433065891266 0.0034717698581516743 -0.2631955146789551
-0.101089246571064 -0.6555973291397095 -0.2102622240781784
-0.23138681054115295 -0.30839109420776367 0.06395584344863892
0.39180344343185425 -0.26814860105514526 -0.21715757250785828
-0.4373268485069275 0.3931048810482025 0.03826447203755379
-0.49628907442092896 -0.09778791666030884 0.32183435559272766
-0.3646794557571411 0.024046896025538445 -0.363658607006073
0.05002062767744064 -0.4579402208328247 -0.3111022114753723
-0.5832527279853821 0.12449106574058533 -0.2960205078125
-0.3503713607788086 0.012585283257067204 0.33627355098724365
-0.012183540500700474 0.008874255232512951 0.33782869577407837
0.10364427417516708 0.4004971385002136 0.27271437644958496
-0.28357118368148804 0.40376126766204834 0.18233360350131989
0.3712615668773651 -0.5675399899482727 -0.13982926309108734
0.37848973274230957 -0.6432239413261414 -0.06681301444768906
-0.30775782465934753 0.4040902853012085 0.14003466069698334
-0.1644255667924881 0.15066790580749512 0.34161749482154846
-0.5168290734291077 0.09037615358829498 0.3449711799621582
0.5781764388084412 0.17036555707454681 -0.33735841512680054
0.3857184648513794 -0.6262806057929993 -0.08112261444330215
-0.02241448499262333 -0.12351551651954651 -0.3486323654651642
-0.3153691291809082 0.1217876672744751 -0.40069136023521423
0.49481019377708435 0.3990965187549591 -0.005157481878995895
0.3042334020137787 0.0033417646773159504 -0.3760032653808594
-0.047409456223249435 -0.34428471326828003 -0.34024685621261597
0.5771862268447876 0.2937493920326233 -0.01956983096897602
-0.29599258303642273 0.4000632166862488 -0.3177050054073334
0.2495555877685547 0.4003007411956787 0.07337649166584015
0.18061326444149017 0.06751212477684021 -0.3996433913707733
0.3841427266597748 -0.5374555587768555 0.053807538002729416
0.3802730143070221 0.40005970001220703 -0.1534656286239624
-0.1241794154047966 0.3883436322212219 -0.39764317870140076
0.08961298316717148 -0.07533373683691025 0.4446881115436554
-0.5826464891433716 0.34711167216300964 -0.3078683614730835
-0.41227686405181885 -0.08186502009630203 0.3331955075263977
0.10998708009719849 0.3981337547302246 -0.37719565629959106
0.06357970088720322 -0.6218187212944031 0.09560879319906235
-0.14550557732582092 -0.3776280879974365 0.15860743820667267
0.5775336623191833 0.1117253452539444 0.09649104624986649
-0.08942509442567825 -0.2471000999212265 0.2609398663043976
0.32710757851600647 0.25222718715667725 0.41648954153060913
0.050225913524627686 0.0018725697882473469 0.032237179577350616
-0.5078430771827698 0.035618968307971954 0.34648188948631287
-0.37123388051986694 0.3210377097129822 0.3452834188938141
0.3287661075592041 0.002710169181227684 0.0781996101140976
0.05802113190293312 0.40053918957710266 0.08080236613750458
-0.08531602472066879 -0.3663337230682373 -0.3137485384941101
-0.21344177424907684 0.1389506608247757 0.3434068262577057
0.30833181738853455 0.16469663381576538 0.34414076805114746
0.5778424739837646 0.07158813625574112 0.09842558205127716
0.12814554572105408 0.0026519829407334328 0.13405102491378784
-0.2910369038581848 0.401170551776886 0.060572028160095215
0.08920649439096451 -0.09472402930259705 -0.3692677319049835
0.39890649914741516 -0.0005076973466202617 -0.08625943958759308
0.4474712908267975 -0.243656724691391 -0.049181558191776276
0.06847886741161346 -0.005503211636096239 -0.36850109696388245
0.3135061264038086 -0.4291847348213196 -0.23177066445350647
0.5800456404685974 0.37127885222435 0.13651251792907715
0.13849298655986786 0.40038159489631653 -0.06563203036785126
-0.3819877803325653 0.1260089874267578 0.3426678478717804
0.3653261065483093 -0.44397276639938354 -0.14377540349960327
-0.480751633644104 0.3548094630241394 0.010334135964512825
-0.35467374324798584 0.38979920744895935 0.33600980043411255
-0.3964843153953552 -0.08385032415390015 -0.2997731566429138
-0.032771285623311996 -0.3799189329147339 0.24156352877616882
-0.5840026140213013 0.3103487193584442 0.06391513347625732
0.3169262707233429 0.40153929591178894 0.1902380734682083
-0.5739670991897583 0.2688961625099182 -0.3889293968677521
-0.5812186598777771 0.2784961462020874 0.11699998378753662
0.09917936474084854 -0.6222714781761169 -0.2155131697654724
0.2391205132007599 -0.6208289265632629 -0.07074876129627228
-0.5788399577140808 0.3162229061126709 -0.34842944145202637
-0.22667792439460754 0.3722951114177704 0.3446396589279175
0.3753663897514343 0.0017816824838519096 0.09747881442308426
-0.25992268323898315 0.05984495207667351 0.3385092318058014
-0.48633435368537903 0.36208587884902954 0.33948367834091187
0.4547625482082367 -0.0029893112368881702 -0.009417963214218616
0.09348659217357635 -0.6346121430397034 0.21484218537807465
0.061310239136219025 0.4009215831756592 -0.17038893699645996
-0.1629565805196762 0.1832360029220581 -0.40155723690986633
-0.31407082080841064 0.09764954447746277 -0.39998555183410645
0.3588307499885559 -0.3699585795402527 -0.24009044468402863
0.3433724045753479 -0.12156611680984497 -0.26853734254837036
0.14515312016010284 0.469515323638916 0.39984285831451416
0.07562655955553055 0.001836257055401802 0.030471844598650932
-0.4519686698913574 -0.05658197030425072 0.34827205538749695
0.07920819520950317 -0.6214213967323303 0.009697077795863152
-0.2856936454772949 0.0030491002835333347 -0.2861020267009735
-0.1892945021390915 0.0028986800462007523 0.30312246084213257
0.2645655572414398 0.00801066868007183 -0.3923024833202362
0.3664911091327667 0.0026634456589818 -0.17601174116134644
-0.015535375103354454 -0.3758336007595062 0.2625884711742401
-0.23467077314853668 -0.0210270956158638 -0.010830281302332878
-0.4923524558544159 0.10832562297582626 -0.18878377974033356
0.10276717692613602 0.3920918405056 -0.39168089628219604
0.5801345705986023 0.28568825125694275 -0.09877084940671921
-0.012607752345502377 -0.26569440960884094 0.29617640376091003
0.5824961066246033 0.13015761971473694 0.07045168429613113
0.14360284805297852 0.034035105258226395 -0.39524585008621216
-0.10115566104650497 -0.5131383538246155 0.17768996953964233
-0.016840273514389992 -0.6210559606552124 -0.11061542481184006
-0.1497875303030014 0.0024826517328619957 -0.024360377341508865
0.012924772687256336 0.39924341440200806 -0.36853721737861633
0.5249531269073486 0.20580735802650452 0.3404870331287384
-0.42719170451164246 0.2109818160533905 0.3433224558830261
0.17834822833538055 0.30652639269828796 0.46548688411712646
-0.08869199454784393 0.10012949258089066 -0.400040864944458
0.02442258782684803 0.38669419288635254 0.45392128825187683
-0.5749410390853882 0.013238347135484219 -0.39023831486701965
0.3034104108810425 0.002806141972541809 0.06749874353408813
-0.10758893936872482 -0.3931032419204712 0.17553222179412842
-0.020117515698075294 -0.0008854884654283524 -0.21493566036224365
-0.11793202906847 0.39997467398643494 -0.1861594021320343
-0.5188291668891907 0.004579249769449234 0.15113204717636108
0.31798428297042847 0.33707937598228455 0.3433707654476166
0.3034057021141052 0.14993882179260254 0.34376391768455505
-0.21096298098564148 0.3994048237800598 -0.3278506398200989
-0.132998526096344 -0.006146455183625221 0.2310042828321457
-0.27214789390563965 0.0253971666097641 -0.3988019824028015
0.13932830095291138 0.0009425255702808499 0.02440892718732357
-0.09677410125732422 -0.6570480465888977 -0.2237830013036728
-0.05285842344164848 0.1832372397184372 0.3990674912929535
-0.4507947266101837 -0.09989984333515167 -0.3938029110431671
-0.38702452182769775 0.08440539985895157 0.10392740368843079
-0.4638925790786743 0.11917456984519958 0.32305780053138733
0.5039586424827576 0.002706546103581786 -0.3577698767185211
-0.4560406804084778 -0.10611320286989212 0.19458435475826263
0.3146436810493469 -0.07135695219039917 0.3467411994934082
-0.5790148973464966 0.20516063272953033 -0.3466954231262207
0.11338350176811218 -0.002490402664989233 0.32704779505729675
0.3271852433681488 0.0018447503680363297 -0.07574407011270523
0.09200096875429153 -0.6186670660972595 0.14563658833503723
0.28322386741638184 -0.2047176957130432 -0.31841424107551575
-0.5772781372070312 0.04500872641801834 -0.11859282106161118
-0.5587262511253357 -0.06423628330230713 0.008903012610971928
0.23724353313446045 0.3907623291015625 0.3401266932487488
0.3613836467266083 -0.08939263224601746 0.19927847385406494
-0.01329263299703598 -0.6228734254837036 0.15333499014377594
-0.5711731314659119 0.002631955314427614 0.32990768551826477
-0.12191866338253021 -0.2140933722257614 -0.2895759642124176
-0.43436479568481445 0.10892483592033386 -0.08421729505062103
0.2369602918624878 0.0016662196721881628 -0.11877916008234024
0.5287304520606995 0.11855411529541016 0.33883026242256165
-0.306503564119339 0.2529931962490082 -0.40169641375541687
0.5777886509895325 0.2627370357513428 0.2364380657672882
-0.15988220274448395 0.0012923437170684338 -0.20991171896457672
-0.3942393958568573 -0.08069754391908646 0.18117736279964447
-0.2517230212688446 -0.0004510357975959778 -0.057455118745565414
-0.2751179039478302 0.4004989266395569 0.2264309823513031
-0.008151081390678883 -0.3931874930858612 0.23938731849193573
0.0007818761514499784 -0.23318377137184143 0.29994362592697144
0.2608167827129364 0.24033039808273315 0.34204792976379395
-0.4497148394584656 0.021392449736595154 -0.4006996154785156
0.09096845984458923 -0.0015482448507100344 0.3283384144306183
-0.16440458595752716 -0.6529166102409363 -0.01748892478644848
-0.40596845746040344 0.3960152566432953 0.055577948689460754
-0.5781199336051941 0.0181635282933712 0.0572170615196228
0.23484845459461212 0.0024292171001434326 -0.08282401412725449
0.3364732265472412 0.28963503241539 0.37449875473976135
0.13973727822303772 0.40067583322525024 -0.337982714176178
0.4273678660392761 0.006660723127424717 0.33515605330467224
-0.5585942268371582 -0.0695684626698494 -0.262649267911911
0.42241474986076355 0.39904361963272095 0.28678098320961
-0.3716828525066376 0.3942070007324219 -0.3934652507305145
-0.21370983123779297 0.39802730083465576 -0.07511339336633682
0.09320041537284851 0.4008151590824127 -0.25726237893104553
0.404918909072876 -0.3742527961730957 -0.1460680514574051
-0.5019677877426147 0.39776521921157837 0.10152046382427216
-0.49955233931541443 0.1733618974685669 -0.40182119607925415
-0.5379124283790588 0.004435588605701923 -0.2600787281990051
0.4452982544898987 -0.19206145405769348 -0.014692844823002815
-0.41361114382743835 0.004139904398471117 -0.1930045485496521
-0.39806047081947327 -0.0834260955452919 -0.3698638677597046
0.09689754992723465 0.0007172549958340824 -0.13844631612300873
0.013440839014947414 0.001363770803436637 0.08313543349504471
-0.16797736287117004 -0.033884450793266296 0.18701112270355225
0.4791766405105591 0.006796846631914377 -0.38203638792037964
-0.5750264525413513 -0.015188602730631828 -0.03747454658150673
0.2594909071922302 -0.286475270986557 0.277445912361145
0.43910321593284607 -0.3704715669155121 0.030634263530373573
0.3405655026435852 -0.001657469430938363 0.21298779547214508
0.5795016288757324 0.1349681317806244 0.3109641373157501
-0.5073870420455933 -0.10084424912929535 0.07200339436531067
0.04853338748216629 0.0008591050282120705 -0.2625303566455841
-0.18039840459823608 0.0026493114419281483 -0.07817625254392624
0.5600149631500244 0.3972799479961395 -0.3187365233898163
0.5798298120498657 0.29991382360458374 -0.35786134004592896
-0.31863051652908325 0.0713215172290802 -0.39996537566185
-0.37937676906585693 0.061487678438425064 0.2391476035118103
-0.40805038809776306 -0.0877763032913208 0.1195400282740593
0.29613953828811646 0.2708826959133148 -0.4018692374229431
-0.13564889132976532 0.39974141120910645 -0.24034634232521057
-0.040161728858947754 -0.18659712374210358 0.28314122557640076
0.1891917884349823 -0.6204750537872314 0.04068956524133682
-0.4287106990814209 -0.09879529476165771 0.28416192531585693
0.1634739190340042 -0.6217167377471924 0.028425322845578194
0.3965694308280945 0.0028750672936439514 0.2735408842563629
0.15004536509513855 -0.6217349767684937 -0.00519504863768816
0.5281978249549866 0.002591289347037673 0.055947571992874146
0.2526830732822418 0.4000268578529358 -0.011582390405237675
0.2429545670747757 0.00048585108015686274 -0.23920482397079468
-0.5133295059204102 0.18608422577381134 0.3442738354206085
-0.2732420861721039 0.0014068745076656342 0.2983283996582031
0.3539738059043884 0.39866217970848083 -0.11643633991479874
0.4168650507926941 -0.2658272087574005 -0.16319410502910614
-0.5797485709190369 0.00797613151371479 -0.06576543301343918
-0.02394184097647667 -0.6246042251586914 0.09615517407655716
-0.5838109254837036 0.13889199495315552 -0.3067328631877899
-0.03682209178805351 0.39278024435043335 0.32867762446403503
-0.5831732153892517 0.25376057624816895 0.03863729536533356
-0.27310141921043396 0.0027634454891085625 -0.326889306306839
-0.1618841588497162 -0.21306133270263672 -0.25194528698921204
-0.2267705202102661 -0.36952632665634155 -0.09374618530273438
0.1857079416513443 0.4006759226322174 0.13864731788635254
0.28210732340812683 0.39830633997917175 0.34239959716796875
0.5764478445053101 0.3699137568473816 0.05737616866827011
-0.4122547209262848 0.003939833492040634 -0.2914547324180603
0.28050872683525085 -0.43434593081474304 0.19586479663848877
-0.3889857530593872 0.07789253443479538 -0.06857948005199432
-0.12789081037044525 -0.5879871845245361 -0.20414495468139648
-0.562782347202301 0.3506661355495453 0.33392003178596497
0.5552114844322205 0.011482765898108482 -0.38481995463371277
0.39781248569488525 0.40229102969169617 -0.12905128300189972
-0.027943938970565796 0.0006961209001019597 -0.196902796626091
0.15693441033363342 0.022184720262885094 -0.3987849950790405
0.04355465993285179 0.0024152931291610003 0.13246630132198334
-0.5721766948699951 -0.007821358740329742 0.10644736140966415
0.32132208347320557 0.39826518297195435 -0.3704048991203308
0.5050870776176453 0.06849321722984314 -0.400828093290329
-0.46176254749298096 0.37077832221984863 -0.17936426401138306
0.040836311876773834 0.002126745879650116 -0.11038406938314438
0.062214769423007965 -0.6523967981338501 -0.3027536869049072
0.4456818401813507 -0.23161184787750244 -0.019282428547739983
-0.07149238884449005 0.4002605676651001 -0.1199934333562851
-0.23630531132221222 0.0008636489510536194 0.16328437626361847
-0.19375471770763397 0.0010059862397611141 0.01647053472697735
0.20499852299690247 -0.621447741985321 0.04241212084889412
0.10125052183866501 -0.08872493356466293 -0.3725822865962982
-0.09207486361265182 -0.38150689005851746 -0.256124883890152
0.0344252772629261 -0.2733539938926697 0.30942636728286743
-0.2966383993625641 0.001398436725139618 -0.284400999546051
0.3745770752429962 0.20838896930217743 0.3456442952156067
-0.05345449596643448 0.13291747868061066 0.3432968556880951
0.15601515769958496 -0.634742796421051 -0.2666250765323639
-0.09933583438396454 -0.37540990114212036 -0.27820640802383423
-0.14743657410144806 -0.5014423131942749 0.11956216394901276
0.4450598359107971 -0.12867471575737 -0.06794638931751251
0.5060640573501587 0.3973558843135834 0.20578797161579132
0.2241271436214447 -0.017304018139839172 0.2901056408882141
-0.5701795220375061 0.3475739657878876 -0.3966912627220154
0.10816986113786697 -0.6328229904174805 0.2136579006910324
-0.5733824372291565 0.14994147419929504 0.33475592732429504
0.44905704259872437 0.12176264077425003 0.3445063531398773
0.3175123333930969 -0.6423788666725159 0.10467934608459473
0.5804747343063354 0.34329748153686523 0.1898362934589386
0.2190215140581131 -0.07615485787391663 0.32002976536750793
-0.575901448726654 0.07895369827747345 -0.09865214675664902
-0.33274757862091064 -0.00043062493205070496 0.13466618955135345
0.1353943645954132 0.3719843626022339 -0.4003945291042328
0.11803875863552094 -0.43307173252105713 0.2605384290218353
0.16321174800395966 -0.5872753262519836 0.25194254517555237
-0.28884607553482056 0.003338757436722517 0.24357463419437408
-0.577776312828064 0.058967478573322296 -0.07018812000751495
0.4441770911216736 0.004352553281933069 0.2764885723590851
0.48742133378982544 -0.0008128413464874029 0.03751927614212036
-0.5745286345481873 0.34353506565093994 -0.21069273352622986
-0.5576949119567871 0.06534718722105026 0.16770073771476746
-0.372051864862442 -0.004583830013871193 -0.3903788924217224
0.16510838270187378 -0.6269818544387817 -0.2708468437194824
-0.06723253428936005 -0.6224914789199829 0.10300947725772858
0.24652725458145142 0.0015419023111462593 0.16880303621292114
0.3822406828403473 -0.39509573578834534 -0.07846420258283615
0.3078124523162842 0.40119048953056335 0.12446445226669312
-0.5661134719848633 0.28558528423309326 0.33694562315940857
-0.16938848793506622 0.0010309016797691584 -0.16588184237480164
-0.5820788145065308 0.23895268142223358 -0.25808924436569214
-0.5751895308494568 0.033895473927259445 0.14704768359661102
-0.09532831609249115 0.3998236656188965 -0.003115186234936118
0.3428023159503937 -0.6264910101890564 -0.0549323596060276
0.25760751962661743 -0.07197190821170807 0.33277103304862976
0.03339117765426636 -0.0066036321222782135 0.3121168315410614
-0.5094609260559082 0.3899271786212921 -0.025362061336636543
-0.5262882113456726 -0.07627733051776886 -0.4031543731689453
-0.5653927326202393 0.0764649361371994 0.02037786692380905
-0.0741216391324997 -0.611336350440979 -0.2537227272987366
0.030137866735458374 -0.35392215847969055 -0.364403635263443
0.38098981976509094 0.4013177156448364 0.15417467057704926
-0.5795438289642334 0.28519460558891296 0.301540732383728
0.11726643145084381 -0.6220482587814331 0.15363767743110657
-0.00856280978769064 0.003652319312095642 0.10737311840057373
-0.5726231336593628 0.045813266187906265 0.12394268065690994
-0.07414251565933228 0.3992873430252075 -0.3408263027667999
0.3514082729816437 -0.512365996837616 -0.1766221821308136
0.361764132976532 -0.6433457732200623 -0.07037585228681564
-0.42737704515457153 0.1329943686723709 0.3399970531463623
-0.5801753401756287 0.00336752412840724 0.13052117824554443
0.351494163274765 -0.0007017608731985092 0.06586281210184097
0.0821162685751915 -0.6239920258522034 -0.25416556000709534
-0.575197160243988 0.10495912283658981 0.3320956826210022
0.44075116515159607 -0.2910555899143219 0.03877517580986023
-0.5669721961021423 -0.0494355671107769 -0.2555285096168518
0.43975287675857544 -0.002704223617911339 0.004278940614312887
-0.1826513558626175 -0.45402488112449646 -0.0801723524928093
0.10885575413703918 0.0021309559233486652 0.1392110288143158
-0.16113373637199402 -0.0010857535526156425 0.19475315511226654
-0.24357648193836212 -0.23764817416667938 -0.047841981053352356
0.2589499354362488 0.00108249019831419 0.23207584023475647
-0.2058209329843521 0.0016023125499486923 0.004511306528002024
0.420131117105484 -0.0005294290604069829 -0.10355155169963837
-0.0008134241215884686 -0.5859016180038452 0.2388288974761963
-0.48708951473236084 0.21627993881702423 -0.40281838178634644
-0.5790881514549255 0.11190534383058548 -0.3769518733024597
0.2218172550201416 -0.2700413465499878 -0.35329073667526245
0.5740711688995361 0.3807215094566345 0.33358484506607056
-0.0956866666674614 0.3999408483505249 -0.3108661472797394
-0.18238820135593414 0.0009111016988754272 0.024860093370079994
-0.14406055212020874 -0.07106450945138931 -0.25738897919654846
-0.10715334862470627 0.0012878412380814552 0.19245308637619019
0.22386810183525085 -0.6206535696983337 -0.18551599979400635
0.4853796362876892 -0.0001562850084155798 -0.009449675679206848
-0.5139995813369751 0.2897292971611023 0.3431306481361389
0.1508910208940506 0.4007974863052368 0.030118782073259354
0.40029072761535645 -0.32345089316368103 0.14066459238529205
0.025472069159150124 0.0005418611690402031 -0.30228525400161743
-0.11059403419494629 -0.6027299761772156 0.1677827686071396
-0.16463012993335724 -0.2796843349933624 -0.24786052107810974
-0.4562566578388214 -0.1041068583726883 0.09757013618946075
0.4089081585407257 -0.33687421679496765 0.12497031688690186
0.27838000655174255 -0.6189969778060913 -0.031443435698747635
0.07103660702705383 -0.0055771623738110065 -0.37149614095687866
0.5760756731033325 0.16357362270355225 0.2142486572265625
0.4256066083908081 -0.07785387337207794 -0.1459580361843109
-0.5833013653755188 0.004030044190585613 -0.04514759033918381
0.37933439016342163 0.4008323848247528 -0.13937966525554657
-0.5707624554634094 0.05688515305519104 0.07917483896017075
-0.3619173467159271 0.00550704263150692 0.18424710631370544
-0.20143969357013702 0.39393100142478943 -0.389096736907959
0.0869353786110878 -0.2218492478132248 -0.3714299499988556
-0.2654454708099365 0.3990734815597534 0.3176199495792389
0.48437926173210144 0.3997911214828491 0.11323463171720505
-0.1365235298871994 0.0013021710328757763 -0.03687378019094467
0.026680147275328636 0.2395816296339035 0.37068524956703186
0.5797535181045532 0.08591536432504654 -0.019374635070562363
-0.24014145135879517 -0.15061494708061218 -0.0017194908577948809
-0.5808083415031433 0.27241387963294983 0.020477131009101868
-0.5655218958854675 -0.005418797023594379 0.12107019126415253
-0.4386117458343506 0.3672022223472595 -0.18190480768680573
0.33052679896354675 -0.0016570314764976501 0.2588249742984772
0.036657415330410004 -0.6235464215278625 -0.10933060199022293
0.3035983145236969 -0.0843345895409584 0.3308447599411011
-0.5806141495704651 0.20258261263370514 0.09022478014230728
-0.09873468428850174 0.19844582676887512 0.3996557295322418
0.32760190963745117 -0.3154761493206024 0.23247985541820526
0.4107731878757477 -0.3793983459472656 0.04361044615507126
-0.4476032257080078 0.14872071146965027 -0.401210755109787
-0.5137436985969543 0.09306550025939941 0.01580248586833477
-0.12483348697423935 -0.43039974570274353 0.15535666048526764
0.2237551361322403 0.4638725221157074 0.36433684825897217
-0.2983548045158386 0.4006815254688263 -0.26810920238494873
0.22514109313488007 -0.6236395835876465 -0.11483524739742279
0.28483086824417114 -0.6200013756752014 0.06750044971704483
0.21903520822525024 0.0011685118079185486 -0.2232469767332077
-0.20528608560562134 0.001415100647136569 -0.21068300306797028
0.5751186013221741 0.10380836576223373 0.31344279646873474
0.3908172845840454 -0.5686099529266357 -0.012210980989038944
0.3107700049877167 -0.020078781992197037 0.2472662776708603
-0.24097031354904175 -0.2910536229610443 -0.035133786499500275
0.10985369235277176 0.0017402363009750843 0.06506907939910889
0.3117334544658661 0.0951542779803276 0.4398639500141144
-0.402726411819458 0.010499656200408936 -0.3990587890148163
-0.3757568597793579 -0.05821773037314415 0.1269923746585846
-0.12615005671977997 -0.635299026966095 0.06079636514186859
-0.4766720235347748 0.0028374921530485153 0.023837992921471596
-0.5471259355545044 0.3928816318511963 -0.2064955085515976
0.22612102329730988 -0.1780916452407837 0.2917945086956024
-0.5804215669631958 0.33232948184013367 0.007647039834409952
-0.5472618341445923 0.3830975890159607 0.23026949167251587
-0.15142711997032166 0.39741209149360657 0.23471033573150635
0.21202541887760162 -0.2379712164402008 0.2986995279788971
-0.43102023005485535 0.3961835503578186 -0.17923568189144135
0.3815745711326599 -0.6463590860366821 -0.031049998477101326
0.16351552307605743 -0.22095392644405365 -0.36699485778808594
0.5288982391357422 0.005664517171680927 0.3311116099357605
-0.4029492139816284 0.08671022951602936 0.13570626080036163
0.0397011823952198 0.0040007056668400764 0.24871431291103363
0.3736778795719147 0.40097776055336 0.04349227994680405
0.07181410491466522 -0.6208128929138184 0.05933428183197975
-0.5753093361854553 0.08184409141540527 -0.061836451292037964
0.09181687235832214 -0.6514477729797363 -0.3057674169540405
-0.04893724247813225 0.17152008414268494 -0.4032248854637146
-0.3672954738140106 0.006942887790501118 -0.21208475530147552
0.5766184329986572 0.3747468590736389 -0.15759214758872986
-0.3179338872432709 0.4060088098049164 -0.10360430181026459
0.0888599157333374 -0.07185333967208862 0.3206826448440552
0.41194960474967957 -0.2766357660293579 -0.18019355833530426
-0.5640990734100342 0.3748355805873871 -0.01490648090839386
-0.34053847193717957 0.02707635797560215 -0.3995110094547272
0.17869910597801208 -0.6247002482414246 -0.23992465436458588
0.10562510788440704 -0.1950838565826416 -0.3722894489765167
-0.058635957539081573 0.4000093638896942 -0.2722955346107483
0.218783438205719 0.3953332006931305 0.32292476296424866
0.5722177028656006 0.38577553629875183 -0.34340256452560425
0.4648350179195404 0.3982275724411011 -0.21871080994606018
0.020118143409490585 -0.0008115469245240092 0.32792428135871887
-0.5312536358833313 0.09364944696426392 -0.36332497000694275
-0.14555306732654572 0.3935091495513916 0.33592721819877625
-0.5040473341941833 0.36710986495018005 -0.3961177468299866
-0.37700068950653076 -0.061850789934396744 0.05723835900425911
0.2907542884349823 -0.6192303895950317 0.027959901839494705
-0.4144999086856842 0.09526599198579788 0.26882439851760864
-0.061252713203430176 0.3269974887371063 0.3420785665512085
0.40259823203086853 -0.2928137481212616 -0.1987016797065735
0.3474330008029938 0.32954180240631104 -0.40091025829315186
-0.10833188146352768 -0.5180049538612366 0.1717996448278427
-0.15114553272724152 0.3994668424129486 -0.3279630243778229
-0.42329367995262146 0.3980415463447571 0.19345204532146454
-0.05515248700976372 0.003918534144759178 0.19667881727218628
-0.4914856255054474 0.3917611539363861 -0.3930399417877197
-0.07242032140493393 -0.0008591986261308193 -0.32603973150253296
-0.576969563961029 0.027688011527061462 0.09054487198591232
0.12709230184555054 -0.37335506081581116 0.29085788130760193
-0.24179041385650635 -0.11901599168777466 -0.025488896295428276
-0.001731052645482123 -0.6291666626930237 0.19543547928333282
0.579692542552948 0.39290592074394226 0.025890089571475983
0.2769918143749237 0.0012596221640706062 -0.12808005511760712
0.15362446010112762 -0.6490815877914429 0.24958552420139313
-0.12185722589492798 -0.3840171992778778 0.16771656274795532
0.5750910639762878 0.01396569237112999 0.01286893431097269
-0.5650387406349182 0.31755703687667847 0.33925190567970276
-0.39586785435676575 0.4140647053718567 -0.018868478015065193
0.17498746514320374 0.06653352081775665 -0.40128177404403687
0.2775726616382599 -0.6199613213539124 0.0510605126619339
-0.45285385847091675 0.08642870932817459 0.342404842376709
0.2949930727481842 0.4008612632751465 0.4606006145477295
0.09125282615423203 0.0015376759693026543 -0.0725812017917633
0.4388488233089447 -0.11690393090248108 -0.10426889359951019
0.5657086372375488 0.3861558735370636 0.3454529941082001
0.14016734063625336 -0.07710665464401245 0.35116466879844666
0.5826061964035034 0.12352515757083893 0.14877238869667053
-0.1470172256231308 0.00229842122644186 -0.015667177736759186
0.5769573450088501 0.28636860847473145 -0.09482797980308533
-0.20728492736816406 0.0025859754532575607 -0.15143761038780212
0.5687440037727356 0.00707557238638401 0.31902170181274414
0.18903400003910065 0.0022076303139328957 -0.29313287138938904
0.27696019411087036 -0.021017378196120262 0.2732846438884735
0.38419654965400696 -0.38996055722236633 -0.0981949046254158
-0.3282296359539032 -0.0010614646598696709 -0.2952497601509094
-0.17792201042175293 0.39366549253463745 -0.3900691568851471
-0.37582632899284363 0.21765555441379547 -0.40239909291267395
-0.5676918029785156 0.22900623083114624 0.3358205556869507
0.37245994806289673 0.39779847860336304 -0.38656458258628845
-0.15270844101905823 0.0012425315799191594 -0.12237324565649033
-0.14537788927555084 0.0026115858927369118 0.11205735802650452
0.2323191910982132 0.3054082691669464 -0.40098610520362854
0.4006916284561157 0.012966275215148926 -0.39706242084503174
0.35465458035469055 0.4007413685321808 -0.1153336614370346
-0.5148141384124756 -0.1044018417596817 -0.010524050332605839
0.5681948065757751 0.3963138163089752 0.22113341093063354
0.5773564577102661 0.30099406838417053 -0.03118174336850643
0.32888275384902954 0.19914992153644562 0.34465640783309937
0.5112183690071106 0.1432938575744629 -0.4027178883552551
-0.5396057963371277 -0.08476618677377701 -0.19260649383068085
-0.5717125535011292 0.35759684443473816 -0.1366509646177292
-0.07790838181972504 -0.4416913688182831 -0.2563145160675049
-0.5767937898635864 0.033718232065439224 -0.03823016211390495
0.45301201939582825 0.13949498534202576 0.3420722484588623
0.17033402621746063 -0.2842070162296295 -0.3667724132537842
-0.05520109087228775 -0.620585024356842 -0.0955715924501419
0.08622215688228607 0.40195515751838684 -0.0494283027946949
-0.47768136858940125 0.39946654438972473 0.18426859378814697
-0.22433719038963318 0.40039318799972534 -0.041741978377103806
-0.09243348985910416 0.3990055024623871 -0.20658773183822632
-0.5651342272758484 0.06374245882034302 -0.26638081669807434
0.22858597338199615 -0.6212363243103027 -0.16951283812522888
0.13470891118049622 0.27928370237350464 0.3424661457538605
0.2463238537311554 -0.23558683693408966 0.28562232851982117
0.009554721415042877 0.19565889239311218 0.4052644968032837
-0.23857957124710083 -0.359468936920166 -0.059930648654699326
-0.5779740810394287 0.10298019647598267 -0.30338361859321594
-0.45498529076576233 -0.10151007026433945 0.3351683020591736
-0.4475858807563782 0.10055607557296753 0.3403346538543701
-0.4122130274772644 0.08607785403728485 -0.1540403813123703
0.04267381876707077 0.003516238182783127 0.11951354891061783
0.44064563512802124 0.0006943317130208015 -0.22327753901481628
-0.09523408859968185 -0.6243875026702881 -0.13567481935024261
0.16032123565673828 -0.01422603614628315 0.46810752153396606
0.4355366826057434 -0.33078646659851074 0.05441701412200928
-0.342612624168396 0.40303635597229004 0.15416209399700165
-0.25586822628974915 0.24732017517089844 -0.4012726843357086
-0.3949039578437805 0.3973354995250702 0.08711419999599457
-0.027056027203798294 0.0009935898706316948 -0.20080289244651794
-0.5521479845046997 -0.07427701354026794 -0.3672221899032593
0.11433064192533493 0.04336530715227127 0.34384897351264954
-0.5765429139137268 0.01551574096083641 -0.013098595663905144
0.28515881299972534 0.11108243465423584 0.4623163044452667
-0.46449440717697144 0.04282953962683678 -0.4011165201663971
-0.44474926590919495 -0.10642243176698685 0.20462608337402344
0.3140530586242676 0.16508328914642334 0.34456413984298706
0.06336759775876999 0.000979623757302761 0.019405068829655647
0.18130497634410858 -0.1978851556777954 0.3049142360687256
-0.23292171955108643 -0.37021490931510925 -0.06815169006586075
-0.43513843417167664 0.10988731682300568 0.05655775964260101
-0.37890931963920593 0.0667494535446167 -0.1718752682209015
0.35692739486694336 -0.594971239566803 0.09715547412633896
-0.45627763867378235 0.18737469613552094 0.33896875381469727
-0.4329191744327545 0.39940086007118225 0.19039368629455566
-0.5668153166770935 -0.023006198927760124 0.093358114361763
-0.004371011629700661 0.400464802980423 0.2923696041107178
0.3230178952217102 -0.3045738935470581 -0.29423874616622925
0.03188202902674675 0.3994468152523041 -0.17088112235069275
0.40507978200912476 -0.026915472000837326 0.13034318387508392
0.1573919653892517 -0.6218481063842773 -0.07386267185211182
-0.5818392038345337 0.02739602141082287 0.2639853060245514
-0.4069580137729645 -0.09066332131624222 -0.10875683277845383
0.5779403448104858 0.06864070892333984 -0.03870120272040367
0.5237945914268494 0.0119099086150527 -0.3913957178592682
-0.4377388060092926 0.11184559017419815 0.314544677734375
-0.414836585521698 0.09795732796192169 -0.06653286516666412
0.2770374119281769 -0.6209571361541748 0.09916926920413971
-0.5452799201011658 0.13649268448352814 -0.39485475420951843
-0.526784360408783 0.39212629199028015 -0.226993128657341
0.2815825939178467 0.43633878231048584 0.4491288959980011
-0.40305811166763306 -0.08878308534622192 -0.018571989610791206
0.4447302222251892 -0.32425063848495483 -0.06901049613952637
-0.34187057614326477 0.40654581785202026 -0.07458408921957016
-0.49333685636520386 0.4012376666069031 -0.31112563610076904
-0.0438658706843853 0.28201910853385925 0.3745464086532593
0.17632970213890076 -0.08265076577663422 0.3186073303222656
-0.4437585473060608 0.3980887830257416 -0.31008514761924744
0.23609580099582672 -0.04916513338685036 0.4607352614402771
0.5508711338043213 0.39832255244255066 -0.37593039870262146
-0.040465258061885834 0.0018346216529607773 -0.09746900200843811
0.5643284320831299 0.006368772126734257 -0.08584770560264587
0.43442296981811523 -0.32066401839256287 -0.13837502896785736
0.3396839499473572 0.010614871978759766 0.3396855890750885
0.3077486455440521 0.0033839037641882896 -0.15459328889846802
0.3144724667072296 -0.6217877268791199 -0.13490410149097443
0.3375139534473419 0.05465627834200859 -0.39864295721054077
0.38537001609802246 0.40103432536125183 0.04801414906978607
0.43412524461746216 -0.25247061252593994 -0.1169055849313736
0.019169408828020096 0.20877212285995483 0.43645337224006653
-0.039828136563301086 0.0011742813512682915 -0.23501193523406982
0.07001996785402298 -0.05762692540884018 0.3199652135372162
0.23317748308181763 0.40038296580314636 -0.30316162109375
0.5760958790779114 0.07029307633638382 -0.017866291105747223
-0.1205209493637085 -0.6219476461410522 0.0290383268147707
-0.0034407800994813442 0.39343103766441345 0.3384377360343933
0.04442355036735535 -0.6243131756782532 0.09650454670190811
0.3182472884654999 0.0015017446130514145 -0.22883619368076324
-0.5720544457435608 0.19008344411849976 0.32669544219970703
-0.07418210059404373 -0.6223200559616089 -0.14855219423770905
0.5790467858314514 0.2662859857082367 0.04266592115163803
-0.3692832291126251 -0.05609201639890671 -0.10650330781936646
0.14016911387443542 -0.4672293961048126 0.2579518258571625
-0.024494972079992294 -0.320906400680542 -0.34939152002334595
-0.10076671838760376 -0.6221925020217896 0.052030641585588455
0.2720796465873718 0.40157923102378845 0.0680670291185379
0.32847073674201965 -0.04904031381011009 0.37373995780944824
0.037229426205158234 0.02264166623353958 -0.39735734462738037
0.03329511731863022 0.018470868468284607 0.34147995710372925
0.29522818326950073 0.3944118320941925 0.34119483828544617
-0.5569734573364258 -0.06868604570627213 0.25625067949295044
-0.3992650508880615 -0.08740352839231491 -0.26944950222969055
-0.3930431306362152 -0.08106178790330887 -0.25660762190818787
0.045453403145074844 0.0033486131578683853 0.1898183822631836
0.42533665895462036 0.3892863690853119 -0.39452359080314636
0.20142489671707153 -0.4630154073238373 0.24271631240844727
0.5792584419250488 0.14990238845348358 0.05346114560961723
-0.32760992646217346 0.370410293340683 0.0031734013464301825
-0.3453564941883087 -0.0009509524097666144 0.20309533178806305
-0.05507427081465721 -0.6190899610519409 0.015022357925772667
0.3605137765407562 0.39895325899124146 -0.27319100499153137
-0.5737411379814148 0.057038694620132446 0.2640274167060852
0.303716778755188 0.46950197219848633 0.39028245210647583
0.21080604195594788 0.0013605577405542135 0.23731118440628052
-0.07497961074113846 0.003187471069395542 0.07852955907583237
0.1914912611246109 -6.366724846884608e-06 -0.2526158392429352
-0.47869282960891724 0.004664105363190174 -0.3668196499347687
0.1947917938232422 0.3993956446647644 -0.23085685074329376
-0.5756745338439941 0.014182686805725098 -0.05548679828643799
-0.11841477453708649 0.39857351779937744 0.2959005832672119
0.007301371544599533 0.0031967870891094208 0.23942029476165771
0.29560738801956177 0.00016117189079523087 -0.24990224838256836
-0.5672900676727295 0.3675609827041626 0.09696654230356216
0.302188903093338 -0.342151015996933 -0.3091374337673187
0.2835565209388733 0.14320994913578033 -0.3998039960861206
-0.2386399805545807 0.000951095949858427 -0.10594058781862259
0.5773447155952454 0.09732761979103088 0.2463327795267105
-0.5839105248451233 0.32743123173713684 0.056348349899053574
-0.5611905455589294 0.004721151664853096 -0.39349013566970825
-0.5751206874847412 0.04741567373275757 -0.33676981925964355
0.10159226506948471 0.46857503056526184 0.415191113948822
0.3936846852302551 -0.5903670787811279 -0.04140930250287056
0.12578749656677246 0.40221476554870605 0.16182103753089905
0.10465359687805176 0.049472104758024216 0.3438567817211151
0.25892913341522217 -0.6182984113693237 -0.05998527258634567
0.04724494367837906 0.27121615409851074 0.34579357504844666
