-0.1481195092201233 0.22937582433223724 0.07525666058063507 0.0 255.0 0.0
0.19186121225357056 -0.29509952664375305 0.0779544785618782 0.0 255.0 0.0
0.04763420298695564 0.2274511158466339 -0.10227229446172714 0.0 255.0 0.0
-0.08426839858293533 0.2266036570072174 -0.008266416378319263 0.0 255.0 0.0
0.0012649416457861662 -0.021465228870511055 -0.1377822905778885 0.0 255.0 0.0
-0.2687370181083679 0.16432040929794312 0.12751416862010956 0.0 255.0 0.0
-0.06053638830780983 0.2284841686487198 -0.06988900154829025 0.0 255.0 0.0
0.17185796797275543 -0.3760276734828949 -0.05645862594246864 0.0 255.0 0.0
-0.2929549217224121 0.0029435805045068264 -0.2725905179977417 0.0 255.0 0.0
-0.2694271504878998 -0.0011215624399483204 0.12890087068080902 0.0 255.0 0.0
0.00993399415165186 -0.22626185417175293 -0.13663089275360107 0.0 255.0 0.0
0.14475548267364502 -0.39025941491127014 0.1263381838798523 0.0 255.0 0.0
0.29493528604507446 0.4523206651210785 0.10516320914030075 0.0 255.0 0.0
-0.3230763077735901 -0.3871040642261505 0.07795274257659912 0.0 255.0 0.0
-0.04968864470720291 -0.24971292912960052 0.006517799571156502 0.0 255.0 0.0
-0.3043878674507141 -0.43740472197532654 -0.04157111793756485 0.0 255.0 0.0
0.16105856001377106 -0.3553502559661865 0.10816588997840881 0.0 255.0 0.0
-0.24603840708732605 -0.045356541872024536 -0.13506805896759033 0.0 255.0 0.0
0.2941155731678009 -0.07010285556316376 -0.025875447317957878 0.0 255.0 0.0
-0.25089967250823975 0.45643186569213867 -0.03320466727018356 0.0 255.0 0.0
-0.13487282395362854 0.22797134518623352 0.11634421348571777 0.0 255.0 0.0
-0.01790023408830166 0.13085059821605682 -0.13506805896759033 0.0 255.0 0.0
0.056281983852386475 0.042711541056632996 -0.13506805896759033 0.0 255.0 0.0
0.18605704605579376 -0.2793909013271332 0.0620780847966671 0.0 255.0 0.0
0.2972581684589386 -0.06656763702630997 0.08637848496437073 0.0 255.0 0.0
0.2972581684589386 -0.19265909492969513 0.004919125698506832 0.0 255.0 0.0
-0.11094649881124496 0.07454368472099304 -0.13657912611961365 0.0 255.0 0.0
-0.0960327610373497 0.225735604763031 0.0009244338725693524 0.0 255.0 0.0
0.21123987436294556 0.12538030743598938 -0.13405388593673706 0.0 255.0 0.0
0.2666362524032593 -0.2554401755332947 0.05503542348742485 0.0 255.0 0.0
0.12290844321250916 -0.010637090541422367 -0.13571682572364807 0.0 255.0 0.0
-0.18391530215740204 -0.3635028004646301 0.07967226952314377 0.0 255.0 0.0
0.23177234828472137 -0.4476642608642578 0.042502861469984055 0.0 255.0 0.0
0.1941632777452469 0.4292157292366028 -0.0640001967549324 0.0 255.0 0.0
-0.006661423947662115 -0.09375625103712082 0.16866469383239746 0.0 255.0 0.0
-0.03107382357120514 -0.12403327226638794 0.17111200094223022 0.0 255.0 0.0
-0.17998522520065308 0.3811637759208679 -0.06344368308782578 0.0 255.0 0.0
-0.17577828466892242 0.0014026026474311948 0.16940195858478546 0.0 255.0 0.0
0.16168667376041412 -0.24808700382709503 -0.061092477291822433 0.0 255.0 0.0
0.16542403399944305 -0.10741783678531647 0.16940195858478546 0.0 255.0 0.0
0.2931539714336395 0.14456364512443542 0.11413665115833282 0.0 255.0 0.0
0.17938615381717682 0.453193336725235 0.08740895241498947 0.0 255.0 0.0
0.11766134947538376 -0.02161386050283909 0.16940195858478546 0.0 255.0 0.0
-0.26793497800827026 0.213520348072052 0.11685724556446075 0.0 255.0 0.0
-0.1012178361415863 0.07450267672538757 -0.13506805896759033 0.0 255.0 0.0
-0.11011787503957748 -0.0007386008510366082 0.1670808345079422 0.0 255.0 0.0
0.22459299862384796 -0.44711989164352417 0.17107956111431122 0.0 255.0 0.0
0.029652731493115425 0.22812457382678986 -0.08336063474416733 0.0 255.0 0.0
-0.32826435565948486 -0.39792245626449585 0.030399637296795845 0.0 255.0 0.0
-0.00029251104569993913 0.22812457382678986 0.0339706726372242 0.0 255.0 0.0
-0.1656344085931778 0.3587316870689392 -0.03151590749621391 0.0 255.0 0.0
-0.1514432281255722 0.11870774626731873 -0.13468222320079803 0.0 255.0 0.0
0.2972581684589386 -0.16672223806381226 0.10611334443092346 0.0 255.0 0.0
0.008733754977583885 0.14049440622329712 -0.2150561511516571 0.0 255.0 0.0
0.18507049977779388 0.479063481092453 0.006339577957987785 0.0 255.0 0.0
0.09420513361692429 0.010550842620432377 -0.136794313788414 0.0 255.0 0.0
0.11341673880815506 -0.2545362114906311 0.06730827689170837 0.0 255.0 0.0
-0.19283410906791687 -0.09069779515266418 -0.13497844338417053 0.0 255.0 0.0
-0.19796296954154968 -0.3467622399330139 -0.06863375008106232 0.0 255.0 0.0
-0.13128584623336792 -0.11721990257501602 -0.13506805896759033 0.0 255.0 0.0
0.2972581684589386 0.04498158022761345 0.0437874011695385 0.0 255.0 0.0
0.16710349917411804 -0.11620721220970154 -0.13506805896759033 0.0 255.0 0.0
-0.18720416724681854 -0.2713567912578583 -0.047584857791662216 0.0 255.0 0.0
-0.31443649530410767 -0.3492591083049774 -0.004623209126293659 0.0 255.0 0.0
-0.1941062957048416 0.2297714799642563 -0.07455615699291229 0.0 255.0 0.0
-0.06864544749259949 0.13294096291065216 0.16940195858478546 0.0 255.0 0.0
0.16603931784629822 0.0727953389286995 0.16722150146961212 0.0 255.0 0.0
-0.16171108186244965 0.36992090940475464 0.07642893493175507 0.0 255.0 0.0
0.20385006070137024 -0.05074898898601532 0.16940195858478546 0.0 255.0 0.0
0.2970651686191559 0.1987936943769455 -0.027487652376294136 0.0 255.0 0.0
0.13254457712173462 0.22709615528583527 0.11860793083906174 0.0 255.0 0.0
0.1472587287425995 0.04169682040810585 -0.13454744219779968 0.0 255.0 0.0
0.033569104969501495 -0.09238126873970032 0.1702806055545807 0.0 255.0 0.0
-0.01156133133918047 -0.25072386860847473 0.1000557467341423 0.0 255.0 0.0
0.29744717478752136 0.11548586189746857 0.0162960235029459 0.0 255.0 0.0
0.18631847202777863 -0.44812047481536865 0.019131602719426155 0.0 255.0 0.0
-0.2707524597644806 0.1345825493335724 0.05274267867207527 0.0 255.0 0.0
-0.1876281499862671 -0.1491835117340088 -0.13198168575763702 0.0 255.0 0.0
-0.038647886365652084 -0.016207875683903694 -0.13506805896759033 0.0 255.0 0.0
0.2982535660266876 0.17195802927017212 -0.09835410863161087 0.0 255.0 0.0
0.26720094680786133 0.2263251096010208 0.11304295063018799 0.0 255.0 0.0
-0.3042764663696289 -0.32390233874320984 0.09090477228164673 0.0 255.0 0.0
-0.09533409774303436 0.2282448410987854 -0.039488911628723145 0.0 255.0 0.0
-0.05226656049489975 -0.2508489489555359 -0.055481258779764175 0.0 255.0 0.0
-0.0769183337688446 0.22812457382678986 0.019678181037306786 0.0 255.0 0.0
0.29969173669815063 -0.16211698949337006 0.13586127758026123 0.0 255.0 0.0
0.2593981921672821 -0.27660030126571655 -0.02252849191427231 0.0 255.0 0.0
-0.23073889315128326 0.49795055389404297 0.08876893669366837 0.0 255.0 0.0
0.2870771884918213 -0.37027597427368164 0.055215951055288315 0.0 255.0 0.0
0.20341941714286804 -0.06748564541339874 -0.13506805896759033 0.0 255.0 0.0
-0.040163010358810425 -0.05939880385994911 -0.13250981271266937 0.0 255.0 0.0
-0.07523316144943237 0.12640447914600372 0.16940195858478546 0.0 255.0 0.0
0.2972581684589386 -0.09295574575662613 -0.0029395862948149443 0.0 255.0 0.0
-0.15238456428050995 0.1945381462574005 -0.1344885528087616 0.0 255.0 0.0
0.2712906002998352 -0.32603928446769714 0.08151351660490036 0.0 255.0 0.0
0.22534139454364777 -0.4492812156677246 0.011736198328435421 0.0 255.0 0.0
0.30020007491111755 0.4249575138092041 0.00015603439533151686 0.0 255.0 0.0
0.2467171996831894 -0.369900107383728 -0.08630719780921936 0.0 255.0 0.0
0.22826649248600006 -0.44561687111854553 -0.04572661966085434 0.0 255.0 0.0
0.23422771692276 -0.24892757833003998 0.13059979677200317 0.0 255.0 0.0
-0.09260213375091553 -0.21474577486515045 -0.13506805896759033 0.0 255.0 0.0
0.04324284940958023 -0.1246805414557457 -0.13506805896759033 0.0 255.0 0.0
-0.006362010259181261 0.16888916492462158 -0.13559278845787048 0.0 255.0 0.0
-0.011834777891635895 -0.1450212597846985 -0.13355061411857605 0.0 255.0 0.0
0.27987486124038696 0.4980953335762024 0.060937535017728806 0.0 255.0 0.0
0.2931821346282959 0.09490890800952911 -0.11076854914426804 0.0 255.0 0.0
-0.1294340193271637 0.02838977240025997 -0.13506805896759033 0.0 255.0 0.0
0.26534542441368103 0.196400448679924 0.1562178134918213 0.0 255.0 0.0
0.220703586935997 0.22877301275730133 0.11481582373380661 0.0 255.0 0.0
-0.26322251558303833 -0.41952186822891235 0.15295033156871796 0.0 255.0 0.0
-0.15793415904045105 -0.3303324580192566 0.011019284836947918 0.0 255.0 0.0
0.2945382595062256 -0.21776388585567474 -0.08214074373245239 0.0 255.0 0.0
-0.23845221102237701 -0.24536743760108948 -0.11773219704627991 0.0 255.0 0.0
-0.17256946861743927 -0.39609214663505554 0.017277736216783524 0.0 255.0 0.0
0.13698022067546844 0.07053565979003906 -0.13408194482326508 0.0 255.0 0.0
0.14084404706954956 0.22812457382678986 0.10174136608839035 0.0 255.0 0.0
-0.2682842016220093 -0.06895308941602707 0.011929180473089218 0.0 255.0 0.0
-0.24722006916999817 0.22713887691497803 -0.07913526147603989 0.0 255.0 0.0
0.21523535251617432 -0.2480134665966034 0.12858818471431732 0.0 255.0 0.0
0.25816425681114197 -0.24910666048526764 0.08349936455488205 0.0 255.0 0.0
-0.0503227561712265 -0.03249873220920563 0.16940195858478546 0.0 255.0 0.0
0.02311788871884346 0.22812457382678986 -0.0417926050722599 0.0 255.0 0.0
0.014973836950957775 0.20049329102039337 -0.23165804147720337 0.0 255.0 0.0
-0.16649053990840912 0.4786749482154846 0.07491668313741684 0.0 255.0 0.0
-0.07571674138307571 0.22791828215122223 0.020868703722953796 0.0 255.0 0.0
-0.15374958515167236 0.3674713671207428 0.0211641862988472 0.0 255.0 0.0
0.21131445467472076 0.03268279880285263 0.16952639818191528 0.0 255.0 0.0
0.16042177379131317 0.08211982995271683 -0.13506805896759033 0.0 255.0 0.0
-0.17350468039512634 -0.024595769122242928 0.17033612728118896 0.0 255.0 0.0
-0.20418864488601685 -0.25124692916870117 -0.11876541376113892 0.0 255.0 0.0
0.21930573880672455 -0.3269297480583191 0.1120256632566452 0.0 255.0 0.0
0.2743959426879883 0.4607398808002472 -0.059482134878635406 0.0 255.0 0.0
0.29690325260162354 -0.2183622568845749 -0.10008201748132706 0.0 255.0 0.0
-0.060330864042043686 -0.046572159975767136 -0.1372908055782318 0.0 255.0 0.0
0.21932822465896606 0.20680269598960876 0.15631189942359924 0.0 255.0 0.0
0.2957035005092621 0.03807966411113739 -0.10883776843547821 0.0 255.0 0.0
0.23921382427215576 -0.37151244282722473 0.1723363697528839 0.0 255.0 0.0
-0.0977872908115387 0.09371097385883331 -0.13279959559440613 0.0 255.0 0.0
0.11449587345123291 0.002336555626243353 -0.131727397441864 0.0 255.0 0.0
0.30254480242729187 -0.09906961023807526 -0.09783995896577835 0.0 255.0 0.0
0.26853907108306885 -0.4455798268318176 0.09883943945169449 0.0 255.0 0.0
0.17423991858959198 0.3770906329154968 0.02233816497027874 0.0 255.0 0.0
-0.003074134234338999 0.22942638397216797 -0.08200506865978241 0.0 255.0 0.0
0.2966472804546356 -0.02739560604095459 -0.06101474538445473 0.0 255.0 0.0
0.2631877064704895 0.15895791351795197 -0.13670752942562103 0.0 255.0 0.0
-0.2469991147518158 -0.33065372705459595 0.13438564538955688 0.0 255.0 0.0
0.09061921387910843 0.1529582142829895 -0.13640686869621277 0.0 255.0 0.0
-0.15664029121398926 0.2276792973279953 -0.0012535874266177416 0.0 255.0 0.0
-0.02852296642959118 -0.2254316210746765 0.15628953278064728 0.0 255.0 0.0
0.30055898427963257 0.43552184104919434 0.10100200027227402 0.0 255.0 0.0
0.09656739234924316 0.09885472059249878 0.16940195858478546 0.0 255.0 0.0
0.2619997262954712 -0.2875237464904785 0.040675338357686996 0.0 255.0 0.0
-0.28593266010284424 -0.059033509343862534 -0.26703935861587524 0.0 255.0 0.0
-0.1756836324930191 0.14946861565113068 -0.1383512020111084 0.0 255.0 0.0
-0.0010887935059145093 0.2280847728252411 0.13254061341285706 0.0 255.0 0.0
0.29598307609558105 0.1833236664533615 0.050279147922992706 0.0 255.0 0.0
-0.2679767310619354 0.11321468651294708 -0.07771780341863632 0.0 255.0 0.0
0.19966977834701538 0.3662731945514679 -0.06372478604316711 0.0 255.0 0.0
0.13289470970630646 -0.1083238422870636 0.1689312756061554 0.0 255.0 0.0
-0.15714474022388458 0.39324870705604553 0.07893404364585876 0.0 255.0 0.0
0.2972581684589386 -0.16387653350830078 0.10343405604362488 0.0 255.0 0.0
0.18345162272453308 -0.34528785943984985 -0.06421812623739243 0.0 255.0 0.0
-0.2890278697013855 -0.36793753504753113 -0.07704256474971771 0.0 255.0 0.0
-0.261877179145813 0.370299756526947 -0.027464941143989563 0.0 255.0 0.0
-0.022071022540330887 -0.003114112885668874 0.17062360048294067 0.0 255.0 0.0
-0.27206864953041077 -0.14031101763248444 0.04119478538632393 0.0 255.0 0.0
-0.1823442429304123 0.38307633996009827 -0.06620828807353973 0.0 255.0 0.0
0.27618131041526794 0.07060400396585464 0.156281977891922 0.0 255.0 0.0
-0.11560997366905212 -0.2500973343849182 0.12210563570261002 0.0 255.0 0.0
-0.2704288363456726 0.09645096957683563 0.02843588963150978 0.0 255.0 0.0
0.2986060082912445 0.15299949049949646 0.06744769960641861 0.0 255.0 0.0
0.2986977696418762 0.2064293771982193 -0.054652608931064606 0.0 255.0 0.0
0.2659686803817749 -0.44531968235969543 0.006623778026551008 0.0 255.0 0.0
-0.07884899526834488 0.12671494483947754 0.16940195858478546 0.0 255.0 0.0
-0.2489059567451477 -0.3246975541114807 0.1320418417453766 0.0 255.0 0.0
0.09820964932441711 -0.17818473279476166 -0.13506805896759033 0.0 255.0 0.0
0.17722156643867493 0.4545493423938751 0.021818865090608597 0.0 255.0 0.0
0.26616156101226807 0.08950867503881454 -0.13511888682842255 0.0 255.0 0.0
0.29497992992401123 0.0545269139111042 -0.06051446497440338 0.0 255.0 0.0
-0.16894912719726562 0.3410308361053467 -0.02260279841721058 0.0 255.0 0.0
0.27579426765441895 0.08493057638406754 -0.13591457903385162 0.0 255.0 0.0
-0.06634969264268875 -0.04859478771686554 -0.13350553810596466 0.0 255.0 0.0
0.16796137392520905 -0.44814246892929077 0.08890332281589508 0.0 255.0 0.0
0.15414132177829742 -0.3789055347442627 -0.03463147208094597 0.0 255.0 0.0
0.17668192088603973 0.22812457382678986 -0.007729754317551851 0.0 255.0 0.0
0.26961201429367065 0.5047555565834045 0.04175438731908798 0.0 255.0 0.0
0.21337375044822693 -0.2509097158908844 -0.08415158838033676 0.0 255.0 0.0
-0.11473223567008972 -0.06182483211159706 0.17015202343463898 0.0 255.0 0.0
0.2026563286781311 -0.21860769391059875 0.15656445920467377 0.0 255.0 0.0
0.12912237644195557 -0.023681461811065674 -0.13222919404506683 0.0 255.0 0.0
-0.2664288878440857 -0.0736478939652443 -0.08407359570264816 0.0 255.0 0.0
0.1212526261806488 0.08410118520259857 -0.13501133024692535 0.0 255.0 0.0
-0.2708800435066223 -0.21171507239341736 0.06536746025085449 0.0 255.0 0.0
0.11193171888589859 -0.06598126143217087 0.16940195858478546 0.0 255.0 0.0
-0.21379752457141876 -0.382053405046463 -0.0782390907406807 0.0 255.0 0.0
-0.1790478527545929 -0.21329064667224884 -0.13171488046646118 0.0 255.0 0.0
-0.06741417944431305 0.057065993547439575 0.17040102183818817 0.0 255.0 0.0
-0.09976667910814285 0.07904353737831116 -0.13506805896759033 0.0 255.0 0.0
-0.26949214935302734 0.03399928659200668 0.11267443746328354 0.0 255.0 0.0
-0.15836842358112335 0.45587337017059326 0.04811549186706543 0.0 255.0 0.0
0.019874846562743187 -0.11391167342662811 0.16940195858478546 0.0 255.0 0.0
-0.2689012885093689 -0.19360211491584778 0.0006692734896205366 0.0 255.0 0.0
0.013086093589663506 -0.014326641336083412 -0.13326981663703918 0.0 255.0 0.0
-0.16871178150177002 -0.3068254590034485 -0.029286451637744904 0.0 255.0 0.0
-0.07281215488910675 -0.21918421983718872 -0.13420145213603973 0.0 255.0 0.0
0.00045217826846055686 0.09132853895425797 0.17296993732452393 0.0 255.0 0.0
0.18643079698085785 0.10624771565198898 -0.1352623701095581 0.0 255.0 0.0
0.00533581105992198 -0.1743636429309845 -0.13605915009975433 0.0 255.0 0.0
-0.043955426663160324 -0.25284597277641296 0.07480926066637039 0.0 255.0 0.0
-0.08170603215694427 -0.20870710909366608 -0.13516303896903992 0.0 255.0 0.0
-0.0009473783429712057 0.14386147260665894 -0.13298235833644867 0.0 255.0 0.0
0.01600642129778862 -0.24999360740184784 -0.11918213963508606 0.0 255.0 0.0
-0.19515396654605865 -0.3170474171638489 -0.06421108543872833 0.0 255.0 0.0
-0.2707524597644806 0.005866550374776125 -0.025319240987300873 0.0 255.0 0.0
-0.0771002396941185 -0.25306737422943115 -0.05837327986955643 0.0 255.0 0.0
0.2995975911617279 -0.1477096825838089 -0.11154748499393463 0.0 255.0 0.0
0.030182605609297752 0.22619220614433289 0.026616958901286125 0.0 255.0 0.0
0.2986900806427002 -0.17502105236053467 0.11322412639856339 0.0 255.0 0.0
0.2027747929096222 -0.22777019441127777 -0.13506805896759033 0.0 255.0 0.0
0.20034004747867584 -0.44792479276657104 0.17833447456359863 0.0 255.0 0.0
-0.16487663984298706 0.2259630262851715 0.12197726964950562 0.0 255.0 0.0
0.005345603916794062 -0.0940629094839096 -0.13506805896759033 0.0 255.0 0.0
0.2425222396850586 -0.020222468301653862 -0.13506805896759033 0.0 255.0 0.0
-0.266569584608078 0.40158700942993164 0.07746360450983047 0.0 255.0 0.0
0.2972581684589386 -0.2269778698682785 -0.11118390411138535 0.0 255.0 0.0
-0.020207244902849197 -0.22827760875225067 -0.13834473490715027 0.0 255.0 0.0
0.2972581684589386 0.18334968388080597 -0.06952428072690964 0.0 255.0 0.0
-0.04729396477341652 -0.18827733397483826 -0.13509248197078705 0.0 255.0 0.0
0.2746259570121765 -0.11066925525665283 -0.13506805896759033 0.0 255.0 0.0
-0.2661679685115814 0.3678683042526245 0.04688579961657524 0.0 255.0 0.0
0.00267276493832469 0.04340166598558426 -0.13506805896759033 0.0 255.0 0.0
-0.26966550946235657 -0.21650835871696472 -0.09007777273654938 0.0 255.0 0.0
-0.2707524597644806 0.13807624578475952 -0.035063739866018295 0.0 255.0 0.0
-0.004593501333147287 0.16683223843574524 -0.13506805896759033 0.0 255.0 0.0
-0.2717859447002411 0.15613830089569092 0.1253296136856079 0.0 255.0 0.0
0.2219521850347519 0.18633608520030975 0.15708096325397491 0.0 255.0 0.0
0.18069708347320557 0.2252674698829651 -0.02516443096101284 0.0 255.0 0.0
-0.09238963574171066 -0.2504260540008545 0.06618138402700424 0.0 255.0 0.0
0.07181979715824127 -0.09927142411470413 -0.13421061635017395 0.0 255.0 0.0
0.12580259144306183 0.11627154797315598 0.16940195858478546 0.0 255.0 0.0
-0.29691246151924133 -0.32931575179100037 0.014756284654140472 0.0 255.0 0.0
0.12520509958267212 -0.25083237886428833 0.06728905439376831 0.0 255.0 0.0
-0.26579204201698303 0.36671021580696106 0.05591157451272011 0.0 255.0 0.0
0.2934715449810028 -0.15705403685569763 -0.11693154275417328 0.0 255.0 0.0
-0.06313721835613251 0.1825835406780243 -0.13319197297096252 0.0 255.0 0.0
0.287628173828125 0.42467793822288513 -0.055444248020648956 0.0 255.0 0.0
0.038250185549259186 0.14353199303150177 -0.21313098073005676 0.0 255.0 0.0
0.29855433106422424 0.06866860389709473 0.041132424026727676 0.0 255.0 0.0
0.027390770614147186 0.1401868462562561 -0.21496951580047607 0.0 255.0 0.0
-0.17066004872322083 0.227880597114563 -0.07345382869243622 0.0 255.0 0.0
-0.27173829078674316 -0.016894087195396423 -0.014914690516889095 0.0 255.0 0.0
-0.024415068328380585 0.011933757923543453 0.16893808543682098 0.0 255.0 0.0
0.2822834253311157 -0.3554225265979767 0.043798524886369705 0.0 255.0 0.0
-0.29117852449417114 -0.4340488910675049 0.013265320099890232 0.0 255.0 0.0
-0.22984687983989716 0.1672608107328415 -0.13685940206050873 0.0 255.0 0.0
0.26214948296546936 0.22958169877529144 0.1043148934841156 0.0 255.0 0.0
-0.2719884514808655 -0.06758787482976913 -0.005126264877617359 0.0 255.0 0.0
0.008903803303837776 0.17598558962345123 -0.2238553762435913 0.0 255.0 0.0
-0.1696339249610901 0.22572408616542816 -0.10837657749652863 0.0 255.0 0.0
0.2218829244375229 -0.4461860954761505 -0.01942380703985691 0.0 255.0 0.0
-0.12179242074489594 -0.2518855035305023 -0.00740023422986269 0.0 255.0 0.0
0.020000191405415535 -0.16096791625022888 -0.13513527810573578 0.0 255.0 0.0
0.29369908571243286 0.3568641245365143 -0.03140907734632492 0.0 255.0 0.0
-0.2702571451663971 -0.16523537039756775 -0.0015170532278716564 0.0 255.0 0.0
0.29823365807533264 0.3740542232990265 0.011892509646713734 0.0 255.0 0.0
-0.25523629784584045 0.11444638669490814 0.1570989489555359 0.0 255.0 0.0
-0.2671794891357422 0.4134975075721741 0.02789844572544098 0.0 255.0 0.0
0.14395581185817719 -0.152945876121521 0.17191050946712494 0.0 255.0 0.0
-0.1813637614250183 -0.11890224367380142 -0.13506805896759033 0.0 255.0 0.0
0.16848792135715485 -0.40821054577827454 -0.060703907161951065 0.0 255.0 0.0
-0.1966048628091812 -0.34466788172721863 0.09056022018194199 0.0 255.0 0.0
-0.16714568436145782 -0.3256508409976959 -0.029694868251681328 0.0 255.0 0.0
0.2972581684589386 -0.14012908935546875 -0.11204171180725098 0.0 255.0 0.0
-0.16322988271713257 0.2272382229566574 -0.03139854595065117 0.0 255.0 0.0
-0.2707524597644806 -0.029168330132961273 0.017509378492832184 0.0 255.0 0.0
-0.1622638702392578 0.1771068274974823 -0.13506805896759033 0.0 255.0 0.0
0.18035057187080383 0.46368736028671265 0.016542350873351097 0.0 255.0 0.0
-0.07519816607236862 0.02975950762629509 -0.13302494585514069 0.0 255.0 0.0
0.2972581684589386 -0.10730168223381042 0.0511932410299778 0.0 255.0 0.0
0.29466691613197327 0.201222762465477 -0.02301662042737007 0.0 255.0 0.0
-0.15555208921432495 0.42482882738113403 -0.026919329538941383 0.0 255.0 0.0
0.2773202955722809 -0.3288309872150421 -0.00430473405867815 0.0 255.0 0.0
0.22554980218410492 -0.38150331377983093 0.17765092849731445 0.0 255.0 0.0
-0.07625611871480942 -0.2524062395095825 -0.015346207655966282 0.0 255.0 0.0
-0.2673233449459076 0.4364364445209503 0.03984156996011734 0.0 255.0 0.0
-0.19856496155261993 -0.43883082270622253 0.06273926049470901 0.0 255.0 0.0
-0.03485872223973274 -0.032866545021533966 -0.13506805896759033 0.0 255.0 0.0
0.022126954048871994 0.07108563929796219 0.16984796524047852 0.0 255.0 0.0
-0.14946943521499634 -0.06853210180997849 -0.13506805896759033 0.0 255.0 0.0
-0.2707524597644806 -0.016232019290328026 0.13209910690784454 0.0 255.0 0.0
0.17381106317043304 0.3868197500705719 0.04751313850283623 0.0 255.0 0.0
-0.19364680349826813 0.2309962660074234 -0.07905347645282745 0.0 255.0 0.0
0.2972581684589386 -0.15452317893505096 -0.07904326915740967 0.0 255.0 0.0
-0.3024235963821411 -0.4417676627635956 -0.039419665932655334 0.0 255.0 0.0
0.1913340985774994 0.476772665977478 -0.020188378170132637 0.0 255.0 0.0
0.07378435134887695 -0.2507162392139435 -0.06865860521793365 0.0 255.0 0.0
-0.1689186841249466 0.40154024958610535 -0.053791362792253494 0.0 255.0 0.0
0.19893041253089905 -0.24997763335704803 0.12054777890443802 0.0 255.0 0.0
-0.22708548605442047 -0.11738703399896622 -0.13816191256046295 0.0 255.0 0.0
0.09842237830162048 -0.03559461236000061 -0.13421134650707245 0.0 255.0 0.0
0.29864680767059326 -0.0866067036986351 -0.07666460424661636 0.0 255.0 0.0
-0.3193706274032593 -0.34989529848098755 0.0450400747358799 0.0 255.0 0.0
0.18718574941158295 -0.33052459359169006 0.09837222844362259 0.0 255.0 0.0
-0.08741635084152222 -0.18461598455905914 -0.13529369235038757 0.0 255.0 0.0
0.27845269441604614 0.4925681948661804 0.0874677300453186 0.0 255.0 0.0
0.03501887992024422 0.031377796083688736 -0.13506805896759033 0.0 255.0 0.0
-0.2685178220272064 0.06534457206726074 0.1311025619506836 0.0 255.0 0.0
0.2972581684589386 0.12609001994132996 0.014784954488277435 0.0 255.0 0.0
0.2759312391281128 -0.33498525619506836 -0.006345871835947037 0.0 255.0 0.0
-0.16075393557548523 0.37813329696655273 0.08019005507230759 0.0 255.0 0.0
-0.003166130045428872 0.22812457382678986 -0.05203215032815933 0.0 255.0 0.0
0.07439682632684708 0.22766919434070587 0.10123082995414734 0.0 255.0 0.0
-0.01682017743587494 -0.17603333294391632 -0.1325237900018692 0.0 255.0 0.0
0.23052603006362915 -0.2496848702430725 0.13657796382904053 0.0 255.0 0.0
-0.30947741866111755 -0.4152139723300934 0.03380189836025238 0.0 255.0 0.0
-0.11239418387413025 -0.14847131073474884 0.16940195858478546 0.0 255.0 0.0
0.17256851494312286 -0.3655570447444916 0.13045504689216614 0.0 255.0 0.0
-0.2504872977733612 -0.2535821795463562 -0.06319862604141235 0.0 255.0 0.0
-0.1778879016637802 -0.0995146781206131 0.16901464760303497 0.0 255.0 0.0
0.20301342010498047 -0.44514793157577515 -0.05630779638886452 0.0 255.0 0.0
-0.007546981330960989 -0.2138233780860901 0.156137153506279 0.0 255.0 0.0
-0.19574280083179474 -0.2505364716053009 -0.10415934026241302 0.0 255.0 0.0
-0.015485849231481552 -0.026716332882642746 -0.13140752911567688 0.0 255.0 0.0
-0.08523762971162796 -0.12733592092990875 -0.13506805896759033 0.0 255.0 0.0
0.17994515597820282 0.10084383189678192 -0.13506805896759033 0.0 255.0 0.0
0.16851967573165894 -0.44291022419929504 0.08423139154911041 0.0 255.0 0.0
-0.15265366435050964 0.4042113125324249 0.019694698974490166 0.0 255.0 0.0
-0.2698902189731598 0.1203385591506958 0.13180866837501526 0.0 255.0 0.0
-0.26724469661712646 0.1676137000322342 0.09170486032962799 0.0 255.0 0.0
0.1881946623325348 0.46353569626808167 -0.026489801704883575 0.0 255.0 0.0
0.22925758361816406 0.42730826139450073 -0.09019464254379272 0.0 255.0 0.0
0.004119980148971081 0.22812457382678986 0.019815219566226006 0.0 255.0 0.0
-0.08393944054841995 0.22812457382678986 -0.014927564188838005 0.0 255.0 0.0
0.18855364620685577 0.4265628159046173 -0.05809739604592323 0.0 255.0 0.0
-0.08965642005205154 0.22882333397865295 0.0976739376783371 0.0 255.0 0.0
0.021587098017334938 0.1664193868637085 -0.21883085370063782 0.0 255.0 0.0
-0.0526878796517849 0.07027103006839752 0.1672970950603485 0.0 255.0 0.0
-0.2607423961162567 0.4022178649902344 -0.03919234499335289 0.0 255.0 0.0
-0.17406442761421204 -0.25036510825157166 -0.10846950858831406 0.0 255.0 0.0
0.30195367336273193 0.4250553250312805 0.03775082156062126 0.0 255.0 0.0
0.05057759955525398 -0.1907164603471756 -0.13546669483184814 0.0 255.0 0.0
0.2975294888019562 0.07435116916894913 0.0688154324889183 0.0 255.0 0.0
-0.24561680853366852 -0.252155065536499 0.0632387027144432 0.0 255.0 0.0
0.29243603348731995 -0.4144248068332672 0.10324684530496597 0.0 255.0 0.0
-0.17998842895030975 -0.3150518834590912 -0.0512603297829628 0.0 255.0 0.0
0.2639041244983673 0.17889899015426636 -0.13586033880710602 0.0 255.0 0.0
0.1202554702758789 -0.03953731432557106 -0.13506805896759033 0.0 255.0 0.0
0.0726669505238533 -0.02980647422373295 0.16801543533802032 0.0 255.0 0.0
0.09286821633577347 0.005239245481789112 0.171596497297287 0.0 255.0 0.0
0.2972581684589386 0.04266904667019844 0.13475823402404785 0.0 255.0 0.0
0.2965107262134552 0.1385892927646637 0.061613310128450394 0.0 255.0 0.0
0.2731431722640991 -0.4077995717525482 -0.04573800787329674 0.0 255.0 0.0
-0.004855702165514231 -0.012855825014412403 0.17043107748031616 0.0 255.0 0.0
-0.18812228739261627 0.1951693743467331 -0.1352240890264511 0.0 255.0 0.0
-0.2610018849372864 -0.2882550358772278 0.03453167527914047 0.0 255.0 0.0
-0.1557530015707016 0.13105687499046326 -0.13506805896759033 0.0 255.0 0.0
0.276919960975647 -0.3268548250198364 -0.015311967581510544 0.0 255.0 0.0
-0.31806984543800354 -0.3386707007884979 0.08713862299919128 0.0 255.0 0.0
-0.2222099006175995 0.22815442085266113 -0.07724454998970032 0.0 255.0 0.0
0.13827583193778992 -0.39328497648239136 0.01697705313563347 0.0 255.0 0.0
0.29041752219200134 -0.395091712474823 0.08622942864894867 0.0 255.0 0.0
-0.2712981104850769 -0.12549689412117004 0.13154830038547516 0.0 255.0 0.0
0.1365445852279663 -0.40523383021354675 0.09120696038007736 0.0 255.0 0.0
-0.058535441756248474 0.22903387248516083 -0.09198334813117981 0.0 255.0 0.0
0.2697722315788269 -0.2944646179676056 0.020005343481898308 0.0 255.0 0.0
0.21428529918193817 0.03620800003409386 -0.13834063708782196 0.0 255.0 0.0
0.2972581684589386 -0.07438311725854874 0.0002184810145990923 0.0 255.0 0.0
-0.26992082595825195 0.048741091042757034 0.000921397062484175 0.0 255.0 0.0
0.05305391922593117 -0.02475712075829506 -0.13939829170703888 0.0 255.0 0.0
-0.1944177895784378 -0.05858912318944931 -0.13506805896759033 0.0 255.0 0.0
0.27299025654792786 0.5028700828552246 0.09419586509466171 0.0 255.0 0.0
-0.29922541975975037 -0.43887564539909363 -0.018294651061296463 0.0 255.0 0.0
0.0722317025065422 -0.2507266104221344 0.04796180874109268 0.0 255.0 0.0
0.19037461280822754 0.44748955965042114 -0.03857525810599327 0.0 255.0 0.0
-0.2715409994125366 -0.12150749564170837 0.03560272976756096 0.0 255.0 0.0
-0.06228037551045418 -0.2508893609046936 0.08146411925554276 0.0 255.0 0.0
0.0234330166131258 -0.24947604537010193 0.016570566222071648 0.0 255.0 0.0
-0.157357856631279 -0.31605905294418335 -0.00931607373058796 0.0 255.0 0.0
-0.004230543505400419 0.22879624366760254 -0.18073517084121704 0.0 255.0 0.0
0.17832456529140472 0.3896855115890503 -0.02941836416721344 0.0 255.0 0.0
0.04086671769618988 -0.20788195729255676 -0.1348399817943573 0.0 255.0 0.0
0.26464954018592834 -0.03169906884431839 0.15729330480098724 0.0 255.0 0.0
-0.07484470307826996 -0.0302423145622015 0.16767801344394684 0.0 255.0 0.0
0.26536300778388977 0.18689043819904327 0.15507632493972778 0.0 255.0 0.0
-0.2707524597644806 -0.036153052002191544 0.08700627088546753 0.0 255.0 0.0
0.17411810159683228 0.37713104486465454 0.01640327274799347 0.0 255.0 0.0
0.25474196672439575 -0.33566156029701233 -0.0741083025932312 0.0 255.0 0.0
0.2984321713447571 0.020186370238661766 -0.05376947298645973 0.0 255.0 0.0
-0.2941568195819855 -0.42582571506500244 0.02383900061249733 0.0 255.0 0.0
0.007759323809295893 0.2518961727619171 -0.19884629547595978 0.0 255.0 0.0
0.018046148121356964 0.22809326648712158 -0.24369165301322937 0.0 255.0 0.0
-0.003916226793080568 0.22267158329486847 0.12457907199859619 0.0 255.0 0.0
-0.2707524597644806 -0.14690393209457397 0.06282416731119156 0.0 255.0 0.0
0.20191684365272522 -0.13753819465637207 0.16963405907154083 0.0 255.0 0.0
-0.19985821843147278 -0.002429602202028036 0.16882270574569702 0.0 255.0 0.0
-0.09210847318172455 -0.25130486488342285 0.09290912002325058 0.0 255.0 0.0
0.2767064571380615 -0.11814779043197632 0.15628528594970703 0.0 255.0 0.0
-0.07960467040538788 0.2269265204668045 -0.09775635600090027 0.0 255.0 0.0
0.22335685789585114 0.5115693211555481 0.059242259711027145 0.0 255.0 0.0
-0.27205386757850647 0.07360951602458954 -0.03835706412792206 0.0 255.0 0.0
0.1857265681028366 -0.39652618765830994 -0.07156116515398026 0.0 255.0 0.0
-0.26100850105285645 0.3608401119709015 0.06640999764204025 0.0 255.0 0.0
0.21746650338172913 -0.2909422218799591 -0.06755008548498154 0.0 255.0 0.0
-0.2722456455230713 0.08333286643028259 0.026441801339387894 0.0 255.0 0.0
0.2972889542579651 0.03728555142879486 -0.033811409026384354 0.0 255.0 0.0
0.09592777490615845 -0.17681199312210083 -0.13340899348258972 0.0 255.0 0.0
-0.18252338469028473 0.13812148571014404 -0.13326618075370789 0.0 255.0 0.0
-0.11931208521127701 -0.1631830930709839 -0.13506805896759033 0.0 255.0 0.0
0.2989000380039215 -0.2013256549835205 0.06373559683561325 0.0 255.0 0.0
0.18312598764896393 0.2029479742050171 0.15629035234451294 0.0 255.0 0.0
0.14023922383785248 -0.3509052097797394 0.022987455129623413 0.0 255.0 0.0
0.2098027616739273 -0.4471002221107483 -0.02006828412413597 0.0 255.0 0.0
0.00606122799217701 0.22812457382678986 -0.029496101662516594 0.0 255.0 0.0
0.2794281840324402 0.44232967495918274 -0.06519359350204468 0.0 255.0 0.0
0.29739871621131897 -0.024589529260993004 -0.023195253685116768 0.0 255.0 0.0
-0.00015681843797210604 0.27594149112701416 -0.22216780483722687 0.0 255.0 0.0
0.04705165699124336 -0.1551496535539627 0.17386271059513092 0.0 255.0 0.0
0.12434904277324677 -0.1438325047492981 0.16885574162006378 0.0 255.0 0.0
-0.1530279666185379 -0.2789813280105591 0.027983801439404488 0.0 255.0 0.0
-0.2739529311656952 0.2094896286725998 0.0024145198985934258 0.0 255.0 0.0
-0.27125436067581177 -0.057585958391427994 -0.017548857256770134 0.0 255.0 0.0
-0.25791919231414795 0.47147998213768005 0.020232610404491425 0.0 255.0 0.0
0.14201149344444275 -0.37437140941619873 0.03098738007247448 0.0 255.0 0.0
0.300691157579422 0.09196266531944275 0.04777737334370613 0.0 255.0 0.0
0.0040512396954 0.13146761059761047 -0.21260568499565125 0.0 255.0 0.0
0.0519392229616642 -0.16399824619293213 0.1692657321691513 0.0 255.0 0.0
0.17441049218177795 -0.4459064304828644 0.04082723706960678 0.0 255.0 0.0
-0.3224363625049591 -0.40397799015045166 0.043635956943035126 0.0 255.0 0.0
-0.23240485787391663 0.20429442822933197 -0.1314472109079361 0.0 255.0 0.0
0.2899428606033325 0.44571954011917114 -0.03967106714844704 0.0 255.0 0.0
0.21891117095947266 0.2307083010673523 0.10831083357334137 0.0 255.0 0.0
0.21095684170722961 -0.10103114694356918 -0.13506805896759033 0.0 255.0 0.0
-0.16847644746303558 0.23224684596061707 -0.04753639176487923 0.0 255.0 0.0
0.007249555550515652 0.0713539868593216 -0.1373017132282257 0.0 255.0 0.0
0.02045297436416149 -0.1496185064315796 0.16941265761852264 0.0 255.0 0.0
0.12779010832309723 -0.2555542588233948 0.07862096279859543 0.0 255.0 0.0
0.16942629218101501 -0.15806196630001068 0.16994540393352509 0.0 255.0 0.0
0.14328476786613464 0.13181662559509277 0.16943566501140594 0.0 255.0 0.0
-0.16543146967887878 0.4771011471748352 0.046045370399951935 0.0 255.0 0.0
0.13955903053283691 -0.25242990255355835 -0.017433440312743187 0.0 255.0 0.0
-0.17065002024173737 0.1806832104921341 -0.139853835105896 0.0 255.0 0.0
-0.29701945185661316 -0.3196231424808502 0.07742452621459961 0.0 255.0 0.0
0.02832625061273575 -0.22842824459075928 0.15808407962322235 0.0 255.0 0.0
-0.0683196634054184 0.22812457382678986 0.008335228078067303 0.0 255.0 0.0
-0.225948303937912 -0.34421831369400024 0.12410571426153183 0.0 255.0 0.0
0.23784621059894562 0.33358532190322876 0.10394976288080215 0.0 255.0 0.0
-0.20970550179481506 -0.4531044661998749 0.07713506370782852 0.0 255.0 0.0
0.011790117248892784 0.02157297357916832 -0.13495860993862152 0.0 255.0 0.0
-0.2707524597644806 -0.019189853221178055 0.06050307676196098 0.0 255.0 0.0
0.14532636106014252 -0.39566004276275635 -0.012077162973582745 0.0 255.0 0.0
0.0940256342291832 0.15482644736766815 -0.13506805896759033 0.0 255.0 0.0
0.27134832739830017 -0.3046916723251343 -0.011973823420703411 0.0 255.0 0.0
-0.11804301291704178 -0.2510020434856415 0.10730621218681335 0.0 255.0 0.0
-0.03642575815320015 0.22819337248802185 -0.08867797255516052 0.0 255.0 0.0
0.08604138344526291 0.22812457382678986 -0.044060125946998596 0.0 255.0 0.0
0.27844172716140747 -0.16783542931079865 0.15532882511615753 0.0 255.0 0.0
-0.2530837059020996 0.10356579720973969 0.156303271651268 0.0 255.0 0.0
-0.2707524597644806 0.14608033001422882 0.050565455108881 0.0 255.0 0.0
-0.31299757957458496 -0.3706505596637726 0.170716792345047 0.0 255.0 0.0
0.299009770154953 0.0350436307489872 -0.010266437195241451 0.0 255.0 0.0
-0.1742747277021408 0.20664475858211517 0.1567583829164505 0.0 255.0 0.0
-0.27117377519607544 -0.1455255001783371 0.014852764084935188 0.0 255.0 0.0
0.27734801173210144 -0.11633171886205673 -0.13645918667316437 0.0 255.0 0.0
0.1657809466123581 -0.30617788434028625 0.04772411659359932 0.0 255.0 0.0
-0.07120741158723831 -0.012495437636971474 0.16940195858478546 0.0 255.0 0.0
-0.24861827492713928 0.03410961851477623 -0.28199517726898193 0.0 255.0 0.0
0.26524046063423157 -0.17249424755573273 0.1556502729654312 0.0 255.0 0.0
0.23687893152236938 0.2269025295972824 0.11431553214788437 0.0 255.0 0.0
-0.29945632815361023 -0.4441389739513397 -0.03879600018262863 0.0 255.0 0.0
0.23744021356105804 0.22969208657741547 -0.1142200455069542 0.0 255.0 0.0
-0.027298802509903908 -0.25074437260627747 -0.07890139520168304 0.0 255.0 0.0
-0.18018479645252228 0.3382933735847473 0.06799837201833725 0.0 255.0 0.0
-0.17637848854064941 0.14039461314678192 -0.13430675864219666 0.0 255.0 0.0
-0.16111735999584198 0.37187331914901733 0.0761726126074791 0.0 255.0 0.0
-0.16815736889839172 0.22822818160057068 -0.027997884899377823 0.0 255.0 0.0
0.10833605378866196 0.12239629030227661 -0.13442933559417725 0.0 255.0 0.0
-0.07897189259529114 -0.15452948212623596 0.16786926984786987 0.0 255.0 0.0
-0.15442447364330292 0.22660481929779053 -0.11245737969875336 0.0 255.0 0.0
-0.2703700065612793 0.060188569128513336 -0.05372624471783638 0.0 255.0 0.0
0.2639513313770294 0.2285557985305786 0.07876956462860107 0.0 255.0 0.0
0.13798591494560242 -0.40386250615119934 0.08583904057741165 0.0 255.0 0.0
0.2532469928264618 -0.44614720344543457 0.10174296051263809 0.0 255.0 0.0
-0.2636357843875885 0.3546968102455139 -0.001019200193695724 0.0 255.0 0.0
-0.17308080196380615 0.48497411608695984 0.06874020397663116 0.0 255.0 0.0
-0.16261929273605347 -0.008936870843172073 0.172502800822258 0.0 255.0 0.0
-0.27254244685173035 -0.05379847064614296 0.07408572733402252 0.0 255.0 0.0
0.29880714416503906 0.1976071000099182 0.12257552891969681 0.0 255.0 0.0
-0.07642090320587158 0.1308177411556244 -0.13605183362960815 0.0 255.0 0.0
-0.27076414227485657 -0.1716458797454834 -0.0288828257471323 0.0 255.0 0.0
-0.11039046198129654 -0.11472838371992111 0.16809573769569397 0.0 255.0 0.0
0.2686212658882141 -0.3188837468624115 -0.03397621959447861 0.0 255.0 0.0
-0.2708870470523834 0.21097688376903534 -0.0076607149094343185 0.0 255.0 0.0
-0.24842959642410278 0.04641999676823616 -0.1370888352394104 0.0 255.0 0.0
-0.2911839187145233 -0.4527878165245056 -0.019215954467654228 0.0 255.0 0.0
0.1744629144668579 -0.1955704689025879 -0.13506805896759033 0.0 255.0 0.0
-0.2707524597644806 -0.11989159137010574 0.04969445616006851 0.0 255.0 0.0
0.09337449073791504 0.20326614379882812 -0.13506805896759033 0.0 255.0 0.0
0.028025131672620773 -0.2543347179889679 0.03670676425099373 0.0 255.0 0.0
0.29685473442077637 -0.09206918627023697 -0.11132315546274185 0.0 255.0 0.0
0.30009791254997253 -0.10621003061532974 0.09259549528360367 0.0 255.0 0.0
-0.10531022399663925 -0.25144413113594055 0.06079884245991707 0.0 255.0 0.0
0.2950420379638672 -0.19656293094158173 0.1174357533454895 0.0 255.0 0.0
-0.2058255970478058 0.346714049577713 0.09123803675174713 0.0 255.0 0.0
0.09870710968971252 -0.2186623215675354 -0.13399626314640045 0.0 255.0 0.0
-0.24095621705055237 -0.11656829714775085 0.15609760582447052 0.0 255.0 0.0
0.2165166586637497 0.22448872029781342 0.11569854617118835 0.0 255.0 0.0
0.20449873805046082 -0.36393362283706665 0.1540403962135315 0.0 255.0 0.0
-0.14409320056438446 0.22983305156230927 0.03889571502804756 0.0 255.0 0.0
-0.07416567206382751 0.22812457382678986 -0.053728461265563965 0.0 255.0 0.0
0.22321094572544098 -0.12068170309066772 0.16940195858478546 0.0 255.0 0.0
0.2972581684589386 -0.16760501265525818 0.1206921711564064 0.0 255.0 0.0
-0.30313819646835327 -0.37890198826789856 -0.07486553490161896 0.0 255.0 0.0
-0.002284873044118285 -0.0038273700047284365 -0.13295234739780426 0.0 255.0 0.0
0.27299341559410095 -0.3056129515171051 0.022762108594179153 0.0 255.0 0.0
0.2670105993747711 -0.313126802444458 -0.037525955587625504 0.0 255.0 0.0
0.17731061577796936 0.05204080790281296 -0.13441383838653564 0.0 255.0 0.0
0.2732323110103607 -0.04925123229622841 0.15623530745506287 0.0 255.0 0.0
0.05581679567694664 0.22812457382678986 0.06926239281892776 0.0 255.0 0.0
-0.12343363463878632 -0.18447630107402802 -0.13351714611053467 0.0 255.0 0.0
-0.1487722396850586 0.09330206364393234 0.1712488979101181 0.0 255.0 0.0
-0.15812084078788757 0.40771862864494324 0.008138123899698257 0.0 255.0 0.0
0.19346611201763153 -0.4464506506919861 0.18050861358642578 0.0 255.0 0.0
-0.14006035029888153 -0.2086288034915924 0.15223641693592072 0.0 255.0 0.0
0.0880640298128128 -0.1039966270327568 0.16940195858478546 0.0 255.0 0.0
0.049065034836530685 0.20545269548892975 0.15573017299175262 0.0 255.0 0.0
-0.31001660227775574 -0.42141562700271606 0.009806299582123756 0.0 255.0 0.0
0.04717910289764404 -0.06545810401439667 0.1688583642244339 0.0 255.0 0.0
0.11307971924543381 0.22601564228534698 -0.08020364493131638 0.0 255.0 0.0
0.2972581684589386 -0.05212664231657982 0.05217164009809494 0.0 255.0 0.0
-0.2672983407974243 0.35674482583999634 0.01013439055532217 0.0 255.0 0.0
-0.13883845508098602 0.22772203385829926 0.01980525627732277 0.0 255.0 0.0
-0.2715475857257843 0.13506008684635162 -0.043987520039081573 0.0 255.0 0.0
0.17583835124969482 0.18554958701133728 -0.13209618628025055 0.0 255.0 0.0
0.07213694602251053 -0.1680876761674881 -0.13383431732654572 0.0 255.0 0.0
-0.1809779554605484 -0.4156784117221832 0.040194351226091385 0.0 255.0 0.0
-0.06395892798900604 0.17797520756721497 -0.13183388113975525 0.0 255.0 0.0
-0.2707524597644806 -0.16464625298976898 0.050057489424943924 0.0 255.0 0.0
0.18276932835578918 0.0489291287958622 0.1688023954629898 0.0 255.0 0.0
0.24294687807559967 -0.44829079508781433 0.11611150205135345 0.0 255.0 0.0
-0.2659071981906891 0.3818070590496063 0.011046700179576874 0.0 255.0 0.0
0.004396455828100443 0.22914399206638336 0.027665618807077408 0.0 255.0 0.0
0.17684771120548248 0.3729398548603058 -0.008712487295269966 0.0 255.0 0.0
-0.05329817160964012 0.23067544400691986 0.11489520967006683 0.0 255.0 0.0
0.29695066809654236 0.203987255692482 0.11597441136837006 0.0 255.0 0.0
-0.1729988157749176 -0.0467710979282856 0.16959869861602783 0.0 255.0 0.0
0.018913714215159416 -0.029827125370502472 -0.13234376907348633 0.0 255.0 0.0
-0.2695911228656769 -0.19140654802322388 -0.001338448142632842 0.0 255.0 0.0
-0.19272339344024658 -0.2518062889575958 -0.07930119335651398 0.0 255.0 0.0
0.019791817292571068 -0.2507132589817047 0.005017630290240049 0.0 255.0 0.0
-0.03319879621267319 -0.10483288764953613 -0.13506805896759033 0.0 255.0 0.0
0.2726602256298065 -0.31159815192222595 0.03739185631275177 0.0 255.0 0.0
-0.14686790108680725 -0.04134637862443924 -0.13506805896759033 0.0 255.0 0.0
0.18093562126159668 0.18573559820652008 -0.13874030113220215 0.0 255.0 0.0
0.19867849349975586 -0.37390923500061035 0.1646818220615387 0.0 255.0 0.0
0.2121652066707611 0.1116587296128273 0.16940195858478546 0.0 255.0 0.0
-0.28982311487197876 -0.037763237953186035 -0.24329891800880432 0.0 255.0 0.0
-0.17384956777095795 -0.3925916850566864 -0.008755062706768513 0.0 255.0 0.0
0.1797468215227127 -0.31250545382499695 -0.05244472995400429 0.0 255.0 0.0
0.09818943589925766 0.13131240010261536 -0.13516443967819214 0.0 255.0 0.0
0.2860512137413025 0.4652014970779419 -0.02985786646604538 0.0 255.0 0.0
-0.1714448779821396 0.2301735281944275 0.10330221056938171 0.0 255.0 0.0
-0.25117576122283936 0.226124569773674 -0.08221650868654251 0.0 255.0 0.0
0.2643079459667206 -0.44573092460632324 0.15628032386302948 0.0 255.0 0.0
-0.0583626963198185 -0.25152674317359924 0.035313930362463 0.0 255.0 0.0
0.15822267532348633 -0.32086166739463806 0.054511867463588715 0.0 255.0 0.0
-0.04225333407521248 0.004818552173674107 -0.1336936503648758 0.0 255.0 0.0
-0.1797749400138855 -0.2518758177757263 0.09754537045955658 0.0 255.0 0.0
-0.15874376893043518 0.4174393117427826 -0.02036166377365589 0.0 255.0 0.0
-0.2183777391910553 -0.3515409231185913 0.12397293001413345 0.0 255.0 0.0
0.08661472052335739 0.22812457382678986 0.09827977418899536 0.0 255.0 0.0
0.008819238282740116 0.1977383941411972 -0.2309030443429947 0.0 255.0 0.0
-0.2731565237045288 0.18684640526771545 0.13442812860012054 0.0 255.0 0.0
-0.20078600943088531 -0.41524258255958557 0.12484396249055862 0.0 255.0 0.0
0.29713496565818787 -0.10960593074560165 -0.07580362260341644 0.0 255.0 0.0
0.253510445356369 0.22796310484409332 0.13537074625492096 0.0 255.0 0.0
-0.02977834828197956 -0.1428821086883545 -0.13659116625785828 0.0 255.0 0.0
-0.23883329331874847 -0.24984891712665558 0.128263458609581 0.0 255.0 0.0
0.2905060648918152 0.46967270970344543 -0.0062073287554085255 0.0 255.0 0.0
0.17326349020004272 0.3903411328792572 0.030957231298089027 0.0 255.0 0.0
-0.24686548113822937 0.2490396499633789 0.01698433794081211 0.0 255.0 0.0
-0.2674185335636139 0.3770173490047455 0.027809618040919304 0.0 255.0 0.0
0.18069669604301453 -0.13741478323936462 0.16934630274772644 0.0 255.0 0.0
0.2569310963153839 -0.21151646971702576 0.15471698343753815 0.0 255.0 0.0
-0.2707524597644806 -0.07333558797836304 0.05546051263809204 0.0 255.0 0.0
0.1068141907453537 0.07813499122858047 0.1707964837551117 0.0 255.0 0.0
0.1878943145275116 -0.391722172498703 0.17747145891189575 0.0 255.0 0.0
0.1556853950023651 -0.44567185640335083 0.11015825718641281 0.0 255.0 0.0
-0.253933846950531 0.1091608852148056 0.15630868077278137 0.0 255.0 0.0
0.14849597215652466 0.22638344764709473 0.12914155423641205 0.0 255.0 0.0
-0.15630532801151276 0.44200366735458374 0.007420625537633896 0.0 255.0 0.0
0.18220551311969757 0.3826972246170044 0.09766270965337753 0.0 255.0 0.0
0.14592419564723969 -0.07315626740455627 -0.13699662685394287 0.0 255.0 0.0
-0.11212188005447388 -0.09377557039260864 0.16940195858478546 0.0 255.0 0.0
-0.09639193117618561 0.08224033564329147 0.16940195858478546 0.0 255.0 0.0
-0.06692969053983688 -0.25162172317504883 0.06044064089655876 0.0 255.0 0.0
-0.19039776921272278 -0.17672337591648102 -0.13341966271400452 0.0 255.0 0.0
0.20057275891304016 0.43202298879623413 -0.06991509348154068 0.0 255.0 0.0
-0.17497704923152924 -0.36723223328590393 -0.02394782565534115 0.0 255.0 0.0
0.19251514971256256 0.4863611161708832 0.03449232503771782 0.0 255.0 0.0
-0.26954323053359985 0.1849142462015152 0.05111020803451538 0.0 255.0 0.0
0.2971005141735077 0.18662184476852417 0.004159225150942802 0.0 255.0 0.0
-0.24292033910751343 -0.03468918055295944 -0.26672130823135376 0.0 255.0 0.0
0.12665466964244843 0.22967272996902466 -0.11304875463247299 0.0 255.0 0.0
0.2997201085090637 -0.19081971049308777 -0.039427757263183594 0.0 255.0 0.0
0.054108429700136185 -0.2169201672077179 0.15398941934108734 0.0 255.0 0.0
0.20695015788078308 0.11489798128604889 -0.13739776611328125 0.0 255.0 0.0
-0.17503239214420319 -0.25164055824279785 -0.07794700562953949 0.0 255.0 0.0
-0.21970456838607788 0.3376278281211853 -0.05400681495666504 0.0 255.0 0.0
0.2996225953102112 0.1861826777458191 -0.09922634065151215 0.0 255.0 0.0
-0.15194714069366455 -0.2970814108848572 0.011832495220005512 0.0 255.0 0.0
0.2986357808113098 -0.20360614359378815 0.07077397406101227 0.0 255.0 0.0
0.15500110387802124 -0.36542558670043945 0.11406347155570984 0.0 255.0 0.0
0.2974771559238434 -0.1736467480659485 0.10683248937129974 0.0 255.0 0.0
0.2972581684589386 -0.0014278056332841516 0.03210023418068886 0.0 255.0 0.0
0.18036945164203644 0.3542625606060028 -0.015601632185280323 0.0 255.0 0.0
-0.26956188678741455 0.04117337614297867 0.10021045804023743 0.0 255.0 0.0
-0.2542852759361267 -0.2844200134277344 0.03226715326309204 0.0 255.0 0.0
-0.25850382447242737 -0.4530327022075653 -0.06987114250659943 0.0 255.0 0.0
0.17953945696353912 -0.4469187557697296 0.005637974478304386 0.0 255.0 0.0
-0.003677818924188614 -0.15579691529273987 -0.13506805896759033 0.0 255.0 0.0
0.0055030039511621 0.040713779628276825 0.1692880243062973 0.0 255.0 0.0
-0.1400102823972702 -0.2509264051914215 0.10463792085647583 0.0 255.0 0.0
0.2972581684589386 -0.09363700449466705 0.018774643540382385 0.0 255.0 0.0
-0.0791383907198906 0.22812457382678986 -0.06620591133832932 0.0 255.0 0.0
0.29614147543907166 -0.06656075268983841 0.04823785647749901 0.0 255.0 0.0
-0.16242118179798126 0.36264941096305847 0.05509218946099281 0.0 255.0 0.0
-0.10548718273639679 0.17354930937290192 -0.13506805896759033 0.0 255.0 0.0
-0.2974730134010315 -0.32183021306991577 0.06416323035955429 0.0 255.0 0.0
0.07287544757127762 -0.17005015909671783 -0.13742436468601227 0.0 255.0 0.0
0.2804892063140869 -0.24809342622756958 0.03586037829518318 0.0 255.0 0.0
0.16709916293621063 -0.18166624009609222 -0.13506805896759033 0.0 255.0 0.0
-0.270309180021286 0.04208562895655632 0.1247553899884224 0.0 255.0 0.0
-0.2707524597644806 -0.08708301931619644 0.12525179982185364 0.0 255.0 0.0
-0.11297958344221115 -0.17844653129577637 -0.13561272621154785 0.0 255.0 0.0
0.0764380544424057 -0.09600420296192169 0.16738957166671753 0.0 255.0 0.0
0.2558608055114746 0.3910216987133026 -0.09206228703260422 0.0 255.0 0.0
-0.25024643540382385 0.15994960069656372 -0.13680864870548248 0.0 255.0 0.0
-0.07363224774599075 0.2274114340543747 -0.024588391184806824 0.0 255.0 0.0
0.16952861845493317 0.22739940881729126 0.13588927686214447 0.0 255.0 0.0
0.2972581684589386 0.12452825903892517 -0.09845052659511566 0.0 255.0 0.0
