0.18042512238025665 0.34810736775398254 0.04638544097542763 0.0 255.0 0.0
-0.1882237046957016 0.035376664251089096 0.16939416527748108 0.0 255.0 0.0
-0.01814519427716732 -0.16892950236797333 0.17485013604164124 0.0 255.0 0.0
0.2972668707370758 0.1617521196603775 0.06054363772273064 0.0 255.0 0.0
0.11830839514732361 -0.223147451877594 0.15349657833576202 0.0 255.0 0.0
-0.2109135091304779 -0.4593760371208191 0.0103614442050457 0.0 255.0 0.0
0.10595446825027466 0.19712017476558685 -0.13508105278015137 0.0 255.0 0.0
-0.16999851167201996 -0.25315892696380615 -0.07688170671463013 0.0 255.0 0.0
-0.20131173729896545 -0.39956921339035034 -0.05666429549455643 0.0 255.0 0.0
0.11331502348184586 -0.249758780002594 0.13802146911621094 0.0 255.0 0.0
0.061239175498485565 -0.13596037030220032 -0.14039401710033417 0.0 255.0 0.0
-0.16428689658641815 0.40274080634117126 -0.0373222641646862 0.0 255.0 0.0
0.22205407917499542 0.22817835211753845 -0.05175311118364334 0.0 255.0 0.0
-0.06463026255369186 -0.09278871864080429 -0.13742460310459137 0.0 255.0 0.0
-0.2730565071105957 -0.40205857157707214 0.18375934660434723 0.0 255.0 0.0
0.127330020070076 0.12840493023395538 0.1690630316734314 0.0 255.0 0.0
0.14329321682453156 0.03932091221213341 0.1700698584318161 0.0 255.0 0.0
-0.039106473326683044 0.014800850301980972 -0.13800667226314545 0.0 255.0 0.0
-0.16609521210193634 -0.3459762632846832 0.0463067889213562 0.0 255.0 0.0
-0.1804989129304886 -0.3289998471736908 0.06624976545572281 0.0 255.0 0.0
0.1327543705701828 -0.2487511932849884 0.1238672211766243 0.0 255.0 0.0
0.28147754073143005 -0.36996710300445557 -0.024403821676969528 0.0 255.0 0.0
-0.14249320328235626 0.024766435846686363 0.16940195858478546 0.0 255.0 0.0
-0.16410715878009796 0.06686832010746002 0.1636989414691925 0.0 255.0 0.0
-0.27305272221565247 0.20735399425029755 0.08844797313213348 0.0 255.0 0.0
-0.04977487027645111 -0.17458580434322357 -0.1339024156332016 0.0 255.0 0.0
-0.17004863917827606 0.09381472319364548 0.16815614700317383 0.0 255.0 0.0
-0.15975667536258698 0.4683820307254791 0.04737785458564758 0.0 255.0 0.0
-0.06243857741355896 -0.007423199713230133 0.16940195858478546 0.0 255.0 0.0
-0.1127767413854599 0.014372913166880608 0.1700780689716339 0.0 255.0 0.0
-0.17333060503005981 0.3369863033294678 0.02870922163128853 0.0 255.0 0.0
0.1660173088312149 -0.33414021134376526 -0.04206733778119087 0.0 255.0 0.0
-0.1284058690071106 0.22761420905590057 -0.06598066538572311 0.0 255.0 0.0
0.15847326815128326 -0.0897204726934433 -0.1334250271320343 0.0 255.0 0.0
-0.1403312385082245 -0.02580610290169716 0.17010290920734406 0.0 255.0 0.0
-0.10979150235652924 -0.25080418586730957 -0.09514174610376358 0.0 255.0 0.0
-0.2707524597644806 -0.043693434447050095 0.0761798769235611 0.0 255.0 0.0
-0.11828343570232391 0.029408356174826622 0.1711507886648178 0.0 255.0 0.0
-0.04153517261147499 -0.20076468586921692 -0.1348555088043213 0.0 255.0 0.0
-0.24167563021183014 -0.1630331128835678 -0.13524556159973145 0.0 255.0 0.0
-0.22472098469734192 -0.35848644375801086 -0.0855298787355423 0.0 255.0 0.0
-0.17344766855239868 -0.28290098905563354 -0.041995469480752945 0.0 255.0 0.0
0.037894848734140396 -0.2478499561548233 -0.11830229312181473 0.0 255.0 0.0
0.18826989829540253 0.048738427460193634 -0.13756565749645233 0.0 255.0 0.0
-0.06685567647218704 0.11738096922636032 0.1677345484495163 0.0 255.0 0.0
-0.22419776022434235 0.17125943303108215 -0.13397088646888733 0.0 255.0 0.0
-0.19713225960731506 0.09513582289218903 0.16918106377124786 0.0 255.0 0.0
0.2987716794013977 -0.06565017998218536 -0.036543212831020355 0.0 255.0 0.0
-0.2751309275627136 -0.09138354659080505 0.02188309095799923 0.0 255.0 0.0
-0.18219991028308868 -0.08098452538251877 -0.1348571926355362 0.0 255.0 0.0
0.2976469397544861 -0.21890674531459808 0.11408960074186325 0.0 255.0 0.0
0.08955967426300049 -0.05429118871688843 0.16940195858478546 0.0 255.0 0.0
0.24769718945026398 0.08123211562633514 -0.13592451810836792 0.0 255.0 0.0
0.19901444017887115 -0.34633010625839233 -0.07467950135469437 0.0 255.0 0.0
0.2956027090549469 0.4136732518672943 -0.036365214735269547 0.0 255.0 0.0
-0.22655384242534637 -0.2507503926753998 -0.0973379909992218 0.0 255.0 0.0
0.2912083864212036 -0.09524842351675034 0.07004301995038986 0.0 255.0 0.0
-0.1775074601173401 0.49046462774276733 0.009747299365699291 0.0 255.0 0.0
0.29606905579566956 0.07506560534238815 -0.1043274775147438 0.0 255.0 0.0
-0.270001620054245 0.09758511930704117 -0.08538057655096054 0.0 255.0 0.0
0.2697363793849945 0.0686412900686264 -0.13082414865493774 0.0 255.0 0.0
0.2970835268497467 0.10526347905397415 -0.0122087886556983 0.0 255.0 0.0
0.298580139875412 0.1950221061706543 0.08401219546794891 0.0 255.0 0.0
0.18507595360279083 0.47322598099708557 -0.004214686341583729 0.0 255.0 0.0
-0.028494395315647125 -0.24966417253017426 0.06437095254659653 0.0 255.0 0.0
0.20986276865005493 -0.358688086271286 0.1465943604707718 0.0 255.0 0.0
0.29603567719459534 0.10457878559827805 0.093067467212677 0.0 255.0 0.0
0.2050686925649643 0.22821198403835297 0.07012960314750671 0.0 255.0 0.0
-0.15601572394371033 0.08516284078359604 0.16940195858478546 0.0 255.0 0.0
0.1240774467587471 0.22559894621372223 0.07674221694469452 0.0 255.0 0.0
0.23836766183376312 -0.4439418315887451 0.11619613319635391 0.0 255.0 0.0
0.2978159189224243 -0.07384998351335526 0.05671817436814308 0.0 255.0 0.0
0.219402477145195 0.1251528561115265 -0.1385641247034073 0.0 255.0 0.0
0.2396734356880188 0.4426354765892029 0.10070675611495972 0.0 255.0 0.0
0.17277029156684875 0.4100484251976013 0.018997961655259132 0.0 255.0 0.0
-0.22738057374954224 0.22797705233097076 0.12543357908725739 0.0 255.0 0.0
0.0009143761126324534 0.2297552525997162 -0.24827606976032257 0.0 255.0 0.0
0.006010136101394892 0.2423846274614334 -0.1887866109609604 0.0 255.0 0.0
0.1730021834373474 -0.03514609858393669 -0.13506805896759033 0.0 255.0 0.0
-0.028508426621556282 -0.2263852059841156 0.15521147847175598 0.0 255.0 0.0
-0.07687277346849442 -0.2509286403656006 0.09309592097997665 0.0 255.0 0.0
0.14992767572402954 -0.039067842066287994 0.16940195858478546 0.0 255.0 0.0
0.22745606303215027 0.2267719805240631 -0.11201614886522293 0.0 255.0 0.0
0.06202258542180061 -0.07586707919836044 -0.13703332841396332 0.0 255.0 0.0
0.15260609984397888 -0.25124868750572205 -0.09753824025392532 0.0 255.0 0.0
-0.0005679872119799256 0.04728187993168831 0.1685718148946762 0.0 255.0 0.0
0.16436734795570374 -0.3935288190841675 -0.04964916408061981 0.0 255.0 0.0
0.09500887989997864 -0.2499588578939438 -0.04492151737213135 0.0 255.0 0.0
0.18788163363933563 -0.25071388483047485 0.11102080345153809 0.0 255.0 0.0
-0.24242977797985077 -0.036265917122364044 -0.1356525719165802 0.0 255.0 0.0
-0.211062952876091 -0.08055219054222107 -0.132902592420578 0.0 255.0 0.0
-0.3191514313220978 -0.3982665240764618 -0.06409180909395218 0.0 255.0 0.0
-0.19473735988140106 -0.3779735863208771 -0.05854981392621994 0.0 255.0 0.0
-0.24533045291900635 0.17522428929805756 -0.13314656913280487 0.0 255.0 0.0
0.2274307757616043 0.41899028420448303 -0.0896322950720787 0.0 255.0 0.0
-0.2082454115152359 -0.25119873881340027 -0.0725158303976059 0.0 255.0 0.0
0.27342304587364197 0.49777886271476746 0.013042301870882511 0.0 255.0 0.0
-0.2726323902606964 -0.1250958889722824 -0.05864959582686424 0.0 255.0 0.0
-0.16517142951488495 0.22812457382678986 0.0743524357676506 0.0 255.0 0.0
0.20309065282344818 0.3777881860733032 -0.06591008603572845 0.0 255.0 0.0
0.22374656796455383 -0.35417720675468445 0.14640797674655914 0.0 255.0 0.0
-0.07363343238830566 -0.16744659841060638 -0.13647301495075226 0.0 255.0 0.0
0.20932669937610626 -0.4466850161552429 0.10563892871141434 0.0 255.0 0.0
0.11254002153873444 0.20141224563121796 -0.13506805896759033 0.0 255.0 0.0
0.2851358652114868 -0.3675336241722107 0.08543211221694946 0.0 255.0 0.0
-0.27324822545051575 -0.0257639829069376 -0.07217686623334885 0.0 255.0 0.0
0.007074475754052401 0.05610021948814392 -0.1299211084842682 0.0 255.0 0.0
0.211999773979187 -0.15386375784873962 -0.1346677839756012 0.0 255.0 0.0
-0.2925059497356415 -0.42036518454551697 0.07586198300123215 0.0 255.0 0.0
0.12126696854829788 0.1109323501586914 -0.13696719706058502 0.0 255.0 0.0
0.1619398444890976 -0.3630830645561218 0.12535220384597778 0.0 255.0 0.0
0.257454514503479 -0.011567987501621246 -0.13506805896759033 0.0 255.0 0.0
-0.2680377960205078 -0.42940661311149597 0.10182060301303864 0.0 255.0 0.0
0.18814602494239807 0.48443329334259033 0.03694436699151993 0.0 255.0 0.0
-0.007574151735752821 0.2278037965297699 -0.021857254207134247 0.0 255.0 0.0
0.29936814308166504 -0.04527734965085983 0.08315060287714005 0.0 255.0 0.0
0.19198305904865265 -0.0847417339682579 -0.13614927232265472 0.0 255.0 0.0
0.29855450987815857 0.4116142988204956 -0.006397813558578491 0.0 255.0 0.0
0.1515461802482605 0.11709826439619064 -0.13506805896759033 0.0 255.0 0.0
-0.026458607986569405 -0.12031475454568863 -0.13430850207805634 0.0 255.0 0.0
0.3009992837905884 0.38192299008369446 0.003155631246045232 0.0 255.0 0.0
-0.06712935119867325 -0.14871516823768616 -0.13437744975090027 0.0 255.0 0.0
0.15479618310928345 -0.34151023626327515 -0.028660250827670097 0.0 255.0 0.0
-0.16758377850055695 -0.3130495846271515 0.04674052819609642 0.0 255.0 0.0
-0.09818542748689651 0.03783344104886055 -0.1324615180492401 0.0 255.0 0.0
0.2969818413257599 -0.1898707151412964 0.09186942875385284 0.0 255.0 0.0
0.023461606353521347 0.047195110470056534 -0.13506805896759033 0.0 255.0 0.0
-0.00040134310256689787 0.0939219743013382 0.16940195858478546 0.0 255.0 0.0
0.2858734130859375 0.4580208957195282 -0.04342671483755112 0.0 255.0 0.0
-0.2707524597644806 0.12049832940101624 -0.09372249245643616 0.0 255.0 0.0
-0.14471210539340973 -0.038612108677625656 -0.13157811760902405 0.0 255.0 0.0
-0.27121052145957947 -0.027038931846618652 0.04868793860077858 0.0 255.0 0.0
0.299452543258667 0.20708191394805908 0.051045265048742294 0.0 255.0 0.0
-0.04311595484614372 0.13325545191764832 0.16951750218868256 0.0 255.0 0.0
0.17782944440841675 0.39832472801208496 0.08203020691871643 0.0 255.0 0.0
0.029233194887638092 -0.03559865057468414 -0.13047759234905243 0.0 255.0 0.0
0.2073061615228653 0.4866786301136017 -0.04633896425366402 0.0 255.0 0.0
-0.2707524597644806 -0.18589355051517487 0.09571805596351624 0.0 255.0 0.0
0.022963032126426697 -0.12175587564706802 0.16875796020030975 0.0 255.0 0.0
0.23901233077049255 -0.4458659887313843 -0.029949210584163666 0.0 255.0 0.0
0.2809574007987976 0.4838237464427948 -0.01662163808941841 0.0 255.0 0.0
0.29681798815727234 -0.23487086594104767 0.06442785263061523 0.0 255.0 0.0
0.2593340575695038 0.4424465596675873 0.10678628087043762 0.0 255.0 0.0
-0.2707524597644806 -0.08444549143314362 0.1030382290482521 0.0 255.0 0.0
0.2992151975631714 0.35439297556877136 0.04259106516838074 0.0 255.0 0.0
0.036251168698072433 -0.1285199671983719 -0.13506805896759033 0.0 255.0 0.0
-0.10940433293581009 -0.24941183626651764 0.06371176987886429 0.0 255.0 0.0
0.2972581684589386 0.01186172105371952 0.09584561735391617 0.0 255.0 0.0
0.017745576798915863 0.13817563652992249 0.16707633435726166 0.0 255.0 0.0
0.04609627276659012 -0.07936485856771469 -0.13506805896759033 0.0 255.0 0.0
0.20064781606197357 0.22851209342479706 -0.094662606716156 0.0 255.0 0.0
-0.1082613542675972 -0.09554215520620346 -0.13605718314647675 0.0 255.0 0.0
-0.28736287355422974 -0.41832226514816284 0.07966702431440353 0.0 255.0 0.0
0.105166956782341 -0.22093412280082703 -0.13318149745464325 0.0 255.0 0.0
-0.050054799765348434 -0.08709772676229477 0.17066313326358795 0.0 255.0 0.0
-0.060599435120821 -0.14533385634422302 0.16736705601215363 0.0 255.0 0.0
-0.24582107365131378 0.016603779047727585 -0.25971418619155884 0.0 255.0 0.0
-0.19531448185443878 -0.4349718391895294 0.0054894424974918365 0.0 255.0 0.0
-0.22072744369506836 0.49948546290397644 0.008738440461456776 0.0 255.0 0.0
-0.23271743953227997 -0.2555825114250183 -0.058967262506484985 0.0 255.0 0.0
-0.25627607107162476 -0.2851946949958801 0.03303202986717224 0.0 255.0 0.0
0.054115086793899536 0.22812457382678986 0.0677245557308197 0.0 255.0 0.0
-0.006489097140729427 0.22927643358707428 0.07673271745443344 0.0 255.0 0.0
0.0787077322602272 -0.1652096062898636 -0.1341981291770935 0.0 255.0 0.0
-0.22743749618530273 0.1432083696126938 -0.13277973234653473 0.0 255.0 0.0
-0.14446741342544556 0.22812457382678986 -0.028113238513469696 0.0 255.0 0.0
0.30028724670410156 0.1827727109193802 -0.060280006378889084 0.0 255.0 0.0
-0.06122961267828941 0.13079597055912018 -0.136268749833107 0.0 255.0 0.0
0.2972581684589386 0.12792202830314636 0.05280107632279396 0.0 255.0 0.0
-0.1610952615737915 0.1107310876250267 -0.13851112127304077 0.0 255.0 0.0
-0.07198212295770645 0.22707729041576385 0.06961564719676971 0.0 255.0 0.0
0.15737099945545197 -0.2504708766937256 0.12689782679080963 0.0 255.0 0.0
-0.25808200240135193 -0.38142409920692444 -0.09558537602424622 0.0 255.0 0.0
0.13040238618850708 0.12290924787521362 -0.13440649211406708 0.0 255.0 0.0
-0.2492842972278595 -0.4282577633857727 0.15593169629573822 0.0 255.0 0.0
-0.2640177607536316 0.44653159379959106 0.08775001764297485 0.0 255.0 0.0
0.17627638578414917 -0.3537537455558777 -0.055514078587293625 0.0 255.0 0.0
0.2999916076660156 0.12612341344356537 -0.10766848176717758 0.0 255.0 0.0
0.04430684819817543 0.07555549591779709 -0.13506805896759033 0.0 255.0 0.0
0.1874065101146698 0.47410911321640015 -0.006768141873180866 0.0 255.0 0.0
0.2951851487159729 -0.0037876050919294357 -0.0965651273727417 0.0 255.0 0.0
0.21307171881198883 -0.09103582054376602 -0.13506805896759033 0.0 255.0 0.0
0.20050282776355743 -0.07437793165445328 -0.13493622839450836 0.0 255.0 0.0
-0.244378462433815 -0.2732125222682953 -0.008737078867852688 0.0 255.0 0.0
-0.2720613479614258 -0.01240142434835434 0.13987760245800018 0.0 255.0 0.0
-0.1875760853290558 0.11449085921049118 0.16612321138381958 0.0 255.0 0.0
-0.2707524597644806 -0.1321759968996048 0.056383900344371796 0.0 255.0 0.0
0.189040869474411 -0.3122824430465698 0.0879884585738182 0.0 255.0 0.0
0.03112790174782276 -0.13555262982845306 0.16715940833091736 0.0 255.0 0.0
0.2768380343914032 -0.37578463554382324 -0.047866106033325195 0.0 255.0 0.0
-0.10819122195243835 -0.03811105713248253 0.17005668580532074 0.0 255.0 0.0
0.24805057048797607 0.4481832981109619 0.09982302039861679 0.0 255.0 0.0
-0.26571887731552124 0.3821227550506592 0.07205689698457718 0.0 255.0 0.0
0.25525403022766113 -0.1406010389328003 -0.13506805896759033 0.0 255.0 0.0
0.13816584646701813 -0.06861253827810287 -0.1366548389196396 0.0 255.0 0.0
-0.2712762653827667 -0.07540176808834076 -0.10922452062368393 0.0 255.0 0.0
-0.2706914246082306 -0.08105523884296417 -0.09130232036113739 0.0 255.0 0.0
-0.04131948575377464 -0.21263004839420319 -0.131577268242836 0.0 255.0 0.0
-0.12983211874961853 -0.2514374852180481 -0.07627394050359726 0.0 255.0 0.0
-0.21942563354969025 0.2268066108226776 -0.1041315570473671 0.0 255.0 0.0
0.038721244782209396 -0.2528057396411896 -0.06521439552307129 0.0 255.0 0.0
-0.22144751250743866 0.5027159452438354 0.06938853859901428 0.0 255.0 0.0
0.263388067483902 -0.44579407572746277 0.06884146481752396 0.0 255.0 0.0
0.033673763275146484 0.22812457382678986 -0.023796144872903824 0.0 255.0 0.0
0.09516715258359909 0.09692368656396866 0.16940195858478546 0.0 255.0 0.0
-0.08499358594417572 -0.011220132932066917 0.16998396813869476 0.0 255.0 0.0
-0.269362211227417 -0.001621800009161234 0.14087091386318207 0.0 255.0 0.0
0.27817070484161377 -0.3465898036956787 0.08622127026319504 0.0 255.0 0.0
0.24373839795589447 -0.31310075521469116 -0.0740240290760994 0.0 255.0 0.0
0.2260962277650833 -0.37529781460762024 0.17341773211956024 0.0 255.0 0.0
0.2993892729282379 -0.18495115637779236 0.045386869460344315 0.0 255.0 0.0
-0.27975839376449585 -0.4278232455253601 0.09534746408462524 0.0 255.0 0.0
-0.06087387353181839 0.22587797045707703 0.12836512923240662 0.0 255.0 0.0
0.1107192263007164 0.021115658804774284 -0.13693220913410187 0.0 255.0 0.0
0.2969096899032593 -0.2262924611568451 0.017298728227615356 0.0 255.0 0.0
0.027310961857438087 0.1938282996416092 0.1520942598581314 0.0 255.0 0.0
0.1953204870223999 -0.01064993254840374 0.16699936985969543 0.0 255.0 0.0
0.1846872866153717 0.47933289408683777 0.029914695769548416 0.0 255.0 0.0
0.22415876388549805 -0.4470987617969513 0.01194840483367443 0.0 255.0 0.0
0.27068009972572327 -0.24907134473323822 -0.10548526048660278 0.0 255.0 0.0
0.12750481069087982 0.16821694374084473 -0.13506805896759033 0.0 255.0 0.0
-0.03359778970479965 0.1856919676065445 0.15689806640148163 0.0 255.0 0.0
0.3002391755580902 -0.22946998476982117 0.08680099993944168 0.0 255.0 0.0
0.03603244572877884 0.15351209044456482 -0.13752461969852448 0.0 255.0 0.0
0.13050410151481628 0.22812457382678986 -0.007649162784218788 0.0 255.0 0.0
-0.19655318558216095 0.10936092585325241 0.16936293244361877 0.0 255.0 0.0
0.2972581684589386 0.12129735201597214 0.05954320356249809 0.0 255.0 0.0
-0.22612683475017548 -0.03158159181475639 -0.13964508473873138 0.0 255.0 0.0
0.2972581684589386 -0.09623529016971588 0.11211802810430527 0.0 255.0 0.0
0.17655059695243835 -0.446066677570343 0.023824607953429222 0.0 255.0 0.0
-0.2723323404788971 0.13633950054645538 0.03263304382562637 0.0 255.0 0.0
0.05693413317203522 -0.23292845487594604 -0.13506805896759033 0.0 255.0 0.0
-0.1904156357049942 0.3872334063053131 -0.0740925595164299 0.0 255.0 0.0
-0.24904121458530426 0.12505099177360535 -0.13506805896759033 0.0 255.0 0.0
0.2972581684589386 -0.13920427858829498 -0.02125653624534607 0.0 255.0 0.0
-0.2083752453327179 0.4298737049102783 0.08625254780054092 0.0 255.0 0.0
-0.01234517339617014 -0.2489505410194397 0.04789390787482262 0.0 255.0 0.0
-0.16814486682415009 -0.33409926295280457 0.04957646504044533 0.0 255.0 0.0
-0.16496525704860687 -0.24832703173160553 -0.09858966618776321 0.0 255.0 0.0
0.286141037940979 -0.3840641379356384 0.05097489431500435 0.0 255.0 0.0
0.2562974989414215 0.023823145776987076 -0.13740961253643036 0.0 255.0 0.0
-0.19696570932865143 -0.29325181245803833 -0.060871221125125885 0.0 255.0 0.0
0.035043831914663315 0.22812457382678986 0.01584010012447834 0.0 255.0 0.0
-0.2323562204837799 0.20081312954425812 -0.13286560773849487 0.0 255.0 0.0
-0.26544028520584106 0.41007888317108154 0.08040314167737961 0.0 255.0 0.0
0.2994047999382019 -0.16535629332065582 -0.08219150453805923 0.0 255.0 0.0
-0.17543113231658936 0.17065957188606262 -0.13818947970867157 0.0 255.0 0.0
-0.26640987396240234 0.4314177334308624 0.0459461435675621 0.0 255.0 0.0
-0.1767774075269699 0.13514591753482819 -0.13294582068920135 0.0 255.0 0.0
0.29735276103019714 0.2119077444076538 -0.10916091501712799 0.0 255.0 0.0
0.11034872382879257 -0.25039157271385193 0.1304757446050644 0.0 255.0 0.0
0.15138885378837585 0.0712093710899353 -0.13795654475688934 0.0 255.0 0.0
-0.2631145417690277 0.44609445333480835 -0.0060831522569060326 0.0 255.0 0.0
0.2426997423171997 -0.09139186143875122 -0.13213786482810974 0.0 255.0 0.0
0.12013565003871918 -0.07092655450105667 -0.13727353513240814 0.0 255.0 0.0
0.19214710593223572 -0.2731506824493408 -0.043324630707502365 0.0 255.0 0.0
-0.24725274741649628 0.16580893099308014 -0.13913597166538239 0.0 255.0 0.0
0.14057354629039764 -0.3752613961696625 0.019202198833227158 0.0 255.0 0.0
0.296857625246048 -0.005343441851437092 0.011019705794751644 0.0 255.0 0.0
0.034881822764873505 0.18601098656654358 -0.2246742993593216 0.0 255.0 0.0
0.032226771116256714 -0.16787457466125488 -0.13479776680469513 0.0 255.0 0.0
-0.14847604930400848 0.19786383211612701 0.15421944856643677 0.0 255.0 0.0
-0.16419918835163116 0.22839705646038055 -0.06942733377218246 0.0 255.0 0.0
-0.18959805369377136 0.4989772140979767 0.0384177602827549 0.0 255.0 0.0
0.11543100327253342 -0.15360386669635773 0.16960960626602173 0.0 255.0 0.0
-0.26874619722366333 -0.060788270086050034 0.12328659743070602 0.0 255.0 0.0
0.20816129446029663 -0.18575574457645416 -0.13506805896759033 0.0 255.0 0.0
0.2972581684589386 -0.18024392426013947 -0.041463132947683334 0.0 255.0 0.0
0.0641568973660469 0.03186207264661789 -0.13506805896759033 0.0 255.0 0.0
0.2517603039741516 0.0803510844707489 -0.13383065164089203 0.0 255.0 0.0
0.25782257318496704 0.511898398399353 0.08050866425037384 0.0 255.0 0.0
-0.04558652639389038 0.2276996672153473 -0.0863325223326683 0.0 255.0 0.0
0.10115868598222733 0.030966676771640778 -0.13844718039035797 0.0 255.0 0.0
-0.13289247453212738 0.1191178485751152 0.16999125480651855 0.0 255.0 0.0
-0.2342335730791092 0.13187260925769806 -0.13568739593029022 0.0 255.0 0.0
-0.2901284694671631 -0.33032286167144775 -0.02509450539946556 0.0 255.0 0.0
-0.07666861265897751 0.22812457382678986 -0.027011513710021973 0.0 255.0 0.0
-0.2711983919143677 -0.05270759016275406 -0.011886942200362682 0.0 255.0 0.0
0.2950928509235382 0.008644530549645424 0.06922447681427002 0.0 255.0 0.0
0.18839968740940094 -0.42062869668006897 -0.07391740381717682 0.0 255.0 0.0
0.14254532754421234 -0.013352000154554844 0.1658141314983368 0.0 255.0 0.0
0.2119155377149582 -0.3455803096294403 0.13622863590717316 0.0 255.0 0.0
0.21731017529964447 -0.2508535087108612 -0.08842651546001434 0.0 255.0 0.0
-0.1189684122800827 -0.019985703751444817 -0.13506805896759033 0.0 255.0 0.0
-0.25343748927116394 0.04377427324652672 0.1563054472208023 0.0 255.0 0.0
0.176324263215065 0.37618082761764526 0.06145982816815376 0.0 255.0 0.0
-0.0024128255899995565 0.11058557033538818 0.170964777469635 0.0 255.0 0.0
-0.18731573224067688 -0.13284671306610107 -0.13858972489833832 0.0 255.0 0.0
0.04668721929192543 -0.2507150173187256 0.05262532830238342 0.0 255.0 0.0
0.18235555291175842 0.4657033085823059 0.028948085382580757 0.0 255.0 0.0
-0.0993431806564331 -0.045724473893642426 -0.13506805896759033 0.0 255.0 0.0
0.007359244395047426 0.23651155829429626 -0.18269379436969757 0.0 255.0 0.0
0.2976142466068268 -0.1298910528421402 0.0633736401796341 0.0 255.0 0.0
0.014806754887104034 -0.026133589446544647 0.16863590478897095 0.0 255.0 0.0
0.17273826897144318 -0.16224808990955353 0.16937175393104553 0.0 255.0 0.0
-0.2707524597644806 0.10016316920518875 0.012887803837656975 0.0 255.0 0.0
0.21346408128738403 -0.40606725215911865 0.19917164742946625 0.0 255.0 0.0
0.26242390275001526 -0.44125235080718994 0.11409348994493484 0.0 255.0 0.0
0.29626306891441345 0.1582193672657013 0.10865422338247299 0.0 255.0 0.0
0.2304026037454605 0.44711554050445557 0.09961029887199402 0.0 255.0 0.0
-0.21053963899612427 -0.38690128922462463 0.14884591102600098 0.0 255.0 0.0
-0.2707524597644806 -0.22960418462753296 0.05990218371152878 0.0 255.0 0.0
-0.09221665561199188 -0.018338266760110855 0.16940195858478546 0.0 255.0 0.0
0.21827653050422668 -0.448351114988327 0.12343186140060425 0.0 255.0 0.0
-0.004207366146147251 0.184163436293602 0.15427224338054657 0.0 255.0 0.0
0.2972581684589386 0.05976193770766258 -0.061300937086343765 0.0 255.0 0.0
0.2979903221130371 0.00045772583689540625 0.12522198259830475 0.0 255.0 0.0
-0.183782696723938 0.09589854627847672 0.1709837019443512 0.0 255.0 0.0
-0.10107481479644775 -0.055241335183382034 0.16940195858478546 0.0 255.0 0.0
-0.1840437650680542 -0.003460073610767722 0.16732163727283478 0.0 255.0 0.0
0.2128981351852417 -0.21828825771808624 -0.1379072666168213 0.0 255.0 0.0
-0.29459527134895325 0.020481597632169724 -0.2630239725112915 0.0 255.0 0.0
-0.10976000875234604 0.23044613003730774 0.10138125717639923 0.0 255.0 0.0
-0.13057765364646912 -0.2329871505498886 0.15783274173736572 0.0 255.0 0.0
-0.09437215328216553 0.2296968400478363 0.06012627109885216 0.0 255.0 0.0
-0.2692020535469055 0.05099470913410187 0.09693093597888947 0.0 255.0 0.0
0.20140975713729858 0.12177061289548874 0.17098048329353333 0.0 255.0 0.0
-0.2470504641532898 0.39648959040641785 -0.06761094182729721 0.0 255.0 0.0
0.19963078200817108 0.2281428426504135 0.0024383177515119314 0.0 255.0 0.0
-0.1976456642150879 -0.09624146670103073 -0.13403962552547455 0.0 255.0 0.0
-0.009285923093557358 0.0842447504401207 0.16940195858478546 0.0 255.0 0.0
-0.2591879069805145 -0.4259262681007385 0.14241094887256622 0.0 255.0 0.0
0.14482250809669495 0.04362836107611656 -0.13506805896759033 0.0 255.0 0.0
-0.26919612288475037 -0.13921479880809784 0.12916235625743866 0.0 255.0 0.0
0.290574848651886 -0.4191685616970062 0.013073937967419624 0.0 255.0 0.0
0.2956843674182892 -0.131700798869133 -0.013695810921490192 0.0 255.0 0.0
-0.2536068856716156 0.04960520565509796 0.15630654990673065 0.0 255.0 0.0
-0.19937638938426971 0.22821742296218872 -0.06763375550508499 0.0 255.0 0.0
0.18965017795562744 0.059460222721099854 0.16940195858478546 0.0 255.0 0.0
-0.17063850164413452 -0.0062897601164877415 -0.13506805896759033 0.0 255.0 0.0
-0.15737785398960114 -0.2937261760234833 0.01949089579284191 0.0 255.0 0.0
-0.2719605267047882 -0.12123247981071472 -0.03704889118671417 0.0 255.0 0.0
0.11022403836250305 -0.24915939569473267 0.09861070662736893 0.0 255.0 0.0
-0.21826215088367462 0.198008194565773 0.15695670247077942 0.0 255.0 0.0
0.21513374149799347 -0.3574381172657013 -0.08472743630409241 0.0 255.0 0.0
0.23958484828472137 -0.09003101289272308 -0.13460016250610352 0.0 255.0 0.0
0.15945422649383545 -0.29507309198379517 0.005179604981094599 0.0 255.0 0.0
0.2927742004394531 -0.38952168822288513 0.07391098886728287 0.0 255.0 0.0
-0.04090186581015587 -0.015256955288350582 -0.13506805896759033 0.0 255.0 0.0
-0.08701961487531662 -0.00515251187607646 -0.13577799499034882 0.0 255.0 0.0
-0.2707524597644806 -0.05510660260915756 -0.007430380675941706 0.0 255.0 0.0
-0.2694649398326874 -0.1353798806667328 -0.011458104476332664 0.0 255.0 0.0
0.27825453877449036 -0.32249706983566284 0.009574785828590393 0.0 255.0 0.0
-0.06650131940841675 -0.25096595287323 -0.03702624887228012 0.0 255.0 0.0
-0.18267932534217834 -0.3948855698108673 0.07800141721963882 0.0 255.0 0.0
-0.19004134833812714 -0.1585696041584015 0.17014950513839722 0.0 255.0 0.0
0.08588521182537079 0.19417734444141388 -0.13539886474609375 0.0 255.0 0.0
-0.2303367555141449 0.3417588174343109 0.08064962178468704 0.0 255.0 0.0
-0.269844651222229 -0.08040529489517212 -0.03904329985380173 0.0 255.0 0.0
-0.04206409305334091 -0.011755610816180706 -0.13675598800182343 0.0 255.0 0.0
0.202113077044487 0.4767983853816986 -0.039419807493686676 0.0 255.0 0.0
-0.13760139048099518 0.02371111325919628 -0.13506805896759033 0.0 255.0 0.0
0.1863924115896225 -0.1672714352607727 0.17152927815914154 0.0 255.0 0.0
0.06257318705320358 -0.09946373105049133 0.16940195858478546 0.0 255.0 0.0
-0.19985821843147278 -0.002429602202028036 0.16882270574569702 0.0 255.0 0.0
0.1891246736049652 0.333125501871109 0.009020235389471054 0.0 255.0 0.0
-0.16268964111804962 0.4671047329902649 0.009094057604670525 0.0 255.0 0.0
0.1780298948287964 0.4402514100074768 0.08497187495231628 0.0 255.0 0.0
-0.14400430023670197 0.1293477863073349 -0.13458338379859924 0.0 255.0 0.0
0.23325468599796295 -0.13476498425006866 -0.13506805896759033 0.0 255.0 0.0
0.17122861742973328 -0.35607579350471497 -0.05391799286007881 0.0 255.0 0.0
0.18313159048557281 -0.06456255912780762 0.16940225660800934 0.0 255.0 0.0
0.28492268919944763 -0.3930530250072479 -0.008813951164484024 0.0 255.0 0.0
-0.1139959916472435 -0.09107738733291626 -0.13506805896759033 0.0 255.0 0.0
0.1407269388437271 0.07824023067951202 0.16884972155094147 0.0 255.0 0.0
0.21958951652050018 -0.14765986800193787 -0.1371365189552307 0.0 255.0 0.0
-0.004241980146616697 -0.2507493495941162 0.0037592612206935883 0.0 255.0 0.0
0.2972581684589386 -0.09006551653146744 0.01516745425760746 0.0 255.0 0.0
-0.17786701023578644 0.34495413303375244 0.07220619171857834 0.0 255.0 0.0
0.29905542731285095 -0.1712595373392105 0.04490220546722412 0.0 255.0 0.0
0.21025656163692474 -0.1360113024711609 0.17317591607570648 0.0 255.0 0.0
0.1778787523508072 0.10858089476823807 -0.13328751921653748 0.0 255.0 0.0
0.12332796305418015 -0.11649593710899353 -0.13348856568336487 0.0 255.0 0.0
-0.2692934572696686 -0.1390853375196457 0.0696675255894661 0.0 255.0 0.0
0.2267589420080185 0.4292256534099579 -0.09048473089933395 0.0 255.0 0.0
0.26811689138412476 0.22527848184108734 0.12613414227962494 0.0 255.0 0.0
-0.018475135788321495 0.13831846415996552 -0.13209587335586548 0.0 255.0 0.0
0.15940545499324799 -0.3094783127307892 -0.029178448021411896 0.0 255.0 0.0
0.28281909227371216 0.22646987438201904 0.07491229474544525 0.0 255.0 0.0
0.02984352596104145 0.2127314656972885 -0.16533252596855164 0.0 255.0 0.0
0.18691109120845795 0.46695268154144287 0.0911656841635704 0.0 255.0 0.0
0.28255200386047363 -0.3836103081703186 -0.02355094999074936 0.0 255.0 0.0
-0.1952231079339981 -0.4343770146369934 0.03626619651913643 0.0 255.0 0.0
-0.10132865607738495 -0.024064332246780396 0.16817478835582733 0.0 255.0 0.0
-0.22013986110687256 -0.4383683502674103 -0.04972649738192558 0.0 255.0 0.0
0.0416189581155777 0.22424635291099548 0.006506060250103474 0.0 255.0 0.0
-0.2993256747722626 -0.34290406107902527 -0.019405502825975418 0.0 255.0 0.0
0.2974214553833008 -0.12777626514434814 -0.0030971516389399767 0.0 255.0 0.0
0.17256851494312286 -0.3655570447444916 0.13045504689216614 0.0 255.0 0.0
0.09920837730169296 -0.19251738488674164 -0.13611871004104614 0.0 255.0 0.0
-0.25806859135627747 -0.4563319981098175 -0.06722009927034378 0.0 255.0 0.0
0.2957375645637512 0.3773042857646942 0.0036851391196250916 0.0 255.0 0.0
0.06008443236351013 0.22812457382678986 -0.09614074975252151 0.0 255.0 0.0
0.14015959203243256 -0.047047656029462814 0.16928806900978088 0.0 255.0 0.0
-0.20225092768669128 -0.32810279726982117 -0.0693882629275322 0.0 255.0 0.0
-0.2617662250995636 0.36682984232902527 -0.03001515567302704 0.0 255.0 0.0
-0.2127799242734909 -0.43626144528388977 0.14497289061546326 0.0 255.0 0.0
0.2234826236963272 0.5082786083221436 0.09036894887685776 0.0 255.0 0.0
-0.137372687458992 -0.057173293083906174 0.16940195858478546 0.0 255.0 0.0
-0.27577826380729675 -0.1605212390422821 0.006553777493536472 0.0 255.0 0.0
-0.11036209762096405 0.02930806763470173 0.16940195858478546 0.0 255.0 0.0
-0.12279101461172104 0.22669558227062225 0.1108013391494751 0.0 255.0 0.0
0.2972581684589386 0.14866448938846588 0.039655450731515884 0.0 255.0 0.0
0.29420173168182373 0.0019530093995854259 -0.09531787782907486 0.0 255.0 0.0
-0.08294528722763062 0.10048457980155945 -0.13420099020004272 0.0 255.0 0.0
0.2669515311717987 -0.31670036911964417 0.08381929993629456 0.0 255.0 0.0
-0.019623788073658943 0.22812457382678986 0.06387311220169067 0.0 255.0 0.0
0.29849618673324585 0.07238046824932098 -0.013343444094061852 0.0 255.0 0.0
0.27576711773872375 -0.20457077026367188 0.15627937018871307 0.0 255.0 0.0
-0.17005164921283722 0.14485755562782288 0.169358029961586 0.0 255.0 0.0
0.16042177379131317 0.08211982995271683 -0.13506805896759033 0.0 255.0 0.0
-0.2465926557779312 0.05271811783313751 -0.13305462896823883 0.0 255.0 0.0
-0.084805928170681 0.2306060492992401 0.0448572151362896 0.0 255.0 0.0
-0.042301543056964874 0.10342131555080414 0.17156660556793213 0.0 255.0 0.0
-0.14799906313419342 0.22725637257099152 -0.04624078795313835 0.0 255.0 0.0
0.1441527158021927 0.20043323934078217 0.15532535314559937 0.0 255.0 0.0
-0.047141220420598984 -0.25062140822410583 0.10527750104665756 0.0 255.0 0.0
-0.02478126809000969 -0.25066426396369934 -0.04177293926477432 0.0 255.0 0.0
0.19980543851852417 -0.4484677016735077 0.11647609621286392 0.0 255.0 0.0
0.2984035611152649 -0.04171132668852806 0.058715514838695526 0.0 255.0 0.0
0.2972581684589386 0.057381678372621536 0.058482199907302856 0.0 255.0 0.0
0.19457125663757324 0.2254359871149063 -0.10440889745950699 0.0 255.0 0.0
-0.2707524597644806 -0.01602109521627426 -0.08749575167894363 0.0 255.0 0.0
-0.14817585051059723 -0.007714398670941591 -0.13436080515384674 0.0 255.0 0.0
-0.15808895230293274 0.4492270350456238 0.040387194603681564 0.0 255.0 0.0
-0.0670744776725769 0.19328638911247253 -0.13449707627296448 0.0 255.0 0.0
0.027036184445023537 -0.2505590617656708 -0.040211450308561325 0.0 255.0 0.0
-0.30577510595321655 -0.32188907265663147 0.12316896766424179 0.0 255.0 0.0
0.1878785341978073 -0.3462425470352173 0.12413093447685242 0.0 255.0 0.0
-0.27215027809143066 -0.053701967000961304 0.05277087911963463 0.0 255.0 0.0
-0.2718485891819 0.05655153840780258 -0.10994574427604675 0.0 255.0 0.0
0.03427939862012863 -0.13702994585037231 0.16940195858478546 0.0 255.0 0.0
-0.2707524597644806 -0.10105668753385544 0.04995611310005188 0.0 255.0 0.0
-0.20936192572116852 -0.4364268183708191 0.141684427857399 0.0 255.0 0.0
-0.1327921599149704 -0.25121450424194336 -0.05905713513493538 0.0 255.0 0.0
0.1817549467086792 0.0033834681380540133 0.16940195858478546 0.0 255.0 0.0
0.10464222729206085 -0.17860789597034454 -0.13344626128673553 0.0 255.0 0.0
-0.04878346621990204 -0.1449183076620102 0.16940195858478546 0.0 255.0 0.0
-0.2707524597644806 0.1948910355567932 0.0020949651952832937 0.0 255.0 0.0
-0.27082639932632446 0.010831777937710285 -0.005123571492731571 0.0 255.0 0.0
0.19037973880767822 0.12386958301067352 -0.13562044501304626 0.0 255.0 0.0
-0.15711849927902222 -0.18636353313922882 -0.1350087672472 0.0 255.0 0.0
0.28343021869659424 -0.36030614376068115 0.05349089950323105 0.0 255.0 0.0
0.02950410358607769 0.22812457382678986 0.1050422340631485 0.0 255.0 0.0
-0.033253077417612076 0.22608613967895508 0.08410904556512833 0.0 255.0 0.0
-0.2707524597644806 0.16050149500370026 0.11681132018566132 0.0 255.0 0.0
0.08613770455121994 0.2269001603126526 -0.07618991285562515 0.0 255.0 0.0
-0.30273449420928955 -0.44929251074790955 -0.0490252710878849 0.0 255.0 0.0
-0.1996683031320572 0.08463109284639359 0.1693512350320816 0.0 255.0 0.0
-0.23183441162109375 -0.043478965759277344 -0.13280236721038818 0.0 255.0 0.0
-0.2941611707210541 -0.021465729922056198 -0.2767917513847351 0.0 255.0 0.0
-0.270375519990921 -0.06695956736803055 0.0501437745988369 0.0 255.0 0.0
-0.02749742940068245 0.05302365496754646 0.1662205010652542 0.0 255.0 0.0
0.125459223985672 0.22812457382678986 -0.08791869878768921 0.0 255.0 0.0
0.18469661474227905 0.4776240885257721 0.021945325657725334 0.0 255.0 0.0
0.1780119389295578 -0.2014676183462143 -0.13652189075946808 0.0 255.0 0.0
-0.16788172721862793 -0.10427961498498917 -0.13506805896759033 0.0 255.0 0.0
0.16060641407966614 -0.32824066281318665 -0.025341110303997993 0.0 255.0 0.0
-0.27031409740448 -0.046523332595825195 -0.04501313343644142 0.0 255.0 0.0
0.129182368516922 0.017610644921660423 0.1701050102710724 0.0 255.0 0.0
-0.2694338262081146 -0.12315967679023743 -0.07851412892341614 0.0 255.0 0.0
-0.3216722905635834 -0.34263715147972107 0.08194421976804733 0.0 255.0 0.0
-0.2555563449859619 0.3426462411880493 -0.012681850232183933 0.0 255.0 0.0
-0.2416350245475769 0.1664848029613495 -0.13209237158298492 0.0 255.0 0.0
0.2966172695159912 0.14521707594394684 0.08791179209947586 0.0 255.0 0.0
-0.29445022344589233 0.05431932583451271 -0.2935831844806671 0.0 255.0 0.0
0.2972581684589386 0.12163400650024414 0.10844234377145767 0.0 255.0 0.0
0.2625454068183899 -0.44599467515945435 0.1606990098953247 0.0 255.0 0.0
-0.2707524597644806 0.18702110648155212 0.012335666455328465 0.0 255.0 0.0
0.2972581684589386 -0.09295574575662613 -0.0029395862948149443 0.0 255.0 0.0
-0.15988348424434662 -0.17191638052463531 -0.13255134224891663 0.0 255.0 0.0
-0.2719239592552185 0.05673316866159439 -0.07557537406682968 0.0 255.0 0.0
-0.29960960149765015 -0.37500572204589844 -0.07535435259342194 0.0 255.0 0.0
0.18452902138233185 0.013570727780461311 0.16945339739322662 0.0 255.0 0.0
-0.2707524597644806 -0.028943806886672974 0.10507047921419144 0.0 255.0 0.0
-0.003369493642821908 -0.22672778367996216 -0.13312312960624695 0.0 255.0 0.0
-0.04075602814555168 -0.07554366439580917 -0.13506805896759033 0.0 255.0 0.0
0.2304849475622177 0.46846920251846313 -0.07794808596372604 0.0 255.0 0.0
0.18728052079677582 -0.44479838013648987 0.17845308780670166 0.0 255.0 0.0
0.147868812084198 -0.3354635238647461 0.008081736974418163 0.0 255.0 0.0
0.2724321782588959 -0.2187867909669876 0.15623335540294647 0.0 255.0 0.0
-0.25396618247032166 0.482356995344162 0.0701889842748642 0.0 255.0 0.0
0.26874059438705444 0.508296012878418 0.08205068856477737 0.0 255.0 0.0
0.29684650897979736 0.04701666533946991 -0.10075727850198746 0.0 255.0 0.0
-0.03943667188286781 0.033308252692222595 0.1704365611076355 0.0 255.0 0.0
0.01261378638446331 0.2293834090232849 0.006734761409461498 0.0 255.0 0.0
-0.28982311487197876 -0.037763237953186035 -0.24329891800880432 0.0 255.0 0.0
0.06311406940221786 -0.13938264548778534 -0.13506805896759033 0.0 255.0 0.0
0.27066659927368164 -0.07815379649400711 0.15619432926177979 0.0 255.0 0.0
0.0827610045671463 -0.22380603849887848 0.15597829222679138 0.0 255.0 0.0
0.11275140196084976 -0.1177966371178627 -0.13555823266506195 0.0 255.0 0.0
-0.07270954549312592 -0.25099101662635803 -0.041895732283592224 0.0 255.0 0.0
0.1410611867904663 0.22812457382678986 -0.0411958247423172 0.0 255.0 0.0
-0.2712363302707672 0.11610706895589828 0.05312776193022728 0.0 255.0 0.0
0.29952287673950195 0.09271840751171112 -0.11028788238763809 0.0 255.0 0.0
0.2492845058441162 -0.4489953815937042 0.12221663445234299 0.0 255.0 0.0
-0.165806382894516 0.09054812043905258 0.1676519364118576 0.0 255.0 0.0
0.2949312627315521 0.17540530860424042 0.017663294449448586 0.0 255.0 0.0
0.30363890528678894 -0.15698423981666565 0.12731581926345825 0.0 255.0 0.0
-0.017386509105563164 -0.25077345967292786 0.04868451878428459 0.0 255.0 0.0
0.24954211711883545 0.1851910501718521 0.15353156626224518 0.0 255.0 0.0
0.2746945917606354 0.18331396579742432 0.15626253187656403 0.0 255.0 0.0
0.20038168132305145 0.4972376525402069 -0.0030527350027114153 0.0 255.0 0.0
0.21383604407310486 0.011856966651976109 -0.1338762491941452 0.0 255.0 0.0
0.02682892046868801 0.18472889065742493 -0.22453883290290833 0.0 255.0 0.0
0.2465345561504364 0.22819994390010834 -0.11489242315292358 0.0 255.0 0.0
-0.041910529136657715 0.22812457382678986 -0.005790086928755045 0.0 255.0 0.0
0.06562919914722443 0.10929961502552032 0.16940195858478546 0.0 255.0 0.0
-0.03125028312206268 0.1179267093539238 0.16940195858478546 0.0 255.0 0.0
-0.17863072454929352 0.020677177235484123 -0.13203871250152588 0.0 255.0 0.0
0.20900318026542664 0.22769324481487274 -0.002565785078331828 0.0 255.0 0.0
0.2638821303844452 -0.445715993642807 0.047597140073776245 0.0 255.0 0.0
-0.2707524597644806 -0.043896276503801346 0.10702881217002869 0.0 255.0 0.0
-0.041440047323703766 -0.02994135022163391 0.171327605843544 0.0 255.0 0.0
0.13923950493335724 -0.38358914852142334 0.01272207498550415 0.0 255.0 0.0
-0.18828153610229492 -0.23034299910068512 0.15280857682228088 0.0 255.0 0.0
0.29626065492630005 0.046225693076848984 -0.06360659003257751 0.0 255.0 0.0
0.2959022521972656 0.04585302248597145 0.02653741091489792 0.0 255.0 0.0
-0.09377113729715347 -0.2534047067165375 0.025617728009819984 0.0 255.0 0.0
-0.14326919615268707 -0.09728003293275833 0.16694052517414093 0.0 255.0 0.0
0.19781699776649475 -0.1642402559518814 0.1700192391872406 0.0 255.0 0.0
0.18308813869953156 0.4748069941997528 0.018492452800273895 0.0 255.0 0.0
-0.16260020434856415 0.22812457382678986 0.0755164697766304 0.0 255.0 0.0
0.09753821045160294 0.0602070689201355 -0.13314399123191833 0.0 255.0 0.0
-0.0010231737978756428 0.25355201959609985 -0.19865643978118896 0.0 255.0 0.0
0.0792846828699112 -0.1586378961801529 -0.1371835619211197 0.0 255.0 0.0
0.2506505846977234 -0.3439907133579254 -0.08098907768726349 0.0 255.0 0.0
-0.1693875938653946 -0.36467769742012024 -0.011841215193271637 0.0 255.0 0.0
0.08319849520921707 -0.15428292751312256 -0.13506805896759033 0.0 255.0 0.0
0.1224486455321312 -0.018288861960172653 -0.13506805896759033 0.0 255.0 0.0
-0.27469581365585327 0.05491292104125023 -0.07286185771226883 0.0 255.0 0.0
-0.2694953382015228 -0.09151804447174072 0.05540335178375244 0.0 255.0 0.0
0.09480840712785721 -0.15921196341514587 0.16937941312789917 0.0 255.0 0.0
0.2972581684589386 -0.10656361281871796 0.07489672303199768 0.0 255.0 0.0
-0.2689123749732971 0.04779086261987686 0.10399560630321503 0.0 255.0 0.0
0.17698396742343903 -0.3438032865524292 -0.05674155056476593 0.0 255.0 0.0
-0.15506809949874878 0.41427716612815857 0.07810713350772858 0.0 255.0 0.0
0.19161458313465118 0.14173303544521332 -0.13506805896759033 0.0 255.0 0.0
0.005065843928605318 0.145582914352417 0.16996291279792786 0.0 255.0 0.0
-0.054917581379413605 -0.2551923990249634 -0.00893186405301094 0.0 255.0 0.0
-0.27209341526031494 0.08649644255638123 0.02536795474588871 0.0 255.0 0.0
0.25503620505332947 0.12777003645896912 -0.13531577587127686 0.0 255.0 0.0
0.08529491722583771 0.0646502897143364 0.17058545351028442 0.0 255.0 0.0
0.12829327583312988 -0.25338682532310486 -0.03546720743179321 0.0 255.0 0.0
0.1275402307510376 0.2319205105304718 -0.044349025934934616 0.0 255.0 0.0
0.03510378673672676 0.1708599179983139 -0.13225263357162476 0.0 255.0 0.0
0.3025003671646118 0.44105449318885803 0.03963062912225723 0.0 255.0 0.0
-0.272317111492157 -0.016955073922872543 -0.06969088315963745 0.0 255.0 0.0
-0.1589428186416626 0.40020546317100525 -0.009855607524514198 0.0 255.0 0.0
0.18863271176815033 -0.28811949491500854 -0.04957420378923416 0.0 255.0 0.0
0.01658293418586254 -0.25080665946006775 0.024074064567685127 0.0 255.0 0.0
-0.0737132728099823 -0.2509460747241974 -0.05936914309859276 0.0 255.0 0.0
0.06753283739089966 0.06559912115335464 -0.1360403150320053 0.0 255.0 0.0
0.1425146758556366 -0.39978301525115967 -0.013607483357191086 0.0 255.0 0.0
0.013310538604855537 0.21797432005405426 -0.1709631085395813 0.0 255.0 0.0
-0.26916953921318054 0.4337804913520813 0.037894971668720245 0.0 255.0 0.0
-0.18174517154693604 -0.3582793176174164 -0.04858631268143654 0.0 255.0 0.0
-0.2704809010028839 -0.14907561242580414 -0.007919304072856903 0.0 255.0 0.0
-0.18556225299835205 0.4962364137172699 0.020133377984166145 0.0 255.0 0.0
-0.12217818945646286 -0.10321144014596939 -0.13506805896759033 0.0 255.0 0.0
-0.19644315540790558 -0.3911720812320709 0.10172686725854874 0.0 255.0 0.0
-0.23725645244121552 0.22908972203731537 0.13175322115421295 0.0 255.0 0.0
0.04392296448349953 -0.0489567406475544 -0.13447968661785126 0.0 255.0 0.0
-0.15476247668266296 0.4298163652420044 0.06709329038858414 0.0 255.0 0.0
-0.27225926518440247 -0.059751663357019424 0.012060885317623615 0.0 255.0 0.0
0.22223129868507385 -0.01901291497051716 -0.1366439312696457 0.0 255.0 0.0
0.24709410965442657 -0.052217017859220505 -0.1365094780921936 0.0 255.0 0.0
-0.27215978503227234 -0.2146673947572708 0.08127103745937347 0.0 255.0 0.0
0.2695453464984894 -0.023156683892011642 -0.12819258868694305 0.0 255.0 0.0
0.249339297413826 0.3327636420726776 0.07833202183246613 0.0 255.0 0.0
-0.2707524597644806 -0.0015074129914864898 0.007968547753989697 0.0 255.0 0.0
-0.2692166864871979 -0.07593102753162384 0.07587556540966034 0.0 255.0 0.0
0.18937979638576508 -0.251311719417572 0.07195678353309631 0.0 255.0 0.0
0.20118603110313416 0.48360633850097656 -0.03651607409119606 0.0 255.0 0.0
-0.21494168043136597 -0.465874582529068 0.01882004737854004 0.0 255.0 0.0
-0.18286532163619995 -0.1896350085735321 -0.13506805896759033 0.0 255.0 0.0
0.2972581684589386 -0.057347580790519714 -0.08976317942142487 0.0 255.0 0.0
0.17498679459095 0.44303521513938904 0.06329602748155594 0.0 255.0 0.0
-0.32525649666786194 -0.34424081444740295 0.1011049896478653 0.0 255.0 0.0
-0.07630240172147751 -0.2510126233100891 -0.04098865017294884 0.0 255.0 0.0
-0.07850136607885361 0.1012696698307991 0.16552519798278809 0.0 255.0 0.0
-0.1511526107788086 -0.08690668642520905 -0.1351694017648697 0.0 255.0 0.0
-0.162126824259758 -0.2507964074611664 0.08223779499530792 0.0 255.0 0.0
0.2972581684589386 -0.08661068230867386 0.022024380043148994 0.0 255.0 0.0
-0.06868812441825867 0.09194544702768326 -0.13447320461273193 0.0 255.0 0.0
0.2835615575313568 -0.38393014669418335 -0.022875014692544937 0.0 255.0 0.0
0.2972581684589386 -0.140611469745636 0.09105733782052994 0.0 255.0 0.0
0.09800306707620621 0.18351082503795624 -0.13463158905506134 0.0 255.0 0.0
0.14420092105865479 0.048257406800985336 -0.13506805896759033 0.0 255.0 0.0
0.13987590372562408 0.007399336900562048 0.16563253104686737 0.0 255.0 0.0
-0.016559986397624016 -0.08703525364398956 0.17217302322387695 0.0 255.0 0.0
-0.13589154183864594 -0.25349465012550354 -0.10220339149236679 0.0 255.0 0.0
-0.10781463980674744 -0.11355346441268921 0.16898001730442047 0.0 255.0 0.0
0.17634861171245575 0.1362336426973343 0.16718150675296783 0.0 255.0 0.0
0.10018777847290039 0.07049328088760376 -0.13316306471824646 0.0 255.0 0.0
-0.1077142059803009 0.1996283084154129 0.1558072566986084 0.0 255.0 0.0
-0.27500972151756287 -0.3018839359283447 0.037640295922756195 0.0 255.0 0.0
0.22168327867984772 0.45397305488586426 -0.0783168151974678 0.0 255.0 0.0
-0.06513705849647522 -0.05761292949318886 -0.13506805896759033 0.0 255.0 0.0
0.22556869685649872 0.39145323634147644 -0.08670871704816818 0.0 255.0 0.0
-0.1408228725194931 -0.01474572904407978 -0.1338517665863037 0.0 255.0 0.0
0.14818429946899414 -0.14407368004322052 0.17078730463981628 0.0 255.0 0.0
-0.21079543232917786 0.13330580294132233 -0.13422417640686035 0.0 255.0 0.0
-0.15762270987033844 0.2255132645368576 0.10369234532117844 0.0 255.0 0.0
0.2972581684589386 -0.1758369654417038 -0.10589145869016647 0.0 255.0 0.0
0.2818443477153778 -0.36288002133369446 0.012301605194807053 0.0 255.0 0.0
0.12985563278198242 0.11535147577524185 0.16940195858478546 0.0 255.0 0.0
-0.07831975817680359 0.2288983166217804 -0.11379529535770416 0.0 255.0 0.0
0.29941418766975403 0.445862352848053 0.04732578992843628 0.0 255.0 0.0
0.12839582562446594 -0.03962498903274536 -0.13559477031230927 0.0 255.0 0.0
0.030137453228235245 0.05647210031747818 -0.13310639560222626 0.0 255.0 0.0
-0.22034147381782532 0.09726189821958542 -0.13631972670555115 0.0 255.0 0.0
-0.1906903088092804 -0.4161994755268097 0.08954513818025589 0.0 255.0 0.0
0.1313348263502121 0.22812457382678986 -0.043483756482601166 0.0 255.0 0.0
0.1466173231601715 -0.17760537564754486 -0.1331552118062973 0.0 255.0 0.0
0.24416141211986542 0.23071067035198212 0.07502518594264984 0.0 255.0 0.0
0.2971409857273102 -0.17638146877288818 -0.06903792917728424 0.0 255.0 0.0
-0.0273207388818264 -0.13554443418979645 0.1682811677455902 0.0 255.0 0.0
0.1037582978606224 0.23028044402599335 0.12173064798116684 0.0 255.0 0.0
-0.21242523193359375 -0.44858813285827637 -0.027048178017139435 0.0 255.0 0.0
-0.2506526708602905 0.03697359189391136 0.1562878042459488 0.0 255.0 0.0
-0.2715855836868286 -0.11710825562477112 0.01162845827639103 0.0 255.0 0.0
-0.03769153356552124 0.020743513479828835 -0.13484205305576324 0.0 255.0 0.0
0.16657067835330963 0.22603175044059753 -0.0023878775537014008 0.0 255.0 0.0
0.29576733708381653 0.20768626034259796 0.1414548009634018 0.0 255.0 0.0
-0.07499043643474579 -0.24914336204528809 0.11985873430967331 0.0 255.0 0.0
-0.07278916984796524 0.05398055538535118 0.16940195858478546 0.0 255.0 0.0
-0.10953706502914429 -0.028587406501173973 0.16709023714065552 0.0 255.0 0.0
0.019164785742759705 0.12714797258377075 -0.13542455434799194 0.0 255.0 0.0
0.11396413296461105 -0.25082412362098694 0.04544885456562042 0.0 255.0 0.0
0.3005543053150177 0.3517957925796509 0.010651272721588612 0.0 255.0 0.0
0.29050785303115845 -0.40499430894851685 0.07920093834400177 0.0 255.0 0.0
-0.2517043948173523 -0.24898885190486908 -0.055182844400405884 0.0 255.0 0.0
0.2801893949508667 0.4533103406429291 -0.05593610927462578 0.0 255.0 0.0
-0.1834314614534378 -0.2082349807024002 -0.13334903120994568 0.0 255.0 0.0
0.2972581684589386 -0.09067106246948242 -0.07631193101406097 0.0 255.0 0.0
0.0216470118612051 0.15111669898033142 -0.13969090580940247 0.0 255.0 0.0
0.27184176445007324 -0.30714988708496094 0.0628264769911766 0.0 255.0 0.0
0.20438162982463837 -0.3213462233543396 0.10871929675340652 0.0 255.0 0.0
-0.13229139149188995 0.17004723846912384 -0.13742783665657043 0.0 255.0 0.0
