0.11957669258117676 0.22812457382678986 -0.052986305207014084 0.0 255.0 0.0
0.2951119840145111 0.2051790952682495 -0.08068325370550156 0.0 255.0 0.0
0.2972581684589386 -0.17277583479881287 0.007841957733035088 0.0 255.0 0.0
0.29873180389404297 0.2062288373708725 0.13881294429302216 0.0 255.0 0.0
0.29518043994903564 0.4521927833557129 0.1048627495765686 0.0 255.0 0.0
-0.1705618053674698 0.22790594398975372 0.08586680144071579 0.0 255.0 0.0
0.25283458828926086 0.11118412017822266 -0.13338983058929443 0.0 255.0 0.0
-0.24763460457324982 0.228162482380867 0.08203320950269699 0.0 255.0 0.0
0.16228151321411133 -0.44810134172439575 0.12122105062007904 0.0 255.0 0.0
-0.22434662282466888 0.18917585909366608 0.15733177959918976 0.0 255.0 0.0
-0.013579136691987514 0.22758570313453674 -0.04526966065168381 0.0 255.0 0.0
0.12133911997079849 -0.027408547699451447 -0.13465960323810577 0.0 255.0 0.0
-0.323719322681427 -0.38136881589889526 -0.021080125123262405 0.0 255.0 0.0
-0.06630409508943558 -0.1129472628235817 -0.13506805896759033 0.0 255.0 0.0
-0.16360965371131897 0.2273290902376175 0.13064099848270416 0.0 255.0 0.0
0.2972581684589386 -0.23325100541114807 -0.0037740026600658894 0.0 255.0 0.0
-0.3047903776168823 -0.37034013867378235 -0.05802907049655914 0.0 255.0 0.0
-0.17293797433376312 -0.33025601506233215 -0.04125228524208069 0.0 255.0 0.0
-0.24473993480205536 -0.058019403368234634 -0.2649698853492737 0.0 255.0 0.0
-0.24891074001789093 0.17166492342948914 -0.13506805896759033 0.0 255.0 0.0
-0.09698870778083801 -0.19396546483039856 -0.13908028602600098 0.0 255.0 0.0
-0.2682372033596039 0.37831196188926697 0.054941486567258835 0.0 255.0 0.0
0.09728175401687622 0.2259707897901535 -0.03125309199094772 0.0 255.0 0.0
-0.2580943703651428 -0.4544890224933624 -0.06845267117023468 0.0 255.0 0.0
0.06966858357191086 0.050293803215026855 0.16940195858478546 0.0 255.0 0.0
-0.28609320521354675 -0.39905351400375366 0.14598160982131958 0.0 255.0 0.0
0.29696667194366455 0.08109670132398605 0.0028239053208380938 0.0 255.0 0.0
-0.026586152613162994 -0.2507985830307007 -0.009931120090186596 0.0 255.0 0.0
0.1341564804315567 0.06929463148117065 -0.13532578945159912 0.0 255.0 0.0
-0.162569060921669 0.465038537979126 0.042590513825416565 0.0 255.0 0.0
-0.26664626598358154 0.38169965147972107 -0.021836817264556885 0.0 255.0 0.0
-0.2604316473007202 0.34982535243034363 0.05678041651844978 0.0 255.0 0.0
-0.010969232767820358 0.19079118967056274 0.1534784734249115 0.0 255.0 0.0
-0.3206387460231781 -0.3405018150806427 0.08861881494522095 0.0 255.0 0.0
-0.32682815194129944 -0.36590832471847534 0.14813122153282166 0.0 255.0 0.0
0.2997948229312897 0.3755830228328705 0.05717078223824501 0.0 255.0 0.0
-0.00799872912466526 0.1386052370071411 -0.1349879503250122 0.0 255.0 0.0
-0.31155842542648315 -0.4283977150917053 -0.00965858157724142 0.0 255.0 0.0
-0.08446776121854782 -0.07010772824287415 -0.13506805896759033 0.0 255.0 0.0
-0.20953364670276642 -0.3655247092247009 -0.07413391768932343 0.0 255.0 0.0
-0.2663499414920807 0.38621461391448975 0.04817850515246391 0.0 255.0 0.0
-0.1860358715057373 -0.09374213963747025 -0.13565246760845184 0.0 255.0 0.0
-0.26776060461997986 0.42084217071533203 0.037979692220687866 0.0 255.0 0.0
0.14368371665477753 0.06067682057619095 0.1706082969903946 0.0 255.0 0.0
-0.09138757735490799 -0.08396916091442108 -0.13662280142307281 0.0 255.0 0.0
-0.2378736436367035 0.17880968749523163 -0.13506805896759033 0.0 255.0 0.0
0.2999466359615326 0.21066589653491974 -0.10013033449649811 0.0 255.0 0.0
0.13951082527637482 -0.38029029965400696 0.082034170627594 0.0 255.0 0.0
0.040574733167886734 0.22812457382678986 0.019793659448623657 0.0 255.0 0.0
-0.16763317584991455 0.0460088886320591 0.16852039098739624 0.0 255.0 0.0
-0.3028337359428406 -0.3811410069465637 0.16950705647468567 0.0 255.0 0.0
-0.2579781413078308 -0.2975441515445709 -0.03135078027844429 0.0 255.0 0.0
0.18118245899677277 -0.3086545467376709 -0.04768320173025131 0.0 255.0 0.0
0.3003374934196472 -0.13519145548343658 0.048048246651887894 0.0 255.0 0.0
-0.1706210970878601 -0.15024225413799286 -0.1365717351436615 0.0 255.0 0.0
-0.22610393166542053 0.08078543096780777 -0.13381274044513702 0.0 255.0 0.0
0.2965364456176758 0.16942790150642395 0.08386798948049545 0.0 255.0 0.0
0.18860726058483124 -0.44627752900123596 0.0066331299021840096 0.0 255.0 0.0
0.15151602029800415 -0.19066564738750458 -0.13810831308364868 0.0 255.0 0.0
0.16312910616397858 -0.2978692948818207 -0.01743847317993641 0.0 255.0 0.0
0.21884597837924957 0.12024091929197311 0.16925761103630066 0.0 255.0 0.0
0.2972581684589386 0.15049482882022858 -0.02181100659072399 0.0 255.0 0.0
0.19072748720645905 0.22583580017089844 0.009946060366928577 0.0 255.0 0.0
0.18363814055919647 0.45211663842201233 -0.021367846056818962 0.0 255.0 0.0
-0.14871017634868622 0.40507248044013977 0.04188316687941551 0.0 255.0 0.0
-0.11828343570232391 0.029408356174826622 0.1711507886648178 0.0 255.0 0.0
-0.15319661796092987 0.3911705017089844 0.02903737872838974 0.0 255.0 0.0
-0.13714662194252014 -0.25200605392456055 -0.04158898815512657 0.0 255.0 0.0
0.3014698624610901 0.43386000394821167 0.07553930580615997 0.0 255.0 0.0
-0.009739546105265617 -0.17016743123531342 0.16933327913284302 0.0 255.0 0.0
0.22103911638259888 -0.09907537698745728 0.16672205924987793 0.0 255.0 0.0
-0.24980106949806213 0.406963586807251 -0.05608171969652176 0.0 255.0 0.0
-0.2663629353046417 0.45452797412872314 0.06730376929044724 0.0 255.0 0.0
-0.2707524597644806 -0.22257082164287567 0.04556502774357796 0.0 255.0 0.0
0.2931636571884155 -0.2320123165845871 -0.04404592886567116 0.0 255.0 0.0
0.29541096091270447 -0.22806359827518463 -0.08206169307231903 0.0 255.0 0.0
-0.24481473863124847 -0.25018784403800964 -0.09229671955108643 0.0 255.0 0.0
-0.2720417380332947 -0.001420985092408955 -0.06840332597494125 0.0 255.0 0.0
0.11986333876848221 -0.25022828578948975 -0.04138444736599922 0.0 255.0 0.0
0.061650149524211884 0.22819572687149048 -0.11797584593296051 0.0 255.0 0.0
-0.08676323294639587 0.2291191667318344 0.10150730609893799 0.0 255.0 0.0
-0.26476728916168213 0.43627870082855225 0.08399633318185806 0.0 255.0 0.0
0.2974556088447571 0.01586316153407097 -0.11685041338205338 0.0 255.0 0.0
0.15271197259426117 -0.3528771698474884 0.08823279291391373 0.0 255.0 0.0
-0.2714300751686096 -0.06056997925043106 -0.0836489126086235 0.0 255.0 0.0
-0.24969124794006348 -0.0988764613866806 0.15656158328056335 0.0 255.0 0.0
0.1105516329407692 0.1527923047542572 -0.1367112696170807 0.0 255.0 0.0
0.2002391368150711 0.3457157611846924 0.09119390696287155 0.0 255.0 0.0
-0.06523919850587845 0.04664589464664459 -0.13520029187202454 0.0 255.0 0.0
-0.27051395177841187 0.050772033631801605 0.11222322285175323 0.0 255.0 0.0
-0.023437505587935448 0.023064984008669853 -0.13506805896759033 0.0 255.0 0.0
0.09068233519792557 0.05966535955667496 -0.13356859982013702 0.0 255.0 0.0
-0.27916228771209717 -0.35755103826522827 -0.08022825419902802 0.0 255.0 0.0
-0.03604191541671753 -0.005783483386039734 0.16764986515045166 0.0 255.0 0.0
0.20344647765159607 0.22812457382678986 0.09550497680902481 0.0 255.0 0.0
-0.18765917420387268 0.22828243672847748 0.07765746116638184 0.0 255.0 0.0
0.09759300947189331 0.024375617504119873 -0.13522715866565704 0.0 255.0 0.0
0.05213052034378052 -0.12127695977687836 -0.13535143435001373 0.0 255.0 0.0
-0.27240899205207825 -0.19472002983093262 -0.11161905527114868 0.0 255.0 0.0
0.2275625765323639 0.3254859447479248 -0.04721938818693161 0.0 255.0 0.0
0.2101949006319046 -0.3239019513130188 -0.07732527703046799 0.0 255.0 0.0
-0.10603407770395279 -0.010251856409013271 -0.13430382311344147 0.0 255.0 0.0
-0.31762465834617615 -0.4160575866699219 -0.00508322985842824 0.0 255.0 0.0
-0.28237205743789673 -0.3251003623008728 0.16732801496982574 0.0 255.0 0.0
-0.2623550295829773 -0.4327601194381714 0.11019635945558548 0.0 255.0 0.0
0.14470377564430237 0.1917492002248764 0.1560390591621399 0.0 255.0 0.0
-0.27037179470062256 0.16666334867477417 -0.08842819184064865 0.0 255.0 0.0
-0.24872393906116486 0.11352617293596268 -0.1346522569656372 0.0 255.0 0.0
0.06986123323440552 -0.19727861881256104 -0.13506805896759033 0.0 255.0 0.0
-0.09679555892944336 -0.23203299939632416 0.15616734325885773 0.0 255.0 0.0
0.14502646028995514 0.04289751499891281 0.16973811388015747 0.0 255.0 0.0
0.05693993344902992 -0.045987583696842194 0.16940195858478546 0.0 255.0 0.0
0.07674000412225723 0.1917411983013153 0.1564638465642929 0.0 255.0 0.0
-0.25974974036216736 0.3548506796360016 -0.019394734874367714 0.0 255.0 0.0
0.2792172431945801 0.32267042994499207 0.020513374358415604 0.0 255.0 0.0
0.29718220233917236 0.08403667062520981 0.03082207590341568 0.0 255.0 0.0
0.02855362743139267 0.2284172922372818 -0.08850916475057602 0.0 255.0 0.0
-0.27403998374938965 -0.17890197038650513 0.08430696278810501 0.0 255.0 0.0
-0.12627221643924713 -0.253875195980072 0.1329965442419052 0.0 255.0 0.0
0.2734767198562622 0.2317153662443161 0.08470419049263 0.0 255.0 0.0
0.20082788169384003 0.22812457382678986 -0.07608728855848312 0.0 255.0 0.0
0.2959522306919098 0.19538654386997223 -0.0928695797920227 0.0 255.0 0.0
0.18765395879745483 -0.4434194266796112 0.07375380396842957 0.0 255.0 0.0
0.09766269475221634 -0.20782864093780518 0.1566689908504486 0.0 255.0 0.0
0.2971419394016266 -0.04586704447865486 0.003559281351044774 0.0 255.0 0.0
-0.2707524597644806 -0.022312598302960396 0.12450211495161057 0.0 255.0 0.0
0.2987440228462219 0.05671527236700058 0.03290669620037079 0.0 255.0 0.0
0.29985296726226807 0.36421728134155273 5.163843889022246e-05 0.0 255.0 0.0
-0.038556527346372604 -0.006645915098488331 0.17011761665344238 0.0 255.0 0.0
0.29906293749809265 -0.22832529246807098 -0.11295440047979355 0.0 255.0 0.0
0.11257543414831161 -0.17993290722370148 -0.13645446300506592 0.0 255.0 0.0
-0.09736607223749161 -0.25060009956359863 -0.11711291968822479 0.0 255.0 0.0
-0.14228925108909607 -0.10384576767683029 0.17106975615024567 0.0 255.0 0.0
0.2972581684589386 0.028117982670664787 -0.015989618375897408 0.0 255.0 0.0
0.2972581684589386 0.17673209309577942 0.07849125564098358 0.0 255.0 0.0
-0.1354769468307495 -0.25232943892478943 0.040311019867658615 0.0 255.0 0.0
0.1899300366640091 0.10524538159370422 0.16692009568214417 0.0 255.0 0.0
-0.15695926547050476 -0.3221745789051056 0.014008001424372196 0.0 255.0 0.0
-0.20602364838123322 -0.38631507754325867 0.12973275780677795 0.0 255.0 0.0
-0.2707524597644806 -0.16464625298976898 0.050057489424943924 0.0 255.0 0.0
-0.29427438974380493 -0.41444629430770874 0.08524702489376068 0.0 255.0 0.0
0.2891216576099396 0.48020070791244507 0.10218914598226547 0.0 255.0 0.0
-0.1869851052761078 -0.21525615453720093 -0.1324041485786438 0.0 255.0 0.0
0.278970330953598 -0.3422923982143402 0.1045994982123375 0.0 255.0 0.0
0.29530659317970276 -0.15112115442752838 0.0034058087039738894 0.0 255.0 0.0
-0.22948262095451355 0.34126970171928406 0.07929036021232605 0.0 255.0 0.0
0.14569149911403656 0.05545912683010101 -0.13511735200881958 0.0 255.0 0.0
0.2972581684589386 0.10051823407411575 0.00820276327431202 0.0 255.0 0.0
-0.014550328254699707 -0.10150723904371262 0.16940195858478546 0.0 255.0 0.0
0.20158356428146362 -0.44529521465301514 -0.053328610956668854 0.0 255.0 0.0
0.21376213431358337 -0.0010309522040188313 0.16969667375087738 0.0 255.0 0.0
-0.10395776480436325 0.22763091325759888 0.019489457830786705 0.0 255.0 0.0
-0.2707524597644806 -0.2089303880929947 -0.05812918767333031 0.0 255.0 0.0
0.29767560958862305 -0.17406363785266876 0.08165955543518066 0.0 255.0 0.0
0.3026421368122101 0.39325663447380066 0.05618733912706375 0.0 255.0 0.0
-0.28147706389427185 -0.4139692783355713 0.11998332291841507 0.0 255.0 0.0
0.1915205866098404 0.4902293384075165 0.02153627760708332 0.0 255.0 0.0
0.17079928517341614 -0.28913047909736633 -0.027112184092402458 0.0 255.0 0.0
0.2750825583934784 -0.31523752212524414 0.041863664984703064 0.0 255.0 0.0
-0.265514999628067 0.4182618260383606 0.013645836152136326 0.0 255.0 0.0
0.07387754321098328 0.10087863355875015 -0.13506805896759033 0.0 255.0 0.0
-0.2692432403564453 -0.29868149757385254 0.04627196490764618 0.0 255.0 0.0
0.29812636971473694 0.15078586339950562 -0.1126798763871193 0.0 255.0 0.0
0.29328787326812744 0.36657461524009705 -0.04633289575576782 0.0 255.0 0.0
0.039926718920469284 0.22942683100700378 0.12046484649181366 0.0 255.0 0.0
0.032403454184532166 0.07213060557842255 0.16717539727687836 0.0 255.0 0.0
0.260394424200058 -0.04874430596828461 -0.13506805896759033 0.0 255.0 0.0
-0.17405368387699127 -0.3634984791278839 -0.030576836317777634 0.0 255.0 0.0
-0.2700047791004181 -0.07541883736848831 -0.06945255398750305 0.0 255.0 0.0
-0.22935540974140167 0.49699893593788147 -0.008558493107557297 0.0 255.0 0.0
0.11438922584056854 0.005411883350461721 -0.13506805896759033 0.0 255.0 0.0
0.05743853375315666 0.22691263258457184 -0.06185659393668175 0.0 255.0 0.0
-0.26967766880989075 -0.12885701656341553 -0.07500565052032471 0.0 255.0 0.0
-0.09543859958648682 -0.25102975964546204 0.09061028808355331 0.0 255.0 0.0
0.02005802094936371 -0.11722415685653687 0.16940195858478546 0.0 255.0 0.0
-0.1862916797399521 0.22811290621757507 0.12375704944133759 0.0 255.0 0.0
-0.26994723081588745 0.050930771976709366 0.08857601135969162 0.0 255.0 0.0
0.2972581684589386 0.18249662220478058 -0.042935170233249664 0.0 255.0 0.0
-0.14719004929065704 -0.07574597746133804 0.1715771108865738 0.0 255.0 0.0
-0.07837950438261032 0.0650215744972229 -0.13506805896759033 0.0 255.0 0.0
-0.16409523785114288 0.47687533497810364 0.05011724308133125 0.0 255.0 0.0
-0.25226303935050964 -0.10976290702819824 0.1562979370355606 0.0 255.0 0.0
-0.05010252073407173 -0.06084723770618439 0.169314906001091 0.0 255.0 0.0
0.2924266755580902 -0.08486896008253098 0.09255604445934296 0.0 255.0 0.0
0.3004703223705292 -0.20120127499103546 -0.03700663521885872 0.0 255.0 0.0
0.2934715449810028 -0.15705403685569763 -0.11693154275417328 0.0 255.0 0.0
-0.2016495168209076 -0.13744768500328064 0.16795073449611664 0.0 255.0 0.0
-0.032935649156570435 0.22812457382678986 0.10636910796165466 0.0 255.0 0.0
-0.2707524597644806 -0.22794046998023987 -0.09935951232910156 0.0 255.0 0.0
-0.3239017128944397 -0.4053109586238861 0.023304151371121407 0.0 255.0 0.0
-0.021655555814504623 0.1460338979959488 -0.21175915002822876 0.0 255.0 0.0
0.18451757729053497 0.4482870101928711 -0.03200335428118706 0.0 255.0 0.0
0.13339723646640778 0.10899212956428528 0.16940195858478546 0.0 255.0 0.0
-0.2718160152435303 0.13757383823394775 0.040836479514837265 0.0 255.0 0.0
-0.2707524597644806 0.02586650662124157 -0.013363403268158436 0.0 255.0 0.0
-0.050054799765348434 -0.08709772676229477 0.17066313326358795 0.0 255.0 0.0
-0.2707524597644806 0.19637839496135712 -0.06352288275957108 0.0 255.0 0.0
-0.0011589924106374383 -0.15088801085948944 0.16940195858478546 0.0 255.0 0.0
0.17725129425525665 0.45351967215538025 0.011036673560738564 0.0 255.0 0.0
0.19907328486442566 0.11380220949649811 -0.13506805896759033 0.0 255.0 0.0
0.06014697998762131 0.1907556802034378 -0.19153575599193573 0.0 255.0 0.0
-0.300021231174469 -0.4436299800872803 -0.05647002160549164 0.0 255.0 0.0
0.22501026093959808 -0.4472721815109253 0.09633328020572662 0.0 255.0 0.0
0.26242658495903015 -0.2904894948005676 0.06865273416042328 0.0 255.0 0.0
-0.12093460559844971 0.2255052626132965 -0.10196935385465622 0.0 255.0 0.0
-0.2707524597644806 -0.03018900193274021 0.014905297197401524 0.0 255.0 0.0
-0.13974231481552124 -0.2527238726615906 0.12691086530685425 0.0 255.0 0.0
0.1303984373807907 -0.1379106640815735 0.16540387272834778 0.0 255.0 0.0
0.05208909884095192 -0.059239935129880905 -0.13514214754104614 0.0 255.0 0.0
0.255023717880249 -0.2068343460559845 -0.13506805896759033 0.0 255.0 0.0
0.17806825041770935 -0.33954083919525146 0.10506907105445862 0.0 255.0 0.0
-0.270274817943573 0.09973890334367752 0.06397685408592224 0.0 255.0 0.0
-0.07295770943164825 0.2262161523103714 -0.00910680741071701 0.0 255.0 0.0
-0.2707524597644806 -0.1258394718170166 0.07709283381700516 0.0 255.0 0.0
0.2988251745700836 0.07979520410299301 0.0664609968662262 0.0 255.0 0.0
0.2975323498249054 -0.05119254067540169 0.05409475415945053 0.0 255.0 0.0
-0.18745113909244537 0.4929257333278656 -0.013590984977781773 0.0 255.0 0.0
-0.26807960867881775 0.36716189980506897 0.051178738474845886 0.0 255.0 0.0
-0.11847527325153351 -0.010319225490093231 -0.13836248219013214 0.0 255.0 0.0
-0.2683078646659851 0.20854532718658447 -0.11746939271688461 0.0 255.0 0.0
-0.2251545637845993 -0.46990543603897095 -0.012739278376102448 0.0 255.0 0.0
-0.11446982622146606 -0.22453463077545166 -0.13648149371147156 0.0 255.0 0.0
-0.23592281341552734 -0.33792582154273987 0.13034594058990479 0.0 255.0 0.0
0.027569295838475227 0.09229960292577744 0.16940195858478546 0.0 255.0 0.0
0.0052176848985254765 -0.2502608895301819 -0.03260137513279915 0.0 255.0 0.0
0.2982112169265747 -0.026428647339344025 -0.027630474418401718 0.0 255.0 0.0
-0.17015939950942993 -0.33739379048347473 0.0522749125957489 0.0 255.0 0.0
0.17812277376651764 0.4336819350719452 0.09515852481126785 0.0 255.0 0.0
-0.026458607986569405 -0.12031475454568863 -0.13430850207805634 0.0 255.0 0.0
0.13696587085723877 -0.2515168786048889 -0.0268679428845644 0.0 255.0 0.0
-0.12118414789438248 -0.2503132224082947 -0.021312234923243523 0.0 255.0 0.0
-0.24271389842033386 0.10761497914791107 -0.1348053216934204 0.0 255.0 0.0
0.2972581684589386 -0.08661068230867386 0.022024380043148994 0.0 255.0 0.0
-0.2707524597644806 0.15520110726356506 -0.027653150260448456 0.0 255.0 0.0
-0.2647753655910492 0.39071986079216003 0.026086339727044106 0.0 255.0 0.0
0.21529196202754974 -0.4490995407104492 0.12163899093866348 0.0 255.0 0.0
-0.2120135873556137 -0.39376839995384216 -0.07452001422643661 0.0 255.0 0.0
0.22576074302196503 0.016164502128958702 -0.13634392619132996 0.0 255.0 0.0
-0.27232515811920166 0.202677920460701 0.08684290945529938 0.0 255.0 0.0
-0.2853657603263855 -0.31763267517089844 0.022287562489509583 0.0 255.0 0.0
-0.27083703875541687 -0.23223522305488586 -0.011060147546231747 0.0 255.0 0.0
0.23378241062164307 0.03460181504487991 -0.13506805896759033 0.0 255.0 0.0
-0.009423741139471531 -0.25075972080230713 0.017296673730015755 0.0 255.0 0.0
-0.1290685534477234 0.22812457382678986 0.08846290409564972 0.0 255.0 0.0
0.23751531541347504 -0.16608963906764984 -0.13506805896759033 0.0 255.0 0.0
-0.16792595386505127 0.4756951332092285 0.03931941092014313 0.0 255.0 0.0
0.1729603111743927 -0.18836122751235962 -0.1332164704799652 0.0 255.0 0.0
0.10665635019540787 0.2289402186870575 0.07926108688116074 0.0 255.0 0.0
0.13740864396095276 -0.3800255358219147 0.04185355454683304 0.0 255.0 0.0
-0.27060604095458984 -0.14374110102653503 -0.04390190541744232 0.0 255.0 0.0
0.2743096351623535 0.053117889910936356 -0.13506805896759033 0.0 255.0 0.0
0.018941907212138176 -0.03184894472360611 0.16897980868816376 0.0 255.0 0.0
-0.08365029096603394 -0.045788463205099106 -0.13564002513885498 0.0 255.0 0.0
-0.27016448974609375 -0.23074457049369812 0.020190587267279625 0.0 255.0 0.0
0.26368895173072815 -0.29237091541290283 0.0661144107580185 0.0 255.0 0.0
0.11818044632673264 -0.11755728721618652 -0.13506805896759033 0.0 255.0 0.0
0.13541248440742493 -0.18589919805526733 -0.13606247305870056 0.0 255.0 0.0
0.1741383671760559 0.22802351415157318 -0.009047088213264942 0.0 255.0 0.0
0.04638819769024849 -0.2513884902000427 0.12159775197505951 0.0 255.0 0.0
0.17143847048282623 -0.3474313020706177 0.10862420499324799 0.0 255.0 0.0
-0.29558196663856506 0.033749405294656754 -0.29107949137687683 0.0 255.0 0.0
0.010115277953445911 0.25396493077278137 -0.2020212858915329 0.0 255.0 0.0
-0.1403598189353943 -0.04831884801387787 -0.13510264456272125 0.0 255.0 0.0
0.15420907735824585 -0.03551100566983223 -0.13506805896759033 0.0 255.0 0.0
0.17383290827274323 0.39816251397132874 0.063033327460289 0.0 255.0 0.0
-0.13417260348796844 0.22782929241657257 0.09194685518741608 0.0 255.0 0.0
0.06664728373289108 0.22809121012687683 0.13083505630493164 0.0 255.0 0.0
0.12210289388895035 -0.06114313378930092 0.175237238407135 0.0 255.0 0.0
-0.08379941433668137 -0.15849775075912476 -0.13506805896759033 0.0 255.0 0.0
-0.19139453768730164 0.19163499772548676 -0.13475443422794342 0.0 255.0 0.0
-0.218076691031456 0.2044399082660675 -0.1326219141483307 0.0 255.0 0.0
0.11575379222631454 0.2297147959470749 0.09383075684309006 0.0 255.0 0.0
-0.07499006390571594 0.2297939509153366 -0.06298709660768509 0.0 255.0 0.0
-0.21777492761611938 -0.055535223335027695 -0.13577841222286224 0.0 255.0 0.0
0.13557931780815125 0.058810703456401825 -0.13370753824710846 0.0 255.0 0.0
-0.1751868724822998 -0.2503177225589752 -0.08549252152442932 0.0 255.0 0.0
0.27199500799179077 0.22781677544116974 -0.10257792472839355 0.0 255.0 0.0
-0.12969931960105896 0.08401218056678772 0.16940195858478546 0.0 255.0 0.0
0.20814235508441925 -0.37005963921546936 -0.08314699679613113 0.0 255.0 0.0
0.2662474811077118 0.492830753326416 -0.03779691830277443 0.0 255.0 0.0
-0.2693910598754883 0.18554389476776123 0.024724392220377922 0.0 255.0 0.0
-0.11923358589410782 -0.13101181387901306 0.16735167801380157 0.0 255.0 0.0
0.1880195438861847 0.4887174665927887 0.04444368928670883 0.0 255.0 0.0
0.2946736812591553 0.1823233664035797 -0.0013934491435065866 0.0 255.0 0.0
0.2972581684589386 -0.030889706686139107 0.047394171357154846 0.0 255.0 0.0
-0.20611487329006195 -0.2506055235862732 0.0981224998831749 0.0 255.0 0.0
0.29837873578071594 -0.21323475241661072 0.005462758708745241 0.0 255.0 0.0
-0.0893029123544693 0.22812457382678986 0.0011731358245015144 0.0 255.0 0.0
-0.26824644207954407 -0.07307306677103043 -0.07866057753562927 0.0 255.0 0.0
0.1712844967842102 0.43674787878990173 0.02788214012980461 0.0 255.0 0.0
0.14421503245830536 -0.2511064112186432 0.13039574027061462 0.0 255.0 0.0
0.25688114762306213 -0.4451189637184143 -0.01491047814488411 0.0 255.0 0.0
-0.2719968259334564 0.038333166390657425 -0.04238839074969292 0.0 255.0 0.0
-0.10007090866565704 -0.249533012509346 0.008803287521004677 0.0 255.0 0.0
0.2605924606323242 -0.2541242241859436 -0.08596818149089813 0.0 255.0 0.0
-0.0464189238846302 -0.19406984746456146 -0.1357734501361847 0.0 255.0 0.0
0.2956477999687195 0.001762145315296948 0.04525822028517723 0.0 255.0 0.0
-0.18379530310630798 0.1944751739501953 0.16057701408863068 0.0 255.0 0.0
-0.2707524597644806 -0.17179670929908752 -0.05148773640394211 0.0 255.0 0.0
0.2951330542564392 -0.1324676275253296 -0.016092313453555107 0.0 255.0 0.0
0.27690017223358154 -0.3649287521839142 0.13582423329353333 0.0 255.0 0.0
0.1525704711675644 0.02637479454278946 -0.13636694848537445 0.0 255.0 0.0
0.0022910679690539837 -0.09875454008579254 0.1657859832048416 0.0 255.0 0.0
-0.24301151931285858 0.4355113208293915 -0.06364522874355316 0.0 255.0 0.0
0.2970148026943207 0.07650438696146011 0.005339552648365498 0.0 255.0 0.0
0.07783496379852295 -0.24966071546077728 -0.09915254265069962 0.0 255.0 0.0
-0.15847095847129822 -0.30115586519241333 -0.018604053184390068 0.0 255.0 0.0
0.29875266551971436 0.0782308578491211 0.011999767273664474 0.0 255.0 0.0
0.2679966986179352 0.0030546935740858316 -0.13514357805252075 0.0 255.0 0.0
-0.21803531050682068 0.0731898620724678 -0.13506805896759033 0.0 255.0 0.0
-0.1529347449541092 0.39659255743026733 0.03874337300658226 0.0 255.0 0.0
0.03003712370991707 0.2225317806005478 -0.1722196489572525 0.0 255.0 0.0
-0.15995654463768005 0.22663307189941406 -0.09910129755735397 0.0 255.0 0.0
-0.26737743616104126 0.1525518298149109 0.1296972781419754 0.0 255.0 0.0
0.2090611755847931 0.49337247014045715 -0.03540309891104698 0.0 255.0 0.0
0.28042012453079224 0.49224525690078735 0.01199513953179121 0.0 255.0 0.0
0.13757994771003723 -0.4130019247531891 0.1128777340054512 0.0 255.0 0.0
-0.2596396803855896 -0.3159424066543579 -0.05998437479138374 0.0 255.0 0.0
-0.3105010688304901 -0.38587504625320435 -0.06228034943342209 0.0 255.0 0.0
0.12324606627225876 -0.2489602267742157 0.02308993972837925 0.0 255.0 0.0
0.1772424578666687 0.40724989771842957 -0.01570902019739151 0.0 255.0 0.0
0.1731676608324051 -0.1658356934785843 -0.13459862768650055 0.0 255.0 0.0
0.1891246736049652 0.333125501871109 0.009020235389471054 0.0 255.0 0.0
-0.10047055780887604 0.20533165335655212 -0.1381610631942749 0.0 255.0 0.0
-0.2733793258666992 -0.0039565348997712135 -0.04626194015145302 0.0 255.0 0.0
0.27668505907058716 -0.012753480114042759 -0.13506805896759033 0.0 255.0 0.0
-0.1658724695444107 0.36944782733917236 -0.037247639149427414 0.0 255.0 0.0
-0.2721070945262909 -0.1239955723285675 -0.04238204285502434 0.0 255.0 0.0
0.13943184912204742 0.2064996361732483 0.1550799012184143 0.0 255.0 0.0
0.28694841265678406 0.45997855067253113 -0.041954103857278824 0.0 255.0 0.0
-0.20634537935256958 -0.3409866690635681 0.09558552503585815 0.0 255.0 0.0
0.2972581684589386 0.10585533827543259 0.07276101410388947 0.0 255.0 0.0
-0.16702890396118164 0.3530966639518738 -0.033070337027311325 0.0 255.0 0.0
-0.1867891103029251 -0.37436047196388245 0.08397228270769119 0.0 255.0 0.0
0.19624021649360657 0.3201364278793335 0.012040038593113422 0.0 255.0 0.0
0.12351750582456589 0.2268294095993042 -0.023277845233678818 0.0 255.0 0.0
0.25791797041893005 -0.13410592079162598 -0.13683058321475983 0.0 255.0 0.0
0.2892245054244995 -0.3782038390636444 0.05955717712640762 0.0 255.0 0.0
-0.27106109261512756 -0.1569877713918686 0.0259671900421381 0.0 255.0 0.0
-0.03252801299095154 -0.1634691059589386 0.170120507478714 0.0 255.0 0.0
0.03802863880991936 0.02918190322816372 0.16966234147548676 0.0 255.0 0.0
0.024217156693339348 0.17386551201343536 -0.2224331498146057 0.0 255.0 0.0
0.2045840471982956 0.02498691901564598 -0.13506805896759033 0.0 255.0 0.0
0.07215632498264313 -0.25279664993286133 0.13306967914104462 0.0 255.0 0.0
-0.11974822729825974 0.061856385320425034 0.16998286545276642 0.0 255.0 0.0
0.1793598234653473 0.023091623559594154 -0.1388227939605713 0.0 255.0 0.0
0.2501818835735321 0.04675794392824173 -0.13506805896759033 0.0 255.0 0.0
-0.2707477807998657 -0.01445374358445406 -0.11553677171468735 0.0 255.0 0.0
-0.12348847091197968 0.22998476028442383 0.05116220936179161 0.0 255.0 0.0
0.07171127945184708 0.22812457382678986 0.10077617317438126 0.0 255.0 0.0
-0.0834604948759079 0.10144990682601929 -0.13195933401584625 0.0 255.0 0.0
0.3035094141960144 0.3891950845718384 0.0023129177279770374 0.0 255.0 0.0
-0.1763104498386383 0.46447086334228516 -0.03533162921667099 0.0 255.0 0.0
-0.2707524597644806 0.00594070041552186 0.09637635201215744 0.0 255.0 0.0
-0.1815527379512787 -0.39773422479629517 -0.010958301834762096 0.0 255.0 0.0
0.13208946585655212 -0.2522142231464386 -0.01029184553772211 0.0 255.0 0.0
-0.27559420466423035 -0.3447261154651642 -0.07669015973806381 0.0 255.0 0.0
-0.2707524597644806 -0.1449718326330185 0.08985288441181183 0.0 255.0 0.0
-0.04247622936964035 -0.2477264106273651 0.008949223905801773 0.0 255.0 0.0
0.18379180133342743 0.23156321048736572 -0.05469832569360733 0.0 255.0 0.0
-0.27285391092300415 0.07485967874526978 -0.08168773353099823 0.0 255.0 0.0
-0.1102103441953659 -0.2534474730491638 -0.010018202476203442 0.0 255.0 0.0
0.27819767594337463 0.4915367662906647 0.0856199786067009 0.0 255.0 0.0
-0.019796498119831085 0.22810246050357819 0.12769244611263275 0.0 255.0 0.0
0.2837039530277252 0.489162802696228 0.015471205115318298 0.0 255.0 0.0
-0.2714414894580841 -0.06373380869626999 -0.043733783066272736 0.0 255.0 0.0
0.17526628077030182 -0.44630905985832214 0.16908438503742218 0.0 255.0 0.0
0.2972581684589386 0.17481248080730438 0.11274923384189606 0.0 255.0 0.0
0.2938186824321747 0.09723163396120071 -0.01916618086397648 0.0 255.0 0.0
0.07963679730892181 0.08169937878847122 -0.13506805896759033 0.0 255.0 0.0
-0.2767406702041626 -0.3347192108631134 -0.06295915693044662 0.0 255.0 0.0
0.17772996425628662 -0.3846912086009979 0.165453240275383 0.0 255.0 0.0
0.058344580233097076 0.1187065839767456 0.16940195858478546 0.0 255.0 0.0
-0.2127830535173416 0.3468334674835205 0.0841701477766037 0.0 255.0 0.0
0.05219375714659691 0.22812457382678986 0.07338491827249527 0.0 255.0 0.0
0.29905542731285095 -0.1712595373392105 0.04490220546722412 0.0 255.0 0.0
0.20590902864933014 0.3398968577384949 0.07398613542318344 0.0 255.0 0.0
0.2963657081127167 -0.09589990973472595 0.029184577986598015 0.0 255.0 0.0
-0.15455631911754608 0.4350476562976837 0.05555430054664612 0.0 255.0 0.0
0.2390921711921692 -0.20693005621433258 -0.13631558418273926 0.0 255.0 0.0
-0.2771495580673218 -0.46047207713127136 -0.03597516566514969 0.0 255.0 0.0
0.003472460201010108 -0.13080887496471405 0.16940195858478546 0.0 255.0 0.0
0.06420153379440308 -0.09104950726032257 -0.13246026635169983 0.0 255.0 0.0
-0.055410049855709076 0.22506415843963623 -0.0945587009191513 0.0 255.0 0.0
-0.19233284890651703 -0.42839449644088745 0.08207917958498001 0.0 255.0 0.0
-0.2700020372867584 -0.009471471421420574 0.09132392704486847 0.0 255.0 0.0
0.2639848589897156 0.077399842441082 -0.13506805896759033 0.0 255.0 0.0
0.29674190282821655 0.37295830249786377 -0.01419354509562254 0.0 255.0 0.0
-0.2681092321872711 0.20083066821098328 0.10405140370130539 0.0 255.0 0.0
0.21640433371067047 0.5092104077339172 -0.009884734638035297 0.0 255.0 0.0
-0.20426145195960999 -0.4361051619052887 0.11097430437803268 0.0 255.0 0.0
-0.29020461440086365 -0.039800237864255905 -0.2677919268608093 0.0 255.0 0.0
-0.1661718189716339 -0.3591475784778595 0.025032319128513336 0.0 255.0 0.0
0.010459475219249725 -0.249252051115036 0.12846152484416962 0.0 255.0 0.0
-0.11007672548294067 0.2101210355758667 -0.13459666073322296 0.0 255.0 0.0
-0.08994116634130478 0.19081108272075653 0.15612022578716278 0.0 255.0 0.0
-0.2707524597644806 0.023254642263054848 -0.04424377903342247 0.0 255.0 0.0
-0.19007273018360138 -0.24623674154281616 -0.08551489561796188 0.0 255.0 0.0
-0.2500030994415283 -0.4315657317638397 -0.0800275132060051 0.0 255.0 0.0
0.29476287961006165 0.0482022799551487 -0.002396221971139312 0.0 255.0 0.0
-0.2942895293235779 0.0056162248365581036 -0.26595377922058105 0.0 255.0 0.0
-0.15667185187339783 0.39926573634147644 0.0033493179362267256 0.0 255.0 0.0
-0.21646888554096222 -0.18469969928264618 -0.13623498380184174 0.0 255.0 0.0
-0.2904894948005676 -0.4172171354293823 0.07966183871030807 0.0 255.0 0.0
0.1800655871629715 0.357413649559021 -0.017833413556218147 0.0 255.0 0.0
0.15964560210704803 0.10804294049739838 -0.13151955604553223 0.0 255.0 0.0
-0.062435686588287354 0.20610637962818146 0.1552244871854782 0.0 255.0 0.0
0.1824941635131836 -0.13362698256969452 -0.13498051464557648 0.0 255.0 0.0
-0.2361169457435608 0.22540907561779022 -0.09752289205789566 0.0 255.0 0.0
0.0641568973660469 0.03186207264661789 -0.13506805896759033 0.0 255.0 0.0
0.12392030656337738 0.23050843179225922 -0.08315227180719376 0.0 255.0 0.0
-0.24618451297283173 0.01857779547572136 -0.279765784740448 0.0 255.0 0.0
0.29330015182495117 0.19418351352214813 -0.012088790535926819 0.0 255.0 0.0
0.005113600287586451 0.07105210423469543 0.1702972948551178 0.0 255.0 0.0
0.26120883226394653 0.5106925368309021 0.0012712351744994521 0.0 255.0 0.0
-0.13819792866706848 -0.03506069257855415 0.16940195858478546 0.0 255.0 0.0
-0.07813508063554764 0.1312827616930008 -0.13506805896759033 0.0 255.0 0.0
-0.2705027163028717 0.05717569962143898 -0.005171877332031727 0.0 255.0 0.0
0.09316856414079666 0.00022462524066213518 -0.13506805896759033 0.0 255.0 0.0
0.16958729922771454 -0.32192426919937134 -0.04314015433192253 0.0 255.0 0.0
0.010217015631496906 0.22779972851276398 0.028786154463887215 0.0 255.0 0.0
0.007415954954922199 0.22812457382678986 -0.06613612174987793 0.0 255.0 0.0
-0.11652043461799622 -0.17625802755355835 -0.13506805896759033 0.0 255.0 0.0
0.2972581684589386 0.1280658096075058 -0.060721151530742645 0.0 255.0 0.0
0.1065446063876152 0.22837886214256287 0.07436884194612503 0.0 255.0 0.0
0.1366151124238968 -0.0867064893245697 0.16904163360595703 0.0 255.0 0.0
-0.12436631321907043 -0.2530101537704468 0.017566073685884476 0.0 255.0 0.0
-0.017440540716052055 0.23038119077682495 0.03090064227581024 0.0 255.0 0.0
0.2820618748664856 -0.062210436910390854 -0.13721293210983276 0.0 255.0 0.0
-0.12966468930244446 0.007329393643885851 -0.13506805896759033 0.0 255.0 0.0
-0.19216586649417877 -0.350284218788147 -0.05844444781541824 0.0 255.0 0.0
0.07795712351799011 -0.25281333923339844 0.03960030525922775 0.0 255.0 0.0
-0.2707524597644806 0.17663273215293884 -0.056491050869226456 0.0 255.0 0.0
0.05116145312786102 -0.09564714133739471 -0.1356031447649002 0.0 255.0 0.0
-0.23444649577140808 -0.24930435419082642 -0.11833873391151428 0.0 255.0 0.0
-0.10933710634708405 0.1576906442642212 -0.13506805896759033 0.0 255.0 0.0
0.2972581684589386 -0.025871863588690758 0.11290629208087921 0.0 255.0 0.0
0.1931944489479065 0.12175486981868744 0.16940195858478546 0.0 255.0 0.0
-0.14289037883281708 0.2297394573688507 -0.11160554736852646 0.0 255.0 0.0
0.2391357123851776 -0.44654276967048645 0.14636863768100739 0.0 255.0 0.0
-0.03229697421193123 0.00888198334723711 -0.13385170698165894 0.0 255.0 0.0
-0.0446113646030426 0.22812457382678986 -0.01915273256599903 0.0 255.0 0.0
0.2552589178085327 0.45730283856391907 0.10658710449934006 0.0 255.0 0.0
-0.2707524597644806 -0.055908236652612686 -0.07000230252742767 0.0 255.0 0.0
-0.2242923527956009 0.4426938593387604 0.09057866036891937 0.0 255.0 0.0
-0.3165834844112396 -0.40519043803215027 0.049598220735788345 0.0 255.0 0.0
0.2989971935749054 0.1384325474500656 -0.04801388084888458 0.0 255.0 0.0
0.1418367326259613 -0.3677540719509125 0.053763147443532944 0.0 255.0 0.0
0.017924422398209572 0.1867334097623825 0.15614040195941925 0.0 255.0 0.0
0.2534886300563812 0.22391685843467712 -0.08810088038444519 0.0 255.0 0.0
0.11252091079950333 -0.2507179081439972 -0.08247585594654083 0.0 255.0 0.0
-0.24843919277191162 -0.10403658449649811 0.1582990437746048 0.0 255.0 0.0
-0.03714964911341667 -0.10183818638324738 -0.1367955207824707 0.0 255.0 0.0
0.10260936617851257 0.22812457382678986 0.09739664196968079 0.0 255.0 0.0
0.25150245428085327 -0.3941122889518738 0.19007691740989685 0.0 255.0 0.0
-0.025273600593209267 0.09730250388383865 0.16940195858478546 0.0 255.0 0.0
0.03842244669795036 -0.016672572121024132 0.1707218885421753 0.0 255.0 0.0
-0.24104835093021393 -0.04565475136041641 0.15610171854496002 0.0 255.0 0.0
0.129182368516922 0.017610644921660423 0.1701050102710724 0.0 255.0 0.0
-0.2707524597644806 -0.14456994831562042 0.087478868663311 0.0 255.0 0.0
-0.2707524597644806 -0.07371428608894348 -0.0630800798535347 0.0 255.0 0.0
-0.2712339758872986 0.014406985603272915 -0.051014285534620285 0.0 255.0 0.0
0.2083842009305954 -0.014913172461092472 -0.13607081770896912 0.0 255.0 0.0
0.1224486455321312 -0.018288861960172653 -0.13506805896759033 0.0 255.0 0.0
0.0017193980747833848 -0.25066637992858887 -0.08808954805135727 0.0 255.0 0.0
0.1135253757238388 0.22919130325317383 0.10989434272050858 0.0 255.0 0.0
-0.1159309521317482 0.09045550227165222 -0.13309641182422638 0.0 255.0 0.0
0.08653745800256729 -0.09420748054981232 0.16940195858478546 0.0 255.0 0.0
-0.19650936126708984 0.031031504273414612 -0.1335182785987854 0.0 255.0 0.0
0.05815601348876953 0.08342230319976807 0.16996926069259644 0.0 255.0 0.0
-0.15721745789051056 0.4493041932582855 0.06312358379364014 0.0 255.0 0.0
-0.2707524597644806 -0.12415026873350143 0.014915242791175842 0.0 255.0 0.0
0.0644463449716568 0.22812457382678986 -0.08831959962844849 0.0 255.0 0.0
-0.0009882375597953796 0.22271333634853363 0.08020003885030746 0.0 255.0 0.0
-0.13955071568489075 -0.25226154923439026 -0.02945101074874401 0.0 255.0 0.0
-0.12960222363471985 -0.12574784457683563 0.17208072543144226 0.0 255.0 0.0
0.23843728005886078 -0.34596940875053406 0.13924628496170044 0.0 255.0 0.0
-0.25972896814346313 0.46766695380210876 0.0324828140437603 0.0 255.0 0.0
-0.16833052039146423 0.22599878907203674 0.04659507796168327 0.0 255.0 0.0
0.21255607903003693 -0.445600688457489 -0.05030059069395065 0.0 255.0 0.0
-0.19014470279216766 -0.41175562143325806 -0.026281392201781273 0.0 255.0 0.0
-0.2515743672847748 0.05770217999815941 0.15629366040229797 0.0 255.0 0.0
-0.09280470758676529 0.04222656786441803 0.16940195858478546 0.0 255.0 0.0
0.22192391753196716 -0.25050458312034607 0.12644053995609283 0.0 255.0 0.0
0.13260599970817566 -0.25095823407173157 0.01630798541009426 0.0 255.0 0.0
-0.17546629905700684 -0.34066933393478394 -0.04495846852660179 0.0 255.0 0.0
0.025592520833015442 0.2245846390724182 -0.1092614009976387 0.0 255.0 0.0
0.11659806966781616 0.22746072709560394 -0.013249277137219906 0.0 255.0 0.0
-0.24948784708976746 0.407295823097229 -0.06208595260977745 0.0 255.0 0.0
-0.271867573261261 -0.2341100424528122 0.11334294080734253 0.0 255.0 0.0
-0.1823442429304123 0.38307633996009827 -0.06620828807353973 0.0 255.0 0.0
-0.05396832525730133 0.12805834412574768 -0.13646982610225677 0.0 255.0 0.0
0.07270149141550064 -0.25072020292282104 0.07109178602695465 0.0 255.0 0.0
-0.2699423134326935 0.16093719005584717 -0.10357534885406494 0.0 255.0 0.0
0.2970530092716217 -0.14697265625 -0.058104146271944046 0.0 255.0 0.0
0.21563787758350372 0.5125104188919067 0.012455043382942677 0.0 255.0 0.0
-0.2706722021102905 -0.09048681706190109 -0.07299268245697021 0.0 255.0 0.0
-0.05891745537519455 -0.148559108376503 0.1697995513677597 0.0 255.0 0.0
-0.17328791320323944 0.4305279552936554 -0.0550413616001606 0.0 255.0 0.0
0.27153781056404114 0.5086609721183777 0.07840721309185028 0.0 255.0 0.0
0.2493089884519577 -0.44633007049560547 0.15047746896743774 0.0 255.0 0.0
0.18586376309394836 0.46246954798698425 -0.034014757722616196 0.0 255.0 0.0
-0.24260714650154114 0.491959810256958 0.0736033245921135 0.0 255.0 0.0
0.011066051200032234 0.041013654321432114 0.16958126425743103 0.0 255.0 0.0
-0.10784655064344406 -0.25088921189308167 0.043683119118213654 0.0 255.0 0.0
-0.15290312469005585 0.4241228997707367 0.02920246683061123 0.0 255.0 0.0
-0.26580899953842163 -0.3489064574241638 0.18639212846755981 0.0 255.0 0.0
0.2537882626056671 0.4255813956260681 0.10154619067907333 0.0 255.0 0.0
0.027949059382081032 -0.2507137954235077 0.08049149066209793 0.0 255.0 0.0
0.04593987390398979 0.23097072541713715 0.12293901294469833 0.0 255.0 0.0
0.29581785202026367 0.15925058722496033 -0.013704783283174038 0.0 255.0 0.0
0.2746122181415558 -0.24982473254203796 0.043907247483730316 0.0 255.0 0.0
0.29788145422935486 -0.12559032440185547 0.11023538559675217 0.0 255.0 0.0
0.23391388356685638 0.15805566310882568 -0.13506805896759033 0.0 255.0 0.0
-0.3189367651939392 -0.3289514183998108 0.13605313003063202 0.0 255.0 0.0
-0.07158592343330383 -0.09008404612541199 -0.13506805896759033 0.0 255.0 0.0
-0.09942153841257095 0.04934176430106163 0.1699422299861908 0.0 255.0 0.0
-0.27173420786857605 0.10999491810798645 -0.040594931691884995 0.0 255.0 0.0
0.052727069705724716 0.22964641451835632 -0.11088229715824127 0.0 255.0 0.0
0.20632724463939667 -0.25000518560409546 0.13497796654701233 0.0 255.0 0.0
-0.2523335814476013 -0.27732720971107483 0.01422968227416277 0.0 255.0 0.0
-0.04090706259012222 -0.10746169090270996 -0.133469820022583 0.0 255.0 0.0
-0.26858144998550415 -0.16693225502967834 -0.0493214949965477 0.0 255.0 0.0
-0.10432737320661545 0.1103348582983017 -0.13854387402534485 0.0 255.0 0.0
-0.23774194717407227 -0.39528822898864746 -0.08347435295581818 0.0 255.0 0.0
0.1957898736000061 -0.2762942910194397 -0.049190454185009 0.0 255.0 0.0
-0.1666240394115448 0.007096640300005674 0.16940195858478546 0.0 255.0 0.0
0.20035713911056519 0.22816117107868195 0.07055824249982834 0.0 255.0 0.0
-0.32577821612358093 -0.3319539427757263 0.1484680324792862 0.0 255.0 0.0
0.14757484197616577 -0.3467750549316406 -0.005444648675620556 0.0 255.0 0.0
0.16423587501049042 -0.38559234142303467 -0.05044550821185112 0.0 255.0 0.0
-0.23178160190582275 0.4949291944503784 -0.01760312356054783 0.0 255.0 0.0
-0.2707524597644806 -0.22960418462753296 0.05990218371152878 0.0 255.0 0.0
-0.2515423595905304 -0.4224473536014557 0.1749761402606964 0.0 255.0 0.0
-0.17739859223365784 -0.1733313500881195 -0.13657796382904053 0.0 255.0 0.0
0.13577762246131897 -0.25170788168907166 0.06665807962417603 0.0 255.0 0.0
-0.2707524597644806 0.0109871132299304 -0.02387627400457859 0.0 255.0 0.0
0.2957327365875244 -0.038530152291059494 0.03508343920111656 0.0 255.0 0.0
-0.28981146216392517 -0.3383537828922272 -0.04060783609747887 0.0 255.0 0.0
-0.2123080939054489 -0.014546557329595089 -0.1351625621318817 0.0 255.0 0.0
0.22967088222503662 -0.322122186422348 0.11649532616138458 0.0 255.0 0.0
0.01035311259329319 0.06070444732904434 -0.13506805896759033 0.0 255.0 0.0
0.29798945784568787 0.017058253288269043 -0.031859591603279114 0.0 255.0 0.0
0.30033794045448303 0.4392717480659485 0.04107077047228813 0.0 255.0 0.0
-0.1694464087486267 0.22863860428333282 0.08451175689697266 0.0 255.0 0.0
0.05897250771522522 0.23069645464420319 -0.03916691243648529 0.0 255.0 0.0
0.13914605975151062 -0.4191528260707855 0.016095401719212532 0.0 255.0 0.0
0.1774865686893463 0.4499194324016571 0.07521015405654907 0.0 255.0 0.0
-0.19268305599689484 -0.4196072518825531 0.07314500957727432 0.0 255.0 0.0
0.3009410798549652 0.38292139768600464 0.014669681899249554 0.0 255.0 0.0
-0.0033897494431585073 -0.06961096078157425 0.16758720576763153 0.0 255.0 0.0
0.19011104106903076 -0.4460092782974243 0.011056363582611084 0.0 255.0 0.0
-0.10005895048379898 -0.2475343495607376 0.003917524591088295 0.0 255.0 0.0
-0.20392796397209167 -0.3660390079021454 -0.06995701044797897 0.0 255.0 0.0
0.05383489653468132 0.0013938788324594498 0.16823101043701172 0.0 255.0 0.0
-0.17167292535305023 0.12807483971118927 0.17278465628623962 0.0 255.0 0.0
-0.07698479294776917 0.07237157225608826 0.16940195858478546 0.0 255.0 0.0
-0.07548625022172928 -0.04817107692360878 -0.13581299781799316 0.0 255.0 0.0
0.1841338872909546 -0.30212506651878357 0.07883743196725845 0.0 255.0 0.0
0.2972581684589386 0.05014025419950485 -0.009032726287841797 0.0 255.0 0.0
-0.03520679473876953 -0.2022484540939331 -0.13506805896759033 0.0 255.0 0.0
0.008953627198934555 0.22492840886116028 0.09474179148674011 0.0 255.0 0.0
0.2972581684589386 -0.03248031809926033 -0.058294765651226044 0.0 255.0 0.0
0.29975882172584534 -0.20518408715724945 -0.1164964959025383 0.0 255.0 0.0
-0.2707524597644806 -0.12355728447437286 -0.07481838762760162 0.0 255.0 0.0
-0.018243107944726944 -0.24980983138084412 0.14110666513442993 0.0 255.0 0.0
-0.2707524597644806 -0.00866943784058094 -0.012027732096612453 0.0 255.0 0.0
0.2944899797439575 0.05103514716029167 0.0416116863489151 0.0 255.0 0.0
0.27683746814727783 0.5007995367050171 0.05347390100359917 0.0 255.0 0.0
-0.2526840567588806 -0.14322419464588165 -0.13298393785953522 0.0 255.0 0.0
-0.26786625385284424 0.42478856444358826 0.08571122586727142 0.0 255.0 0.0
-0.11254505813121796 -0.02292955294251442 0.16630543768405914 0.0 255.0 0.0
-0.1653396040201187 -0.359016090631485 0.007696880027651787 0.0 255.0 0.0
-0.20703569054603577 -0.41816845536231995 -0.05837007239460945 0.0 255.0 0.0
-0.17576377093791962 -0.3571373522281647 0.053533799946308136 0.0 255.0 0.0
-0.1758507341146469 0.22458824515342712 -0.08794254809617996 0.0 255.0 0.0
0.29574742913246155 -0.03406718745827675 0.1322340965270996 0.0 255.0 0.0
0.27106937766075134 -0.062177881598472595 0.15725606679916382 0.0 255.0 0.0
-0.2770954668521881 -0.44126227498054504 0.0381045900285244 0.0 255.0 0.0
-0.1538698822259903 0.39243564009666443 0.0030755149200558662 0.0 255.0 0.0
-0.3094145357608795 -0.4039846956729889 0.0723579153418541 0.0 255.0 0.0
-0.22559349238872528 -0.4664422273635864 -0.021313408389687538 0.0 255.0 0.0
-0.14730685949325562 -0.08031857013702393 -0.13506805896759033 0.0 255.0 0.0
0.0495968833565712 -0.00801173597574234 0.17154629528522491 0.0 255.0 0.0
0.2924736738204956 0.11318389326334 -0.023490754887461662 0.0 255.0 0.0
-0.2707524597644806 0.13451440632343292 0.06384915858507156 0.0 255.0 0.0
-0.26780059933662415 0.4062006175518036 0.0018755061319097877 0.0 255.0 0.0
-0.036602385342121124 -0.2534899413585663 0.028727997094392776 0.0 255.0 0.0
-0.25725406408309937 -0.2920375466346741 0.05097116157412529 0.0 255.0 0.0
0.2906759977340698 -0.4140290319919586 0.09848162531852722 0.0 255.0 0.0
0.21023191511631012 0.4951285123825073 -0.03425617888569832 0.0 255.0 0.0
0.21372970938682556 0.22812457382678986 -0.0024707468692213297 0.0 255.0 0.0
0.2968297004699707 -0.024083638563752174 -0.01699018105864525 0.0 255.0 0.0
-0.041621774435043335 -0.05476338788866997 0.16621631383895874 0.0 255.0 0.0
0.2037971019744873 0.04659997671842575 -0.13506805896759033 0.0 255.0 0.0
0.27415546774864197 0.22527439892292023 -0.11557359993457794 0.0 255.0 0.0
-0.2944677770137787 -0.42285284399986267 0.05194992572069168 0.0 255.0 0.0
-0.1860084980726242 -0.3567900061607361 -0.051609862595796585 0.0 255.0 0.0
0.2964446246623993 0.20495641231536865 -0.10537870228290558 0.0 255.0 0.0
0.27745649218559265 -0.06375139206647873 -0.12994831800460815 0.0 255.0 0.0
-0.17804747819900513 0.4050590395927429 -0.0649590715765953 0.0 255.0 0.0
-0.2757464051246643 0.03169799968600273 0.0850185677409172 0.0 255.0 0.0
-0.2707524597644806 0.0664263367652893 0.02471332438290119 0.0 255.0 0.0
-0.2714189291000366 -0.08033547550439835 0.13336583971977234 0.0 255.0 0.0
-0.1575244963169098 0.18480104207992554 0.15370497107505798 0.0 255.0 0.0
-0.16628004610538483 -0.3295118510723114 -0.02422969788312912 0.0 255.0 0.0
-0.027649715542793274 -0.031139742583036423 0.16940195858478546 0.0 255.0 0.0
-0.23525294661521912 -0.35114794969558716 0.14743779599666595 0.0 255.0 0.0
0.19648756086826324 0.4992680251598358 0.037488583475351334 0.0 255.0 0.0
0.14535102248191833 0.18638543784618378 -0.1373792439699173 0.0 255.0 0.0
0.14679844677448273 0.023382412269711494 -0.13421130180358887 0.0 255.0 0.0
-0.1934671401977539 -0.40083399415016174 0.1128605306148529 0.0 255.0 0.0
0.18093155324459076 0.36663663387298584 -0.03469434380531311 0.0 255.0 0.0
-0.20710352063179016 -0.45353397727012634 0.011329378001391888 0.0 255.0 0.0
0.1905992180109024 0.10647890716791153 0.17072780430316925 0.0 255.0 0.0
-0.28520143032073975 -0.4548983573913574 -0.04265984147787094 0.0 255.0 0.0
0.1889684796333313 0.19527997076511383 0.15881967544555664 0.0 255.0 0.0
-0.03450807183980942 0.22812457382678986 -0.09211744368076324 0.0 255.0 0.0
-0.18317054212093353 -0.33285683393478394 -0.052063558250665665 0.0 255.0 0.0
-0.269870787858963 -0.06026746705174446 0.00044508554856292903 0.0 255.0 0.0
0.1568823605775833 -0.07823173701763153 0.1703318953514099 0.0 255.0 0.0
-0.21379752457141876 -0.382053405046463 -0.0782390907406807 0.0 255.0 0.0
0.22118695080280304 -0.02261195331811905 -0.1339961737394333 0.0 255.0 0.0
0.14239291846752167 -0.3974417746067047 0.12374607473611832 0.0 255.0 0.0
0.2975277006626129 -0.21031343936920166 -0.020110467448830605 0.0 255.0 0.0
0.24824711680412292 -0.44567349553108215 -0.024320749565958977 0.0 255.0 0.0
0.037663962692022324 0.05637989565730095 0.16794876754283905 0.0 255.0 0.0
-0.11638098210096359 -0.03804559260606766 -0.13520869612693787 0.0 255.0 0.0
-0.20599988102912903 -0.18880517780780792 -0.1371341049671173 0.0 255.0 0.0
0.0069166552275419235 0.07637759298086166 -0.13486047089099884 0.0 255.0 0.0
0.29732781648635864 -0.056713346391916275 0.03217251971364021 0.0 255.0 0.0
-0.29066354036331177 -0.4038639962673187 0.1326577365398407 0.0 255.0 0.0
0.1817479282617569 0.47133034467697144 0.013242954388260841 0.0 255.0 0.0
0.2986011803150177 0.44945403933525085 0.07738716155290604 0.0 255.0 0.0
-0.23170185089111328 -0.11174535751342773 -0.13299070298671722 0.0 255.0 0.0
0.0586642324924469 0.22899450361728668 -0.11520553380250931 0.0 255.0 0.0
-0.21672530472278595 -0.39406338334083557 0.16917981207370758 0.0 255.0 0.0
0.13983598351478577 -0.11555948108434677 0.16611184179782867 0.0 255.0 0.0
0.1580449640750885 -0.37999069690704346 -0.03911015763878822 0.0 255.0 0.0
