0.26526182889938354 0.38600143790245056 -0.08643172681331635 0.0 255.0 0.0
-0.28325024247169495 -0.38282889127731323 0.208866149187088 0.0 255.0 0.0
-0.24170583486557007 0.06570989638566971 0.1542038470506668 0.0 255.0 0.0
-0.03977809101343155 0.17692536115646362 -0.15891729295253754 0.0 255.0 0.0
0.25030872225761414 0.5054122805595398 -0.031846124678850174 0.0 255.0 0.0
-0.037501849234104156 0.2876940369606018 -0.25075438618659973 0.0 255.0 0.0
0.2198180854320526 -0.44097623229026794 -0.08640144765377045 0.0 255.0 0.0
-0.22892223298549652 -0.4183027148246765 0.19280588626861572 0.0 255.0 0.0
0.24824389815330505 0.36048734188079834 0.12517160177230835 0.0 255.0 0.0
0.23722156882286072 -0.44418612122535706 -0.08813244104385376 0.0 255.0 0.0
0.02297176420688629 0.22798019647598267 0.14250944554805756 0.0 255.0 0.0
-0.2804315686225891 0.17526650428771973 -0.30504709482192993 0.0 255.0 0.0
0.15094393491744995 -0.44297030568122864 -0.02675217017531395 0.0 255.0 0.0
0.29345300793647766 -0.2501346170902252 -0.09189867973327637 0.0 255.0 0.0
0.15143941342830658 -0.20569303631782532 0.1605091542005539 0.0 255.0 0.0
-0.14179986715316772 -0.25300201773643494 0.1433716118335724 0.0 255.0 0.0
-0.28806567192077637 -0.3828197419643402 0.20345985889434814 0.0 255.0 0.0
-0.2561151683330536 -0.250820517539978 0.1300887018442154 0.0 255.0 0.0
-0.27048230171203613 -0.05064787343144417 0.14862270653247833 0.0 255.0 0.0
-0.0007805528002791107 0.11075393855571747 -0.20046667754650116 0.0 255.0 0.0
-0.182833731174469 0.22391696274280548 -0.1350494772195816 0.0 255.0 0.0
-0.15214286744594574 0.31984689831733704 -0.35157161951065063 0.0 255.0 0.0
-0.012613813392817974 0.24114102125167847 -0.25417450070381165 0.0 255.0 0.0
-0.25809818506240845 0.029507022351026535 -0.31277376413345337 0.0 255.0 0.0
-0.18742990493774414 0.4962858557701111 0.09552158415317535 0.0 255.0 0.0
-0.013722961768507957 0.2593683898448944 -0.26815131306648254 0.0 255.0 0.0
-0.2353355884552002 -0.30681848526000977 -0.07491673529148102 0.0 255.0 0.0
-0.23762772977352142 0.3187553882598877 -0.33943742513656616 0.0 255.0 0.0
-0.19978450238704681 0.227410688996315 -0.04608902707695961 0.0 255.0 0.0
-0.05277364328503609 -0.25019943714141846 -0.12891890108585358 0.0 255.0 0.0
0.013520513661205769 0.10355623811483383 -0.18785971403121948 0.0 255.0 0.0
-0.24994079768657684 -0.04392112419009209 -0.23319107294082642 0.0 255.0 0.0
0.2518051564693451 0.3467113673686981 -0.07395369559526443 0.0 255.0 0.0
0.26233792304992676 0.20921066403388977 0.1575307697057724 0.0 255.0 0.0
0.2460428923368454 0.38542473316192627 0.10818489640951157 0.0 255.0 0.0
-0.2534704804420471 -0.33970507979393005 -0.08093701303005219 0.0 255.0 0.0
-0.28823965787887573 -0.003823367413133383 -0.29722854495048523 0.0 255.0 0.0
-0.23757056891918182 0.3438687324523926 0.0726596862077713 0.0 255.0 0.0
-0.2818625569343567 0.06285431236028671 -0.3195112943649292 0.0 255.0 0.0
0.26946932077407837 0.37363195419311523 -0.07982935756444931 0.0 255.0 0.0
0.0714472308754921 0.16308927536010742 0.16279098391532898 0.0 255.0 0.0
-0.1451827436685562 0.18054147064685822 0.15271541476249695 0.0 255.0 0.0
-0.006051826756447554 0.17242521047592163 0.1495431363582611 0.0 255.0 0.0
0.2821992337703705 0.1753058135509491 -0.13506805896759033 0.0 255.0 0.0
0.17483340203762054 0.22403982281684875 -0.12522238492965698 0.0 255.0 0.0
0.28243693709373474 -0.40269386768341064 0.1828361302614212 0.0 255.0 0.0
-0.22755132615566254 -0.31917619705200195 -0.07948390394449234 0.0 255.0 0.0
0.26401352882385254 0.03267380967736244 0.1568804681301117 0.0 255.0 0.0
-0.2357644885778427 -0.2501964867115021 0.05280577018857002 0.0 255.0 0.0
-0.2209729552268982 -0.18346960842609406 0.15947158634662628 0.0 255.0 0.0
0.18388132750988007 0.40272679924964905 0.10610712319612503 0.0 255.0 0.0
0.009612586349248886 0.24810625612735748 -0.2625502049922943 0.0 255.0 0.0
-0.25832611322402954 0.3497823178768158 0.05902545154094696 0.0 255.0 0.0
0.2760505676269531 0.4295683205127716 0.1174207478761673 0.0 255.0 0.0
0.2972581684589386 0.2152620553970337 0.09481711685657501 0.0 255.0 0.0
0.027904143556952477 0.12507343292236328 -0.21210309863090515 0.0 255.0 0.0
-0.29016709327697754 -0.419137179851532 -0.09469954669475555 0.0 255.0 0.0
-0.13448503613471985 0.22694268822669983 0.1542176902294159 0.0 255.0 0.0
0.08097497373819351 -0.20798823237419128 0.15586063265800476 0.0 255.0 0.0
-0.3038215935230255 -0.3304068148136139 0.1912182867527008 0.0 255.0 0.0
0.29910340905189514 -0.24402329325675964 0.03942462429404259 0.0 255.0 0.0
-0.2863504886627197 -0.3579358458518982 0.2041064351797104 0.0 255.0 0.0
0.0069797770120203495 0.11617471277713776 -0.2092089056968689 0.0 255.0 0.0
0.23089699447155 -0.03926781937479973 0.16871210932731628 0.0 255.0 0.0
-0.0033907585311681032 0.18084101378917694 -0.1353558897972107 0.0 255.0 0.0
0.2846519351005554 0.3466501832008362 0.08405999094247818 0.0 255.0 0.0
0.28542882204055786 0.37288832664489746 0.11589130759239197 0.0 255.0 0.0
-0.24601902067661285 0.23174773156642914 0.0377633161842823 0.0 255.0 0.0
0.19011956453323364 0.4831838607788086 -0.0004807942023035139 0.0 255.0 0.0
-0.2537919282913208 -0.0680089220404625 0.15859611332416534 0.0 255.0 0.0
0.15786148607730865 -0.4420124292373657 0.17936140298843384 0.0 255.0 0.0
-0.2065695822238922 0.36543211340904236 -0.07799577713012695 0.0 255.0 0.0
-0.16575993597507477 0.4718841016292572 -0.014061778783798218 0.0 255.0 0.0
-0.2434723824262619 0.2549443542957306 -0.3469620943069458 0.0 255.0 0.0
-0.23981931805610657 0.2756730914115906 0.0036900409031659365 0.0 255.0 0.0
-0.24907422065734863 -0.07050462812185287 -0.23343119025230408 0.0 255.0 0.0
0.27611708641052246 -0.3541559875011444 0.12177471816539764 0.0 255.0 0.0
0.29607513546943665 0.2209015190601349 -0.13067497313022614 0.0 255.0 0.0
0.25648078322410583 -0.24896641075611115 -0.0028160186484456062 0.0 255.0 0.0
-0.19582456350326538 0.4900909662246704 0.11383511871099472 0.0 255.0 0.0
-0.268300861120224 -0.06896369904279709 -0.1350446343421936 0.0 255.0 0.0
0.052032530307769775 0.22693747282028198 0.15408886969089508 0.0 255.0 0.0
0.27166178822517395 0.3761531710624695 0.12999673187732697 0.0 255.0 0.0
-0.24716466665267944 0.2536516487598419 -0.3607792258262634 0.0 255.0 0.0
-0.21726670861244202 -0.2811724841594696 -0.06085490435361862 0.0 255.0 0.0
-0.07864498347043991 0.30942273139953613 -0.3055286407470703 0.0 255.0 0.0
-0.17600616812705994 0.17019106447696686 0.14809618890285492 0.0 255.0 0.0
0.17961572110652924 -0.4445798099040985 -0.04623541980981827 0.0 255.0 0.0
0.2686646282672882 -0.32938551902770996 0.10727221518754959 0.0 255.0 0.0
0.2486923187971115 0.30163028836250305 -0.02618597447872162 0.0 255.0 0.0
0.053840093314647675 0.23103582859039307 -0.12852878868579865 0.0 255.0 0.0
-0.251950740814209 0.48563769459724426 0.03851933032274246 0.0 255.0 0.0
-0.25990086793899536 -0.07033006101846695 -0.21874581277370453 0.0 255.0 0.0
-0.24468296766281128 0.37019333243370056 0.11516755074262619 0.0 255.0 0.0
-0.2645474970340729 -0.1671094298362732 -0.13540039956569672 0.0 255.0 0.0
0.19108034670352936 0.3355809152126312 0.05046093091368675 0.0 255.0 0.0
0.18902167677879333 0.3729517161846161 0.10227607190608978 0.0 255.0 0.0
0.21455000340938568 0.16020971536636353 0.16785785555839539 0.0 255.0 0.0
0.24991783499717712 -0.191017284989357 0.1524602174758911 0.0 255.0 0.0
-0.18522897362709045 0.24478432536125183 0.040321897715330124 0.0 255.0 0.0
0.251260906457901 -0.16061389446258545 0.1534869372844696 0.0 255.0 0.0
-0.26906564831733704 -0.24339453876018524 -0.0771184116601944 0.0 255.0 0.0
0.19500240683555603 -0.2540246546268463 0.0673021748661995 0.0 255.0 0.0
-0.13594980537891388 -0.23161794245243073 -0.13675403594970703 0.0 255.0 0.0
-0.27145645022392273 -0.02077755704522133 -0.12756212055683136 0.0 255.0 0.0
0.292178213596344 -0.432258665561676 0.03221208229660988 0.0 255.0 0.0
0.2493719756603241 0.00865353923290968 0.15698647499084473 0.0 255.0 0.0
0.04047572985291481 0.22580580413341522 -0.18276512622833252 0.0 255.0 0.0
0.18578368425369263 -0.42605316638946533 0.20105448365211487 0.0 255.0 0.0
0.29171648621559143 0.16005410254001617 -0.13648875057697296 0.0 255.0 0.0
5.9383428379078396e-06 -0.20653951168060303 0.15580634772777557 0.0 255.0 0.0
-0.09760265052318573 -0.24768386781215668 -0.12705494463443756 0.0 255.0 0.0
-0.21696119010448456 0.029350820928812027 0.16568101942539215 0.0 255.0 0.0
0.011495904996991158 -0.2515901029109955 0.14517496526241302 0.0 255.0 0.0
-0.18781590461730957 -0.19782282412052155 0.1526535302400589 0.0 255.0 0.0
0.2192692756652832 0.5074960589408875 0.10500016808509827 0.0 255.0 0.0
-0.1749115288257599 0.3373197317123413 -0.33743035793304443 0.0 255.0 0.0
-0.03612184897065163 0.262411504983902 -0.2407383918762207 0.0 255.0 0.0
0.02552627958357334 0.2788398861885071 -0.23910830914974213 0.0 255.0 0.0
0.300401508808136 0.1341368854045868 0.14643144607543945 0.0 255.0 0.0
-0.038344964385032654 0.17470833659172058 -0.1746215969324112 0.0 255.0 0.0
-0.19957435131072998 0.3323104977607727 0.05997961014509201 0.0 255.0 0.0
-0.2522786557674408 -0.3671506643295288 -0.09515807032585144 0.0 255.0 0.0
0.03990565985441208 0.1268014758825302 -0.2055903822183609 0.0 255.0 0.0
-0.21833990514278412 -0.25571301579475403 -0.062496501952409744 0.0 255.0 0.0
-0.04360637068748474 -0.24874424934387207 -0.1299503743648529 0.0 255.0 0.0
0.14033225178718567 -0.437050461769104 0.05575064942240715 0.0 255.0 0.0
0.06844985485076904 -0.2468530237674713 0.15499389171600342 0.0 255.0 0.0
-0.23461414873600006 -0.08927613496780396 0.15238218009471893 0.0 255.0 0.0
0.2443762570619583 0.3413739502429962 0.10945486277341843 0.0 255.0 0.0
-0.24433065950870514 0.21270202100276947 -0.1345510184764862 0.0 255.0 0.0
-0.26295921206474304 -0.05062548816204071 -0.21816599369049072 0.0 255.0 0.0
0.29089754819869995 0.16105905175209045 -0.13506805896759033 0.0 255.0 0.0
-0.22221650183200836 0.3092261552810669 -0.33073708415031433 0.0 255.0 0.0
0.06794553995132446 -0.2509375512599945 -0.12419202923774719 0.0 255.0 0.0
-0.20384743809700012 -0.2540159821510315 0.07666242867708206 0.0 255.0 0.0
0.04430655762553215 0.21800267696380615 -0.13506805896759033 0.0 255.0 0.0
-0.2582188844680786 -0.07469695806503296 -0.1339949518442154 0.0 255.0 0.0
-0.18371126055717468 0.2910447418689728 0.007878080010414124 0.0 255.0 0.0
-0.0820658877491951 0.22079260647296906 0.15632209181785583 0.0 255.0 0.0
-0.004073105752468109 0.2657981216907501 -0.21651999652385712 0.0 255.0 0.0
-0.2707233428955078 -0.048952456563711166 0.14738351106643677 0.0 255.0 0.0
-0.24019765853881836 -0.2497798651456833 0.046087976545095444 0.0 255.0 0.0
0.2227555513381958 -0.2488044649362564 -0.12861023843288422 0.0 255.0 0.0
0.2127867341041565 0.30427443981170654 -0.01563022844493389 0.0 255.0 0.0
-0.26037007570266724 0.16915135085582733 -0.31284183263778687 0.0 255.0 0.0
0.20517650246620178 -0.2707021236419678 0.07240282744169235 0.0 255.0 0.0
-0.236453115940094 0.2921247184276581 -0.3302364945411682 0.0 255.0 0.0
0.2074742168188095 0.28978830575942993 0.016889095306396484 0.0 255.0 0.0
-0.16893287003040314 -0.2681579291820526 0.05549391731619835 0.0 255.0 0.0
-0.27229931950569153 0.21923832595348358 -0.07017532736063004 0.0 255.0 0.0
-0.2625066339969635 0.2658059298992157 -0.35934770107269287 0.0 255.0 0.0
0.24869215488433838 -0.3126823604106903 0.10377614200115204 0.0 255.0 0.0
-0.22680209577083588 0.4928954839706421 0.11707468330860138 0.0 255.0 0.0
0.2618844509124756 -0.07627996057271957 0.1569543182849884 0.0 255.0 0.0
0.23926307260990143 0.51726895570755 0.0654049813747406 0.0 255.0 0.0
-0.2234121859073639 0.28705719113349915 -0.3535495400428772 0.0 255.0 0.0
0.2696305513381958 -0.3837335705757141 0.1776657998561859 0.0 255.0 0.0
0.22361284494400024 0.4724806845188141 0.1029270738363266 0.0 255.0 0.0
-0.10985618084669113 0.2201845496892929 0.1563318520784378 0.0 255.0 0.0
0.2972581684589386 0.21091328561306 0.03094296343624592 0.0 255.0 0.0
0.29170361161231995 0.35079526901245117 -0.0330667644739151 0.0 255.0 0.0
0.14091135561466217 -0.2489636391401291 -0.1342880129814148 0.0 255.0 0.0
-0.03451802581548691 0.2835298776626587 -0.2840660512447357 0.0 255.0 0.0
0.006246044300496578 0.22792789340019226 -0.12216027081012726 0.0 255.0 0.0
-0.23549972474575043 -0.479967325925827 0.007925240322947502 0.0 255.0 0.0
-0.2093944400548935 -0.1647820770740509 0.16923068463802338 0.0 255.0 0.0
0.2650606632232666 0.037710290402173996 0.15599121153354645 0.0 255.0 0.0
0.17558978497982025 -0.4345458149909973 -0.062575563788414 0.0 255.0 0.0
-0.25484228134155273 -0.24922911822795868 0.010327817872166634 0.0 255.0 0.0
-0.2507209777832031 0.22739607095718384 -0.12563757598400116 0.0 255.0 0.0
-0.275831937789917 -0.36664268374443054 -0.08870961517095566 0.0 255.0 0.0
0.21176467835903168 0.44069892168045044 0.09937922656536102 0.0 255.0 0.0
-0.23793122172355652 -0.4628257751464844 0.07192713767290115 0.0 255.0 0.0
-0.2303241342306137 0.3000200092792511 -0.012690684758126736 0.0 255.0 0.0
-0.24731257557868958 -0.011884229257702827 -0.23895134031772614 0.0 255.0 0.0
0.07632672786712646 0.1375923901796341 -0.13559187948703766 0.0 255.0 0.0
0.036046113818883896 0.25834178924560547 -0.21871942281723022 0.0 255.0 0.0
-0.2707558870315552 0.07890567183494568 -0.31980156898498535 0.0 255.0 0.0
-0.18245258927345276 0.26540517807006836 0.002020197454839945 0.0 255.0 0.0
-0.02822365239262581 0.2183772176504135 -0.13506805896759033 0.0 255.0 0.0
-0.2707222104072571 -0.07487700879573822 0.14780519902706146 0.0 255.0 0.0
-0.2067563384771347 0.3334348499774933 0.06069210544228554 0.0 255.0 0.0
0.2991817593574524 0.15705665946006775 0.15480449795722961 0.0 255.0 0.0
-0.32160571217536926 -0.43237999081611633 -0.0650043785572052 0.0 255.0 0.0
-0.2230103313922882 -0.2528362274169922 -0.061123255640268326 0.0 255.0 0.0
-0.2117178738117218 0.248029887676239 -0.0321863554418087 0.0 255.0 0.0
-0.2564845681190491 0.04958130046725273 -0.3085957467556 0.0 255.0 0.0
0.2225213646888733 0.3339521586894989 -0.057344067841768265 0.0 255.0 0.0
0.22355897724628448 -0.19776120781898499 0.14888188242912292 0.0 255.0 0.0
-0.026072382926940918 0.18900960683822632 -0.21594484150409698 0.0 255.0 0.0
-0.15463414788246155 0.229561910033226 0.14289426803588867 0.0 255.0 0.0
-0.27235162258148193 -0.35039398074150085 0.1930864453315735 0.0 255.0 0.0
0.29866859316825867 0.17186865210533142 0.1513107270002365 0.0 255.0 0.0
-0.25787070393562317 0.1626676470041275 -0.3141588568687439 0.0 255.0 0.0
-0.04510468244552612 0.11261791735887527 -0.1358596831560135 0.0 255.0 0.0
-0.05723029747605324 -0.24752302467823029 0.15190458297729492 0.0 255.0 0.0
-0.26952284574508667 -0.07436783611774445 0.15878944098949432 0.0 255.0 0.0
0.2895597815513611 -0.44626060128211975 0.13418664038181305 0.0 255.0 0.0
0.058195509016513824 0.1830352544784546 -0.16181713342666626 0.0 255.0 0.0
-0.05268865078687668 0.15546680986881256 0.16577062010765076 0.0 255.0 0.0
-0.19353942573070526 -0.25335848331451416 0.08141601085662842 0.0 255.0 0.0
0.25485876202583313 0.24357427656650543 0.045972976833581924 0.0 255.0 0.0
-0.276161789894104 0.23289144039154053 -0.34703052043914795 0.0 255.0 0.0
0.29618239402770996 -0.07990434765815735 0.15459603071212769 0.0 255.0 0.0
0.16479550302028656 -0.23711533844470978 0.15632209181785583 0.0 255.0 0.0
0.21460169553756714 -0.25388944149017334 -0.047124605625867844 0.0 255.0 0.0
0.06078265607357025 0.12255040556192398 -0.14736324548721313 0.0 255.0 0.0
-0.25786882638931274 -0.4764324426651001 -0.04167840629816055 0.0 255.0 0.0
0.291032612323761 0.41273680329322815 0.12592507898807526 0.0 255.0 0.0
0.26915886998176575 -0.43088045716285706 -0.07043881714344025 0.0 255.0 0.0
0.25603121519088745 0.027454152703285217 0.15178059041500092 0.0 255.0 0.0
-0.031015468761324883 0.22730864584445953 0.146033376455307 0.0 255.0 0.0
-0.2283823937177658 0.03979820758104324 0.15042583644390106 0.0 255.0 0.0
-0.2932608425617218 0.03414968028664589 -0.2975896894931793 0.0 255.0 0.0
-0.03337211534380913 0.15971219539642334 -0.1369844675064087 0.0 255.0 0.0
0.21377252042293549 0.3016400635242462 0.027713272720575333 0.0 255.0 0.0
-0.2768988311290741 -0.029968131333589554 -0.2242826223373413 0.0 255.0 0.0
-0.17225207388401031 0.44290032982826233 0.10224320739507675 0.0 255.0 0.0
0.06506412476301193 -0.18806374073028564 0.15710486471652985 0.0 255.0 0.0
0.04213203489780426 0.1937224119901657 -0.21937070786952972 0.0 255.0 0.0
-0.33424150943756104 -0.3592020273208618 0.1549457162618637 0.0 255.0 0.0
-0.1385391652584076 -0.24876423180103302 0.03359736129641533 0.0 255.0 0.0
-0.2625636160373688 0.23049375414848328 0.06118573248386383 0.0 255.0 0.0
0.2580146789550781 0.5112091898918152 0.0056058308109641075 0.0 255.0 0.0
0.28594404458999634 -0.25066429376602173 0.12216795235872269 0.0 255.0 0.0
-0.09793277084827423 0.2142699658870697 -0.13506805896759033 0.0 255.0 0.0
-0.267701119184494 -0.08857173472642899 -0.1309392750263214 0.0 255.0 0.0
0.013833310455083847 0.14512643218040466 0.17419199645519257 0.0 255.0 0.0
0.061603814363479614 0.16415397822856903 -0.1502692848443985 0.0 255.0 0.0
-0.27187854051589966 -0.2371477335691452 -0.12899546325206757 0.0 255.0 0.0
0.297305703163147 0.22516073286533356 0.013719193637371063 0.0 255.0 0.0
-0.022050881758332253 0.18841814994812012 -0.13630065321922302 0.0 255.0 0.0
-0.29167214035987854 0.07250553369522095 -0.2797274887561798 0.0 255.0 0.0
0.2795056998729706 -0.02629607357084751 -0.1366216093301773 0.0 255.0 0.0
-0.23621879518032074 0.1001005545258522 0.15588131546974182 0.0 255.0 0.0
-0.0099821537733078 0.2596223056316376 -0.2639731168746948 0.0 255.0 0.0
-0.24128326773643494 -0.31964585185050964 0.11310636252164841 0.0 255.0 0.0
0.16857850551605225 0.1744932383298874 0.15073168277740479 0.0 255.0 0.0
-0.23736684024333954 0.34464001655578613 -0.06554046273231506 0.0 255.0 0.0
0.24707402288913727 -0.11615052819252014 0.15741895139217377 0.0 255.0 0.0
0.18134337663650513 -0.23311439156532288 0.15632209181785583 0.0 255.0 0.0
-0.2859881520271301 0.15457601845264435 -0.3176301121711731 0.0 255.0 0.0
0.2923930883407593 0.006705492734909058 0.15628626942634583 0.0 255.0 0.0
-0.26015418767929077 -0.09938642382621765 -0.24888856709003448 0.0 255.0 0.0
-0.24028009176254272 -0.46968600153923035 0.04144628718495369 0.0 255.0 0.0
-0.24985672533512115 0.23297500610351562 0.029439067468047142 0.0 255.0 0.0
-0.22053936123847961 -0.43725821375846863 0.16093695163726807 0.0 255.0 0.0
-0.2665066719055176 0.26773306727409363 -0.35883545875549316 0.0 255.0 0.0
0.19343940913677216 0.33883732557296753 0.06820875406265259 0.0 255.0 0.0
-0.25873202085494995 -0.36752578616142273 -0.09493160247802734 0.0 255.0 0.0
0.2818984091281891 0.49217572808265686 0.09946507215499878 0.0 255.0 0.0
-0.05011243373155594 0.3005100190639496 -0.2683051526546478 0.0 255.0 0.0
-0.24896475672721863 0.3255808651447296 0.0042428793385624886 0.0 255.0 0.0
-0.00019094043818768114 0.0985356941819191 -0.1538839340209961 0.0 255.0 0.0
-0.2838979661464691 -0.015551069751381874 -0.2316480278968811 0.0 255.0 0.0
0.2376611977815628 0.5146187543869019 -0.007036218885332346 0.0 255.0 0.0
0.19163057208061218 -0.25331464409828186 -0.031118012964725494 0.0 255.0 0.0
-0.2683413028717041 0.06590677052736282 0.15553641319274902 0.0 255.0 0.0
-0.17290326952934265 0.44410985708236694 0.10158982127904892 0.0 255.0 0.0
-0.27080845832824707 -0.09305540472269058 -0.1313212513923645 0.0 255.0 0.0
-0.16703517735004425 0.4348388910293579 0.10915078222751617 0.0 255.0 0.0
0.29522645473480225 0.013117640279233456 0.14354638755321503 0.0 255.0 0.0
0.28673529624938965 -0.43151167035102844 -0.005865346174687147 0.0 255.0 0.0
-0.27006781101226807 0.2239736020565033 0.04337317869067192 0.0 255.0 0.0
-0.20347975194454193 0.1222001388669014 0.1693369597196579 0.0 255.0 0.0
0.1745476871728897 -0.2527630031108856 0.14590229094028473 0.0 255.0 0.0
0.2429855912923813 -0.2527231276035309 0.06472130864858627 0.0 255.0 0.0
0.2623312473297119 0.15304768085479736 0.1596052348613739 0.0 255.0 0.0
0.219278946518898 0.4699455201625824 0.10299481451511383 0.0 255.0 0.0
0.22924070060253143 0.5068811774253845 0.10976586490869522 0.0 255.0 0.0
0.28326377272605896 0.3616790473461151 0.10969829559326172 0.0 255.0 0.0
0.025137517601251602 0.09012623876333237 -0.13506805896759033 0.0 255.0 0.0
0.07354786992073059 0.22804823517799377 0.13949845731258392 0.0 255.0 0.0
0.26099053025245667 -0.2713138163089752 0.023793933913111687 0.0 255.0 0.0
-0.23267696797847748 -0.32340380549430847 -0.07886912673711777 0.0 255.0 0.0
-0.2539408802986145 0.2546488046646118 -0.32413968443870544 0.0 255.0 0.0
0.049750711768865585 -0.24818205833435059 -0.13258525729179382 0.0 255.0 0.0
-0.2601669430732727 -0.07645725458860397 -0.22140198945999146 0.0 255.0 0.0
-0.26881831884384155 0.0860036313533783 0.15018801391124725 0.0 255.0 0.0
-0.22161296010017395 -0.11261336505413055 0.15930841863155365 0.0 255.0 0.0
-0.1602156013250351 0.178565114736557 0.15420864522457123 0.0 255.0 0.0
-0.252715140581131 -0.08356784284114838 -0.23439913988113403 0.0 255.0 0.0
0.2871752679347992 -0.14254970848560333 -0.13455583155155182 0.0 255.0 0.0
-0.2081446498632431 -0.008882047608494759 0.17008092999458313 0.0 255.0 0.0
-0.22019954025745392 -0.018518080934882164 0.16817623376846313 0.0 255.0 0.0
0.24667134881019592 -0.27290645241737366 0.07572009414434433 0.0 255.0 0.0
-0.18517668545246124 0.39130309224128723 0.0963057354092598 0.0 255.0 0.0
-0.24644602835178375 0.48789000511169434 0.08507917076349258 0.0 255.0 0.0
-0.24380038678646088 0.2531214952468872 -0.34899353981018066 0.0 255.0 0.0
0.2005249559879303 0.31293821334838867 0.014454517513513565 0.0 255.0 0.0
0.26611700654029846 -0.25092849135398865 0.0032194943632930517 0.0 255.0 0.0
0.2882850170135498 -0.1348392218351364 -0.13427677750587463 0.0 255.0 0.0
0.2630065977573395 -0.3242802619934082 -0.06287898123264313 0.0 255.0 0.0
0.19150042533874512 0.40554946660995483 0.11634689569473267 0.0 255.0 0.0
0.272906094789505 0.24026235938072205 -0.0060782600194215775 0.0 255.0 0.0
-0.22005344927310944 -0.2851647436618805 0.08048304915428162 0.0 255.0 0.0
0.2899779975414276 0.33267927169799805 0.01386213768273592 0.0 255.0 0.0
0.1988367736339569 0.37631604075431824 0.11840604245662689 0.0 255.0 0.0
0.28228017687797546 0.20005466043949127 -0.13398313522338867 0.0 255.0 0.0
0.21904629468917847 0.23008614778518677 -0.11911128461360931 0.0 255.0 0.0
-0.22257329523563385 -0.3099333345890045 -0.07679080963134766 0.0 255.0 0.0
0.29550373554229736 0.43407562375068665 0.11738433688879013 0.0 255.0 0.0
-0.24320834875106812 0.2731190025806427 -0.3296789526939392 0.0 255.0 0.0
-0.2471233606338501 -0.39828619360923767 0.19942985475063324 0.0 255.0 0.0
-0.2695971131324768 -0.25041720271110535 0.07231771945953369 0.0 255.0 0.0
-0.011464253067970276 0.28659820556640625 -0.2871614396572113 0.0 255.0 0.0
-0.2624024450778961 -0.2500290870666504 -0.07562536001205444 0.0 255.0 0.0
-0.1933097243309021 0.4531439244747162 -0.06726103276014328 0.0 255.0 0.0
0.22479704022407532 0.25741198658943176 0.03436940535902977 0.0 255.0 0.0
0.2862170934677124 -0.4310893714427948 8.14302620710805e-06 0.0 255.0 0.0
0.2593311667442322 0.15686585009098053 0.1554761528968811 0.0 255.0 0.0
-0.061695098876953125 0.3040751516819 -0.28575223684310913 0.0 255.0 0.0
-0.33540579676628113 -0.35302698612213135 0.08163220435380936 0.0 255.0 0.0
-0.01815221644937992 0.10425789654254913 -0.1530904918909073 0.0 255.0 0.0
0.06351408362388611 0.1839303821325302 -0.18035443127155304 0.0 255.0 0.0
-0.21467196941375732 0.4553309977054596 0.08997216820716858 0.0 255.0 0.0
-0.20400914549827576 0.3452127277851105 -0.0625460222363472 0.0 255.0 0.0
0.2025364339351654 0.17298293113708496 0.15234678983688354 0.0 255.0 0.0
-0.2088039666414261 0.4896065890789032 -0.04700162634253502 0.0 255.0 0.0
-0.2319260537624359 -0.08856743574142456 0.15310299396514893 0.0 255.0 0.0
-0.25727152824401855 0.456706166267395 0.11295489221811295 0.0 255.0 0.0
-0.032751474529504776 -0.1712217926979065 0.17222774028778076 0.0 255.0 0.0
-0.26029548048973083 -0.20604687929153442 0.1583770215511322 0.0 255.0 0.0
0.21579520404338837 0.45482251048088074 -0.07680238038301468 0.0 255.0 0.0
-0.2607429325580597 0.26862719655036926 -0.3609429895877838 0.0 255.0 0.0
-0.2331402748823166 0.2750972509384155 -0.35609203577041626 0.0 255.0 0.0
-0.21454764902591705 -0.24444150924682617 -0.13506805896759033 0.0 255.0 0.0
0.2090211659669876 -0.44088754057884216 0.20395983755588531 0.0 255.0 0.0
0.05979008600115776 0.13282153010368347 -0.15692138671875 0.0 255.0 0.0
-0.22995974123477936 0.15012361109256744 0.1518739014863968 0.0 255.0 0.0
-0.23359200358390808 0.33527207374572754 -0.0418005995452404 0.0 255.0 0.0
-0.20355075597763062 0.3465580642223358 -0.057345133274793625 0.0 255.0 0.0
-0.018286703154444695 0.18000268936157227 -0.21940942108631134 0.0 255.0 0.0
0.2956797778606415 -0.08761110156774521 -0.1330045610666275 0.0 255.0 0.0
0.296032577753067 0.09376133233308792 0.14578773081302643 0.0 255.0 0.0
0.055706460028886795 0.20467479526996613 -0.21379849314689636 0.0 255.0 0.0
-0.2707325220108032 -0.0860118418931961 0.14396639168262482 0.0 255.0 0.0
-0.23329555988311768 -0.3765093982219696 0.1853710114955902 0.0 255.0 0.0
-0.2373131662607193 -0.45872002840042114 0.09733618050813675 0.0 255.0 0.0
-0.18133866786956787 0.4766384959220886 0.10704459249973297 0.0 255.0 0.0
0.12724953889846802 -0.23899029195308685 0.1584881991147995 0.0 255.0 0.0
0.18160516023635864 -0.24514248967170715 -0.13784199953079224 0.0 255.0 0.0
0.2532881498336792 0.14055676758289337 0.14985793828964233 0.0 255.0 0.0
0.0609835609793663 0.1797681599855423 -0.17232556641101837 0.0 255.0 0.0
0.2974807620048523 -0.19569237530231476 0.14575763046741486 0.0 255.0 0.0
-0.2539098262786865 0.22753193974494934 -0.1230517104268074 0.0 255.0 0.0
0.13456913828849792 -0.43163374066352844 0.13044647872447968 0.0 255.0 0.0
0.07959689944982529 0.17670729756355286 0.153511643409729 0.0 255.0 0.0
-0.18908226490020752 0.45689713954925537 0.09354744851589203 0.0 255.0 0.0
-0.31079524755477905 -0.43017181754112244 -0.0849340409040451 0.0 255.0 0.0
0.06603696197271347 0.16176612675189972 0.16121423244476318 0.0 255.0 0.0
-0.15629544854164124 0.3398650586605072 -0.32059356570243835 0.0 255.0 0.0
0.09027862548828125 0.15615175664424896 0.1689232736825943 0.0 255.0 0.0
-0.2389761060476303 0.4654061794281006 0.10819756239652634 0.0 255.0 0.0
-0.1664782017469406 0.394988089799881 0.10307790338993073 0.0 255.0 0.0
0.23127248883247375 0.2593146860599518 -0.018450049683451653 0.0 255.0 0.0
-0.26326289772987366 0.15391431748867035 -0.29964175820350647 0.0 255.0 0.0
0.22756804525852203 0.48689138889312744 -0.06311002373695374 0.0 255.0 0.0
0.0008152378140948713 -0.2391924411058426 0.15632209181785583 0.0 255.0 0.0
-0.2593570947647095 -0.15060453116893768 -0.13459983468055725 0.0 255.0 0.0
-0.239364892244339 0.31737226247787476 0.034866612404584885 0.0 255.0 0.0
0.2631421387195587 0.5065280795097351 0.10113148391246796 0.0 255.0 0.0
-0.2771886885166168 0.09348896145820618 -0.2744450271129608 0.0 255.0 0.0
0.3001127541065216 0.16471293568611145 -0.11945044249296188 0.0 255.0 0.0
0.2018088400363922 -0.23247963190078735 0.15558692812919617 0.0 255.0 0.0
0.2065390795469284 0.3920656144618988 0.11236009001731873 0.0 255.0 0.0
-0.2707206904888153 -0.05248476192355156 -0.12712545692920685 0.0 255.0 0.0
-0.28096750378608704 0.22750438749790192 -0.33175793290138245 0.0 255.0 0.0
-0.2504078149795532 -0.23561334609985352 0.15632209181785583 0.0 255.0 0.0
0.12672047317028046 -0.2393019050359726 0.15841300785541534 0.0 255.0 0.0
0.20144793391227722 0.33264851570129395 0.06468048691749573 0.0 255.0 0.0
0.14327359199523926 -0.44326063990592957 0.14728257060050964 0.0 255.0 0.0
-0.23908478021621704 0.03126419335603714 0.15597988665103912 0.0 255.0 0.0
-0.004301568027585745 0.2779861092567444 -0.28337812423706055 0.0 255.0 0.0
0.2930479049682617 -0.2503671646118164 -0.034798070788383484 0.0 255.0 0.0
-0.22659176588058472 -0.28094911575317383 0.07976783812046051 0.0 255.0 0.0
-0.255850613117218 0.28518304228782654 -0.3540280759334564 0.0 255.0 0.0
0.2516947388648987 0.08781318366527557 0.15444977581501007 0.0 255.0 0.0
-0.016289126127958298 -0.20514549314975739 0.15656301379203796 0.0 255.0 0.0
-0.07917679101228714 -0.2494547814130783 -0.13010749220848083 0.0 255.0 0.0
-0.09203808754682541 -0.24814637005329132 0.1531505584716797 0.0 255.0 0.0
0.2867329716682434 -0.2505517899990082 0.027481038123369217 0.0 255.0 0.0
-0.20855499804019928 -0.25324928760528564 -0.06148196756839752 0.0 255.0 0.0
0.2398940473794937 0.371998131275177 -0.08986382186412811 0.0 255.0 0.0
0.008903104811906815 0.2877509295940399 -0.2684530019760132 0.0 255.0 0.0
0.25232964754104614 -0.25789692997932434 0.03846222162246704 0.0 255.0 0.0
-0.254110187292099 0.3555535078048706 0.08537610620260239 0.0 255.0 0.0
-0.23629799485206604 0.37366020679473877 -0.07464949041604996 0.0 255.0 0.0
-0.21913814544677734 -0.27670925855636597 -0.062398478388786316 0.0 255.0 0.0
-0.09151388704776764 0.22787132859230042 -0.12430728226900101 0.0 255.0 0.0
-0.21140368282794952 0.32735857367515564 0.054127831012010574 0.0 255.0 0.0
-0.265007346868515 0.14885377883911133 -0.300001323223114 0.0 255.0 0.0
0.19321207702159882 0.3374587297439575 0.0644654706120491 0.0 255.0 0.0
-0.2874247431755066 -0.44515368342399597 -0.08425671607255936 0.0 255.0 0.0
0.2584334909915924 0.4776952862739563 -0.06763745844364166 0.0 255.0 0.0
-0.21436238288879395 -0.2662864029407501 0.07483527809381485 0.0 255.0 0.0
-0.1991213709115982 0.34476882219314575 -0.05802702158689499 0.0 255.0 0.0
0.01339440792798996 0.09424452483654022 -0.14932511746883392 0.0 255.0 0.0
-0.24245117604732513 0.28122949600219727 0.0031770900823175907 0.0 255.0 0.0
-0.2172960489988327 0.043513551354408264 0.17184299230575562 0.0 255.0 0.0
-0.2810734510421753 0.12876157462596893 -0.2961529493331909 0.0 255.0 0.0
-0.21028120815753937 -0.10343392193317413 0.1681816577911377 0.0 255.0 0.0
-0.14874181151390076 -0.2645350396633148 -0.007408523932099342 0.0 255.0 0.0
-0.2321983128786087 -0.4631049931049347 0.0886104628443718 0.0 255.0 0.0
0.27979543805122375 0.35253778100013733 -0.06041914224624634 0.0 255.0 0.0
0.290077269077301 -0.4369111955165863 0.09308002889156342 0.0 255.0 0.0
-0.05712662264704704 -0.243692547082901 -0.13616488873958588 0.0 255.0 0.0
0.25054240226745605 0.3191976547241211 -0.029951466247439384 0.0 255.0 0.0
-0.21344052255153656 0.2305375635623932 -0.03658922016620636 0.0 255.0 0.0
-0.2647823691368103 0.2762373387813568 -0.32939204573631287 0.0 255.0 0.0
0.2670249044895172 -0.04618316516280174 0.15610235929489136 0.0 255.0 0.0
-0.23334883153438568 -0.2537793815135956 0.04944264143705368 0.0 255.0 0.0
-0.21169209480285645 -0.05420087277889252 0.1699172854423523 0.0 255.0 0.0
-0.13440099358558655 -0.2533378601074219 0.0067122322507202625 0.0 255.0 0.0
-0.17599260807037354 0.4553266763687134 0.10217372328042984 0.0 255.0 0.0
-0.1442941427230835 -0.25726935267448425 -0.124212346971035 0.0 255.0 0.0
-0.23988181352615356 -0.25330278277397156 0.019028713926672935 0.0 255.0 0.0
0.044721078127622604 0.17596490681171417 0.15453720092773438 0.0 255.0 0.0
-0.1838098168373108 -0.25336936116218567 0.07176833599805832 0.0 255.0 0.0
0.22992652654647827 0.3770746886730194 0.11411262303590775 0.0 255.0 0.0
-0.141209214925766 -0.25071316957473755 0.010165122337639332 0.0 255.0 0.0
-0.05973992869257927 -0.18520750105381012 0.16173304617404938 0.0 255.0 0.0
0.29225096106529236 -0.1374266892671585 -0.13401469588279724 0.0 255.0 0.0
0.2785460948944092 0.4275946021080017 0.12058702111244202 0.0 255.0 0.0
0.09785778075456619 0.21923217177391052 0.15632209181785583 0.0 255.0 0.0
0.28327903151512146 -0.22965019941329956 -0.13506805896759033 0.0 255.0 0.0
0.2311192899942398 -0.2069535255432129 0.15574659407138824 0.0 255.0 0.0
0.24855343997478485 0.4902448058128357 0.12576323747634888 0.0 255.0 0.0
0.25823885202407837 -0.3124082386493683 0.09602859616279602 0.0 255.0 0.0
-0.28488877415657043 0.06363055109977722 -0.2587980628013611 0.0 255.0 0.0
0.2406260222196579 0.5135647654533386 0.10074350982904434 0.0 255.0 0.0
-0.22057154774665833 0.03687568008899689 0.16131176054477692 0.0 255.0 0.0
0.2881292402744293 -0.4369727671146393 0.01039427611976862 0.0 255.0 0.0
-0.27870097756385803 -0.36515599489212036 -0.08999434858560562 0.0 255.0 0.0
-0.2092447429895401 -0.1733347773551941 0.16917912662029266 0.0 255.0 0.0
-0.022018084302544594 0.24024106562137604 -0.24114367365837097 0.0 255.0 0.0
-0.15379519760608673 0.1477014422416687 0.1692306399345398 0.0 255.0 0.0
0.031300321221351624 -0.18645524978637695 0.16075627505779266 0.0 255.0 0.0
-0.07467705011367798 -0.1847904771566391 0.16415542364120483 0.0 255.0 0.0
0.06348305195569992 0.14315000176429749 -0.13628263771533966 0.0 255.0 0.0
0.2650255858898163 0.23135414719581604 -0.03926766663789749 0.0 255.0 0.0
-0.2695624530315399 0.2137044221162796 -0.056431595236063004 0.0 255.0 0.0
0.027882473543286324 -0.2514995336532593 0.1374087631702423 0.0 255.0 0.0
-0.1954803764820099 0.2999539375305176 0.03854985162615776 0.0 255.0 0.0
-0.20011331140995026 0.22798803448677063 0.14127583801746368 0.0 255.0 0.0
0.19504550099372864 -0.44472604990005493 0.19796964526176453 0.0 255.0 0.0
0.0014194431714713573 -0.17683367431163788 0.16676853597164154 0.0 255.0 0.0
0.2953401505947113 -0.10475394874811172 0.15625980496406555 0.0 255.0 0.0
0.2823168933391571 0.2280222773551941 0.05485386773943901 0.0 255.0 0.0
0.28093859553337097 0.11000300198793411 0.15713122487068176 0.0 255.0 0.0
0.29580119252204895 -0.23656585812568665 -0.13384710252285004 0.0 255.0 0.0
-0.022626163437962532 0.21568863093852997 -0.23371614515781403 0.0 255.0 0.0
0.29919731616973877 -0.2159518301486969 0.15212829411029816 0.0 255.0 0.0
-0.24057364463806152 0.31442752480506897 0.03534236177802086 0.0 255.0 0.0
-0.2032179981470108 0.3419507145881653 -0.05534761771559715 0.0 255.0 0.0
-0.2519574761390686 0.3491211235523224 -0.048541851341724396 0.0 255.0 0.0
-0.030381863936781883 -0.18456412851810455 0.16431869566440582 0.0 255.0 0.0
0.29722094535827637 -0.22691510617733002 -0.1270623803138733 0.0 255.0 0.0
0.25235480070114136 0.4384574294090271 -0.08842123299837112 0.0 255.0 0.0
-0.2829584777355194 -0.3704087734222412 -0.08598873019218445 0.0 255.0 0.0
-0.23690831661224365 0.26506686210632324 -0.34814217686653137 0.0 255.0 0.0
0.25943487882614136 -0.2486266791820526 -0.02584249898791313 0.0 255.0 0.0
-0.15662457048892975 0.15877188742160797 0.1685396283864975 0.0 255.0 0.0
0.13473427295684814 0.17238576710224152 0.1495598405599594 0.0 255.0 0.0
-0.23533882200717926 0.2726934850215912 0.0305988397449255 0.0 255.0 0.0
-0.1946256160736084 0.2668425738811493 -0.016825152561068535 0.0 255.0 0.0
0.21278756856918335 0.22890524566173553 0.028529182076454163 0.0 255.0 0.0
-0.037686482071876526 0.16084285080432892 -0.19357120990753174 0.0 255.0 0.0
-0.2518995702266693 -0.045985542237758636 -0.22581857442855835 0.0 255.0 0.0
0.2377137988805771 0.31753307580947876 0.0577215775847435 0.0 255.0 0.0
0.27159857749938965 0.38030195236206055 -0.0834658294916153 0.0 255.0 0.0
0.29121285676956177 -0.20070777833461761 0.15597650408744812 0.0 255.0 0.0
-0.17310833930969238 0.4468619227409363 -0.04965739697217941 0.0 255.0 0.0
0.29634323716163635 0.21615077555179596 0.13518927991390228 0.0 255.0 0.0
0.2545567750930786 -0.07668298482894897 0.15203623473644257 0.0 255.0 0.0
0.2825293242931366 0.4882794916629791 0.0610487274825573 0.0 255.0 0.0
-0.04126140847802162 0.28556498885154724 -0.27755090594291687 0.0 255.0 0.0
0.26032930612564087 -0.42109814286231995 -0.08090727776288986 0.0 255.0 0.0
-0.22871661186218262 0.2797676920890808 -0.3600699007511139 0.0 255.0 0.0
0.2827414572238922 0.42042070627212524 -0.06875593960285187 0.0 255.0 0.0
-0.22115346789360046 0.4595164358615875 0.0923323705792427 0.0 255.0 0.0
-0.07698715478181839 0.33065712451934814 -0.2949866056442261 0.0 255.0 0.0
-0.24106623232364655 -0.4786249101161957 0.014167905785143375 0.0 255.0 0.0
-0.12273605912923813 0.2124015986919403 0.15402431786060333 0.0 255.0 0.0
0.25694963335990906 0.2442592829465866 -0.02041119523346424 0.0 255.0 0.0
-0.16124078631401062 0.34021589159965515 -0.32817769050598145 0.0 255.0 0.0
0.29717808961868286 0.0796884149312973 0.15212322771549225 0.0 255.0 0.0
-0.26358121633529663 -0.33151596784591675 -0.07471978664398193 0.0 255.0 0.0
-0.22542797029018402 0.20676040649414062 0.15498694777488708 0.0 255.0 0.0
-0.26342105865478516 -0.23094022274017334 0.15581296384334564 0.0 255.0 0.0
-0.23423856496810913 -0.28928083181381226 -0.05963973328471184 0.0 255.0 0.0
-0.2718070149421692 0.03228408843278885 0.14622655510902405 0.0 255.0 0.0
-0.2746179699897766 -0.06347967684268951 -0.22341322898864746 0.0 255.0 0.0
0.2258475124835968 -0.4325926601886749 -0.09171517938375473 0.0 255.0 0.0
-0.1551249772310257 -0.26463818550109863 -0.023906001821160316 0.0 255.0 0.0
-0.2429065853357315 0.2555764615535736 0.0029476562049239874 0.0 255.0 0.0
-0.23641999065876007 -0.25420910120010376 0.06829086691141129 0.0 255.0 0.0
0.2915004789829254 -0.1204967200756073 0.15632209181785583 0.0 255.0 0.0
-0.041615165770053864 0.1380590945482254 -0.138092502951622 0.0 255.0 0.0
-0.22646068036556244 -0.1583903282880783 0.1509087234735489 0.0 255.0 0.0
-0.24210895597934723 0.28043657541275024 -0.3642466366291046 0.0 255.0 0.0
-0.2845909893512726 -0.38256460428237915 -0.08943090587854385 0.0 255.0 0.0
0.2969074249267578 -0.1665634959936142 -0.13447797298431396 0.0 255.0 0.0
0.25483790040016174 -0.26757127046585083 -0.03640471398830414 0.0 255.0 0.0
-0.19527575373649597 0.23245224356651306 -0.03486473485827446 0.0 255.0 0.0
-0.14854317903518677 0.20746438205242157 0.15631242096424103 0.0 255.0 0.0
-0.019648104906082153 0.19955924153327942 -0.1625683307647705 0.0 255.0 0.0
0.030887003988027573 0.10249873995780945 -0.18029792606830597 0.0 255.0 0.0
-0.2607691287994385 0.23263822495937347 -0.31738126277923584 0.0 255.0 0.0
-0.2153201401233673 0.5013301968574524 -0.0023960743565112352 0.0 255.0 0.0
0.2195361703634262 0.4669989347457886 -0.0773601159453392 0.0 255.0 0.0
0.17031583189964294 0.21986185014247894 -0.13641764223575592 0.0 255.0 0.0
-0.3390983045101166 -0.35137447714805603 0.1417495757341385 0.0 255.0 0.0
-0.2776573896408081 -0.45102816820144653 -0.08192615211009979 0.0 255.0 0.0
0.2972581684589386 0.22169862687587738 0.08045733720064163 0.0 255.0 0.0
-0.2591612637042999 0.22929389774799347 0.07186190783977509 0.0 255.0 0.0
-0.0599946565926075 -0.19828936457633972 0.14596468210220337 0.0 255.0 0.0
-0.1636040061712265 0.22941099107265472 -0.005969895515590906 0.0 255.0 0.0
0.0765962228178978 -0.25096315145492554 0.14776259660720825 0.0 255.0 0.0
-0.03537565842270851 -0.2501350939273834 0.14160503447055817 0.0 255.0 0.0
-0.2753228545188904 0.12080138176679611 0.15088285505771637 0.0 255.0 0.0
-0.16407978534698486 -0.2022789865732193 0.15378199517726898 0.0 255.0 0.0
-0.01707153581082821 0.19830790162086487 -0.13506805896759033 0.0 255.0 0.0
-0.003622362855821848 0.18097561597824097 -0.13506805896759033 0.0 255.0 0.0
0.12878380715847015 -0.24801500141620636 0.15319858491420746 0.0 255.0 0.0
0.2055124044418335 -0.24932566285133362 -0.051296982914209366 0.0 255.0 0.0
0.14475737512111664 -0.37826669216156006 0.12648442387580872 0.0 255.0 0.0
-0.33240076899528503 -0.38407593965530396 -0.012377768754959106 0.0 255.0 0.0
-0.015718739479780197 0.10071495920419693 -0.15567456185817719 0.0 255.0 0.0
0.29280540347099304 0.191805899143219 -0.13589367270469666 0.0 255.0 0.0
0.15102456510066986 -0.24949496984481812 0.14773200452327728 0.0 255.0 0.0
0.297233521938324 0.07868542522192001 0.14600661396980286 0.0 255.0 0.0
-0.26268067955970764 0.23780375719070435 -0.3579130470752716 0.0 255.0 0.0
0.04415295645594597 0.16334763169288635 0.16017448902130127 0.0 255.0 0.0
-0.3022685945034027 -0.38688576221466064 -0.07822562009096146 0.0 255.0 0.0
0.2972310483455658 -0.04913229122757912 0.14692753553390503 0.0 255.0 0.0
0.1888979822397232 0.4310905337333679 0.115533746778965 0.0 255.0 0.0
0.05443379282951355 0.20238420367240906 -0.20936937630176544 0.0 255.0 0.0
0.22887174785137177 0.5120266675949097 -0.015129891224205494 0.0 255.0 0.0
0.26961591839790344 -0.44167783856391907 0.19841545820236206 0.0 255.0 0.0
-0.2707524597644806 0.21669256687164307 -0.03828834369778633 0.0 255.0 0.0
0.14977794885635376 -0.43043920397758484 -0.030675649642944336 0.0 255.0 0.0
0.15653832256793976 -0.40025594830513 0.167409285902977 0.0 255.0 0.0
-0.06735564023256302 -0.17810240387916565 0.16973763704299927 0.0 255.0 0.0
0.20909692347049713 -0.2508488595485687 -0.05423898249864578 0.0 255.0 0.0
0.16016338765621185 -0.3950119614601135 0.16190160810947418 0.0 255.0 0.0
0.2609463036060333 0.04869120940566063 0.15349610149860382 0.0 255.0 0.0
0.24423165619373322 0.49610692262649536 -0.052123766392469406 0.0 255.0 0.0
-0.28544726967811584 0.11913802474737167 -0.29886311292648315 0.0 255.0 0.0
0.21144001185894012 -0.2487722784280777 0.07701055705547333 0.0 255.0 0.0
-0.27907344698905945 -0.03862568363547325 -0.22614724934101105 0.0 255.0 0.0
-0.10786327719688416 0.18243283033370972 0.15467138588428497 0.0 255.0 0.0
0.2413512021303177 -0.2515612840652466 0.07774046808481216 0.0 255.0 0.0
-0.01272061187773943 0.18036800622940063 -0.13664478063583374 0.0 255.0 0.0
0.07814748585224152 0.14848531782627106 0.1693396121263504 0.0 255.0 0.0
-0.11994298547506332 0.31760382652282715 -0.33762678503990173 0.0 255.0 0.0
-0.0849032923579216 -0.1993119865655899 0.15658070147037506 0.0 255.0 0.0
-0.2615569531917572 -0.46042516827583313 -0.06602969765663147 0.0 255.0 0.0
-0.24082481861114502 -0.25769755244255066 0.01276047620922327 0.0 255.0 0.0
-0.1660996675491333 -0.18856848776340485 0.15546952188014984 0.0 255.0 0.0
0.29717329144477844 -0.24492564797401428 0.02348223142325878 0.0 255.0 0.0
0.24545297026634216 0.31830593943595886 -0.03355814516544342 0.0 255.0 0.0
0.10651398450136185 0.17086131870746613 0.14723055064678192 0.0 255.0 0.0
-0.1626155823469162 0.3266410529613495 -0.3264933228492737 0.0 255.0 0.0
-0.22931930422782898 -0.476359099149704 -0.012259934097528458 0.0 255.0 0.0
-0.25484639406204224 0.28833624720573425 -0.3535933196544647 0.0 255.0 0.0
-0.22112923860549927 -0.07845206558704376 0.1629595160484314 0.0 255.0 0.0
0.22963063418865204 0.23146001994609833 0.05193555727601051 0.0 255.0 0.0
-0.2706192135810852 0.09288731217384338 -0.13177762925624847 0.0 255.0 0.0
-0.2483186423778534 0.47417449951171875 0.09029722213745117 0.0 255.0 0.0
-0.25872933864593506 0.16558262705802917 -0.13641227781772614 0.0 255.0 0.0
0.300654798746109 0.21573294699192047 0.1172778382897377 0.0 255.0 0.0
-0.2865292429924011 -0.05737895891070366 -0.24689172208309174 0.0 255.0 0.0
-0.2617103159427643 0.12829864025115967 -0.2978058457374573 0.0 255.0 0.0
0.2596597671508789 -0.34273913502693176 -0.07443337887525558 0.0 255.0 0.0
0.21223799884319305 0.21668370068073273 -0.13444752991199493 0.0 255.0 0.0
-0.04837906360626221 0.21500304341316223 -0.13764578104019165 0.0 255.0 0.0
0.2607087790966034 -0.4439559876918793 -0.05780510976910591 0.0 255.0 0.0
0.17252610623836517 0.22717197239398956 0.14933234453201294 0.0 255.0 0.0
0.24852445721626282 -0.12462358176708221 0.15558591485023499 0.0 255.0 0.0
0.24197566509246826 -0.3978394865989685 -0.09101912379264832 0.0 255.0 0.0
-0.2578830122947693 0.36489132046699524 0.08516883850097656 0.0 255.0 0.0
-0.26855653524398804 -0.19444748759269714 0.15371984243392944 0.0 255.0 0.0
0.2892976999282837 0.22610916197299957 0.07595282793045044 0.0 255.0 0.0
0.2491249144077301 0.5029410123825073 0.12693201005458832 0.0 255.0 0.0
-0.2808889150619507 -0.08086734265089035 -0.2601066827774048 0.0 255.0 0.0
-0.05376052111387253 0.1761043816804886 0.1539849042892456 0.0 255.0 0.0
-0.028712252154946327 0.24892735481262207 -0.21995288133621216 0.0 255.0 0.0
0.10588309913873672 0.1670738160610199 0.16253060102462769 0.0 255.0 0.0
-0.040821656584739685 -0.19840003550052643 0.15384915471076965 0.0 255.0 0.0
-0.21932142972946167 0.21530935168266296 0.15634660422801971 0.0 255.0 0.0
0.2992766201496124 0.22323621809482574 0.13014112412929535 0.0 255.0 0.0
-0.12769679725170135 0.17810988426208496 0.14935904741287231 0.0 255.0 0.0
0.25508344173431396 0.030467564240098 0.15433365106582642 0.0 255.0 0.0
-0.21560193598270416 -0.1281227022409439 0.17092007398605347 0.0 255.0 0.0
0.2812703549861908 0.18541021645069122 -0.13752731680870056 0.0 255.0 0.0
-0.2358514815568924 0.2173340767621994 0.1554606854915619 0.0 255.0 0.0
0.19929051399230957 0.37684470415115356 0.1192309707403183 0.0 255.0 0.0
0.29705724120140076 0.22574704885482788 0.003803858533501625 0.0 255.0 0.0
-0.3352103531360626 -0.3908752501010895 0.03822940215468407 0.0 255.0 0.0
0.28442859649658203 0.01120896078646183 0.15726201236248016 0.0 255.0 0.0
0.2967676520347595 0.11052971333265305 0.14434288442134857 0.0 255.0 0.0
0.29566845297813416 0.22451984882354736 -0.12428706139326096 0.0 255.0 0.0
-0.19645807147026062 0.3373834192752838 -0.3340356647968292 0.0 255.0 0.0
-0.02275819145143032 0.2098316103219986 -0.17097291350364685 0.0 255.0 0.0
0.2426651269197464 0.37104547023773193 0.11890573799610138 0.0 255.0 0.0
0.2966795265674591 -0.20465917885303497 0.15664458274841309 0.0 255.0 0.0
-0.11028087139129639 0.3224969506263733 -0.31036096811294556 0.0 255.0 0.0
-0.21648076176643372 0.3263736665248871 -0.0337742380797863 0.0 255.0 0.0
0.2972446084022522 0.06625695526599884 0.1418708860874176 0.0 255.0 0.0
0.28485140204429626 -0.07843226939439774 -0.1368028074502945 0.0 255.0 0.0
-0.2087365686893463 0.2953822612762451 -0.36450937390327454 0.0 255.0 0.0
-0.24506932497024536 -0.31368786096572876 -0.0702100470662117 0.0 255.0 0.0
-0.00024003161524888128 0.18989019095897675 -0.14601881802082062 0.0 255.0 0.0
-0.050118494778871536 0.21619753539562225 0.15553982555866241 0.0 255.0 0.0
0.1788140833377838 0.17022129893302917 0.1524188071489334 0.0 255.0 0.0
0.05173976346850395 0.20937223732471466 -0.2189861238002777 0.0 255.0 0.0
0.2820187211036682 0.4285474419593811 -0.06934245675802231 0.0 255.0 0.0
-0.24760660529136658 -0.07495982944965363 -0.23197342455387115 0.0 255.0 0.0
0.2298409342765808 0.32477715611457825 -0.04108157008886337 0.0 255.0 0.0
0.2024632841348648 -0.42747581005096436 0.19987662136554718 0.0 255.0 0.0
0.22806616127490997 -0.2803359627723694 -0.06093414127826691 0.0 255.0 0.0
-0.00780784897506237 0.3019353449344635 -0.26096802949905396 0.0 255.0 0.0
-0.25821730494499207 0.4232795536518097 0.12029512971639633 0.0 255.0 0.0
-0.11613674461841583 0.319795697927475 -0.32716846466064453 0.0 255.0 0.0
-0.24068672955036163 0.32171010971069336 0.03342292457818985 0.0 255.0 0.0
-0.178730770945549 0.3145420551300049 0.020216263830661774 0.0 255.0 0.0
-0.022560197860002518 0.21976619958877563 -0.18023614585399628 0.0 255.0 0.0
0.04964706301689148 0.10694772005081177 -0.1564347892999649 0.0 255.0 0.0
-0.20712849497795105 -0.41448378562927246 0.15828461945056915 0.0 255.0 0.0
-0.256944864988327 0.10753324627876282 -0.12988406419754028 0.0 255.0 0.0
-0.2588464319705963 -0.25018295645713806 -0.0684904158115387 0.0 255.0 0.0
-0.2556518316268921 0.22858202457427979 0.0011287536472082138 0.0 255.0 0.0
-0.25512459874153137 0.3568074703216553 0.07176445424556732 0.0 255.0 0.0
-0.26586562395095825 0.1822827309370041 -0.13421685993671417 0.0 255.0 0.0
0.222916841506958 0.3606223464012146 -0.0791996642947197 0.0 255.0 0.0
0.28756409883499146 -0.06896348297595978 0.15572087466716766 0.0 255.0 0.0
-0.2538052499294281 0.000613947631791234 0.15577268600463867 0.0 255.0 0.0
0.24514079093933105 0.06857245415449142 0.16285055875778198 0.0 255.0 0.0
0.218591570854187 0.23469285666942596 -0.024034183472394943 0.0 255.0 0.0
0.22744321823120117 0.3358805179595947 -0.06292729079723358 0.0 255.0 0.0
0.2921302020549774 -0.23257873952388763 -0.0003011239168699831 0.0 255.0 0.0
