0.18585500121116638 0.15349961817264557 -0.1387593150138855 0.0 255.0 0.0
0.20110481977462769 0.18491794168949127 0.1555488407611847 0.0 255.0 0.0
-0.1271182745695114 -0.25406718254089355 0.0389866828918457 0.0 255.0 0.0
0.1090785413980484 -0.18155694007873535 -0.13213978707790375 0.0 255.0 0.0
-0.2704392969608307 -0.14609333872795105 -0.015915488824248314 0.0 255.0 0.0
0.1771794706583023 -0.3875347375869751 0.17097075283527374 0.0 255.0 0.0
-0.25427186489105225 -0.45477452874183655 0.05661780759692192 0.0 255.0 0.0
0.19572214782238007 0.3248339891433716 -0.02187764085829258 0.0 255.0 0.0
0.20803704857826233 -0.44518405199050903 0.17182083427906036 0.0 255.0 0.0
0.018582921475172043 0.1540977507829666 -0.21915166079998016 0.0 255.0 0.0
0.2765146493911743 -0.42081499099731445 -0.05770866200327873 0.0 255.0 0.0
0.03770452365279198 -0.2497563511133194 0.04134620726108551 0.0 255.0 0.0
-0.2712031304836273 0.1973692774772644 0.049512822180986404 0.0 255.0 0.0
-0.05367131531238556 -0.1293628215789795 0.16481323540210724 0.0 255.0 0.0
0.005585661623626947 -0.042738016694784164 0.16814465820789337 0.0 255.0 0.0
0.1284925639629364 -0.004431459587067366 0.16940195858478546 0.0 255.0 0.0
-0.1093856692314148 0.22664576768875122 0.0011251933174207807 0.0 255.0 0.0
0.21295829117298126 -0.29217448830604553 0.08838389068841934 0.0 255.0 0.0
0.09481032192707062 0.2244684100151062 -0.044040679931640625 0.0 255.0 0.0
-0.12771065533161163 -0.18024785816669464 -0.13524381816387177 0.0 255.0 0.0
0.12280784547328949 0.08675726503133774 0.16924609243869781 0.0 255.0 0.0
-0.2707524597644806 -0.2169717699289322 0.11643727123737335 0.0 255.0 0.0
0.2685980796813965 -0.44435396790504456 0.16292168200016022 0.0 255.0 0.0
-0.2917470335960388 -0.038370806723833084 -0.2680363059043884 0.0 255.0 0.0
-0.2679247558116913 0.0765591561794281 -0.07043822109699249 0.0 255.0 0.0
-0.2706187665462494 0.07613702863454819 0.0005206846981309354 0.0 255.0 0.0
-0.035345327109098434 -0.19791550934314728 -0.1378118395805359 0.0 255.0 0.0
0.2595338523387909 0.2227729707956314 -0.10755134373903275 0.0 255.0 0.0
-0.12419111281633377 0.1159743219614029 0.16940195858478546 0.0 255.0 0.0
0.17017114162445068 0.09379102289676666 -0.13764536380767822 0.0 255.0 0.0
-0.23839853703975677 0.0914442166686058 -0.1320023536682129 0.0 255.0 0.0
0.0011666164500638843 -0.027873648330569267 0.17161111533641815 0.0 255.0 0.0
0.2985275685787201 0.020087338984012604 0.05246854946017265 0.0 255.0 0.0
0.13696560263633728 0.12890347838401794 0.16860434412956238 0.0 255.0 0.0
-0.03704087808728218 0.1388552188873291 -0.1783323734998703 0.0 255.0 0.0
0.2972581684589386 -0.1066492572426796 -0.054131895303726196 0.0 255.0 0.0
-0.27051395177841187 -0.12185019254684448 0.13225525617599487 0.0 255.0 0.0
-0.2707524597644806 -0.1921771913766861 -0.013310650363564491 0.0 255.0 0.0
-0.23412756621837616 0.4934857189655304 0.08078228682279587 0.0 255.0 0.0
0.17097614705562592 0.22662541270256042 0.036321043968200684 0.0 255.0 0.0
0.24394764006137848 -0.4464515447616577 0.1156967505812645 0.0 255.0 0.0
-0.3010556697845459 -0.31895366311073303 0.12022926658391953 0.0 255.0 0.0
-0.14876891672611237 0.23118212819099426 0.00659007765352726 0.0 255.0 0.0
-0.011403827928006649 -0.05532907694578171 -0.13676521182060242 0.0 255.0 0.0
0.1546141505241394 -0.31794503331184387 -0.013184993527829647 0.0 255.0 0.0
0.03165469691157341 0.22812457382678986 -0.07311943918466568 0.0 255.0 0.0
0.11234142631292343 -0.06710520386695862 -0.13247832655906677 0.0 255.0 0.0
0.20552392303943634 -0.44315996766090393 0.14536389708518982 0.0 255.0 0.0
-0.27112728357315063 -0.08757344633340836 -0.005550839006900787 0.0 255.0 0.0
0.07630977779626846 -0.25074294209480286 -0.008008922450244427 0.0 255.0 0.0
-0.0667392835021019 -0.2509918808937073 -0.01741177588701248 0.0 255.0 0.0
0.19315700232982635 0.03635888919234276 0.16940195858478546 0.0 255.0 0.0
0.002495014574378729 0.22812457382678986 0.050746701657772064 0.0 255.0 0.0
-0.2708995044231415 -0.10935799032449722 -0.09711191803216934 0.0 255.0 0.0
0.09054645150899887 -0.2528168559074402 0.07104773074388504 0.0 255.0 0.0
-0.195451021194458 -0.12709903717041016 -0.13457590341567993 0.0 255.0 0.0
-0.20595310628414154 -0.45159822702407837 0.045367542654275894 0.0 255.0 0.0
0.013888563960790634 -0.20707324147224426 -0.13461369276046753 0.0 255.0 0.0
-0.12839366495609283 0.0580596998333931 0.16632133722305298 0.0 255.0 0.0
0.21090978384017944 -0.4456850290298462 0.08874273300170898 0.0 255.0 0.0
-0.10068430751562119 0.22812457382678986 -0.07173366099596024 0.0 255.0 0.0
-0.010837828740477562 -0.25075986981391907 -0.041071176528930664 0.0 255.0 0.0
0.2608504593372345 -0.4441158175468445 0.016114486381411552 0.0 255.0 0.0
-0.061199236661195755 -0.16101789474487305 -0.13646753132343292 0.0 255.0 0.0
0.1728547066450119 0.4141315221786499 0.048673246055841446 0.0 255.0 0.0
0.005513614509254694 -0.24863606691360474 -0.012782245874404907 0.0 255.0 0.0
0.17907632887363434 0.4327346086502075 -0.020229041576385498 0.0 255.0 0.0
-0.2723189890384674 -0.15091541409492493 0.10912340134382248 0.0 255.0 0.0
0.12477388232946396 0.22807887196540833 -0.11081459373235703 0.0 255.0 0.0
0.19798330962657928 0.2281700223684311 0.06152670830488205 0.0 255.0 0.0
-0.1561862826347351 0.2289343625307083 -0.014332914724946022 0.0 255.0 0.0
0.15582679212093353 0.04674160107970238 0.17170484364032745 0.0 255.0 0.0
-0.1397705376148224 -0.2454366534948349 0.13145945966243744 0.0 255.0 0.0
0.2957114577293396 -0.05745024234056473 0.14110518991947174 0.0 255.0 0.0
-0.06700582057237625 0.11171253025531769 -0.13506805896759033 0.0 255.0 0.0
0.17473599314689636 0.2277725785970688 -0.06375272572040558 0.0 255.0 0.0
-0.2707524597644806 -0.15943239629268646 0.00544959818944335 0.0 255.0 0.0
0.06532696634531021 -0.24996165931224823 -0.03731381520628929 0.0 255.0 0.0
-0.09802919626235962 0.10470819473266602 0.17045313119888306 0.0 255.0 0.0
0.2765744924545288 0.11894522607326508 0.15311932563781738 0.0 255.0 0.0
0.03405355289578438 -0.00976425502449274 -0.13279353082180023 0.0 255.0 0.0
-0.2677912712097168 0.05325275659561157 0.09939693659543991 0.0 255.0 0.0
0.11163797229528427 -0.21241675317287445 -0.13603585958480835 0.0 255.0 0.0
0.07196523249149323 0.09393981844186783 -0.13493822515010834 0.0 255.0 0.0
0.11061519384384155 0.08830229192972183 -0.13506805896759033 0.0 255.0 0.0
-0.14996972680091858 -0.27380648255348206 0.007265310734510422 0.0 255.0 0.0
0.11978265643119812 -0.08784467726945877 0.16940195858478546 0.0 255.0 0.0
-0.2707524597644806 0.14042459428310394 -0.03131506219506264 0.0 255.0 0.0
-0.26740553975105286 0.010862081311643124 -0.08449393510818481 0.0 255.0 0.0
0.22205577790737152 0.19960671663284302 0.15675723552703857 0.0 255.0 0.0
-0.2958148419857025 0.024443626403808594 -0.282744824886322 0.0 255.0 0.0
-0.002396984491497278 0.2311801165342331 0.047163333743810654 0.0 255.0 0.0
0.2273811548948288 -0.37865516543388367 0.1788540631532669 0.0 255.0 0.0
-0.15324217081069946 0.014681454747915268 -0.1348191201686859 0.0 255.0 0.0
-0.047857511788606644 -0.21851076185703278 0.15375328063964844 0.0 255.0 0.0
0.2859172821044922 -0.35586586594581604 0.061390966176986694 0.0 255.0 0.0
0.01207029540091753 -0.25056448578834534 -0.09722438454627991 0.0 255.0 0.0
-0.015482436865568161 -0.25197410583496094 0.07338028401136398 0.0 255.0 0.0
0.2972581684589386 0.19825905561447144 0.058737318962812424 0.0 255.0 0.0
0.14425595104694366 -0.40557366609573364 0.13524436950683594 0.0 255.0 0.0
0.284668505191803 -0.34801530838012695 0.028077591210603714 0.0 255.0 0.0
-0.2707524597644806 -0.012643201276659966 0.0009082501055672765 0.0 255.0 0.0
-0.01940656080842018 0.1509733945131302 -0.13598380982875824 0.0 255.0 0.0
0.25243452191352844 0.3218206763267517 0.061427533626556396 0.0 255.0 0.0
0.19476601481437683 0.22678057849407196 0.02751486748456955 0.0 255.0 0.0
-0.26934993267059326 -0.23798716068267822 -0.01415854599326849 0.0 255.0 0.0
0.12987570464611053 -0.25089967250823975 0.05099424719810486 0.0 255.0 0.0
-0.0753837302327156 0.15128855407238007 -0.1332714557647705 0.0 255.0 0.0
0.1751098930835724 0.441710889339447 0.03956779092550278 0.0 255.0 0.0
0.28466010093688965 -0.3696597218513489 0.05236431583762169 0.0 255.0 0.0
0.2949999272823334 -0.08484112471342087 0.1259557157754898 0.0 255.0 0.0
-0.15673929452896118 0.3991876542568207 0.07382353395223618 0.0 255.0 0.0
0.25087034702301025 0.021081721410155296 -0.13514350354671478 0.0 255.0 0.0
-0.15834692120552063 0.44443419575691223 0.08036121726036072 0.0 255.0 0.0
-0.09360603243112564 0.2230420559644699 0.09853307902812958 0.0 255.0 0.0
-0.27123910188674927 0.19937272369861603 -0.06975656747817993 0.0 255.0 0.0
-0.2707524597644806 0.15146347880363464 -0.042953792959451675 0.0 255.0 0.0
0.10686297714710236 -0.2508869469165802 -0.050297025591135025 0.0 255.0 0.0
-0.004207366146147251 0.184163436293602 0.15427224338054657 0.0 255.0 0.0
0.007155693601816893 -0.25197264552116394 -0.0835196003317833 0.0 255.0 0.0
0.1820240318775177 -0.321266770362854 0.08955425024032593 0.0 255.0 0.0
0.035993874073028564 -0.1652502417564392 0.16935718059539795 0.0 255.0 0.0
0.2941155731678009 -0.07010285556316376 -0.025875447317957878 0.0 255.0 0.0
0.2959546148777008 0.09501234441995621 0.10970836877822876 0.0 255.0 0.0
0.2972581684589386 -0.005299953743815422 0.0008230289095081389 0.0 255.0 0.0
-0.2707524597644806 0.0364810973405838 0.036607399582862854 0.0 255.0 0.0
0.11970443278551102 0.2296006977558136 -0.10778605192899704 0.0 255.0 0.0
-0.0845765694975853 0.07766922563314438 -0.1365041583776474 0.0 255.0 0.0
-0.09976521134376526 0.2277822643518448 0.011048809625208378 0.0 255.0 0.0
0.038705699145793915 -0.061609331518411636 0.17094577848911285 0.0 255.0 0.0
-0.12697574496269226 -0.04744884371757507 0.16785170137882233 0.0 255.0 0.0
-0.12506525218486786 -0.1555187851190567 -0.13506805896759033 0.0 255.0 0.0
-0.035651326179504395 -0.08783216774463654 -0.1315453201532364 0.0 255.0 0.0
0.0733863115310669 -0.015689536929130554 0.16827218234539032 0.0 255.0 0.0
0.016588784754276276 -0.09557507932186127 0.16850341856479645 0.0 255.0 0.0
0.1757822185754776 0.44264543056488037 0.07228070497512817 0.0 255.0 0.0
0.21911418437957764 0.22963201999664307 -0.07964685559272766 0.0 255.0 0.0
0.14306563138961792 -0.3942444920539856 0.12624125182628632 0.0 255.0 0.0
-0.16929350793361664 0.23013688623905182 0.054293032735586166 0.0 255.0 0.0
-0.18220967054367065 -0.038278475403785706 0.16831077635288239 0.0 255.0 0.0
-0.10283967107534409 0.22812457382678986 0.00210180738940835 0.0 255.0 0.0
-0.15319661796092987 0.3911705017089844 0.02903737872838974 0.0 255.0 0.0
-0.2707524597644806 -0.061329443007707596 0.0408635251224041 0.0 255.0 0.0
0.15010732412338257 -0.3334227502346039 -0.006703255232423544 0.0 255.0 0.0
-0.31443649530410767 -0.3492591083049774 -0.004623209126293659 0.0 255.0 0.0
-0.2772658169269562 -0.42151716351509094 0.1188436895608902 0.0 255.0 0.0
0.2972581684589386 0.08186007291078568 0.10645236819982529 0.0 255.0 0.0
-0.1600339710712433 0.37804874777793884 0.0769188329577446 0.0 255.0 0.0
-0.1317460983991623 0.0413489043712616 -0.13401192426681519 0.0 255.0 0.0
-0.18790820240974426 -0.13730718195438385 0.1685131937265396 0.0 255.0 0.0
0.09485357254743576 -0.21683426201343536 -0.13767671585083008 0.0 255.0 0.0
-0.20110183954238892 0.16153331100940704 -0.13236108422279358 0.0 255.0 0.0
0.2972581684589386 -0.029687723144888878 -0.028729930520057678 0.0 255.0 0.0
0.04785351827740669 -0.17771866917610168 -0.13075539469718933 0.0 255.0 0.0
-0.21183855831623077 -0.3044453561306 0.08794879168272018 0.0 255.0 0.0
-0.07853041589260101 -0.10800156742334366 0.16940195858478546 0.0 255.0 0.0
0.2972581684589386 0.16175436973571777 -0.08631006628274918 0.0 255.0 0.0
-0.3139013350009918 -0.3668113648891449 0.18430295586585999 0.0 255.0 0.0
0.2891184091567993 -0.3907962143421173 0.11518511176109314 0.0 255.0 0.0
0.24498385190963745 -0.21693457663059235 -0.13506805896759033 0.0 255.0 0.0
0.03086783178150654 0.2250320166349411 -0.18287377059459686 0.0 255.0 0.0
0.2980991005897522 -0.22352001070976257 0.02824431285262108 0.0 255.0 0.0
0.15003806352615356 -0.2510856091976166 -0.01918838359415531 0.0 255.0 0.0
-0.2044147402048111 -0.3157449960708618 -0.07112244516611099 0.0 255.0 0.0
-0.2716565430164337 0.10512473434209824 0.017118064686655998 0.0 255.0 0.0
-0.11101854592561722 -0.043065402656793594 0.1722458153963089 0.0 255.0 0.0
0.19096773862838745 0.4824318587779999 -0.005543618928641081 0.0 255.0 0.0
0.1275644749403 -0.20902283489704132 0.15444335341453552 0.0 255.0 0.0
0.2563571333885193 -0.4460372030735016 0.09070996195077896 0.0 255.0 0.0
0.3033788502216339 0.41149285435676575 0.06148625537753105 0.0 255.0 0.0
0.29463282227516174 -0.10034099966287613 0.11700579524040222 0.0 255.0 0.0
0.14329321682453156 0.03932091221213341 0.1700698584318161 0.0 255.0 0.0
0.2147834151983261 0.509517252445221 0.0913732647895813 0.0 255.0 0.0
0.02450265921652317 -0.2501026690006256 -0.0502946637570858 0.0 255.0 0.0
0.29478976130485535 0.004077300429344177 0.0693584606051445 0.0 255.0 0.0
-0.08662189543247223 -0.22617925703525543 0.15619194507598877 0.0 255.0 0.0
0.07572216540575027 0.11548687517642975 -0.13534969091415405 0.0 255.0 0.0
-0.08142378181219101 0.018634140491485596 -0.13506805896759033 0.0 255.0 0.0
-0.053707487881183624 -0.1699419766664505 -0.13506805896759033 0.0 255.0 0.0
-0.15884888172149658 0.23141533136367798 0.03509541600942612 0.0 255.0 0.0
-0.055376846343278885 -0.20844249427318573 -0.1344616711139679 0.0 255.0 0.0
-0.2008828967809677 0.12976190447807312 -0.13680826127529144 0.0 255.0 0.0
-0.14170926809310913 0.1582140177488327 -0.13679921627044678 0.0 255.0 0.0
0.07493462413549423 -0.10974017530679703 -0.13478749990463257 0.0 255.0 0.0
-0.2488074004650116 0.008053374476730824 -0.2826007902622223 0.0 255.0 0.0
-0.27137070894241333 -0.026470409706234932 -0.09001066535711288 0.0 255.0 0.0
0.11568720638751984 -0.2502695620059967 -0.006554716732352972 0.0 255.0 0.0
-0.2697632908821106 -0.22791525721549988 -0.11282430589199066 0.0 255.0 0.0
0.2972581684589386 -0.17869198322296143 0.05606503784656525 0.0 255.0 0.0
0.2527428865432739 -0.11920366436243057 -0.1337236762046814 0.0 255.0 0.0
0.297666072845459 0.36569350957870483 -0.011459297500550747 0.0 255.0 0.0
0.14276252686977386 -0.25066301226615906 0.11614832282066345 0.0 255.0 0.0
-0.09553351998329163 0.008727919310331345 0.1691504567861557 0.0 255.0 0.0
-0.2707524597644806 -0.0943264365196228 0.05008034035563469 0.0 255.0 0.0
0.21044574677944183 0.23223233222961426 0.07444892078638077 0.0 255.0 0.0
0.29721251130104065 -0.10618811100721359 -0.006796316243708134 0.0 255.0 0.0
0.28185319900512695 0.3267054855823517 0.008425871841609478 0.0 255.0 0.0
0.26683953404426575 0.06023549661040306 -0.13745014369487762 0.0 255.0 0.0
0.14764975011348724 -0.25049737095832825 0.10194791853427887 0.0 255.0 0.0
-0.25625449419021606 0.41311371326446533 -0.05548592284321785 0.0 255.0 0.0
-0.00022843237093184143 -0.06701798737049103 0.1673484444618225 0.0 255.0 0.0
-0.2210264354944229 -0.4415130019187927 -0.04968302324414253 0.0 255.0 0.0
-0.23161812126636505 -0.3430389165878296 0.13152706623077393 0.0 255.0 0.0
-0.2707459032535553 -0.03206510469317436 0.13895484805107117 0.0 255.0 0.0
0.2085936963558197 -0.4457169473171234 -0.04252775385975838 0.0 255.0 0.0
-0.2694231867790222 -0.09836507588624954 0.08614450693130493 0.0 255.0 0.0
-0.003445260925218463 -0.2507445514202118 -0.011603143066167831 0.0 255.0 0.0
-0.1716245859861374 0.22872351109981537 0.13059210777282715 0.0 255.0 0.0
-0.2930270731449127 0.03852523863315582 -0.2711314260959625 0.0 255.0 0.0
0.29300370812416077 0.19172954559326172 0.029016824439167976 0.0 255.0 0.0
0.061795737594366074 -0.17415380477905273 -0.13579776883125305 0.0 255.0 0.0
-0.1593700647354126 0.17118248343467712 -0.13214178383350372 0.0 255.0 0.0
0.30156049132347107 0.10586214810609818 -0.0392354317009449 0.0 255.0 0.0
-0.10333193838596344 -0.24912743270397186 -0.09526616334915161 0.0 255.0 0.0
0.07233422994613647 -0.014246799983084202 0.16940195858478546 0.0 255.0 0.0
-0.2242669314146042 -0.09907323867082596 -0.13386167585849762 0.0 255.0 0.0
-0.052980344742536545 -0.24980638921260834 0.01932651549577713 0.0 255.0 0.0
-0.172158345580101 -0.04495970532298088 0.16700071096420288 0.0 255.0 0.0
-0.18304060399532318 -0.3081403374671936 0.06897636502981186 0.0 255.0 0.0
-0.1017451211810112 0.15515601634979248 -0.13988302648067474 0.0 255.0 0.0
-0.2138921022415161 -0.2509390413761139 -0.0941631942987442 0.0 255.0 0.0
-0.2864721715450287 -0.3124799132347107 0.05754440277814865 0.0 255.0 0.0
0.27276572585105896 -0.3002602458000183 0.030238313600420952 0.0 255.0 0.0
0.29913783073425293 -0.10635886341333389 -0.1004563570022583 0.0 255.0 0.0
0.171743243932724 -0.1958373636007309 -0.13221293687820435 0.0 255.0 0.0
-0.2168075442314148 0.14896129071712494 -0.13506805896759033 0.0 255.0 0.0
-0.045534245669841766 -0.25175586342811584 -0.02741573378443718 0.0 255.0 0.0
-0.2869639992713928 -0.3353012502193451 -0.0360788032412529 0.0 255.0 0.0
0.2884663939476013 -0.3696552515029907 0.10977857559919357 0.0 255.0 0.0
0.17693674564361572 0.13526169955730438 -0.13671179115772247 0.0 255.0 0.0
-0.2888868749141693 -0.032546743750572205 -0.2807586193084717 0.0 255.0 0.0
0.035454798489809036 0.06856145709753036 0.16940195858478546 0.0 255.0 0.0
-0.1353839933872223 -0.13848060369491577 -0.13090839982032776 0.0 255.0 0.0
-0.14568163454532623 0.07168451696634293 -0.1319006085395813 0.0 255.0 0.0
0.29464206099510193 0.4636876583099365 0.06772030889987946 0.0 255.0 0.0
0.2971744239330292 -0.03812693431973457 0.10490928590297699 0.0 255.0 0.0
0.2724246084690094 0.06120353564620018 -0.13289125263690948 0.0 255.0 0.0
0.2971842885017395 -0.08788792788982391 0.032049667090177536 0.0 255.0 0.0
-0.08212614804506302 -0.20206809043884277 -0.1343945413827896 0.0 255.0 0.0
-0.19324570894241333 -0.34329673647880554 0.08411868661642075 0.0 255.0 0.0
-0.26786327362060547 0.10900682955980301 -0.11716355383396149 0.0 255.0 0.0
0.06570705771446228 -0.2504638731479645 -0.10551595687866211 0.0 255.0 0.0
-0.1747075617313385 0.22373133897781372 -0.11444735527038574 0.0 255.0 0.0
0.22738556563854218 -0.1242046058177948 0.16796928644180298 0.0 255.0 0.0
-0.228069469332695 0.22822429239749908 -0.06924556195735931 0.0 255.0 0.0
-0.2711310386657715 0.025384804233908653 0.12219200283288956 0.0 255.0 0.0
-0.1728355884552002 -0.31570965051651 -0.040644995868206024 0.0 255.0 0.0
0.298597514629364 -0.008662591688334942 0.13710631430149078 0.0 255.0 0.0
0.1552119106054306 0.07701335847377777 -0.13347293436527252 0.0 255.0 0.0
-0.1980668604373932 0.09575113654136658 0.1690261960029602 0.0 255.0 0.0
-0.19600991904735565 -0.18624155223369598 0.16291466355323792 0.0 255.0 0.0
0.29605939984321594 -0.1698349118232727 -0.014055647887289524 0.0 255.0 0.0
-0.2689973711967468 -0.08604986220598221 -0.08054529130458832 0.0 255.0 0.0
0.16466768085956573 -0.35607168078422546 0.11630169302225113 0.0 255.0 0.0
-0.21373337507247925 -0.4633602499961853 0.03277759626507759 0.0 255.0 0.0
-0.2060302048921585 -0.44081541895866394 0.08427578955888748 0.0 255.0 0.0
-0.06563691794872284 0.2292102575302124 0.035945381969213486 0.0 255.0 0.0
-0.06999341398477554 0.11516034603118896 0.17043666541576385 0.0 255.0 0.0
-0.15452620387077332 0.19552747905254364 -0.13690602779388428 0.0 255.0 0.0
0.2243754267692566 -0.03808270022273064 -0.13506805896759033 0.0 255.0 0.0
-0.269455224275589 -0.006684307940304279 -0.11636274307966232 0.0 255.0 0.0
-0.09642294049263 -0.22523750364780426 -0.1308111697435379 0.0 255.0 0.0
0.27558964490890503 -0.039919763803482056 -0.13475579023361206 0.0 255.0 0.0
0.28093045949935913 0.22801849246025085 0.07815532386302948 0.0 255.0 0.0
0.299942284822464 0.4406394958496094 0.02712765522301197 0.0 255.0 0.0
0.2853600084781647 0.37580251693725586 -0.06202837452292442 0.0 255.0 0.0
-0.16658703982830048 -0.14914004504680634 -0.13506805896759033 0.0 255.0 0.0
-0.25146815180778503 -0.42563915252685547 0.16455048322677612 0.0 255.0 0.0
0.010950789786875248 -0.2507146894931793 0.009191443212330341 0.0 255.0 0.0
0.19417890906333923 -0.4477924108505249 0.07642456144094467 0.0 255.0 0.0
0.29774826765060425 0.210312619805336 0.036857254803180695 0.0 255.0 0.0
-0.27198296785354614 0.4115743637084961 0.009164415299892426 0.0 255.0 0.0
-0.16877266764640808 -0.3691682517528534 0.020897744223475456 0.0 255.0 0.0
-0.14097964763641357 -0.09350911527872086 0.16940195858478546 0.0 255.0 0.0
-0.26816293597221375 0.4238467812538147 0.005995300132781267 0.0 255.0 0.0
0.007728266064077616 -0.12893275916576385 0.16880853474140167 0.0 255.0 0.0
-0.06880439072847366 -0.048452071845531464 -0.1354442983865738 0.0 255.0 0.0
0.1587202399969101 -0.24960023164749146 0.1020863801240921 0.0 255.0 0.0
0.054322000592947006 0.005351651459932327 0.169112890958786 0.0 255.0 0.0
-0.029495123773813248 -0.15559671819210052 -0.13457933068275452 0.0 255.0 0.0
-0.0488802045583725 0.17238996922969818 -0.13506805896759033 0.0 255.0 0.0
-0.15287525951862335 0.04196310415863991 0.16574572026729584 0.0 255.0 0.0
-0.04771379381418228 -0.2506987452507019 -0.09318143129348755 0.0 255.0 0.0
-0.22078610956668854 0.22934913635253906 0.07804995775222778 0.0 255.0 0.0
-0.15626543760299683 0.406635582447052 -0.012795424088835716 0.0 255.0 0.0
-0.2708205282688141 -0.20309337973594666 0.06436492502689362 0.0 255.0 0.0
-0.10540004819631577 0.22802245616912842 -0.04370399937033653 0.0 255.0 0.0
0.13720381259918213 0.2278120070695877 0.1081615462899208 0.0 255.0 0.0
-0.11123321205377579 -0.25339293479919434 0.02661142311990261 0.0 255.0 0.0
0.0842040553689003 -0.24974404275417328 0.11865442991256714 0.0 255.0 0.0
0.2658892869949341 0.1080704927444458 0.1560283899307251 0.0 255.0 0.0
0.06054571270942688 -0.11215734481811523 -0.13073818385601044 0.0 255.0 0.0
0.09533573687076569 0.0594688281416893 0.16940195858478546 0.0 255.0 0.0
-0.27066871523857117 -0.1703699827194214 -0.07151664793491364 0.0 255.0 0.0
0.19097456336021423 -0.3842471241950989 -0.07665663212537766 0.0 255.0 0.0
-0.3200560510158539 -0.3282802104949951 0.14749009907245636 0.0 255.0 0.0
-0.03624771907925606 0.22770950198173523 -0.0862041637301445 0.0 255.0 0.0
-0.28645655512809753 -0.3550771176815033 -0.06790196895599365 0.0 255.0 0.0
0.2970411479473114 -0.09984492510557175 -0.002418210031464696 0.0 255.0 0.0
-0.11511580646038055 -0.06160509213805199 0.1713315099477768 0.0 255.0 0.0
-0.07505402714014053 -0.25248515605926514 -0.01860763505101204 0.0 255.0 0.0
-0.18631678819656372 0.22544649243354797 -0.0768677145242691 0.0 255.0 0.0
-0.14060421288013458 -0.09792349487543106 -0.132748544216156 0.0 255.0 0.0
-0.05973654240369797 0.18120260536670685 -0.13506805896759033 0.0 255.0 0.0
0.12219945341348648 -0.25411736965179443 -0.02366681955754757 0.0 255.0 0.0
-0.22185027599334717 0.22833402454853058 0.08459227532148361 0.0 255.0 0.0
0.2972581684589386 -0.06853901594877243 0.09798291325569153 0.0 255.0 0.0
0.297892689704895 -0.11649451404809952 -0.09683485329151154 0.0 255.0 0.0
-0.19636987149715424 0.22805026173591614 -0.11545161157846451 0.0 255.0 0.0
0.1765703409910202 -0.06712590157985687 0.17085711658000946 0.0 255.0 0.0
0.1406005471944809 -0.39968574047088623 0.1255299299955368 0.0 255.0 0.0
-0.13101312518119812 -0.09159883856773376 0.1723063886165619 0.0 255.0 0.0
0.2964686155319214 0.030688881874084473 -0.08920852839946747 0.0 255.0 0.0
-0.2695923447608948 0.42109277844429016 0.0770047977566719 0.0 255.0 0.0
-0.03218841180205345 -0.04667408764362335 -0.13679787516593933 0.0 255.0 0.0
-0.24615201354026794 -0.2525895833969116 -0.04297161474823952 0.0 255.0 0.0
0.2241887003183365 0.22810041904449463 0.11596815288066864 0.0 255.0 0.0
0.055281538516283035 -0.1371481567621231 -0.13506805896759033 0.0 255.0 0.0
0.1766175925731659 0.41843217611312866 0.08039122074842453 0.0 255.0 0.0
-0.18888616561889648 -0.03519529104232788 0.1693916767835617 0.0 255.0 0.0
0.30196312069892883 0.4238284230232239 0.036297693848609924 0.0 255.0 0.0
-0.2665354907512665 -0.12179017812013626 0.03782803937792778 0.0 255.0 0.0
0.28403183817863464 -0.4067157208919525 -0.033750325441360474 0.0 255.0 0.0
0.29950281977653503 0.4042872190475464 -0.009051200933754444 0.0 255.0 0.0
0.2285613864660263 0.16442188620567322 -0.13648271560668945 0.0 255.0 0.0
-0.22289414703845978 -0.08615220338106155 -0.13297797739505768 0.0 255.0 0.0
0.2541654706001282 0.40187546610832214 -0.09268741309642792 0.0 255.0 0.0
-0.22931459546089172 -0.34998828172683716 -0.0829036757349968 0.0 255.0 0.0
-0.25003495812416077 -0.25171369314193726 -0.10262306779623032 0.0 255.0 0.0
0.2715994119644165 0.32779309153556824 -0.031224325299263 0.0 255.0 0.0
-0.2673717737197876 -0.005207089241594076 0.07881122827529907 0.0 255.0 0.0
0.2997696101665497 -0.15952757000923157 -0.0705043375492096 0.0 255.0 0.0
-0.2707524597644806 -0.17818641662597656 0.10620994120836258 0.0 255.0 0.0
0.013855078257620335 -0.2520570158958435 -0.09095826745033264 0.0 255.0 0.0
0.12450356781482697 -0.2508823573589325 -0.025290200486779213 0.0 255.0 0.0
-0.257071852684021 -0.45362403988838196 0.05887743830680847 0.0 255.0 0.0
0.29020681977272034 -0.4100739359855652 0.12831276655197144 0.0 255.0 0.0
-0.04294268414378166 -0.25198012590408325 0.07403974235057831 0.0 255.0 0.0
-0.10061763972043991 0.04303056001663208 -0.13494226336479187 0.0 255.0 0.0
-0.09879916906356812 0.06374813616275787 -0.13457167148590088 0.0 255.0 0.0
0.14295633137226105 -0.14034725725650787 -0.13082264363765717 0.0 255.0 0.0
-0.23335504531860352 0.49989479780197144 0.06320172548294067 0.0 255.0 0.0
0.0828104317188263 0.227935791015625 0.03523017093539238 0.0 255.0 0.0
0.1436077207326889 0.22919490933418274 0.10139458626508713 0.0 255.0 0.0
-0.2342594712972641 0.22803063690662384 0.11356446892023087 0.0 255.0 0.0
-0.17061765491962433 0.18732328712940216 -0.138785257935524 0.0 255.0 0.0
-0.2707524597644806 -0.05523928999900818 -0.04451977089047432 0.0 255.0 0.0
-0.18836311995983124 0.39654138684272766 -0.07464481890201569 0.0 255.0 0.0
0.29559871554374695 0.03879290446639061 -0.0643889307975769 0.0 255.0 0.0
0.19101519882678986 -0.1348893642425537 -0.13326770067214966 0.0 255.0 0.0
0.1541517972946167 -0.2509203255176544 -0.0616670623421669 0.0 255.0 0.0
-0.03909558430314064 0.13270285725593567 -0.15986520051956177 0.0 255.0 0.0
0.2988821566104889 0.07985682040452957 0.012015891261398792 0.0 255.0 0.0
0.18427774310112 0.463610976934433 -0.029849346727132797 0.0 255.0 0.0
-0.27233052253723145 0.03731254115700722 -0.0019440309843048453 0.0 255.0 0.0
0.29648712277412415 0.07846079766750336 -0.030200397595763206 0.0 255.0 0.0
-0.17843694984912872 0.08614997565746307 0.16543565690517426 0.0 255.0 0.0
-0.07592502981424332 -0.2510644197463989 0.013517330400645733 0.0 255.0 0.0
-0.26887229084968567 0.005030135624110699 0.02233840338885784 0.0 255.0 0.0
-0.19027464091777802 0.4976605772972107 -0.013479847460985184 0.0 255.0 0.0
0.05258697271347046 -0.12192106246948242 -0.13506805896759033 0.0 255.0 0.0
-0.10709898173809052 0.021426314488053322 -0.1359037309885025 0.0 255.0 0.0
-0.15594521164894104 0.42170029878616333 0.07973312586545944 0.0 255.0 0.0
0.2972581684589386 0.13846781849861145 0.10313417762517929 0.0 255.0 0.0
0.06596077233552933 0.03254367783665657 -0.13430552184581757 0.0 255.0 0.0
0.14078259468078613 -0.3973523676395416 0.011676467955112457 0.0 255.0 0.0
-0.27125638723373413 -0.14668704569339752 -0.06898996233940125 0.0 255.0 0.0
-0.2431792914867401 0.27054718136787415 0.015028638765215874 0.0 255.0 0.0
0.20195624232292175 -0.3749805986881256 0.16894273459911346 0.0 255.0 0.0
-0.11711558699607849 0.22812457382678986 0.11052582412958145 0.0 255.0 0.0
0.0039858208037912846 0.22936952114105225 -0.06297209858894348 0.0 255.0 0.0
0.2992151975631714 0.35439297556877136 0.04259106516838074 0.0 255.0 0.0
0.29868701100349426 0.20749157667160034 0.11428771913051605 0.0 255.0 0.0
0.29343146085739136 0.20181266963481903 -0.058782730251550674 0.0 255.0 0.0
-0.26670822501182556 0.09129869937896729 -0.02998548001050949 0.0 255.0 0.0
0.05509801208972931 0.11632711440324783 0.16821368038654327 0.0 255.0 0.0
-0.17097125947475433 0.2282799780368805 -0.050398197025060654 0.0 255.0 0.0
-0.010203401558101177 -0.05783460661768913 -0.13506805896759033 0.0 255.0 0.0
0.20318710803985596 -0.446882963180542 0.003823903389275074 0.0 255.0 0.0
0.07213694602251053 -0.1680876761674881 -0.13383431732654572 0.0 255.0 0.0
0.1910015493631363 -0.250583678483963 0.12209532409906387 0.0 255.0 0.0
-0.12185122817754745 -0.25371333956718445 0.030680501833558083 0.0 255.0 0.0
-0.2707524597644806 -0.023921027779579163 -0.017602648586034775 0.0 255.0 0.0
-0.04958602786064148 0.22812457382678986 -0.08796053379774094 0.0 255.0 0.0
-0.16118194162845612 -0.06700288504362106 -0.13506805896759033 0.0 255.0 0.0
-0.2552221119403839 0.47313356399536133 0.002772111678496003 0.0 255.0 0.0
-0.20164991915225983 -0.43637514114379883 0.06233075633645058 0.0 255.0 0.0
-0.21564747393131256 -0.20290303230285645 -0.13506805896759033 0.0 255.0 0.0
-0.1463700383901596 -0.20040617883205414 -0.13102373480796814 0.0 255.0 0.0
0.14093321561813354 -0.3692769706249237 0.023679081350564957 0.0 255.0 0.0
0.2886091470718384 -0.42265772819519043 0.020557958632707596 0.0 255.0 0.0
0.23535825312137604 0.4680442810058594 -0.07753774523735046 0.0 255.0 0.0
-0.15570136904716492 0.44358858466148376 0.025745876133441925 0.0 255.0 0.0
0.26717403531074524 -0.023425664752721786 -0.13387112319469452 0.0 255.0 0.0
0.1009703204035759 0.16156253218650818 -0.13654889166355133 0.0 255.0 0.0
0.26827505230903625 -0.28697341680526733 0.0208843182772398 0.0 255.0 0.0
0.18931695818901062 0.4749247133731842 0.092568039894104 0.0 255.0 0.0
0.2958366870880127 0.030312642455101013 -0.03995293751358986 0.0 255.0 0.0
-0.31411993503570557 -0.3840649127960205 -0.05704360455274582 0.0 255.0 0.0
0.2647213339805603 0.5134316086769104 0.06396231800317764 0.0 255.0 0.0
-0.20974667370319366 0.2281796783208847 0.13371378183364868 0.0 255.0 0.0
0.10385654121637344 -0.11650387197732925 -0.13506805896759033 0.0 255.0 0.0
0.29817092418670654 0.1884315460920334 -0.06078048795461655 0.0 255.0 0.0
-0.2503567337989807 0.38251566886901855 -0.06542184203863144 0.0 255.0 0.0
-0.23980684578418732 -0.0003260883968323469 -0.1334516704082489 0.0 255.0 0.0
0.21290366351604462 0.22826413810253143 0.09710100293159485 0.0 255.0 0.0
-0.1171945258975029 0.22812457382678986 0.017983049154281616 0.0 255.0 0.0
0.28793030977249146 0.45989084243774414 -0.0367162711918354 0.0 255.0 0.0
0.2972581684589386 -0.10134673863649368 0.10943162441253662 0.0 255.0 0.0
0.2764478921890259 -0.14386752247810364 0.1621149778366089 0.0 255.0 0.0
0.29630112648010254 -0.17111223936080933 -0.022563109174370766 0.0 255.0 0.0
0.09281627833843231 -0.10990334302186966 0.16463927924633026 0.0 255.0 0.0
0.28101688623428345 -0.09759552776813507 0.15676836669445038 0.0 255.0 0.0
-0.32179877161979675 -0.396729975938797 0.06245936080813408 0.0 255.0 0.0
-0.15254797041416168 0.22949597239494324 0.04371316358447075 0.0 255.0 0.0
0.29791197180747986 -0.16365648806095123 -0.06830871850252151 0.0 255.0 0.0
0.2622930109500885 0.11044736951589584 -0.13506805896759033 0.0 255.0 0.0
0.09929032623767853 0.10689765959978104 -0.13506805896759033 0.0 255.0 0.0
-0.154048353433609 0.1311657726764679 -0.13892106711864471 0.0 255.0 0.0
0.1942385584115982 -0.04322155937552452 -0.1373935341835022 0.0 255.0 0.0
-0.13823136687278748 0.22812457382678986 0.08447064459323883 0.0 255.0 0.0
0.22431935369968414 0.13547392189502716 -0.13174307346343994 0.0 255.0 0.0
-0.19411982595920563 0.41103166341781616 -0.07660382241010666 0.0 255.0 0.0
0.12312021106481552 0.2269747406244278 0.11466512829065323 0.0 255.0 0.0
-0.07573630660772324 -0.010308166034519672 0.17243118584156036 0.0 255.0 0.0
-0.31009694933891296 -0.385945588350296 0.13511334359645844 0.0 255.0 0.0
-0.2707524597644806 0.07413170486688614 -0.017746886238455772 0.0 255.0 0.0
0.2346596121788025 0.002640934195369482 -0.13593745231628418 0.0 255.0 0.0
-0.2716541588306427 0.024803603067994118 -0.06130238249897957 0.0 255.0 0.0
-0.2810121178627014 -0.45662030577659607 -0.012029021047055721 0.0 255.0 0.0
-0.170868918299675 0.1548706293106079 -0.1343371421098709 0.0 255.0 0.0
0.2847513258457184 0.48387646675109863 0.09662690758705139 0.0 255.0 0.0
0.2619071304798126 -0.2766890227794647 -0.014075350016355515 0.0 255.0 0.0
-0.10735386610031128 0.23134693503379822 0.08433124423027039 0.0 255.0 0.0
-0.2703814208507538 0.04617643356323242 0.012259469367563725 0.0 255.0 0.0
0.05057759955525398 -0.1907164603471756 -0.13546669483184814 0.0 255.0 0.0
0.29680153727531433 0.05029694363474846 0.04024703800678253 0.0 255.0 0.0
0.033750034868717194 -0.15197210013866425 0.1665409654378891 0.0 255.0 0.0
0.2549663484096527 0.0009290285524912179 -0.13222217559814453 0.0 255.0 0.0
0.3025439977645874 0.3939932584762573 0.09162483364343643 0.0 255.0 0.0
0.2909546196460724 0.4807097315788269 0.027233416214585304 0.0 255.0 0.0
-0.10520629584789276 0.06788187474012375 0.16816644370555878 0.0 255.0 0.0
0.12101657688617706 -0.0016711009666323662 0.16940195858478546 0.0 255.0 0.0
0.15844769775867462 0.22885769605636597 -0.07278415560722351 0.0 255.0 0.0
-0.24628576636314392 -0.04974912106990814 -0.24424593150615692 0.0 255.0 0.0
-0.2224409431219101 0.22607778012752533 0.11145210266113281 0.0 255.0 0.0
-0.20296870172023773 -0.050548262894153595 -0.13611644506454468 0.0 255.0 0.0
-0.19325771927833557 -0.38422393798828125 0.10544735193252563 0.0 255.0 0.0
0.2119155377149582 -0.3455803096294403 0.13622863590717316 0.0 255.0 0.0
0.28004902601242065 -0.2552274167537689 0.03382347151637077 0.0 255.0 0.0
0.20224629342556 -0.2532184422016144 -0.06629844754934311 0.0 255.0 0.0
0.12225296348333359 0.14815464615821838 -0.13377664983272552 0.0 255.0 0.0
0.29446932673454285 0.09194820374250412 0.04174927622079849 0.0 255.0 0.0
0.19067072868347168 -0.3794596791267395 0.16899986565113068 0.0 255.0 0.0
0.10589339584112167 0.19933012127876282 0.1562604159116745 0.0 255.0 0.0
0.05648983642458916 -0.2507159411907196 0.0014970011543482542 0.0 255.0 0.0
-0.3259281516075134 -0.3839748501777649 -0.04572339728474617 0.0 255.0 0.0
-0.17379213869571686 0.3323962092399597 0.0055526988580822945 0.0 255.0 0.0
0.2972581684589386 0.04255584627389908 0.10471375286579132 0.0 255.0 0.0
-0.05963324010372162 -0.17219661176204681 -0.13506805896759033 0.0 255.0 0.0
-0.05879989638924599 -0.06116548180580139 -0.13637760281562805 0.0 255.0 0.0
-0.22724062204360962 -0.38273170590400696 -0.07856151461601257 0.0 255.0 0.0
0.23662202060222626 0.0813140869140625 -0.13227394223213196 0.0 255.0 0.0
0.1818024069070816 -0.03375968709588051 -0.13471339643001556 0.0 255.0 0.0
0.2874543070793152 -0.3838927149772644 0.02504279837012291 0.0 255.0 0.0
0.23155629634857178 0.227329283952713 -0.05769098550081253 0.0 255.0 0.0
-0.22322994470596313 -0.252858430147171 -0.08771214634180069 0.0 255.0 0.0
0.05853455513715744 -0.12534622848033905 0.16940195858478546 0.0 255.0 0.0
-0.09515248239040375 -0.18148906528949738 -0.13506805896759033 0.0 255.0 0.0
0.20701605081558228 0.039826005697250366 -0.13210633397102356 0.0 255.0 0.0
0.2226959764957428 -0.44573861360549927 0.12170185893774033 0.0 255.0 0.0
-0.113023541867733 0.22909408807754517 0.09136530756950378 0.0 255.0 0.0
0.22308625280857086 -0.28386369347572327 0.08146023750305176 0.0 255.0 0.0
0.19909270107746124 0.18513382971286774 0.15542924404144287 0.0 255.0 0.0
0.025995951145887375 0.22812457382678986 0.0851692408323288 0.0 255.0 0.0
0.2752550542354584 0.477431982755661 -0.035731278359889984 0.0 255.0 0.0
0.17419062554836273 -0.3113970160484314 0.07387443631887436 0.0 255.0 0.0
0.20491009950637817 -0.4447650611400604 -0.03597623109817505 0.0 255.0 0.0
-0.0028793606907129288 -0.25247642397880554 0.1314883679151535 0.0 255.0 0.0
0.2516888380050659 -0.21884070336818695 0.15699805319309235 0.0 255.0 0.0
0.1874261200428009 0.47457757592201233 -0.002651725197210908 0.0 255.0 0.0
-0.2715587019920349 0.09610511362552643 -0.10641451925039291 0.0 255.0 0.0
0.29606345295906067 0.08166306465864182 0.06990229338407516 0.0 255.0 0.0
-0.1413874626159668 0.22718675434589386 0.06192957982420921 0.0 255.0 0.0
-0.002766396151855588 0.06890758872032166 0.1691330373287201 0.0 255.0 0.0
0.2802621126174927 -0.35701262950897217 -0.031785234808921814 0.0 255.0 0.0
0.09953012317419052 -0.2522351145744324 0.14087194204330444 0.0 255.0 0.0
0.2972581684589386 0.20401935279369354 -0.11309921741485596 0.0 255.0 0.0
-0.1802404373884201 -0.3816811740398407 0.06736695021390915 0.0 255.0 0.0
0.1663753092288971 -0.27333614230155945 0.02063046768307686 0.0 255.0 0.0
0.28458940982818604 -0.3579203188419342 -0.005554688163101673 0.0 255.0 0.0
-0.08266865462064743 -0.213252454996109 -0.13506805896759033 0.0 255.0 0.0
-0.12461858987808228 -0.25159090757369995 0.0759579986333847 0.0 255.0 0.0
-0.2687338590621948 -0.22119905054569244 0.0948987752199173 0.0 255.0 0.0
0.05069012567400932 0.023527709767222404 -0.13506805896759033 0.0 255.0 0.0
0.17833591997623444 -0.24805733561515808 0.10378105938434601 0.0 255.0 0.0
0.17466439306735992 -0.15279521048069 -0.1336430162191391 0.0 255.0 0.0
0.2928798496723175 0.4663439393043518 0.04019242152571678 0.0 255.0 0.0
0.10627216845750809 0.1894599050283432 -0.13506805896759033 0.0 255.0 0.0
-0.20589326322078705 -0.4513850808143616 0.049168121069669724 0.0 255.0 0.0
0.016774112358689308 0.20433472096920013 0.15282003581523895 0.0 255.0 0.0
-0.23452141880989075 0.22766828536987305 0.07490816712379456 0.0 255.0 0.0
0.2817201614379883 -0.3453400433063507 0.08374530076980591 0.0 255.0 0.0
-0.27310964465141296 -0.42788347601890564 0.09822655469179153 0.0 255.0 0.0
-0.15855224430561066 0.4660886824131012 0.062153469771146774 0.0 255.0 0.0
-0.19999366998672485 0.07030568271875381 0.16831164062023163 0.0 255.0 0.0
0.19137127697467804 0.33577701449394226 -0.02463981695473194 0.0 255.0 0.0
-0.11306536942720413 0.228139266371727 0.08033982664346695 0.0 255.0 0.0
-0.029912017285823822 -0.06186188384890556 0.16940195858478546 0.0 255.0 0.0
-0.2682344317436218 -0.07951883226633072 -0.08394474536180496 0.0 255.0 0.0
0.2972581684589386 -0.1364002227783203 -0.09766571968793869 0.0 255.0 0.0
0.23406212031841278 -0.4472740590572357 0.08641809225082397 0.0 255.0 0.0
0.2286715805530548 -0.4482972025871277 0.07057642936706543 0.0 255.0 0.0
0.1966364085674286 -0.3974120020866394 -0.07786468416452408 0.0 255.0 0.0
-0.2707524597644806 0.036129310727119446 -0.02828359045088291 0.0 255.0 0.0
0.12548118829727173 -0.10990630090236664 -0.13279007375240326 0.0 255.0 0.0
-0.007405346259474754 0.22812457382678986 0.10091875493526459 0.0 255.0 0.0
-0.12164232134819031 -0.02272319234907627 -0.1344197392463684 0.0 255.0 0.0
-0.1357969492673874 0.04035124555230141 0.17257653176784515 0.0 255.0 0.0
-0.2707524597644806 -0.16034340858459473 -0.10527783632278442 0.0 255.0 0.0
0.2587299346923828 0.09966722130775452 -0.13707096874713898 0.0 255.0 0.0
-0.10514157265424728 0.029248997569084167 -0.1385941356420517 0.0 255.0 0.0
-0.11799050867557526 -0.05524640530347824 -0.13506805896759033 0.0 255.0 0.0
-0.02685686945915222 -0.02739601768553257 -0.13506805896759033 0.0 255.0 0.0
0.06594555824995041 -0.2485727071762085 0.0039861430414021015 0.0 255.0 0.0
0.01957724802196026 0.23060880601406097 0.043491050601005554 0.0 255.0 0.0
0.2987637519836426 0.19194257259368896 0.10622233897447586 0.0 255.0 0.0
0.1369646191596985 -0.20478856563568115 -0.13506805896759033 0.0 255.0 0.0
-0.1947796493768692 -0.34370455145835876 -0.06388632953166962 0.0 255.0 0.0
0.12566284835338593 -0.08560920506715775 -0.1359773427248001 0.0 255.0 0.0
-0.079686239361763 0.222798690199852 -0.046679556369781494 0.0 255.0 0.0
0.05450160801410675 0.02482902817428112 0.1679183691740036 0.0 255.0 0.0
-0.03953206166625023 -0.08173776417970657 -0.13963592052459717 0.0 255.0 0.0
-0.007838824763894081 0.22812457382678986 0.09584171324968338 0.0 255.0 0.0
0.07226374745368958 0.08641447126865387 0.16940195858478546 0.0 255.0 0.0
-0.1543193757534027 -0.019897183403372765 0.16856832802295685 0.0 255.0 0.0
-0.10554326325654984 -0.24995243549346924 0.030332045629620552 0.0 255.0 0.0
-0.31743133068084717 -0.33148035407066345 0.13038726150989532 0.0 255.0 0.0
-0.2707391679286957 0.19443996250629425 -0.051882777363061905 0.0 255.0 0.0
0.10482246428728104 -0.10071992874145508 0.16940195858478546 0.0 255.0 0.0
0.2972581684589386 0.042535848915576935 0.04855574667453766 0.0 255.0 0.0
0.1495029777288437 0.22747783362865448 -0.021728014573454857 0.0 255.0 0.0
0.14150097966194153 -0.2501569092273712 -0.05418141558766365 0.0 255.0 0.0
-0.2707524597644806 0.13539636135101318 -0.005935293156653643 0.0 255.0 0.0
0.24154390394687653 -0.24842427670955658 0.11971227824687958 0.0 255.0 0.0
0.03679962456226349 -0.1525060087442398 0.16940195858478546 0.0 255.0 0.0
-0.24299485981464386 0.4912251830101013 0.06803704053163528 0.0 255.0 0.0
-0.01673254556953907 0.02799087017774582 0.16940195858478546 0.0 255.0 0.0
-0.23371583223342896 -0.35641270875930786 -0.0883713960647583 0.0 255.0 0.0
-0.2693609297275543 -0.4175507724285126 0.1445813924074173 0.0 255.0 0.0
-0.1579754799604416 0.45863479375839233 0.03060981072485447 0.0 255.0 0.0
-0.24769940972328186 -0.46068882942199707 0.054234329611063004 0.0 255.0 0.0
0.11298758536577225 -0.06758895516395569 -0.13418026268482208 0.0 255.0 0.0
-0.0022667672019451857 -0.2502456307411194 0.13611510396003723 0.0 255.0 0.0
-0.2707524597644806 -0.05633433535695076 -0.07997925579547882 0.0 255.0 0.0
-0.21561996638774872 -0.022594265639781952 -0.13837194442749023 0.0 255.0 0.0
0.1276717185974121 -0.13916419446468353 0.16844722628593445 0.0 255.0 0.0
-0.191947802901268 0.14274683594703674 -0.13683852553367615 0.0 255.0 0.0
-0.19343778491020203 -0.3408080041408539 0.08382238447666168 0.0 255.0 0.0
0.29928046464920044 0.1528540402650833 0.12370400875806808 0.0 255.0 0.0
-0.03381643071770668 0.039033886045217514 0.16838379204273224 0.0 255.0 0.0
0.29609760642051697 0.19333630800247192 0.02262989617884159 0.0 255.0 0.0
-0.23065905272960663 -0.2506186366081238 -0.08079114556312561 0.0 255.0 0.0
-0.2694692611694336 -0.09990568459033966 0.02941022627055645 0.0 255.0 0.0
-0.019619358703494072 0.22724109888076782 -0.0768500566482544 0.0 255.0 0.0
-0.2707456052303314 0.039292868226766586 0.13906632363796234 0.0 255.0 0.0
0.17744863033294678 -0.44621434807777405 0.0638994574546814 0.0 255.0 0.0
-0.21392804384231567 -0.1978841871023178 -0.13506805896759033 0.0 255.0 0.0
-0.14248792827129364 -0.1576901078224182 0.17133653163909912 0.0 255.0 0.0
0.2438216209411621 0.1807771772146225 -0.13482888042926788 0.0 255.0 0.0
0.045280858874320984 0.15266326069831848 -0.13506805896759033 0.0 255.0 0.0
-0.15222258865833282 0.22812457382678986 -0.006779554300010204 0.0 255.0 0.0
0.3008006513118744 0.07093163579702377 -0.0234664473682642 0.0 255.0 0.0
0.1068141907453537 0.07813499122858047 0.1707964837551117 0.0 255.0 0.0
0.3002541959285736 -0.1405089646577835 -0.08178142458200455 0.0 255.0 0.0
-0.025563344359397888 0.2288369983434677 0.07697506994009018 0.0 255.0 0.0
-0.18174517154693604 -0.3582793176174164 -0.04858631268143654 0.0 255.0 0.0
-0.2001018226146698 -0.441057026386261 -0.01073338184505701 0.0 255.0 0.0
0.09955435991287231 -0.21938668191432953 0.1594013124704361 0.0 255.0 0.0
0.2709256410598755 -0.25034448504447937 0.09849341958761215 0.0 255.0 0.0
0.18939946591854095 -0.35892707109451294 0.14850474894046783 0.0 255.0 0.0
-0.285183310508728 -0.3191694915294647 0.02759573981165886 0.0 255.0 0.0
0.22112491726875305 -0.44323912262916565 0.0010269260965287685 0.0 255.0 0.0
0.018356893211603165 0.22655600309371948 -0.016654299572110176 0.0 255.0 0.0
0.25765687227249146 -0.19121281802654266 -0.13506805896759033 0.0 255.0 0.0
-0.01593833602964878 -0.07390579581260681 0.16940195858478546 0.0 255.0 0.0
0.05881596356630325 0.23020778596401215 -0.07307443022727966 0.0 255.0 0.0
0.08876416832208633 0.22812457382678986 -0.02565694972872734 0.0 255.0 0.0
0.03653689846396446 -0.2506851851940155 -0.07941102981567383 0.0 255.0 0.0
0.022391432896256447 -0.044288329780101776 -0.13315875828266144 0.0 255.0 0.0
-0.29481765627861023 -0.43838465213775635 -0.001115612918511033 0.0 255.0 0.0
-0.11451153457164764 0.137120321393013 0.16535966098308563 0.0 255.0 0.0
0.30053892731666565 0.09832841902971268 0.028789924457669258 0.0 255.0 0.0
0.14730267226696014 -0.38407155871391296 -0.006280452013015747 0.0 255.0 0.0
-0.15837422013282776 0.4633212387561798 0.02808765135705471 0.0 255.0 0.0
0.014031479135155678 0.07235463708639145 0.16940195858478546 0.0 255.0 0.0
-0.27188000082969666 0.021234752610325813 0.00878431461751461 0.0 255.0 0.0
0.009169254451990128 -0.2509508430957794 0.024013327434659004 0.0 255.0 0.0
-0.3317911624908447 -0.35309943556785583 0.09184791147708893 0.0 255.0 0.0
0.17999160289764404 0.3492398262023926 0.04478362947702408 0.0 255.0 0.0
-0.15093602240085602 -0.25092482566833496 0.13295693695545197 0.0 255.0 0.0
0.18402893841266632 -0.25116613507270813 -0.055234555155038834 0.0 255.0 0.0
-0.2689564526081085 -0.10112476348876953 -0.024680428206920624 0.0 255.0 0.0
0.29685309529304504 0.12040621042251587 0.12079482525587082 0.0 255.0 0.0
0.14591489732265472 -0.3371535539627075 0.015205759555101395 0.0 255.0 0.0
-0.04050855338573456 -0.09036778658628464 0.16485589742660522 0.0 255.0 0.0
0.2981026768684387 -0.032820217311382294 0.05068289116024971 0.0 255.0 0.0
-0.26715052127838135 0.007249987684190273 -0.05576659366488457 0.0 255.0 0.0
-0.2707524597644806 -0.14808757603168488 -0.1074722483754158 0.0 255.0 0.0
0.003592588473111391 -0.07992935925722122 -0.13302110135555267 0.0 255.0 0.0
-0.2690509855747223 -0.1733986884355545 -0.007903899066150188 0.0 255.0 0.0
-0.08776801079511642 0.009694239124655724 0.1678793877363205 0.0 255.0 0.0
0.12093722075223923 -0.14750726521015167 -0.13506805896759033 0.0 255.0 0.0
0.2972581684589386 -0.20260968804359436 -0.007843990810215473 0.0 255.0 0.0
-0.18008868396282196 -0.28035441040992737 0.06519737839698792 0.0 255.0 0.0
-0.2718990743160248 0.12778344750404358 0.015251003205776215 0.0 255.0 0.0
-0.16518506407737732 0.47515803575515747 0.026851842179894447 0.0 255.0 0.0
-0.19201338291168213 -0.041136469691991806 0.16937994956970215 0.0 255.0 0.0
-0.2939200699329376 0.01334445271641016 -0.2791679799556732 0.0 255.0 0.0
-0.20321613550186157 -0.38625892996788025 0.1303262710571289 0.0 255.0 0.0
0.03742527216672897 0.14198307693004608 -0.13677309453487396 0.0 255.0 0.0
-0.1293492168188095 -0.20978491008281708 -0.13506805896759033 0.0 255.0 0.0
-0.11075595766305923 -0.07718298584222794 0.16940195858478546 0.0 255.0 0.0
-0.13462476432323456 0.14813119173049927 -0.13506805896759033 0.0 255.0 0.0
0.2788289487361908 -0.32327407598495483 0.0070868805050849915 0.0 255.0 0.0
0.2972581684589386 0.14115683734416962 0.06624366343021393 0.0 255.0 0.0
-0.288099080324173 -0.3118264973163605 0.0735834613442421 0.0 255.0 0.0
0.2155933678150177 -0.3307318091392517 0.1182168498635292 0.0 255.0 0.0
0.0030140711460262537 0.2022266536951065 -0.23412665724754333 0.0 255.0 0.0
0.2460496872663498 0.3265853524208069 0.0660809651017189 0.0 255.0 0.0
0.20530100166797638 -0.16728132963180542 0.17140813171863556 0.0 255.0 0.0
0.18162131309509277 -0.30620500445365906 0.07626841217279434 0.0 255.0 0.0
0.15754838287830353 0.2322954386472702 0.11025997996330261 0.0 255.0 0.0
-0.202950119972229 -0.44569772481918335 0.01562832109630108 0.0 255.0 0.0
0.2972581684589386 0.008290855213999748 0.002198682865127921 0.0 255.0 0.0
0.29579856991767883 0.07362022995948792 0.03713012859225273 0.0 255.0 0.0
-0.3234810531139374 -0.4136928915977478 0.01533403992652893 0.0 255.0 0.0
0.1777293086051941 0.38937661051750183 0.07882841676473618 0.0 255.0 0.0
0.2960383892059326 -0.21822598576545715 0.025402354076504707 0.0 255.0 0.0
-0.2713947296142578 -0.14528663456439972 0.013232480734586716 0.0 255.0 0.0
