-0.10524116456508636 0.22937315702438354 -0.02465430460870266 0.0 255.0 0.0
-0.15650610625743866 -0.3209397792816162 0.014799399301409721 0.0 255.0 0.0
0.1875014454126358 -0.2506236732006073 0.1211191937327385 0.0 255.0 0.0
-0.19337856769561768 -0.14860303699970245 -0.13506805896759033 0.0 255.0 0.0
0.21635374426841736 0.02817637287080288 -0.13506805896759033 0.0 255.0 0.0
-0.3226035535335541 -0.36538127064704895 0.14788390696048737 0.0 255.0 0.0
0.29993709921836853 -0.027613339945673943 0.10355260223150253 0.0 255.0 0.0
-0.2700337767601013 -0.21481700241565704 0.10428839176893234 0.0 255.0 0.0
-0.2674737870693207 -0.43592432141304016 0.08582039177417755 0.0 255.0 0.0
0.29950419068336487 -0.005273077636957169 0.0671495869755745 0.0 255.0 0.0
0.2972581684589386 0.15448646247386932 -0.02221570909023285 0.0 255.0 0.0
0.2956939935684204 0.19004693627357483 0.03658454120159149 0.0 255.0 0.0
0.29782557487487793 -0.23048773407936096 0.12713901698589325 0.0 255.0 0.0
0.21565458178520203 -0.3636758029460907 0.15607617795467377 0.0 255.0 0.0
0.22465819120407104 -0.044218819588422775 -0.13506805896759033 0.0 255.0 0.0
0.03865066543221474 0.2029871791601181 -0.16451966762542725 0.0 255.0 0.0
0.2959904968738556 0.45330360531806946 -0.023306071758270264 0.0 255.0 0.0
0.2768380343914032 -0.37578463554382324 -0.047866106033325195 0.0 255.0 0.0
-0.05989741533994675 -0.057914234697818756 0.1670750230550766 0.0 255.0 0.0
-0.2616846561431885 -0.4112038314342499 0.1845976710319519 0.0 255.0 0.0
0.16928914189338684 -0.03190768510103226 -0.14049175381660461 0.0 255.0 0.0
0.20191684365272522 -0.13753819465637207 0.16963405907154083 0.0 255.0 0.0
-0.2991216778755188 -0.42725199460983276 0.015192264690995216 0.0 255.0 0.0
-0.18936383724212646 -0.2149902880191803 0.15635263919830322 0.0 255.0 0.0
0.1949729025363922 0.18503338098526 0.15549151599407196 0.0 255.0 0.0
0.27969038486480713 0.32924318313598633 -0.028038667514920235 0.0 255.0 0.0
-0.2513211667537689 0.4767618775367737 0.0496293380856514 0.0 255.0 0.0
-0.2460479438304901 -0.25229892134666443 -0.042396996170282364 0.0 255.0 0.0
0.10578085482120514 0.04333220794796944 -0.13737860321998596 0.0 255.0 0.0
0.14224936068058014 0.03411806747317314 -0.13506805896759033 0.0 255.0 0.0
0.09417376667261124 0.07657255232334137 0.1678815633058548 0.0 255.0 0.0
0.033668361604213715 0.032088346779346466 -0.13716624677181244 0.0 255.0 0.0
0.06893878430128098 -0.08495834469795227 -0.13715742528438568 0.0 255.0 0.0
0.016500893980264664 0.17384716868400574 -0.13609175384044647 0.0 255.0 0.0
0.13921572268009186 -0.3837195336818695 0.03069971315562725 0.0 255.0 0.0
0.18525037169456482 -0.44649726152420044 0.14956942200660706 0.0 255.0 0.0
0.0386839285492897 0.030502954497933388 0.16940195858478546 0.0 255.0 0.0
-0.2707524597644806 0.18538038432598114 0.06462298333644867 0.0 255.0 0.0
0.20913363993167877 -0.3610680401325226 0.151736319065094 0.0 255.0 0.0
-0.13541923463344574 0.12494517862796783 0.16739831864833832 0.0 255.0 0.0
-0.24403426051139832 -0.35393187403678894 0.16573193669319153 0.0 255.0 0.0
-0.138201043009758 -0.24938803911209106 0.09411804378032684 0.0 255.0 0.0
0.18768692016601562 -0.041508324444293976 0.16940195858478546 0.0 255.0 0.0
-0.00422768946737051 -0.2446860373020172 0.12167325615882874 0.0 255.0 0.0
0.17066660523414612 0.4032943546772003 0.01669449359178543 0.0 255.0 0.0
-0.1953679770231247 -0.10805504024028778 -0.13506805896759033 0.0 255.0 0.0
0.13740864396095276 -0.3800255358219147 0.04185355454683304 0.0 255.0 0.0
-0.002859527012333274 0.12161874771118164 -0.13836036622524261 0.0 255.0 0.0
0.19341106712818146 0.3273545801639557 0.011997020803391933 0.0 255.0 0.0
-0.16744692623615265 0.2241540253162384 0.08325088769197464 0.0 255.0 0.0
0.04512892663478851 -0.08546684682369232 -0.13259631395339966 0.0 255.0 0.0
0.15612664818763733 -0.2511451542377472 -0.01993219554424286 0.0 255.0 0.0
0.12668396532535553 -0.13994300365447998 -0.13506805896759033 0.0 255.0 0.0
0.03139382228255272 -0.12129640579223633 0.16940195858478546 0.0 255.0 0.0
-0.021102868020534515 0.22763453423976898 -0.09033460170030594 0.0 255.0 0.0
-0.27064377069473267 -0.07230154424905777 -0.03845467045903206 0.0 255.0 0.0
0.29807934165000916 0.06741803139448166 -0.07706098258495331 0.0 255.0 0.0
0.13946595788002014 -0.36053410172462463 0.029996812343597412 0.0 255.0 0.0
-0.20503515005111694 -0.24953638017177582 0.10806707292795181 0.0 255.0 0.0
-0.04153676703572273 0.1546187698841095 -0.16107787191867828 0.0 255.0 0.0
0.2947121858596802 -0.08390785753726959 0.09363064914941788 0.0 255.0 0.0
-0.048774342983961105 0.22812457382678986 0.06728404760360718 0.0 255.0 0.0
0.29334673285484314 0.3892022371292114 -0.048754461109638214 0.0 255.0 0.0
-0.2719199061393738 0.11202127486467361 0.0672382190823555 0.0 255.0 0.0
-0.19350503385066986 -0.2526307702064514 0.11235439777374268 0.0 255.0 0.0
0.2009708136320114 -0.2812660336494446 0.07611989974975586 0.0 255.0 0.0
0.24943017959594727 0.034647952765226364 -0.13506805896759033 0.0 255.0 0.0
0.11908446252346039 0.020980997011065483 -0.1345033347606659 0.0 255.0 0.0
-0.019714534282684326 0.08035066723823547 0.16940195858478546 0.0 255.0 0.0
0.09308308362960815 0.22812457382678986 0.11006627976894379 0.0 255.0 0.0
-0.1573190540075302 -0.24996736645698547 0.14014141261577606 0.0 255.0 0.0
-0.189059779047966 -0.0850476399064064 -0.13336195051670074 0.0 255.0 0.0
0.0318794809281826 -0.2507140338420868 0.06736870110034943 0.0 255.0 0.0
-0.00640022661536932 0.1341429054737091 0.16940195858478546 0.0 255.0 0.0
-0.05996275693178177 0.026678549125790596 -0.1371239572763443 0.0 255.0 0.0
0.2914677560329437 0.4442155063152313 -0.044164013117551804 0.0 255.0 0.0
0.06359396129846573 0.1336883157491684 -0.154630646109581 0.0 255.0 0.0
0.18497218191623688 -0.21731075644493103 0.15652069449424744 0.0 255.0 0.0
0.07190106809139252 -0.25230836868286133 0.050130393356084824 0.0 255.0 0.0
0.09151308983564377 -0.22700411081314087 0.15629726648330688 0.0 255.0 0.0
0.2960921823978424 0.3662916123867035 -0.025835871696472168 0.0 255.0 0.0
0.1285545974969864 -0.005899830721318722 -0.13605040311813354 0.0 255.0 0.0
0.2211921662092209 0.5138136744499207 0.02142477221786976 0.0 255.0 0.0
0.29664647579193115 -0.02104080282151699 0.03490205854177475 0.0 255.0 0.0
-0.05361532047390938 -0.12091527134180069 -0.13351979851722717 0.0 255.0 0.0
-0.2566528022289276 0.3381485342979431 0.016950085759162903 0.0 255.0 0.0
-0.2151823341846466 -0.37375307083129883 0.13793671131134033 0.0 255.0 0.0
0.1704741269350052 -0.3185848891735077 0.07460863143205643 0.0 255.0 0.0
0.2948683798313141 0.3599085211753845 0.010736855678260326 0.0 255.0 0.0
-0.2343323975801468 0.2281094789505005 -0.07664481550455093 0.0 255.0 0.0
0.2687968611717224 -0.24816589057445526 -0.08623746782541275 0.0 255.0 0.0
0.18025904893875122 0.025791775435209274 -0.13506805896759033 0.0 255.0 0.0
0.2905130386352539 0.4015757739543915 -0.05880378559231758 0.0 255.0 0.0
-0.07996135205030441 0.18404501676559448 -0.13506805896759033 0.0 255.0 0.0
0.015652183443307877 0.24665367603302002 -0.19568897783756256 0.0 255.0 0.0
0.29550206661224365 -0.199936181306839 0.0644666850566864 0.0 255.0 0.0
-0.11489924043416977 0.22812457382678986 -0.09834792464971542 0.0 255.0 0.0
0.10337159037590027 0.17117740213871002 -0.1338912397623062 0.0 255.0 0.0
-0.2864452302455902 -0.31112170219421387 0.06746365875005722 0.0 255.0 0.0
0.06947842985391617 -0.22012527287006378 -0.13448357582092285 0.0 255.0 0.0
0.22796301543712616 -0.3136853277683258 -0.08007334917783737 0.0 255.0 0.0
-0.27295735478401184 -0.10175539553165436 -0.008405955508351326 0.0 255.0 0.0
-0.0635984018445015 -0.22060123085975647 0.15624219179153442 0.0 255.0 0.0
0.06004967540502548 0.18113568425178528 -0.19788487255573273 0.0 255.0 0.0
0.2972581684589386 0.15178872644901276 -0.015127849765121937 0.0 255.0 0.0
0.1857997179031372 -0.44774770736694336 -0.00368204596452415 0.0 255.0 0.0
-0.26992255449295044 0.15879178047180176 -0.04494406655430794 0.0 255.0 0.0
0.19439156353473663 -0.054921917617321014 -0.13563916087150574 0.0 255.0 0.0
0.27647119760513306 -0.32970166206359863 0.020907599478960037 0.0 255.0 0.0
-0.2699423134326935 0.16093719005584717 -0.10357534885406494 0.0 255.0 0.0
-0.10763221234083176 -0.16074442863464355 0.1652759462594986 0.0 255.0 0.0
0.15783903002738953 -0.35356029868125916 0.10189907997846603 0.0 255.0 0.0
-0.26916953921318054 0.4337804913520813 0.037894971668720245 0.0 255.0 0.0
0.26580774784088135 -0.27891671657562256 0.01652580499649048 0.0 255.0 0.0
0.1453361064195633 -0.18587885797023773 -0.13375279307365417 0.0 255.0 0.0
-0.0492117702960968 0.05807077884674072 -0.13523606956005096 0.0 255.0 0.0
0.07902797311544418 0.22812457382678986 0.10168693959712982 0.0 255.0 0.0
-0.18478651344776154 -0.390383243560791 0.07906723767518997 0.0 255.0 0.0
-0.2714296579360962 0.08397170901298523 0.013879560865461826 0.0 255.0 0.0
0.2697894871234894 0.011270756833255291 -0.13506805896759033 0.0 255.0 0.0
0.1186295747756958 0.22780565917491913 -0.006024193484336138 0.0 255.0 0.0
-0.15578457713127136 -0.0775790810585022 0.17317652702331543 0.0 255.0 0.0
0.13840371370315552 -0.39953893423080444 0.0429421029984951 0.0 255.0 0.0
-0.01390807144343853 0.23199795186519623 -0.029469050467014313 0.0 255.0 0.0
0.29722416400909424 0.0567280650138855 -0.04455234855413437 0.0 255.0 0.0
-0.2707524597644806 -0.00881658960133791 0.08515438437461853 0.0 255.0 0.0
0.19869168102741241 0.10970998555421829 0.16940195858478546 0.0 255.0 0.0
0.28693637251853943 -0.36470359563827515 0.08739422261714935 0.0 255.0 0.0
-0.16626302897930145 -0.21263858675956726 -0.13428743183612823 0.0 255.0 0.0
0.17791755497455597 0.06991638243198395 0.16832657158374786 0.0 255.0 0.0
-0.001590966247022152 -0.1557648628950119 0.17400556802749634 0.0 255.0 0.0
-0.2929786443710327 0.07272966206073761 -0.29046937823295593 0.0 255.0 0.0
0.28252261877059937 -0.2514837086200714 -0.023587334901094437 0.0 255.0 0.0
-0.2846226096153259 -0.3067006468772888 0.08858524262905121 0.0 255.0 0.0
0.01559328380972147 -0.24680744111537933 -0.11581052839756012 0.0 255.0 0.0
-0.05498461797833443 0.22956439852714539 -0.08376023918390274 0.0 255.0 0.0
-0.032823674380779266 0.22534815967082977 -0.02057740092277527 0.0 255.0 0.0
-0.2550264596939087 -0.47063085436820984 -0.0021462864242494106 0.0 255.0 0.0
0.2972841262817383 0.08324339985847473 -0.048138342797756195 0.0 255.0 0.0
-0.15389856696128845 0.22724318504333496 -0.110544852912426 0.0 255.0 0.0
0.2955529987812042 -0.1312718689441681 -0.05903690308332443 0.0 255.0 0.0
0.29752105474472046 0.019101789221167564 0.10228060930967331 0.0 255.0 0.0
0.04880141466856003 -0.03787963464856148 0.16940195858478546 0.0 255.0 0.0
0.2989014685153961 -0.1155412420630455 -0.03150659054517746 0.0 255.0 0.0
0.00033245384111069143 -0.1259833425283432 0.16814464330673218 0.0 255.0 0.0
0.2402714490890503 0.32515209913253784 0.06896355003118515 0.0 255.0 0.0
0.12598276138305664 -3.394100349396467e-05 0.17103877663612366 0.0 255.0 0.0
0.2949352562427521 0.00552600622177124 0.035751547664403915 0.0 255.0 0.0
0.2699443995952606 -0.22111646831035614 -0.13273116946220398 0.0 255.0 0.0
0.1331607699394226 0.22708436846733093 0.055097971111536026 0.0 255.0 0.0
-0.16821807622909546 -0.119440458714962 0.16940195858478546 0.0 255.0 0.0
-0.24017301201820374 0.23008453845977783 0.08548807352781296 0.0 255.0 0.0
-0.2667611837387085 0.3630920350551605 0.010404433123767376 0.0 255.0 0.0
0.05002010986208916 -0.05632369965314865 -0.13865622878074646 0.0 255.0 0.0
-0.07789913564920425 0.06415044516324997 0.16912850737571716 0.0 255.0 0.0
0.16032688319683075 -0.2920584976673126 0.026504721492528915 0.0 255.0 0.0
-0.20168748497962952 -0.029501745477318764 0.16934368014335632 0.0 255.0 0.0
-0.061427656561136246 -0.2529469430446625 -0.058283139020204544 0.0 255.0 0.0
-0.2726653516292572 0.17771077156066895 -0.012419488281011581 0.0 255.0 0.0
0.1619710922241211 -0.1386084258556366 -0.13997185230255127 0.0 255.0 0.0
-0.058793939650058746 0.22944915294647217 -0.05296675115823746 0.0 255.0 0.0
0.2972581684589386 0.09798801690340042 -0.025514375418424606 0.0 255.0 0.0
-0.03843390941619873 -0.1562647819519043 0.16940081119537354 0.0 255.0 0.0
-0.09606584161520004 -0.22480453550815582 0.15628643333911896 0.0 255.0 0.0
0.2140052169561386 0.5073181390762329 -0.016074147075414658 0.0 255.0 0.0
-0.2911953032016754 -0.3146521747112274 0.07383427023887634 0.0 255.0 0.0
-0.19748644530773163 -0.4358752965927124 0.07543431967496872 0.0 255.0 0.0
-0.03763255476951599 0.228499636054039 -0.048782866448163986 0.0 255.0 0.0
0.05220343545079231 -0.010636500082910061 -0.13506805896759033 0.0 255.0 0.0
0.298066645860672 0.09329244494438171 -0.003967694006860256 0.0 255.0 0.0
-0.15849575400352478 0.4465855062007904 -0.009466630406677723 0.0 255.0 0.0
0.29978200793266296 0.4306736886501312 0.09121181070804596 0.0 255.0 0.0
0.11589301377534866 0.1294928342103958 -0.13506805896759033 0.0 255.0 0.0
-0.2862892150878906 -0.3102753758430481 0.09827298671007156 0.0 255.0 0.0
-0.11297958344221115 -0.17844653129577637 -0.13561272621154785 0.0 255.0 0.0
0.2956541180610657 -0.13596747815608978 0.09579020738601685 0.0 255.0 0.0
0.27442997694015503 -0.31023064255714417 0.03615964949131012 0.0 255.0 0.0
-0.2707524597644806 -0.13992439210414886 0.05444956198334694 0.0 255.0 0.0
0.17067459225654602 -0.29070591926574707 0.04987245053052902 0.0 255.0 0.0
-0.2716260254383087 -0.03919856250286102 -0.10800210386514664 0.0 255.0 0.0
-0.2477179318666458 0.3228117525577545 0.024292394518852234 0.0 255.0 0.0
0.29823070764541626 0.411723256111145 0.0913023129105568 0.0 255.0 0.0
0.004051212687045336 -0.08983799070119858 -0.13506805896759033 0.0 255.0 0.0
-0.25908979773521423 -0.29045113921165466 0.012824766337871552 0.0 255.0 0.0
0.23975703120231628 0.08877208828926086 -0.13686875998973846 0.0 255.0 0.0
0.2972581684589386 -0.0016389985103160143 -0.058824460953474045 0.0 255.0 0.0
-0.15510053932666779 0.03261181339621544 -0.1340836137533188 0.0 255.0 0.0
0.2972581684589386 -0.1434524655342102 0.0013656234368681908 0.0 255.0 0.0
-0.14514435827732086 -0.25098156929016113 -0.11605514585971832 0.0 255.0 0.0
-0.026522301137447357 -0.026548288762569427 0.1667412668466568 0.0 255.0 0.0
-0.03900543600320816 -0.24952970445156097 -0.11316771060228348 0.0 255.0 0.0
-0.09721919149160385 -0.03749140352010727 0.17042241990566254 0.0 255.0 0.0
0.17738570272922516 -0.44628894329071045 0.10525777190923691 0.0 255.0 0.0
0.2972581684589386 -0.16684934496879578 0.08699440956115723 0.0 255.0 0.0
0.1829203963279724 0.4677808880805969 -0.014798278920352459 0.0 255.0 0.0
-0.2703225612640381 -0.060968607664108276 0.005872522480785847 0.0 255.0 0.0
0.13077928125858307 -0.24976025521755219 0.09177455306053162 0.0 255.0 0.0
0.1692008525133133 -0.4030100703239441 -0.05517330765724182 0.0 255.0 0.0
0.27944421768188477 0.22451519966125488 0.08777756243944168 0.0 255.0 0.0
-0.18625621497631073 -0.05482468754053116 -0.1346070021390915 0.0 255.0 0.0
0.05036138370633125 0.19806262850761414 -0.13492996990680695 0.0 255.0 0.0
0.20122939348220825 0.2288866639137268 0.0763612687587738 0.0 255.0 0.0
0.2977573275566101 -0.17650525271892548 0.07754115760326385 0.0 255.0 0.0
-0.0011589924106374383 -0.15088801085948944 0.16940195858478546 0.0 255.0 0.0
-0.1422782987356186 -0.22714577615261078 -0.13557949662208557 0.0 255.0 0.0
0.301797479391098 -0.07536312937736511 -0.00601469399407506 0.0 255.0 0.0
-0.08087194710969925 -0.2510741651058197 -0.022071609273552895 0.0 255.0 0.0
-0.006896390113979578 0.035163044929504395 0.16898639500141144 0.0 255.0 0.0
0.24029076099395752 -0.015582859516143799 -0.13506805896759033 0.0 255.0 0.0
-0.2707524597644806 0.06382470577955246 0.0073663704097270966 0.0 255.0 0.0
0.1772758662700653 0.22527724504470825 -0.026315981522202492 0.0 255.0 0.0
0.04014948010444641 -0.07102519273757935 -0.1365024447441101 0.0 255.0 0.0
-0.1074586883187294 -0.15931661427021027 -0.13506805896759033 0.0 255.0 0.0
0.14973430335521698 0.22812457382678986 0.007565299514681101 0.0 255.0 0.0
-0.027218559756875038 0.22896289825439453 0.044833313673734665 0.0 255.0 0.0
0.21505965292453766 -0.36936354637145996 0.15799592435359955 0.0 255.0 0.0
-0.18252994120121002 -0.2537074387073517 -0.06751400977373123 0.0 255.0 0.0
-0.20250625908374786 0.1980724036693573 -0.13598546385765076 0.0 255.0 0.0
-0.2125525176525116 -0.38468509912490845 0.14886492490768433 0.0 255.0 0.0
-0.10583525896072388 -0.016571011394262314 -0.13506805896759033 0.0 255.0 0.0
-0.17906254529953003 -0.3721069395542145 -0.04463020712137222 0.0 255.0 0.0
0.019811829552054405 -0.0658944770693779 0.17333684861660004 0.0 255.0 0.0
0.294174462556839 -0.0947578102350235 0.0793500766158104 0.0 255.0 0.0
0.2972581684589386 -0.17398469150066376 -0.08960556983947754 0.0 255.0 0.0
-0.2455339878797531 -0.036401912569999695 -0.2692207396030426 0.0 255.0 0.0
0.2988821566104889 0.07985682040452957 0.012015891261398792 0.0 255.0 0.0
-0.26934224367141724 0.12825603783130646 -0.08691246062517166 0.0 255.0 0.0
0.1098092794418335 -0.25103047490119934 0.05546729639172554 0.0 255.0 0.0
-0.2389153093099594 0.1831178367137909 -0.13436010479927063 0.0 255.0 0.0
0.14723250269889832 0.20028413832187653 -0.13459718227386475 0.0 255.0 0.0
-0.2708006799221039 0.1629043072462082 0.06268840283155441 0.0 255.0 0.0
-0.26976799964904785 0.10819700360298157 -0.062104467302560806 0.0 255.0 0.0
0.2975323498249054 -0.05119254067540169 0.05409475415945053 0.0 255.0 0.0
-0.24579322338104248 0.0025903317146003246 -0.28863030672073364 0.0 255.0 0.0
-0.24672652781009674 -0.0016020548064261675 -0.13750334084033966 0.0 255.0 0.0
-0.22926989197731018 -0.44454750418663025 -0.05633988603949547 0.0 255.0 0.0
-0.057667579501867294 -0.2516329884529114 0.025135552510619164 0.0 255.0 0.0
0.05812763050198555 0.22812457382678986 0.0933203473687172 0.0 255.0 0.0
0.061581261456012726 -0.1490010917186737 0.1659795045852661 0.0 255.0 0.0
-0.26909950375556946 0.017623012885451317 -0.07683192193508148 0.0 255.0 0.0
0.2967697083950043 0.17976269125938416 0.0391349159181118 0.0 255.0 0.0
0.12634587287902832 0.22647148370742798 0.08675714582204819 0.0 255.0 0.0
-0.3082885444164276 -0.3894798755645752 0.12499827891588211 0.0 255.0 0.0
0.2985382080078125 0.014769947156310081 0.05089634284377098 0.0 255.0 0.0
-0.22392794489860535 -0.4428858458995819 -0.055664971470832825 0.0 255.0 0.0
-0.2712116241455078 -0.11916252970695496 -0.008509770967066288 0.0 255.0 0.0
0.23297476768493652 0.20869748294353485 -0.1363338828086853 0.0 255.0 0.0
0.04926188290119171 -0.005923302844166756 0.1649569571018219 0.0 255.0 0.0
0.1990574598312378 0.5026246905326843 0.04906575009226799 0.0 255.0 0.0
-0.2703968286514282 0.13049094378948212 -0.08716807514429092 0.0 255.0 0.0
0.2715727388858795 -0.33093923330307007 0.08265730738639832 0.0 255.0 0.0
-0.1357090324163437 0.22649778425693512 -0.08715096116065979 0.0 255.0 0.0
0.19054889678955078 -0.04378015547990799 -0.1312059909105301 0.0 255.0 0.0
-0.2891857326030731 -0.04770359396934509 -0.26082858443260193 0.0 255.0 0.0
0.020164839923381805 -0.20800507068634033 -0.13506805896759033 0.0 255.0 0.0
-0.10359512269496918 0.22801047563552856 -0.07390770316123962 0.0 255.0 0.0
0.29331690073013306 0.1579521894454956 -0.07193833589553833 0.0 255.0 0.0
-0.08025501668453217 0.22729384899139404 -0.06928300857543945 0.0 255.0 0.0
-0.24269597232341766 0.3122878074645996 -0.00019933005387429148 0.0 255.0 0.0
0.21478940546512604 -0.21857473254203796 -0.13259434700012207 0.0 255.0 0.0
-0.19201338291168213 -0.041136469691991806 0.16937994956970215 0.0 255.0 0.0
0.2972581684589386 -0.1774028092622757 0.054823242127895355 0.0 255.0 0.0
-0.16683804988861084 0.4774291217327118 0.07252872735261917 0.0 255.0 0.0
0.20148302614688873 -0.4110000431537628 0.1982084959745407 0.0 255.0 0.0
0.17463837563991547 0.4281306564807892 0.028676951304078102 0.0 255.0 0.0
0.2972581684589386 -0.036603398621082306 -0.11266080290079117 0.0 255.0 0.0
0.08818917721509933 0.0954798087477684 -0.1343526393175125 0.0 255.0 0.0
-0.004365357104688883 -0.08277557045221329 0.17093996703624725 0.0 255.0 0.0
-0.25917282700538635 0.3390085697174072 0.018497223034501076 0.0 255.0 0.0
0.13764958083629608 -0.25056031346321106 0.13116554915905 0.0 255.0 0.0
0.14044471085071564 -0.02875629998743534 -0.13519595563411713 0.0 255.0 0.0
0.2986396849155426 -0.05933575704693794 -0.11639390140771866 0.0 255.0 0.0
0.1038196012377739 -0.25013497471809387 -0.03604290634393692 0.0 255.0 0.0
-0.044100984930992126 0.2274782359600067 -0.08018080145120621 0.0 255.0 0.0
0.13029953837394714 0.22812457382678986 -0.004142442252486944 0.0 255.0 0.0
0.15294083952903748 -0.21955278515815735 0.15593533217906952 0.0 255.0 0.0
-0.2925640940666199 -0.0016265445156022906 -0.25225239992141724 0.0 255.0 0.0
0.2972148358821869 0.08792157471179962 0.08709251135587692 0.0 255.0 0.0
-0.2361668199300766 -0.013427664525806904 -0.1345575451850891 0.0 255.0 0.0
0.2955223321914673 -0.23027046024799347 0.00623001903295517 0.0 255.0 0.0
-0.27235352993011475 0.048481959849596024 -0.031052274629473686 0.0 255.0 0.0
0.04262038692831993 0.042568981647491455 0.16940195858478546 0.0 255.0 0.0
0.21314412355422974 -0.0860082358121872 -0.13560588657855988 0.0 255.0 0.0
0.18750305473804474 -0.44573095440864563 -0.011350338347256184 0.0 255.0 0.0
0.19963356852531433 -0.4487703740596771 0.044654421508312225 0.0 255.0 0.0
-0.2707524597644806 0.1543254554271698 -0.046826254576444626 0.0 255.0 0.0
-0.27213314175605774 -0.07610972970724106 -0.11340610682964325 0.0 255.0 0.0
-0.27273115515708923 -0.19261741638183594 0.02537381276488304 0.0 255.0 0.0
0.0938987284898758 -0.12188861519098282 -0.13713015615940094 0.0 255.0 0.0
-0.08823570609092712 0.09594385325908661 -0.13506805896759033 0.0 255.0 0.0
-0.03472421318292618 -0.2508034110069275 0.0811578705906868 0.0 255.0 0.0
-0.042244791984558105 -0.13789230585098267 -0.13506805896759033 0.0 255.0 0.0
0.033889781683683395 -0.08828207850456238 -0.135169118642807 0.0 255.0 0.0
0.24316741526126862 -0.3871440887451172 0.1886133849620819 0.0 255.0 0.0
-0.2699715197086334 0.15622639656066895 -0.03887120634317398 0.0 255.0 0.0
-0.16347156465053558 -0.012661810033023357 0.16940195858478546 0.0 255.0 0.0
0.14304785430431366 -0.3884323239326477 0.014899522066116333 0.0 255.0 0.0
-0.27146458625793457 -0.05503087863326073 0.03800863400101662 0.0 255.0 0.0
-0.03216416388750076 0.22587087750434875 -0.10362033545970917 0.0 255.0 0.0
0.13460306823253632 0.05194005370140076 -0.13607726991176605 0.0 255.0 0.0
-0.20166556537151337 -0.30136823654174805 -0.0664004236459732 0.0 255.0 0.0
0.0616559237241745 0.002062005689367652 -0.13515174388885498 0.0 255.0 0.0
0.29499128460884094 0.027129560708999634 0.11189693212509155 0.0 255.0 0.0
-0.2703240215778351 -0.0471503920853138 0.09846467524766922 0.0 255.0 0.0
-0.2707524597644806 -0.13983802497386932 0.06479673832654953 0.0 255.0 0.0
-0.22835589945316315 -0.40778177976608276 -0.07807206362485886 0.0 255.0 0.0
0.21995660662651062 0.2315889447927475 0.09881679713726044 0.0 255.0 0.0
0.2972581684589386 -0.12383931875228882 0.0590977668762207 0.0 255.0 0.0
-0.001941195921972394 0.04755786433815956 -0.13395138084888458 0.0 255.0 0.0
0.1452697515487671 0.06953628361225128 0.17048531770706177 0.0 255.0 0.0
0.2972581684589386 0.08694155514240265 0.030418716371059418 0.0 255.0 0.0
0.29388824105262756 -0.06721959263086319 -0.03824054077267647 0.0 255.0 0.0
-0.1408998817205429 0.1527329832315445 -0.1352594643831253 0.0 255.0 0.0
0.29965272545814514 -0.04397324100136757 0.07984394580125809 0.0 255.0 0.0
-0.12725968658924103 -0.2514919936656952 -0.03790577873587608 0.0 255.0 0.0
-0.11126252263784409 -0.029110565781593323 0.16940195858478546 0.0 255.0 0.0
-0.19729743897914886 -0.3485063314437866 -0.060855455696582794 0.0 255.0 0.0
0.14080874621868134 0.22812457382678986 -0.03463178873062134 0.0 255.0 0.0
0.2628993093967438 -0.29584574699401855 -0.0468430258333683 0.0 255.0 0.0
0.29660892486572266 -0.029496069997549057 0.04300627112388611 0.0 255.0 0.0
0.2747998535633087 -0.04271811619400978 -0.13372322916984558 0.0 255.0 0.0
-0.24522870779037476 0.22825586795806885 0.08625811338424683 0.0 255.0 0.0
0.035873930901288986 -0.1560773253440857 -0.1381126046180725 0.0 255.0 0.0
-0.2707524597644806 -0.12016558647155762 -0.014437737874686718 0.0 255.0 0.0
0.22485531866550446 -0.4430500566959381 0.12981633841991425 0.0 255.0 0.0
-0.23635134100914001 -0.09301918745040894 0.15604205429553986 0.0 255.0 0.0
-0.2854571044445038 -0.3982717990875244 0.16652847826480865 0.0 255.0 0.0
0.1090865284204483 0.2277122586965561 0.11043808609247208 0.0 255.0 0.0
-0.04234984144568443 -0.2529603838920593 -0.09359019994735718 0.0 255.0 0.0
0.29805564880371094 -0.17418397963047028 0.07206118106842041 0.0 255.0 0.0
0.11439328640699387 0.17800022661685944 -0.13506805896759033 0.0 255.0 0.0
-0.15463858842849731 0.44453927874565125 0.018764963373541832 0.0 255.0 0.0
0.14023922383785248 -0.3509052097797394 0.022987455129623413 0.0 255.0 0.0
-0.2452712506055832 -0.05064072459936142 0.15676116943359375 0.0 255.0 0.0
0.13506072759628296 0.22628289461135864 -0.0008974276133812964 0.0 255.0 0.0
0.08048178255558014 0.19454389810562134 0.15616445243358612 0.0 255.0 0.0
0.2938716411590576 0.008267100900411606 -0.025857986882328987 0.0 255.0 0.0
0.29863932728767395 -0.09935727715492249 0.07444174587726593 0.0 255.0 0.0
-0.2593555748462677 -0.3196686804294586 -0.06330776959657669 0.0 255.0 0.0
-0.18133938312530518 0.3077777326107025 0.000866707123350352 0.0 255.0 0.0
-0.1635107845067978 -0.33625146746635437 0.037037696689367294 0.0 255.0 0.0
-0.04558652639389038 0.2276996672153473 -0.0863325223326683 0.0 255.0 0.0
-0.12242491543292999 -0.2509978711605072 -0.08763396739959717 0.0 255.0 0.0
0.29569482803344727 -0.07936923205852509 0.12696728110313416 0.0 255.0 0.0
0.09584899991750717 0.22677235305309296 -0.0655050203204155 0.0 255.0 0.0
-0.24649859964847565 -0.3903847336769104 -0.08899328857660294 0.0 255.0 0.0
-0.26718831062316895 0.3803098797798157 -0.009049652144312859 0.0 255.0 0.0
0.251039981842041 -0.24779139459133148 -0.08725905418395996 0.0 255.0 0.0
0.26542556285858154 -0.28537848591804504 0.032910026609897614 0.0 255.0 0.0
0.1626332402229309 0.22898270189762115 0.0013023311039432883 0.0 255.0 0.0
-0.04674156755208969 -0.16622333228588104 0.1689682900905609 0.0 255.0 0.0
-0.26990190148353577 0.2031744122505188 0.029519373551011086 0.0 255.0 0.0
0.30014485120773315 0.12344319373369217 -0.09311655908823013 0.0 255.0 0.0
0.14868788421154022 -0.35523346066474915 0.08251082897186279 0.0 255.0 0.0
-0.14744582772254944 -0.05748242512345314 0.17022159695625305 0.0 255.0 0.0
-0.20109933614730835 -0.27480611205101013 -0.06013988330960274 0.0 255.0 0.0
0.28514349460601807 -0.36778292059898376 -0.022191094234585762 0.0 255.0 0.0
0.21891775727272034 0.20344679057598114 0.1600552499294281 0.0 255.0 0.0
0.018977396190166473 0.06316369026899338 0.16853295266628265 0.0 255.0 0.0
-0.14693309366703033 0.22770091891288757 0.06922869384288788 0.0 255.0 0.0
0.08732810616493225 0.13022032380104065 0.16940195858478546 0.0 255.0 0.0
0.24107854068279266 0.20755121111869812 0.1610625684261322 0.0 255.0 0.0
-0.20926818251609802 0.505645215511322 0.013197659514844418 0.0 255.0 0.0
0.21362866461277008 -0.17354360222816467 -0.13271751999855042 0.0 255.0 0.0
0.254130482673645 -0.24983754754066467 -0.10329193621873856 0.0 255.0 0.0
-0.2707524597644806 -0.018328247591853142 0.049972329288721085 0.0 255.0 0.0
-0.13244988024234772 0.08850741386413574 -0.13897809386253357 0.0 255.0 0.0
-0.2092510610818863 -0.44485974311828613 -0.02841549925506115 0.0 255.0 0.0
-0.15359967947006226 0.1667034775018692 -0.1351276934146881 0.0 255.0 0.0
0.069618821144104 0.07303363084793091 0.1704181283712387 0.0 255.0 0.0
0.2080000936985016 0.22723563015460968 -0.11754468083381653 0.0 255.0 0.0
-0.019958768039941788 0.07856232672929764 0.16940195858478546 0.0 255.0 0.0
0.2742384374141693 -0.33586204051971436 0.09192012995481491 0.0 255.0 0.0
-0.15593363344669342 -0.20235185325145721 -0.13629961013793945 0.0 255.0 0.0
0.18647052347660065 0.48139408230781555 0.07113071531057358 0.0 255.0 0.0
-0.00029067465220578015 0.10197637230157852 -0.17341992259025574 0.0 255.0 0.0
0.3009931445121765 0.3817616403102875 0.023396173492074013 0.0 255.0 0.0
0.28147754073143005 -0.36996710300445557 -0.024403821676969528 0.0 255.0 0.0
0.015888407826423645 0.07049264013767242 0.1687924563884735 0.0 255.0 0.0
-0.2701546847820282 0.0997319445014 -0.038330771028995514 0.0 255.0 0.0
-0.0753837302327156 0.15128855407238007 -0.1332714557647705 0.0 255.0 0.0
0.15448081493377686 -0.24969112873077393 0.02767770364880562 0.0 255.0 0.0
-0.08753539621829987 0.196420818567276 0.15621811151504517 0.0 255.0 0.0
0.23623423278331757 -0.37669333815574646 0.17773644626140594 0.0 255.0 0.0
0.20063479244709015 -0.3764912486076355 -0.08006193488836288 0.0 255.0 0.0
-0.2686203122138977 0.08761094510555267 -0.039966896176338196 0.0 255.0 0.0
0.24227169156074524 -0.3688338100910187 0.16807645559310913 0.0 255.0 0.0
0.11670293658971786 -0.25186604261398315 0.0048085893504321575 0.0 255.0 0.0
-0.26981091499328613 -0.0273950956761837 -0.04396837577223778 0.0 255.0 0.0
-0.14360694587230682 0.17117862403392792 -0.13535231351852417 0.0 255.0 0.0
-0.23957820236682892 0.13535621762275696 -0.13546723127365112 0.0 255.0 0.0
0.2581043243408203 -0.2508156895637512 -0.0881350189447403 0.0 255.0 0.0
0.16312910616397858 -0.2978692948818207 -0.01743847317993641 0.0 255.0 0.0
-0.27134549617767334 0.11802022904157639 -0.023568972945213318 0.0 255.0 0.0
0.30127736926078796 0.42751917243003845 0.009244694374501705 0.0 255.0 0.0
0.051444146782159805 -0.0401376411318779 -0.13506805896759033 0.0 255.0 0.0
0.10295278578996658 -0.051104433834552765 -0.1321631371974945 0.0 255.0 0.0
-0.21577264368534088 0.06574820727109909 -0.13553723692893982 0.0 255.0 0.0
0.2976268231868744 0.42668917775154114 -0.019226057454943657 0.0 255.0 0.0
-0.26468709111213684 -0.4300522208213806 -0.08519283682107925 0.0 255.0 0.0
0.3006998300552368 0.38248106837272644 0.01481088437139988 0.0 255.0 0.0
0.03445957228541374 0.22924982011318207 0.04563092812895775 0.0 255.0 0.0
-0.2743338644504547 -0.002576209604740143 -0.09081906080245972 0.0 255.0 0.0
0.10073444992303848 0.16767437756061554 -0.133375883102417 0.0 255.0 0.0
0.3040650486946106 0.4202858507633209 0.0502234511077404 0.0 255.0 0.0
-0.30170345306396484 -0.3914596736431122 0.13252030313014984 0.0 255.0 0.0
-0.2707524597644806 0.14893613755702972 0.08010295778512955 0.0 255.0 0.0
0.04838040843605995 -0.25283005833625793 0.13834138214588165 0.0 255.0 0.0
-0.04291139170527458 -0.1663091778755188 -0.13506805896759033 0.0 255.0 0.0
-0.2678692638874054 0.032701391726732254 0.09133373945951462 0.0 255.0 0.0
0.23475871980190277 0.2280874401330948 0.1257198601961136 0.0 255.0 0.0
0.18705233931541443 -0.2500014007091522 -0.05710730701684952 0.0 255.0 0.0
0.08432924002408981 0.22793297469615936 0.07587239146232605 0.0 255.0 0.0
0.020342200994491577 0.22808122634887695 0.133519247174263 0.0 255.0 0.0
0.0989980697631836 0.22861212491989136 -0.08091417700052261 0.0 255.0 0.0
0.23778007924556732 -0.25111153721809387 -0.09834038466215134 0.0 255.0 0.0
0.29358282685279846 0.4716833829879761 0.009749437682330608 0.0 255.0 0.0
-0.06931810081005096 0.06390354782342911 -0.13506805896759033 0.0 255.0 0.0
0.08112408965826035 -0.2478804737329483 -0.05219465121626854 0.0 255.0 0.0
0.29790928959846497 0.1523769199848175 -0.09950194507837296 0.0 255.0 0.0
-0.10652825236320496 -0.21144023537635803 0.15509437024593353 0.0 255.0 0.0
0.16469134390354156 -0.29496318101882935 0.036490753293037415 0.0 255.0 0.0
0.13701993227005005 0.2277085930109024 -0.11684203892946243 0.0 255.0 0.0
0.2580658793449402 -0.2515209913253784 -0.05449923500418663 0.0 255.0 0.0
-0.18738770484924316 -0.32870596647262573 0.07653287798166275 0.0 255.0 0.0
0.18372221291065216 0.3571374714374542 0.07229655981063843 0.0 255.0 0.0
-0.046200234442949295 0.22644682228565216 -0.0517846941947937 0.0 255.0 0.0
-0.05689717084169388 -0.022866584360599518 -0.13506805896759033 0.0 255.0 0.0
0.17551015317440033 0.4177924394607544 0.07901577651500702 0.0 255.0 0.0
0.18496663868427277 -0.44639861583709717 0.0025019566528499126 0.0 255.0 0.0
0.25796183943748474 -0.44556933641433716 0.12123532593250275 0.0 255.0 0.0
0.17781738936901093 -0.3637130558490753 -0.06300812214612961 0.0 255.0 0.0
0.298918753862381 -0.03892162814736366 0.13673028349876404 0.0 255.0 0.0
-0.17526358366012573 -0.38468480110168457 0.04617563262581825 0.0 255.0 0.0
-0.18916155397891998 0.22810494899749756 0.12588286399841309 0.0 255.0 0.0
0.2293384075164795 -0.22785839438438416 -0.13506805896759033 0.0 255.0 0.0
0.18246778845787048 0.36706098914146423 -0.03161489963531494 0.0 255.0 0.0
0.29902827739715576 0.4262911081314087 0.06746354699134827 0.0 255.0 0.0
-0.27348706126213074 -0.23107023537158966 0.10413140803575516 0.0 255.0 0.0
0.19631356000900269 0.23128314316272736 0.11460766941308975 0.0 255.0 0.0
0.03131268918514252 0.11664258688688278 0.17020700871944427 0.0 255.0 0.0
0.13979169726371765 -0.3845401704311371 0.07066907733678818 0.0 255.0 0.0
0.2972581684589386 -0.16760224103927612 0.04870452359318733 0.0 255.0 0.0
-0.31277570128440857 -0.3610820770263672 -0.01914319023489952 0.0 255.0 0.0
0.162247896194458 -0.4439909756183624 0.11524670571088791 0.0 255.0 0.0
-0.2802349627017975 -0.3053528070449829 0.0908048152923584 0.0 255.0 0.0
0.2054309844970703 -0.4485176205635071 0.1555509716272354 0.0 255.0 0.0
-0.1294630914926529 -0.02017241343855858 0.17155537009239197 0.0 255.0 0.0
-0.16480045020580292 0.22730378806591034 -0.05879952013492584 0.0 255.0 0.0
0.1015009880065918 -0.2509059011936188 0.03986145555973053 0.0 255.0 0.0
0.2972581684589386 -0.21253907680511475 0.011047552339732647 0.0 255.0 0.0
-0.25545480847358704 -0.4264680743217468 0.14547301828861237 0.0 255.0 0.0
0.2425222396850586 -0.020222468301653862 -0.13506805896759033 0.0 255.0 0.0
-0.26052725315093994 0.355882853269577 0.0697217509150505 0.0 255.0 0.0
-0.15070368349552155 0.2214588224887848 -0.11452093720436096 0.0 255.0 0.0
-0.049107249826192856 0.22780415415763855 -0.04296635091304779 0.0 255.0 0.0
0.18298256397247314 -0.37493184208869934 -0.07192525267601013 0.0 255.0 0.0
-0.05236843600869179 -0.1589757651090622 0.16904842853546143 0.0 255.0 0.0
0.0960409864783287 0.2280978560447693 -0.10681211203336716 0.0 255.0 0.0
0.18753239512443542 -0.3239002525806427 -0.06262346357107162 0.0 255.0 0.0
0.20858292281627655 -0.44929802417755127 0.06726910173892975 0.0 255.0 0.0
-0.25128617882728577 0.03662623465061188 -0.13506805896759033 0.0 255.0 0.0
0.27199500799179077 0.22781677544116974 -0.10257792472839355 0.0 255.0 0.0
-0.28326964378356934 -0.42320767045021057 0.08336503058671951 0.0 255.0 0.0
-0.268298476934433 0.16151484847068787 -0.07029592990875244 0.0 255.0 0.0
-0.07548625022172928 -0.04817107692360878 -0.13581299781799316 0.0 255.0 0.0
0.013777343556284904 -0.25071287155151367 -0.05592864751815796 0.0 255.0 0.0
0.04491070657968521 0.22698883712291718 0.011257700622081757 0.0 255.0 0.0
0.06925400346517563 -0.009641699492931366 0.16685405373573303 0.0 255.0 0.0
0.157236248254776 0.22812050580978394 -0.102175273001194 0.0 255.0 0.0
-0.2720417380332947 -0.001420985092408955 -0.06840332597494125 0.0 255.0 0.0
-0.019339652732014656 -0.19052033126354218 -0.13607372343540192 0.0 255.0 0.0
-0.09712273627519608 -0.25104236602783203 -0.06852219253778458 0.0 255.0 0.0
-0.24627947807312012 -0.044086672365665436 -0.2754873037338257 0.0 255.0 0.0
-0.10131648927927017 0.22812457382678986 0.015877487137913704 0.0 255.0 0.0
0.22883787751197815 -0.14306724071502686 0.16807973384857178 0.0 255.0 0.0
0.24028626084327698 0.4541158974170685 0.10165619105100632 0.0 255.0 0.0
0.2024114429950714 0.0919090285897255 0.16463717818260193 0.0 255.0 0.0
0.27012476325035095 0.12128843367099762 -0.13706284761428833 0.0 255.0 0.0
0.19893041253089905 -0.24997763335704803 0.12054777890443802 0.0 255.0 0.0
-0.27882224321365356 -0.422376811504364 -0.09140080958604813 0.0 255.0 0.0
-0.16441047191619873 0.40139561891555786 -0.041930634528398514 0.0 255.0 0.0
-0.26987773180007935 0.18238717317581177 -0.05275820195674896 0.0 255.0 0.0
-0.2707524597644806 -0.004439585842192173 0.012185651808977127 0.0 255.0 0.0
0.1761428415775299 0.1968090832233429 -0.13667285442352295 0.0 255.0 0.0
0.23000210523605347 -0.24877747893333435 -0.08862537890672684 0.0 255.0 0.0
-0.048400480300188065 -0.25087231397628784 -0.0224135909229517 0.0 255.0 0.0
-0.042942777276039124 -0.2522023320198059 -0.11743403971195221 0.0 255.0 0.0
-0.2707524597644806 -0.17060840129852295 -0.0039254045113921165 0.0 255.0 0.0
0.2676463723182678 0.06787850707769394 -0.13506805896759033 0.0 255.0 0.0
-0.27102750539779663 -0.20317275822162628 -0.1121450737118721 0.0 255.0 0.0
-0.2533515989780426 -0.28834742307662964 -0.012335050851106644 0.0 255.0 0.0
0.29655593633651733 -0.04801600053906441 0.022920966148376465 0.0 255.0 0.0
-0.3027515411376953 -0.3870694935321808 0.14966075122356415 0.0 255.0 0.0
0.2805078327655792 0.38523218035697937 -0.07202378660440445 0.0 255.0 0.0
0.30018749833106995 0.15901248157024384 0.005559203214943409 0.0 255.0 0.0
-0.1648176908493042 0.47172340750694275 0.013770419172942638 0.0 255.0 0.0
-0.06066858023405075 -0.01684277504682541 -0.13367082178592682 0.0 255.0 0.0
0.11260015517473221 -0.2508374750614166 0.025030385702848434 0.0 255.0 0.0
-0.2707524597644806 -0.12415026873350143 0.014915242791175842 0.0 255.0 0.0
-0.2678399682044983 -0.206516295671463 0.12603981792926788 0.0 255.0 0.0
0.14852307736873627 0.006415486801415682 0.16968238353729248 0.0 255.0 0.0
0.08263535797595978 -0.25012779235839844 0.09017634391784668 0.0 255.0 0.0
0.2286040484905243 -0.2504419684410095 -0.08450478315353394 0.0 255.0 0.0
-0.27473804354667664 -0.16831164062023163 -0.07752407342195511 0.0 255.0 0.0
0.16633903980255127 0.0368233248591423 0.16793081164360046 0.0 255.0 0.0
-0.09605331718921661 -0.17667517066001892 -0.1339147686958313 0.0 255.0 0.0
0.011908553540706635 -0.25070470571517944 -0.07309488952159882 0.0 255.0 0.0
0.2099573016166687 -0.34296271204948425 0.13584350049495697 0.0 255.0 0.0
-0.2051931768655777 -0.4446074664592743 -0.018922293558716774 0.0 255.0 0.0
0.21048612892627716 -0.21448296308517456 0.15615323185920715 0.0 255.0 0.0
0.183953195810318 0.38775014877319336 -0.052425067871809006 0.0 255.0 0.0
0.2972581684589386 0.1791507452726364 0.018515706062316895 0.0 255.0 0.0
0.29451456665992737 -0.11025041341781616 0.024991653859615326 0.0 255.0 0.0
0.013231990858912468 0.20129410922527313 0.15628162026405334 0.0 255.0 0.0
0.192732036113739 0.32853424549102783 0.031464993953704834 0.0 255.0 0.0
0.16370107233524323 -0.29145246744155884 -0.01335111539810896 0.0 255.0 0.0
-0.0065383752807974815 -0.06201387196779251 -0.13774752616882324 0.0 255.0 0.0
0.13895413279533386 -0.3926745355129242 0.0908428505063057 0.0 255.0 0.0
0.19254449009895325 0.23016291856765747 -0.018998246639966965 0.0 255.0 0.0
0.2981136739253998 -0.1531277596950531 0.0041525522246956825 0.0 255.0 0.0
0.06081261485815048 0.17726688086986542 -0.19127421081066132 0.0 255.0 0.0
0.19991284608840942 -0.30870047211647034 -0.06979650259017944 0.0 255.0 0.0
0.06531105190515518 -0.04452294483780861 -0.13678905367851257 0.0 255.0 0.0
-0.166477769613266 0.06924709677696228 -0.13274694979190826 0.0 255.0 0.0
0.0895383432507515 0.22812457382678986 0.03617492690682411 0.0 255.0 0.0
-0.24943973124027252 0.021684104576706886 -0.2942436635494232 0.0 255.0 0.0
-0.1670544296503067 -0.3585120141506195 -0.006674282252788544 0.0 255.0 0.0
-0.17487819492816925 -0.28067779541015625 -0.040435850620269775 0.0 255.0 0.0
-0.14307263493537903 -0.2528632581233978 -0.03595447912812233 0.0 255.0 0.0
0.2570488750934601 0.06288442760705948 -0.13541048765182495 0.0 255.0 0.0
0.09816767275333405 0.13710010051727295 -0.1337636411190033 0.0 255.0 0.0
0.2972581684589386 -0.04237186908721924 0.06220024824142456 0.0 255.0 0.0
-0.3200530409812927 -0.3865264058113098 -0.050316594541072845 0.0 255.0 0.0
0.0707806944847107 -0.0873233750462532 -0.138967826962471 0.0 255.0 0.0
0.1736726015806198 0.3837762176990509 0.017978856340050697 0.0 255.0 0.0
-0.19927369058132172 -0.44465500116348267 0.018404722213745117 0.0 255.0 0.0
-0.017244378104805946 0.11944670230150223 -0.13506805896759033 0.0 255.0 0.0
0.2972581684589386 -0.16672223806381226 0.10611334443092346 0.0 255.0 0.0
0.0931246355175972 -0.25098147988319397 0.08388248085975647 0.0 255.0 0.0
0.24206872284412384 -0.4464598298072815 0.0740571841597557 0.0 255.0 0.0
0.29507195949554443 -0.20341652631759644 0.032898224890232086 0.0 255.0 0.0
0.07547203451395035 -0.15795248746871948 0.17219360172748566 0.0 255.0 0.0
-0.21957309544086456 0.11426274478435516 -0.13198962807655334 0.0 255.0 0.0
-0.2707524597644806 0.16746477782726288 -0.10391815751791 0.0 255.0 0.0
-0.14993396401405334 -0.004139055963605642 0.16597266495227814 0.0 255.0 0.0
0.2377806305885315 0.32113584876060486 0.061337314546108246 0.0 255.0 0.0
-0.2707524597644806 0.14513586461544037 0.03061440959572792 0.0 255.0 0.0
-0.06955400854349136 -0.03536728397011757 0.16940195858478546 0.0 255.0 0.0
-0.18610693514347076 0.39495256543159485 -0.07322525978088379 0.0 255.0 0.0
0.067217156291008 -0.044453419744968414 -0.13143937289714813 0.0 255.0 0.0
-0.1583658754825592 0.4526251554489136 0.07253067940473557 0.0 255.0 0.0
-0.09234645962715149 0.005480655934661627 0.17388512194156647 0.0 255.0 0.0
-0.04705207049846649 -0.2064310908317566 -0.13506805896759033 0.0 255.0 0.0
-0.17768888175487518 -0.38242578506469727 0.056901950389146805 0.0 255.0 0.0
-0.09973364323377609 0.2280832678079605 0.13295577466487885 0.0 255.0 0.0
-0.1878981590270996 0.4051262140274048 -0.07561222463846207 0.0 255.0 0.0
-0.2707524597644806 -0.02573828026652336 0.05237654969096184 0.0 255.0 0.0
-0.2707524597644806 -0.18225491046905518 -0.07768203318119049 0.0 255.0 0.0
0.29352569580078125 0.3838287591934204 -0.03859308734536171 0.0 255.0 0.0
0.1477132886648178 0.10097521543502808 0.1659623086452484 0.0 255.0 0.0
-0.029657671228051186 0.22308824956417084 -0.06399253755807877 0.0 255.0 0.0
0.2972581684589386 0.14025750756263733 0.04948273301124573 0.0 255.0 0.0
0.1678360402584076 0.12173539400100708 0.16940195858478546 0.0 255.0 0.0
-0.10385369509458542 -0.25363555550575256 -0.07367867231369019 0.0 255.0 0.0
-0.27072906494140625 -0.059430576860904694 -0.03459303081035614 0.0 255.0 0.0
0.15266606211662292 0.026507630944252014 0.17110274732112885 0.0 255.0 0.0
0.1648721992969513 -0.03591662645339966 0.16905833780765533 0.0 255.0 0.0
0.17716452479362488 -0.1289706826210022 0.1704748570919037 0.0 255.0 0.0
0.2972581684589386 0.02984738163650036 -0.07123098522424698 0.0 255.0 0.0
0.19477565586566925 0.04287094250321388 -0.1355351358652115 0.0 255.0 0.0
-0.17522624135017395 0.2253006249666214 -0.05045989155769348 0.0 255.0 0.0
0.2837039530277252 0.489162802696228 0.015471205115318298 0.0 255.0 0.0
-0.18341219425201416 -0.028109636157751083 -0.13487660884857178 0.0 255.0 0.0
0.21599343419075012 0.13229434192180634 -0.13451339304447174 0.0 255.0 0.0
-0.10188028216362 -0.2510048449039459 -0.0767301693558693 0.0 255.0 0.0
-0.04743640497326851 -0.14681611955165863 0.16940195858478546 0.0 255.0 0.0
0.2972581684589386 -0.04079395905137062 -0.0570523627102375 0.0 255.0 0.0
-0.17416200041770935 -0.3076915740966797 -0.04329042509198189 0.0 255.0 0.0
-0.15865468978881836 -0.2518422305583954 -0.10040450841188431 0.0 255.0 0.0
0.006139098200947046 -0.030088668689131737 -0.13506805896759033 0.0 255.0 0.0
-0.3094145357608795 -0.4039846956729889 0.0723579153418541 0.0 255.0 0.0
0.2972581684589386 0.0341811440885067 0.060559820383787155 0.0 255.0 0.0
0.057572633028030396 -0.03043973632156849 0.16767732799053192 0.0 255.0 0.0
-0.11259429901838303 -0.21315433084964752 -0.135509192943573 0.0 255.0 0.0
-0.26259443163871765 0.44130828976631165 -0.028130758553743362 0.0 255.0 0.0
-0.2707524597644806 0.15191099047660828 0.04514842480421066 0.0 255.0 0.0
-0.27076414227485657 -0.1716458797454834 -0.0288828257471323 0.0 255.0 0.0
-0.1351759284734726 0.052512332797050476 0.16812752187252045 0.0 255.0 0.0
-0.2726438343524933 -0.21986880898475647 0.0821550115942955 0.0 255.0 0.0
-0.09512554109096527 -0.2547336518764496 0.03877696767449379 0.0 255.0 0.0
0.2972581684589386 0.04349667206406593 -0.06304293125867844 0.0 255.0 0.0
-0.03326105698943138 -0.13061396777629852 0.16940195858478546 0.0 255.0 0.0
0.2964782416820526 0.021801941096782684 -0.019063705578446388 0.0 255.0 0.0
-0.27134236693382263 0.021895546466112137 -0.10127851366996765 0.0 255.0 0.0
0.29817432165145874 0.08305001258850098 -0.041113488376140594 0.0 255.0 0.0
-0.3196004033088684 -0.34368962049484253 0.06576462835073471 0.0 255.0 0.0
0.06724715232849121 -0.2524344325065613 0.054264042526483536 0.0 255.0 0.0
-0.17985840141773224 -0.4081125855445862 0.02692912146449089 0.0 255.0 0.0
-0.28554829955101013 -0.44576603174209595 0.00353236123919487 0.0 255.0 0.0
0.11252689361572266 0.2280501276254654 -0.04683660343289375 0.0 255.0 0.0
0.29554930329322815 0.4636184275150299 0.04369562119245529 0.0 255.0 0.0
0.14498890936374664 0.19850397109985352 -0.13710147142410278 0.0 255.0 0.0
0.15262436866760254 -0.3163105547428131 0.0003330647887196392 0.0 255.0 0.0
-0.24945871531963348 -0.21915636956691742 0.16037122905254364 0.0 255.0 0.0
-0.04064682498574257 0.19089601933956146 0.15563806891441345 0.0 255.0 0.0
-0.17435845732688904 -0.0567401647567749 0.16802483797073364 0.0 255.0 0.0
-0.20473238825798035 0.17479208111763 -0.13506805896759033 0.0 255.0 0.0
-0.024703893810510635 -0.12313385307788849 -0.1376836746931076 0.0 255.0 0.0
0.18448831140995026 0.3432920277118683 0.026012998074293137 0.0 255.0 0.0
0.05468350276350975 -0.2502182722091675 0.0033620335161685944 0.0 255.0 0.0
0.20005623996257782 0.359272837638855 -0.06328912824392319 0.0 255.0 0.0
0.006010136101394892 0.2423846274614334 -0.1887866109609604 0.0 255.0 0.0
0.030821543186903 0.14098627865314484 -0.13506805896759033 0.0 255.0 0.0
0.11905421316623688 -0.027858132496476173 0.1686468869447708 0.0 255.0 0.0
0.17576098442077637 -0.029873494058847427 0.16728605329990387 0.0 255.0 0.0
-0.2396446317434311 0.16400040686130524 0.15603913366794586 0.0 255.0 0.0
-0.03934460133314133 0.22683702409267426 -0.0652969554066658 0.0 255.0 0.0
0.24325428903102875 -0.2511964738368988 0.08837103843688965 0.0 255.0 0.0
0.06453152745962143 -0.25068068504333496 -0.004222193732857704 0.0 255.0 0.0
0.22726327180862427 0.45867037773132324 0.10127188265323639 0.0 255.0 0.0
0.2947428226470947 -0.005054831504821777 -0.04312615469098091 0.0 255.0 0.0
0.29927173256874084 -0.1033870205283165 -0.015636872500181198 0.0 255.0 0.0
-0.2907949686050415 -0.3243264853954315 0.01858610101044178 0.0 255.0 0.0
-0.2724672257900238 -0.18344947695732117 0.07901013642549515 0.0 255.0 0.0
0.14665819704532623 -0.2209206521511078 0.15769527852535248 0.0 255.0 0.0
-0.22541549801826477 -0.18442028760910034 -0.13328281044960022 0.0 255.0 0.0
0.18413247168064117 -0.388831228017807 0.1736881136894226 0.0 255.0 0.0
-0.2447010725736618 0.03274672105908394 0.15619637072086334 0.0 255.0 0.0
0.2972581684589386 -0.11304020881652832 -0.030900204554200172 0.0 255.0 0.0
0.04732263460755348 -0.2507147490978241 -0.04726501926779747 0.0 255.0 0.0
-0.1593739539384842 0.20799928903579712 0.1540873646736145 0.0 255.0 0.0
0.035346195101737976 -0.2506483495235443 -0.08969855308532715 0.0 255.0 0.0
0.02949133887887001 -0.0874762237071991 0.16940195858478546 0.0 255.0 0.0
-0.2671273350715637 0.0833711102604866 -0.09378478676080704 0.0 255.0 0.0
0.212643101811409 0.04682542756199837 -0.13506805896759033 0.0 255.0 0.0
0.3018457293510437 0.18565452098846436 0.024874327704310417 0.0 255.0 0.0
-0.3257031738758087 -0.38682472705841064 0.08102040737867355 0.0 255.0 0.0
0.2972581684589386 0.041300974786281586 0.1275377869606018 0.0 255.0 0.0
