0.2972573935985565 -0.06379925459623337 -0.11585957556962967 0.0 255.0 0.0
-0.3194701671600342 -0.3810105621814728 -0.048528410494327545 0.0 255.0 0.0
0.13782553374767303 0.22812457382678986 -0.0910312756896019 0.0 255.0 0.0
0.015097344294190407 0.1521398276090622 -0.13506805896759033 0.0 255.0 0.0
-0.2593737244606018 -0.435200572013855 0.13320232927799225 0.0 255.0 0.0
-0.001568629639223218 0.22812457382678986 0.06202520430088043 0.0 255.0 0.0
0.21370214223861694 -0.29448840022087097 0.09017493575811386 0.0 255.0 0.0
-0.21131455898284912 -0.46026483178138733 0.013349348679184914 0.0 255.0 0.0
-0.17987047135829926 0.4728260934352875 -0.039342064410448074 0.0 255.0 0.0
0.1891246736049652 0.333125501871109 0.009020235389471054 0.0 255.0 0.0
0.0467379055917263 0.0704750120639801 -0.13579913973808289 0.0 255.0 0.0
0.12356490641832352 0.22497230768203735 0.008266355842351913 0.0 255.0 0.0
-0.2707524597644806 -0.030826576054096222 -0.011004198342561722 0.0 255.0 0.0
-0.15384547412395477 0.12925496697425842 0.17081716656684875 0.0 255.0 0.0
0.2972581684589386 -0.04610588401556015 0.0008062694687396288 0.0 255.0 0.0
0.14451725780963898 -0.13027901947498322 0.1656305193901062 0.0 255.0 0.0
0.09373252093791962 -0.10036340355873108 0.1685253530740738 0.0 255.0 0.0
-0.2707524597644806 0.15912166237831116 -0.07179290801286697 0.0 255.0 0.0
-0.26563793420791626 0.4298074245452881 -0.007223362568765879 0.0 255.0 0.0
0.1817549467086792 0.0033834681380540133 0.16940195858478546 0.0 255.0 0.0
0.14778687059879303 -0.3321846127510071 0.007193182595074177 0.0 255.0 0.0
-0.16067372262477875 0.00783211924135685 -0.1362820565700531 0.0 255.0 0.0
-0.09884282201528549 0.03212277591228485 0.16940195858478546 0.0 255.0 0.0
-0.2071433812379837 -0.44299083948135376 0.10154017806053162 0.0 255.0 0.0
0.08376795053482056 0.22880850732326508 0.05867620185017586 0.0 255.0 0.0
-0.2498786300420761 -0.45701512694358826 0.06098827347159386 0.0 255.0 0.0
-0.0006319308304227889 -0.11660641431808472 -0.13506805896759033 0.0 255.0 0.0
0.29558566212654114 0.0979190245270729 0.08443337678909302 0.0 255.0 0.0
0.3020772933959961 0.3921220302581787 0.010566603392362595 0.0 255.0 0.0
-0.27500972151756287 -0.3018839359283447 0.037640295922756195 0.0 255.0 0.0
-0.006607005838304758 0.03599914163351059 -0.13506805896759033 0.0 255.0 0.0
-0.30573770403862 -0.375863641500473 0.1817832738161087 0.0 255.0 0.0
0.17511644959449768 -0.27152910828590393 0.036609403789043427 0.0 255.0 0.0
0.049571964889764786 0.22812457382678986 0.02471865527331829 0.0 255.0 0.0
-0.24244895577430725 0.22823873162269592 -0.04853842034935951 0.0 255.0 0.0
-0.16808709502220154 -0.3207337260246277 0.050507307052612305 0.0 255.0 0.0
0.29615676403045654 -0.011057989671826363 -0.023189879953861237 0.0 255.0 0.0
0.07183879613876343 -0.25026920437812805 -0.029490629211068153 0.0 255.0 0.0
0.18073172867298126 0.3827977776527405 0.07583893835544586 0.0 255.0 0.0
-0.2707524597644806 -0.1587432473897934 0.06319327652454376 0.0 255.0 0.0
-0.3038727045059204 -0.41130515933036804 -0.08624722808599472 0.0 255.0 0.0
-0.14349383115768433 -0.012909428216516972 0.16624677181243896 0.0 255.0 0.0
0.28789135813713074 -0.38125118613243103 0.0844699814915657 0.0 255.0 0.0
0.20523667335510254 0.10830806940793991 0.16857750713825226 0.0 255.0 0.0
0.1937807947397232 -0.4465790390968323 0.1407962441444397 0.0 255.0 0.0
0.1500348597764969 -0.25113674998283386 -0.0589606873691082 0.0 255.0 0.0
-0.1107776090502739 -0.028790900483727455 0.16940195858478546 0.0 255.0 0.0
0.01269450318068266 0.1816404014825821 -0.2271914780139923 0.0 255.0 0.0
0.17558477818965912 0.3996606469154358 0.0312979593873024 0.0 255.0 0.0
-0.1650131791830063 -0.33121946454048157 0.04165168106555939 0.0 255.0 0.0
-0.2747318148612976 0.04934559762477875 0.12377439439296722 0.0 255.0 0.0
-0.18055719137191772 -0.40616077184677124 -0.007875773124396801 0.0 255.0 0.0
0.043084289878606796 -0.14084987342357635 -0.1359747052192688 0.0 255.0 0.0
-0.23947033286094666 -0.36616313457489014 -0.0910414531826973 0.0 255.0 0.0
0.1490202695131302 0.07759486883878708 -0.13813447952270508 0.0 255.0 0.0
0.3003430962562561 0.4202614426612854 0.0007611222099512815 0.0 255.0 0.0
-0.11072467267513275 0.2294895052909851 0.010059691034257412 0.0 255.0 0.0
-0.23997017741203308 0.15436314046382904 -0.1364307552576065 0.0 255.0 0.0
-0.2520815134048462 -0.1377105861902237 -0.13506805896759033 0.0 255.0 0.0
-0.26920852065086365 0.117103211581707 0.007645932026207447 0.0 255.0 0.0
-0.3043878674507141 -0.43740472197532654 -0.04157111793756485 0.0 255.0 0.0
0.3018922507762909 0.4196127951145172 0.02305813878774643 0.0 255.0 0.0
-0.08524146676063538 -0.25327378511428833 -0.03569892421364784 0.0 255.0 0.0
0.29540783166885376 0.4110182225704193 -0.038620464503765106 0.0 255.0 0.0
0.166619211435318 -0.32586172223091125 -0.03830365091562271 0.0 255.0 0.0
0.29073071479797363 0.40047088265419006 -0.053434088826179504 0.0 255.0 0.0
-0.1557915210723877 0.4029812812805176 -0.010166915133595467 0.0 255.0 0.0
-0.32590097188949585 -0.33512160181999207 0.14197680354118347 0.0 255.0 0.0
0.18114817142486572 0.3969135880470276 -0.01795966923236847 0.0 255.0 0.0
-0.268713116645813 -0.16630315780639648 -0.052487220615148544 0.0 255.0 0.0
-0.18798455595970154 -0.13852117955684662 0.170785591006279 0.0 255.0 0.0
0.22338008880615234 -0.32334500551223755 0.11274853348731995 0.0 255.0 0.0
-0.24279789626598358 -0.10953757166862488 0.15289433300495148 0.0 255.0 0.0
0.13110654056072235 0.22943441569805145 -0.1103423461318016 0.0 255.0 0.0
0.05860210955142975 -0.2508293390274048 0.0500326044857502 0.0 255.0 0.0
0.25995200872421265 -0.44505244493484497 0.17004773020744324 0.0 255.0 0.0
0.1267852932214737 -0.005641136784106493 0.16940195858478546 0.0 255.0 0.0
0.057086966931819916 0.22812457382678986 0.10851048678159714 0.0 255.0 0.0
0.1855173110961914 0.1000237762928009 0.17155316472053528 0.0 255.0 0.0
-0.32206499576568604 -0.3777712285518646 -0.028982603922486305 0.0 255.0 0.0
-0.18795152008533478 -0.4283609390258789 0.011454569175839424 0.0 255.0 0.0
-0.1419389694929123 -0.15604878962039948 -0.13598483800888062 0.0 255.0 0.0
0.1519654393196106 -0.3310903012752533 0.04860319569706917 0.0 255.0 0.0
0.18625977635383606 -0.4474363923072815 0.08577373623847961 0.0 255.0 0.0
-0.09676827490329742 0.007800708524882793 -0.13506805896759033 0.0 255.0 0.0
-0.057302847504615784 0.027724148705601692 -0.13489165902137756 0.0 255.0 0.0
-0.18292628228664398 -0.05878521129488945 0.16633263230323792 0.0 255.0 0.0
0.27785196900367737 0.22571589052677155 -0.08542872965335846 0.0 255.0 0.0
0.29371699690818787 0.47640180587768555 0.015492423437535763 0.0 255.0 0.0
-0.1829284131526947 0.3452812433242798 0.07644188404083252 0.0 255.0 0.0
-0.1723165512084961 -0.24766652286052704 0.13074728846549988 0.0 255.0 0.0
0.2953604459762573 0.10439972579479218 -0.07341592013835907 0.0 255.0 0.0
0.1865939050912857 0.020695345476269722 0.16926917433738708 0.0 255.0 0.0
-0.16503584384918213 -0.2551749348640442 0.12208666652441025 0.0 255.0 0.0
0.2984035611152649 -0.04171132668852806 0.058715514838695526 0.0 255.0 0.0
0.09812827408313751 -0.2525017261505127 0.0771343782544136 0.0 255.0 0.0
-0.01980893686413765 -0.009946633130311966 -0.13475476205348969 0.0 255.0 0.0
0.03095845878124237 -0.254009872674942 0.0268546249717474 0.0 255.0 0.0
0.12277568876743317 -0.06434033066034317 0.16910645365715027 0.0 255.0 0.0
0.2972581684589386 -0.1890140175819397 0.025855211541056633 0.0 255.0 0.0
0.1626332402229309 0.22898270189762115 0.0013023311039432883 0.0 255.0 0.0
0.18075786530971527 -0.2290947288274765 -0.13506805896759033 0.0 255.0 0.0
0.21597836911678314 -0.07545443624258041 0.16940195858478546 0.0 255.0 0.0
0.23285767436027527 -0.24934406578540802 -0.11873730272054672 0.0 255.0 0.0
0.29701554775238037 -0.2007230520248413 0.04423864185810089 0.0 255.0 0.0
0.06459036469459534 0.14767302572727203 -0.16067804396152496 0.0 255.0 0.0
0.17962971329689026 0.4670434594154358 0.06219755485653877 0.0 255.0 0.0
0.2950509786605835 0.4499441087245941 0.08440854400396347 0.0 255.0 0.0
0.1988944560289383 -0.2544298768043518 0.1154613122344017 0.0 255.0 0.0
-0.1818089336156845 -0.399677038192749 0.0555952787399292 0.0 255.0 0.0
0.21496766805648804 -0.3291305899620056 -0.0799604132771492 0.0 255.0 0.0
-0.272203654050827 0.12877632677555084 0.011515823192894459 0.0 255.0 0.0
-0.19662192463874817 -0.08190310001373291 -0.1347227543592453 0.0 255.0 0.0
-0.18507914245128632 0.4705416262149811 -0.049970515072345734 0.0 255.0 0.0
0.054906416684389114 0.22812457382678986 0.04722672328352928 0.0 255.0 0.0
-0.19909964501857758 -0.11898201704025269 0.16935338079929352 0.0 255.0 0.0
-0.06894040107727051 -0.08203650265932083 0.16940195858478546 0.0 255.0 0.0
-0.10545016080141068 -0.06447271257638931 -0.13587945699691772 0.0 255.0 0.0
0.16277867555618286 0.22815503180027008 0.012474050745368004 0.0 255.0 0.0
-0.2308778464794159 -0.25218141078948975 -0.09288150072097778 0.0 255.0 0.0
0.25623202323913574 -0.25079771876335144 -0.09659621864557266 0.0 255.0 0.0
0.2745243012905121 -0.24980352818965912 -0.10014290362596512 0.0 255.0 0.0
0.2853524386882782 0.46338310837745667 -0.037302952259778976 0.0 255.0 0.0
0.11239071190357208 0.01948007196187973 -0.13369575142860413 0.0 255.0 0.0
-0.15340355038642883 0.13912275433540344 0.1695539504289627 0.0 255.0 0.0
-0.18255051970481873 0.0030228698160499334 0.16758204996585846 0.0 255.0 0.0
0.13680273294448853 0.17516416311264038 -0.13270029425621033 0.0 255.0 0.0
0.10460519790649414 0.006808732636272907 -0.13506805896759033 0.0 255.0 0.0
-0.03658899664878845 0.08439614623785019 0.16606630384922028 0.0 255.0 0.0
-0.26735541224479675 0.18232598900794983 -0.030902031809091568 0.0 255.0 0.0
0.2893686890602112 -0.3993629217147827 0.04830574244260788 0.0 255.0 0.0
-0.2001584768295288 0.195015549659729 -0.13506805896759033 0.0 255.0 0.0
0.004075441975146532 0.20300163328647614 -0.23558832705020905 0.0 255.0 0.0
0.2972581684589386 -0.13971707224845886 -0.07247105985879898 0.0 255.0 0.0
-0.04206409305334091 -0.011755610816180706 -0.13675598800182343 0.0 255.0 0.0
-0.10229014605283737 0.16588184237480164 -0.13045164942741394 0.0 255.0 0.0
0.2836981415748596 -0.38672128319740295 -0.04110062122344971 0.0 255.0 0.0
-0.08927147835493088 -0.2506055235862732 -0.053198039531707764 0.0 255.0 0.0
-0.2707524597644806 -0.051480285823345184 -0.048853252083063126 0.0 255.0 0.0
-0.04128287732601166 -0.2508196532726288 -0.052849121391773224 0.0 255.0 0.0
0.2972581684589386 -0.1088593527674675 0.04118024557828903 0.0 255.0 0.0
0.17064809799194336 -0.313327819108963 -0.04121598228812218 0.0 255.0 0.0
-0.13733163475990295 0.0005486884620040655 0.16842448711395264 0.0 255.0 0.0
0.1913340985774994 0.476772665977478 -0.020188378170132637 0.0 255.0 0.0
0.1846877634525299 -0.32285749912261963 -0.05907437577843666 0.0 255.0 0.0
0.07341494411230087 -0.033825069665908813 -0.13853518664836884 0.0 255.0 0.0
-0.0838274210691452 -0.15710730850696564 -0.1347632110118866 0.0 255.0 0.0
0.1298259198665619 0.05849754810333252 -0.1344684660434723 0.0 255.0 0.0
-0.0982673391699791 0.01512465626001358 -0.1320650577545166 0.0 255.0 0.0
-0.10067808628082275 0.054276254028081894 -0.13472257554531097 0.0 255.0 0.0
0.14538271725177765 -0.15929386019706726 -0.13724389672279358 0.0 255.0 0.0
0.18393951654434204 0.475908488035202 0.08538331091403961 0.0 255.0 0.0
0.29940471053123474 -0.15142473578453064 -0.11650350689888 0.0 255.0 0.0
0.1762167513370514 -0.29430943727493286 0.06322702020406723 0.0 255.0 0.0
0.29591453075408936 -0.2103910744190216 0.0939781442284584 0.0 255.0 0.0
0.1015908420085907 -0.2515936493873596 0.019033318385481834 0.0 255.0 0.0
0.21997663378715515 0.23078016936779022 -0.042272601276636124 0.0 255.0 0.0
0.24923336505889893 0.23023885488510132 0.09123189002275467 0.0 255.0 0.0
0.06754068285226822 -0.06272589415311813 -0.13487744331359863 0.0 255.0 0.0
0.2906759977340698 -0.41739144921302795 0.08295952528715134 0.0 255.0 0.0
-0.30608299374580383 -0.32785189151763916 0.0768057107925415 0.0 255.0 0.0
-0.11317311227321625 0.002521153539419174 -0.1344137191772461 0.0 255.0 0.0
0.2964266836643219 0.08644742518663406 0.06689170002937317 0.0 255.0 0.0
0.08222474902868271 -0.15126930177211761 -0.13516831398010254 0.0 255.0 0.0
0.2721884250640869 -0.3352434039115906 -0.04604647308588028 0.0 255.0 0.0
0.08509360253810883 0.12542656064033508 -0.1327599585056305 0.0 255.0 0.0
0.29900991916656494 -0.18471577763557434 0.06857815384864807 0.0 255.0 0.0
-0.009427222423255444 -0.03668540343642235 -0.13506805896759033 0.0 255.0 0.0
-0.2681201100349426 -0.01636675000190735 0.05026811361312866 0.0 255.0 0.0
0.008024577982723713 -0.12822917103767395 -0.13506805896759033 0.0 255.0 0.0
-0.13633666932582855 0.04576596990227699 0.16694052517414093 0.0 255.0 0.0
0.010102606378495693 0.23050469160079956 0.10348206013441086 0.0 255.0 0.0
-0.27701887488365173 -0.4611184597015381 -0.019733259454369545 0.0 255.0 0.0
0.14090482890605927 -0.37978941202163696 0.07181283086538315 0.0 255.0 0.0
0.018918339163064957 0.13268475234508514 -0.13240279257297516 0.0 255.0 0.0
-0.25053125619888306 -0.039400700479745865 -0.13678741455078125 0.0 255.0 0.0
-0.2714013159275055 -0.10450542718172073 0.007303203921765089 0.0 255.0 0.0
-0.09710988402366638 -0.2331596165895462 0.15540967881679535 0.0 255.0 0.0
-0.11810169368982315 0.22812457382678986 -0.09404554218053818 0.0 255.0 0.0
-0.107742078602314 -0.04304593801498413 -0.13489539921283722 0.0 255.0 0.0
0.09147185832262039 -0.2502957582473755 -0.11055408418178558 0.0 255.0 0.0
-0.21525055170059204 -0.21975751221179962 -0.13517417013645172 0.0 255.0 0.0
0.26833808422088623 -0.2499794363975525 0.11364459991455078 0.0 255.0 0.0
0.1733761578798294 0.016907118260860443 -0.13367168605327606 0.0 255.0 0.0
0.13170132040977478 -0.19098183512687683 -0.13107891380786896 0.0 255.0 0.0
-0.3165834844112396 -0.40519043803215027 0.049598220735788345 0.0 255.0 0.0
0.18386083841323853 0.41983944177627563 -0.03699548542499542 0.0 255.0 0.0
0.17397426068782806 0.423326700925827 0.05298811197280884 0.0 255.0 0.0
0.23910272121429443 -0.40147197246551514 0.19422638416290283 0.0 255.0 0.0
0.12036355584859848 -0.13231877982616425 -0.14007945358753204 0.0 255.0 0.0
-0.18442827463150024 0.05134822800755501 0.1684611290693283 0.0 255.0 0.0
-0.23883329331874847 -0.24984891712665558 0.128263458609581 0.0 255.0 0.0
0.22246882319450378 -0.3534063398838043 0.14521020650863647 0.0 255.0 0.0
-0.2943037152290344 -0.3993229568004608 0.13259673118591309 0.0 255.0 0.0
0.14354464411735535 -0.366357684135437 -0.01378833781927824 0.0 255.0 0.0
-0.24107538163661957 -0.03583135828375816 -0.2584318220615387 0.0 255.0 0.0
0.1848355382680893 0.19704259932041168 0.15622714161872864 0.0 255.0 0.0
0.29778817296028137 -0.19315746426582336 0.0047690290957689285 0.0 255.0 0.0
-0.2707524597644806 -0.21804124116897583 0.11013220250606537 0.0 255.0 0.0
0.10310900211334229 -0.03704352304339409 -0.13766010105609894 0.0 255.0 0.0
-0.27053529024124146 0.15261931717395782 -0.006212244741618633 0.0 255.0 0.0
-0.040179889649152756 -0.171108677983284 -0.13506805896759033 0.0 255.0 0.0
0.2964143753051758 -0.15907622873783112 0.04042409360408783 0.0 255.0 0.0
-0.17216089367866516 0.22812457382678986 -0.09133342653512955 0.0 255.0 0.0
0.1949717104434967 -0.446439266204834 0.17259176075458527 0.0 255.0 0.0
0.008315693587064743 0.22736889123916626 -0.17814937233924866 0.0 255.0 0.0
0.28809767961502075 -0.41441357135772705 0.010281302034854889 0.0 255.0 0.0
-0.0803041160106659 0.2254549115896225 -0.11168977618217468 0.0 255.0 0.0
0.04720648005604744 -0.20641617476940155 -0.13506805896759033 0.0 255.0 0.0
0.2153630256652832 0.10518721491098404 -0.13506805896759033 0.0 255.0 0.0
0.009154986590147018 0.05347270146012306 0.16940195858478546 0.0 255.0 0.0
-0.2707604169845581 -0.166142538189888 -0.08739791065454483 0.0 255.0 0.0
0.21819047629833221 -0.1437363475561142 -0.13506805896759033 0.0 255.0 0.0
-0.040354203432798386 -0.023634254932403564 0.17297466099262238 0.0 255.0 0.0
0.3002541959285736 -0.1405089646577835 -0.08178142458200455 0.0 255.0 0.0
-0.25642502307891846 0.23264044523239136 0.07399820536375046 0.0 255.0 0.0
-0.1960178166627884 0.06566731631755829 0.16936494410037994 0.0 255.0 0.0
0.1863814890384674 0.13083869218826294 0.16940195858478546 0.0 255.0 0.0
-0.044571638107299805 -0.24789948761463165 0.08740366995334625 0.0 255.0 0.0
-0.2563174366950989 -0.43945565819740295 0.10009761899709702 0.0 255.0 0.0
-0.013036162592470646 0.12716728448867798 -0.13506805896759033 0.0 255.0 0.0
0.24787203967571259 0.22790202498435974 0.10917478799819946 0.0 255.0 0.0
-0.04438083618879318 -0.2218017727136612 0.1577809900045395 0.0 255.0 0.0
-0.2993256747722626 -0.34290406107902527 -0.019405502825975418 0.0 255.0 0.0
0.24745811522006989 0.5157532095909119 0.06141482666134834 0.0 255.0 0.0
0.2758621573448181 -0.38211536407470703 -0.04944482073187828 0.0 255.0 0.0
0.2887422442436218 0.48227906227111816 0.03000267595052719 0.0 255.0 0.0
0.23289808630943298 0.42309698462486267 0.10044905543327332 0.0 255.0 0.0
0.16176564991474152 -0.006440966855734587 0.16979192197322845 0.0 255.0 0.0
-0.2718442976474762 -0.06946554034948349 0.04210936650633812 0.0 255.0 0.0
0.2989943325519562 -0.19430921971797943 -0.03638969361782074 0.0 255.0 0.0
0.18448831140995026 0.3432920277118683 0.026012998074293137 0.0 255.0 0.0
0.19099034368991852 0.38247841596603394 -0.0592610239982605 0.0 255.0 0.0
0.3014698624610901 0.43386000394821167 0.07553930580615997 0.0 255.0 0.0
0.26977917551994324 -0.09284917265176773 0.156019389629364 0.0 255.0 0.0
-0.0037311804480850697 0.030313927680253983 -0.13304217159748077 0.0 255.0 0.0
0.05733978748321533 0.11727022379636765 0.16964904963970184 0.0 255.0 0.0
0.13849927484989166 -0.09658945351839066 0.16991211473941803 0.0 255.0 0.0
-0.2711378335952759 -0.021487917751073837 0.09839598089456558 0.0 255.0 0.0
0.013127903454005718 0.10028932243585587 -0.16685408353805542 0.0 255.0 0.0
-0.27057650685310364 -0.00045337656047195196 0.09545930474996567 0.0 255.0 0.0
0.15748660266399384 -0.0874127671122551 -0.13632865250110626 0.0 255.0 0.0
-0.1401877999305725 0.007817029021680355 -0.13742217421531677 0.0 255.0 0.0
0.07452372461557388 0.07972574979066849 -0.13506805896759033 0.0 255.0 0.0
0.17042924463748932 0.3971760869026184 0.010257854126393795 0.0 255.0 0.0
0.05368949845433235 -0.030940094962716103 0.16841399669647217 0.0 255.0 0.0
-0.179037943482399 -0.19242149591445923 -0.13586314022541046 0.0 255.0 0.0
0.29775822162628174 -0.10552753508090973 -0.024367259815335274 0.0 255.0 0.0
-0.1684902310371399 0.2289183884859085 -0.04222803935408592 0.0 255.0 0.0
0.18943694233894348 0.4662435054779053 -0.01838771440088749 0.0 255.0 0.0
0.07634173333644867 0.10077293962240219 0.16682660579681396 0.0 255.0 0.0
0.09627523273229599 -0.13502949476242065 -0.13506805896759033 0.0 255.0 0.0
0.27631086111068726 0.0793134868144989 0.15586480498313904 0.0 255.0 0.0
0.276622474193573 0.13076753914356232 -0.13506805896759033 0.0 255.0 0.0
0.2839146554470062 -0.35546875 0.07658208161592484 0.0 255.0 0.0
-0.26672273874282837 0.3610552251338959 0.004325592890381813 0.0 255.0 0.0
-0.16853444278240204 -0.1471007615327835 0.16697923839092255 0.0 255.0 0.0
-0.2720699906349182 0.16832731664180756 -0.026435675099492073 0.0 255.0 0.0
0.272245317697525 -0.25072821974754333 0.06271952390670776 0.0 255.0 0.0
-0.2707524597644806 0.08577620983123779 -0.10438375920057297 0.0 255.0 0.0
0.19786657392978668 0.16346493363380432 -0.13570865988731384 0.0 255.0 0.0
0.16863249242305756 -0.3589436411857605 0.12382394075393677 0.0 255.0 0.0
-0.11112368851900101 -0.012647351250052452 -0.13442367315292358 0.0 255.0 0.0
-0.1496281772851944 0.00534925889223814 -0.13506805896759033 0.0 255.0 0.0
-0.11800003051757812 0.06675782799720764 0.16940195858478546 0.0 255.0 0.0
0.15042613446712494 0.009657695889472961 0.16708683967590332 0.0 255.0 0.0
-0.08647468686103821 -0.25036072731018066 0.03098359704017639 0.0 255.0 0.0
-0.26816511154174805 0.19698916375637054 -0.10929702967405319 0.0 255.0 0.0
0.1341974437236786 -0.41187405586242676 0.07488252222537994 0.0 255.0 0.0
0.24851366877555847 -0.4435558021068573 0.00476835947483778 0.0 255.0 0.0
0.2982393205165863 -0.06706269830465317 -0.08464638888835907 0.0 255.0 0.0
0.22428585588932037 0.22809380292892456 -0.09606173634529114 0.0 255.0 0.0
-0.0007393501000478864 0.22812457382678986 0.12033166736364365 0.0 255.0 0.0
0.2766649127006531 0.49850142002105713 0.08130861818790436 0.0 255.0 0.0
0.2729795277118683 0.23105701804161072 -0.06074657291173935 0.0 255.0 0.0
-0.17973820865154266 -0.1115948036313057 0.16812394559383392 0.0 255.0 0.0
-0.0715448409318924 -0.15073451399803162 0.16715693473815918 0.0 255.0 0.0
0.14320503175258636 -0.39872145652770996 0.01833321899175644 0.0 255.0 0.0
0.276473730802536 0.45185473561286926 -0.060109928250312805 0.0 255.0 0.0
-0.16551770269870758 0.22846396267414093 -0.05251992121338844 0.0 255.0 0.0
0.2977599501609802 0.03982730209827423 -0.034301940351724625 0.0 255.0 0.0
-0.09649094194173813 -0.030230848118662834 0.16820605099201202 0.0 255.0 0.0
0.23677608370780945 0.44763681292533875 0.09813659638166428 0.0 255.0 0.0
0.26448115706443787 -0.057395461946725845 -0.1374770849943161 0.0 255.0 0.0
0.2977750599384308 0.1410202980041504 -0.01976700685918331 0.0 255.0 0.0
0.22306032478809357 -0.015303042717278004 -0.13430967926979065 0.0 255.0 0.0
-0.27105483412742615 -0.18544699251651764 -0.027457907795906067 0.0 255.0 0.0
0.03386903926730156 0.11877529323101044 0.17041370272636414 0.0 255.0 0.0
-0.013015883974730968 0.22812457382678986 0.02289379946887493 0.0 255.0 0.0
0.2621995806694031 -0.28761616349220276 -0.03279559314250946 0.0 255.0 0.0
0.08856889605522156 0.0430108942091465 -0.13406746089458466 0.0 255.0 0.0
-0.065755195915699 -0.25083255767822266 -0.03359217569231987 0.0 255.0 0.0
0.10353793948888779 -0.03707383945584297 0.17174039781093597 0.0 255.0 0.0
0.22216786444187164 -0.2507084608078003 -0.08908656984567642 0.0 255.0 0.0
-0.2713465988636017 0.0818241611123085 0.053050633519887924 0.0 255.0 0.0
-0.2707524597644806 -0.21208637952804565 0.02024165354669094 0.0 255.0 0.0
-0.14871053397655487 0.22877301275730133 -0.10199451446533203 0.0 255.0 0.0
-0.24842989444732666 0.10562340170145035 -0.1320308893918991 0.0 255.0 0.0
-0.26918742060661316 -0.13825920224189758 0.09851542115211487 0.0 255.0 0.0
0.13331061601638794 0.11849211156368256 0.16940195858478546 0.0 255.0 0.0
-0.24195851385593414 -0.44122278690338135 0.13086630403995514 0.0 255.0 0.0
-0.2707524597644806 0.20378200709819794 0.10881472378969193 0.0 255.0 0.0
0.28736335039138794 -0.37169206142425537 0.03795818239450455 0.0 255.0 0.0
-0.00435462174937129 -0.24952712655067444 0.09064937382936478 0.0 255.0 0.0
0.2980637550354004 0.3520899713039398 -0.02285020612180233 0.0 255.0 0.0
-0.05896298587322235 -0.24814316630363464 0.08055447787046432 0.0 255.0 0.0
0.14238415658473969 -0.38878658413887024 0.019858891144394875 0.0 255.0 0.0
-0.2522943913936615 0.22933194041252136 0.07404118031263351 0.0 255.0 0.0
-0.2623748481273651 0.44673219323158264 0.08446402847766876 0.0 255.0 0.0
0.18021275103092194 0.46341729164123535 0.07180699706077576 0.0 255.0 0.0
-0.2548595666885376 0.47497400641441345 -0.007002263329923153 0.0 255.0 0.0
-0.2740958333015442 -0.4566419720649719 -0.006490107160061598 0.0 255.0 0.0
-0.15865468978881836 -0.2518422305583954 -0.10040450841188431 0.0 255.0 0.0
0.17649100720882416 -0.4123034179210663 -0.06282033771276474 0.0 255.0 0.0
-0.16402986645698547 0.3607980012893677 -0.017975645139813423 0.0 255.0 0.0
-0.14267170429229736 0.11356840282678604 0.1708718240261078 0.0 255.0 0.0
0.2957828938961029 0.17885646224021912 0.02729411981999874 0.0 255.0 0.0
0.2165309339761734 0.22993071377277374 -0.08672688156366348 0.0 255.0 0.0
0.03550376370549202 -0.04193168878555298 -0.13706375658512115 0.0 255.0 0.0
0.21851307153701782 0.20329837501049042 0.15629258751869202 0.0 255.0 0.0
0.12613341212272644 -0.11326403170824051 -0.1349547654390335 0.0 255.0 0.0
0.16013585031032562 0.22812457382678986 0.009670459665358067 0.0 255.0 0.0
-0.2039555311203003 -0.2724338471889496 -0.05742647498846054 0.0 255.0 0.0
-0.077566958963871 0.12324678897857666 0.16940195858478546 0.0 255.0 0.0
-0.2707524597644806 -0.08404168486595154 0.10015572607517242 0.0 255.0 0.0
0.15019719302654266 0.05943939462304115 0.16940195858478546 0.0 255.0 0.0
0.2973906695842743 -0.05278271064162254 -0.03855588287115097 0.0 255.0 0.0
-0.2145451456308365 0.41624215245246887 0.0882047563791275 0.0 255.0 0.0
0.10832610726356506 -0.20990978181362152 0.1543017029762268 0.0 255.0 0.0
-0.029721513390541077 0.22683723270893097 -0.0821501761674881 0.0 255.0 0.0
0.1608860194683075 -0.1956838220357895 -0.13506805896759033 0.0 255.0 0.0
0.1483229696750641 -0.25089678168296814 0.08271155506372452 0.0 255.0 0.0
0.2551514208316803 0.4759615659713745 0.111590176820755 0.0 255.0 0.0
-0.20640484988689423 -0.4481401741504669 0.052451033145189285 0.0 255.0 0.0
-0.15233154594898224 0.4181691110134125 0.010757632553577423 0.0 255.0 0.0
0.009375039488077164 0.0699990764260292 0.16925300657749176 0.0 255.0 0.0
-0.034024208784103394 0.19731773436069489 0.15623115003108978 0.0 255.0 0.0
0.15293826162815094 -0.3114302456378937 0.006024455185979605 0.0 255.0 0.0
0.29132017493247986 0.46726852655410767 -0.003407071577385068 0.0 255.0 0.0
-0.16265445947647095 0.42226117849349976 -0.042621515691280365 0.0 255.0 0.0
0.1700497567653656 -0.2512252628803253 0.0725218653678894 0.0 255.0 0.0
-0.2707524597644806 0.18809577822685242 -0.04613051936030388 0.0 255.0 0.0
-0.05791676416993141 0.08578953891992569 0.17016026377677917 0.0 255.0 0.0
-0.268135130405426 0.06987814605236053 0.10764768719673157 0.0 255.0 0.0
0.06739100813865662 -0.2490384727716446 0.02317008376121521 0.0 255.0 0.0
0.03350236639380455 -0.2304341048002243 -0.13506805896759033 0.0 255.0 0.0
-0.02362147718667984 0.1463317573070526 -0.20842814445495605 0.0 255.0 0.0
0.2987637519836426 0.19194257259368896 0.10622233897447586 0.0 255.0 0.0
0.09809044003486633 -0.2208091914653778 0.15540625154972076 0.0 255.0 0.0
0.0793982595205307 0.22812457382678986 0.04982675611972809 0.0 255.0 0.0
0.05379106104373932 0.15065523982048035 0.16754186153411865 0.0 255.0 0.0
0.2959495782852173 -0.19288761913776398 -0.10936026275157928 0.0 255.0 0.0
-0.11353494971990585 0.03731818124651909 0.16940195858478546 0.0 255.0 0.0
0.21117736399173737 -0.05189284309744835 -0.13606640696525574 0.0 255.0 0.0
0.18293125927448273 -0.3253301978111267 -0.054904066026210785 0.0 255.0 0.0
0.13258635997772217 -0.06407264620065689 -0.13473297655582428 0.0 255.0 0.0
-0.2924577295780182 0.009286148473620415 -0.25377050042152405 0.0 255.0 0.0
-0.11675810813903809 -0.014143923297524452 0.16851584613323212 0.0 255.0 0.0
0.19563981890678406 -0.2132314145565033 0.15625306963920593 0.0 255.0 0.0
0.25436925888061523 -0.4461170732975006 0.1045106053352356 0.0 255.0 0.0
-0.15813809633255005 0.43929606676101685 0.06340159475803375 0.0 255.0 0.0
0.17828750610351562 0.3652365505695343 0.061294037848711014 0.0 255.0 0.0
0.07596144080162048 0.22812457382678986 0.07049477100372314 0.0 255.0 0.0
-0.24890314042568207 -0.11159101128578186 0.1576351374387741 0.0 255.0 0.0
-0.26895394921302795 0.20993764698505402 -0.09090477973222733 0.0 255.0 0.0
-0.04566274955868721 -0.0737927183508873 0.16940195858478546 0.0 255.0 0.0
-0.3313797116279602 -0.3366355895996094 0.15063294768333435 0.0 255.0 0.0
0.20478121936321259 -0.44662028551101685 0.05557725951075554 0.0 255.0 0.0
0.028851497918367386 -0.024237625300884247 -0.13495798408985138 0.0 255.0 0.0
0.29746919870376587 0.4580368995666504 0.06343860924243927 0.0 255.0 0.0
0.12280174344778061 0.0644855797290802 -0.13506805896759033 0.0 255.0 0.0
-0.14078745245933533 -0.2505623698234558 -0.038590628653764725 0.0 255.0 0.0
0.2972581684589386 0.17820817232131958 -0.11436950415372849 0.0 255.0 0.0
-0.020442890003323555 -0.024250995367765427 0.17199961841106415 0.0 255.0 0.0
-0.2819267511367798 -0.3258674144744873 -0.026763442903757095 0.0 255.0 0.0
0.292459636926651 0.0679934099316597 -0.08064108341932297 0.0 255.0 0.0
-0.0402744859457016 -0.16712473332881927 -0.1321537345647812 0.0 255.0 0.0
0.18022027611732483 -0.001838178955949843 0.17198894917964935 0.0 255.0 0.0
0.295119047164917 0.33930227160453796 0.022300008684396744 0.0 255.0 0.0
0.21237020194530487 -0.10837685316801071 0.17290371656417847 0.0 255.0 0.0
0.2988324761390686 0.08621146529912949 0.05647566169500351 0.0 255.0 0.0
-0.2682512104511261 -0.15075911581516266 -0.05180684104561806 0.0 255.0 0.0
0.18535029888153076 0.38296929001808167 0.09718386083841324 0.0 255.0 0.0
0.15104244649410248 0.05169014260172844 -0.13668212294578552 0.0 255.0 0.0
0.067143015563488 0.124519482254982 0.1689191460609436 0.0 255.0 0.0
0.1546141505241394 -0.31794503331184387 -0.013184993527829647 0.0 255.0 0.0
-0.27400580048561096 -0.0601360946893692 -0.08808959275484085 0.0 255.0 0.0
0.22112147510051727 -0.02525578998029232 0.16940195858478546 0.0 255.0 0.0
-0.1801077425479889 0.4870673418045044 -0.010964942164719105 0.0 255.0 0.0
0.1463911086320877 0.20396248996257782 0.15629561245441437 0.0 255.0 0.0
-0.27184027433395386 0.16631139814853668 -0.08595695346593857 0.0 255.0 0.0
0.17822961509227753 0.4599444568157196 0.0645219162106514 0.0 255.0 0.0
0.10955978184938431 -0.14757095277309418 0.16940195858478546 0.0 255.0 0.0
0.2652623653411865 -0.2509101927280426 0.0686277449131012 0.0 255.0 0.0
-0.012701875530183315 0.15688693523406982 -0.13601239025592804 0.0 255.0 0.0
0.060698386281728745 -0.13199974596500397 0.17111283540725708 0.0 255.0 0.0
-0.2499648630619049 -0.19680728018283844 0.155949205160141 0.0 255.0 0.0
-0.08140352368354797 0.12910903990268707 -0.13637025654315948 0.0 255.0 0.0
-0.27078863978385925 -0.012764579616487026 -0.022160908207297325 0.0 255.0 0.0
-0.15621063113212585 0.374083936214447 -0.005231186747550964 0.0 255.0 0.0
-0.026423681527376175 -0.04312404617667198 0.16940195858478546 0.0 255.0 0.0
-0.14384038746356964 0.07131483405828476 -0.13506805896759033 0.0 255.0 0.0
-0.034749701619148254 -0.2506554424762726 -0.0951286181807518 0.0 255.0 0.0
-0.2700796127319336 0.12360840290784836 0.07075581699609756 0.0 255.0 0.0
0.295705646276474 -0.19078202545642853 -0.11670657992362976 0.0 255.0 0.0
-0.012882550247013569 0.12552344799041748 -0.13572724163532257 0.0 255.0 0.0
0.1886804699897766 -0.16840749979019165 0.17028766870498657 0.0 255.0 0.0
0.0763484314084053 -0.02850537933409214 -0.13524161279201508 0.0 255.0 0.0
0.025779837742447853 -0.07878870517015457 0.16940195858478546 0.0 255.0 0.0
0.11363706737756729 0.04856269061565399 -0.13548612594604492 0.0 255.0 0.0
0.2950190603733063 -0.19732436537742615 -0.08664406836032867 0.0 255.0 0.0
0.20331324636936188 -0.44660818576812744 0.05645018070936203 0.0 255.0 0.0
0.29683029651641846 0.43337586522102356 -0.009153498336672783 0.0 255.0 0.0
0.05362067371606827 0.22839191555976868 0.005083081312477589 0.0 255.0 0.0
0.18738766014575958 0.33425211906433105 0.034462250769138336 0.0 255.0 0.0
-0.1844267100095749 -0.13264432549476624 -0.1336132436990738 0.0 255.0 0.0
0.09032536298036575 -0.25070247054100037 -0.0780121460556984 0.0 255.0 0.0
0.1166921928524971 0.22812457382678986 0.027890142053365707 0.0 255.0 0.0
0.2759014368057251 -0.3365095555782318 0.08079705387353897 0.0 255.0 0.0
-0.16437257826328278 0.3807191252708435 0.07727286219596863 0.0 255.0 0.0
0.1260586678981781 -0.13334716856479645 -0.1366865485906601 0.0 255.0 0.0
-0.025400593876838684 0.2280903160572052 0.1310083270072937 0.0 255.0 0.0
0.11449587345123291 0.002336555626243353 -0.131727397441864 0.0 255.0 0.0
0.0016722714062780142 0.026828642934560776 -0.13506805896759033 0.0 255.0 0.0
0.015067905187606812 -0.2534236013889313 0.1012357771396637 0.0 255.0 0.0
0.300042986869812 -0.08136087656021118 0.039448752999305725 0.0 255.0 0.0
0.24821174144744873 -0.33781951665878296 -0.07864851504564285 0.0 255.0 0.0
0.1727394461631775 -0.4470667541027069 0.10537112504243851 0.0 255.0 0.0
-0.26491081714630127 0.4459835886955261 0.02349286712706089 0.0 255.0 0.0
0.1285799890756607 0.11814872920513153 0.16752462089061737 0.0 255.0 0.0
0.26483070850372314 -0.30085304379463196 0.08514087647199631 0.0 255.0 0.0
-0.06812435388565063 -0.13583995401859283 0.17176571488380432 0.0 255.0 0.0
-0.2523081600666046 0.3315627872943878 0.010659539140760899 0.0 255.0 0.0
-0.060845449566841125 -0.07913477718830109 0.17203012108802795 0.0 255.0 0.0
-0.24400968849658966 0.22814807295799255 -0.06128314882516861 0.0 255.0 0.0
0.2081449031829834 0.0961102545261383 0.1678837686777115 0.0 255.0 0.0
-0.17580854892730713 -0.37567564845085144 0.052002787590026855 0.0 255.0 0.0
0.16682864725589752 -0.3289361000061035 -0.039350032806396484 0.0 255.0 0.0
0.06255669891834259 -0.038446683436632156 -0.13506805896759033 0.0 255.0 0.0
-0.09139125794172287 -0.054031506180763245 -0.13619230687618256 0.0 255.0 0.0
-0.20554609596729279 -0.36167195439338684 0.10456231981515884 0.0 255.0 0.0
0.0915578305721283 0.2266813963651657 0.0474858321249485 0.0 255.0 0.0
-0.136771559715271 -0.2507662773132324 0.11082009971141815 0.0 255.0 0.0
-0.1618555635213852 0.19041599333286285 0.15610650181770325 0.0 255.0 0.0
0.14363643527030945 0.19282586872577667 -0.13506805896759033 0.0 255.0 0.0
0.04063112288713455 0.05598945543169975 -0.13514554500579834 0.0 255.0 0.0
0.1603940725326538 -0.311085969209671 0.05051289498806 0.0 255.0 0.0
0.07931073755025864 -0.08140332251787186 -0.134154811501503 0.0 255.0 0.0
0.1776617467403412 0.05985979735851288 -0.13506805896759033 0.0 255.0 0.0
0.09921713918447495 -0.251125305891037 0.049981605261564255 0.0 255.0 0.0
0.1790405958890915 0.4657179117202759 0.022012673318386078 0.0 255.0 0.0
-0.2690446972846985 0.1209263950586319 -0.05917526036500931 0.0 255.0 0.0
-0.04713423550128937 -0.2500593364238739 -0.11786164343357086 0.0 255.0 0.0
0.03770451247692108 0.1392713338136673 -0.21094748377799988 0.0 255.0 0.0
-0.15525515377521515 -0.0698772743344307 0.1712607741355896 0.0 255.0 0.0
0.06893878430128098 -0.08495834469795227 -0.13715742528438568 0.0 255.0 0.0
0.16226635873317719 -0.04622780159115791 0.1656929850578308 0.0 255.0 0.0
-0.2452124059200287 0.0036781432572752237 -0.27405667304992676 0.0 255.0 0.0
0.12707991898059845 0.18283149600028992 -0.13553988933563232 0.0 255.0 0.0
0.06679750978946686 -0.2259487807750702 0.15622219443321228 0.0 255.0 0.0
-0.26984941959381104 0.05272655561566353 0.0621253065764904 0.0 255.0 0.0
-0.08036775887012482 -0.10450903326272964 0.16845357418060303 0.0 255.0 0.0
-0.13301758468151093 -0.13206572830677032 -0.13359877467155457 0.0 255.0 0.0
0.21639908850193024 0.38419944047927856 -0.08435490727424622 0.0 255.0 0.0
0.12676368653774261 -0.1103646457195282 0.17023874819278717 0.0 255.0 0.0
-0.16354484856128693 0.1564898043870926 -0.13613322377204895 0.0 255.0 0.0
-0.2579781413078308 -0.2975441515445709 -0.03135078027844429 0.0 255.0 0.0
0.2972581684589386 0.10624229907989502 0.01959097944200039 0.0 255.0 0.0
0.09433507174253464 -0.25003954768180847 0.14031042158603668 0.0 255.0 0.0
-0.26406270265579224 0.45674657821655273 0.0339319184422493 0.0 255.0 0.0
-0.2690378725528717 0.14920659363269806 0.06263256072998047 0.0 255.0 0.0
-0.1518346518278122 -0.2953541874885559 0.012629947625100613 0.0 255.0 0.0
-0.08243522047996521 0.1798829436302185 -0.13371358811855316 0.0 255.0 0.0
0.2981206774711609 -0.04110300913453102 -0.019227920100092888 0.0 255.0 0.0
0.26464608311653137 -0.2895714342594147 -0.028454117476940155 0.0 255.0 0.0
0.0529596246778965 0.14204370975494385 -0.13506805896759033 0.0 255.0 0.0
-0.270274817943573 0.09973890334367752 0.06397685408592224 0.0 255.0 0.0
-0.24749374389648438 0.01344040036201477 -0.2518030107021332 0.0 255.0 0.0
0.20935754477977753 0.34291404485702515 0.09944173693656921 0.0 255.0 0.0
-0.255582720041275 0.48146942257881165 0.02608918584883213 0.0 255.0 0.0
-0.22130119800567627 -0.32539668679237366 0.1033167690038681 0.0 255.0 0.0
0.1794489324092865 0.22903192043304443 -0.06325063854455948 0.0 255.0 0.0
0.2972581684589386 0.15879550576210022 0.10824786126613617 0.0 255.0 0.0
0.296835720539093 0.023811371996998787 0.03897175192832947 0.0 255.0 0.0
0.26678723096847534 0.45396697521209717 -0.07325759530067444 0.0 255.0 0.0
0.3013804852962494 0.2117595374584198 -0.011840960010886192 0.0 255.0 0.0
0.2960263788700104 0.035873740911483765 -0.011378561146557331 0.0 255.0 0.0
-0.28572431206703186 -0.36663177609443665 -0.07908186316490173 0.0 255.0 0.0
0.2647552490234375 -0.28566843271255493 0.03863174468278885 0.0 255.0 0.0
-0.25306782126426697 -0.2821837365627289 -0.010612125508487225 0.0 255.0 0.0
0.27805474400520325 0.14848089218139648 -0.13383835554122925 0.0 255.0 0.0
0.2818443477153778 -0.36288002133369446 0.012301605194807053 0.0 255.0 0.0
0.13953770697116852 0.2268841564655304 0.05312007665634155 0.0 255.0 0.0
0.22224773466587067 -0.33680474758148193 0.12570840120315552 0.0 255.0 0.0
-0.08546260744333267 -0.25170692801475525 0.012934370897710323 0.0 255.0 0.0
0.01677905023097992 0.20619601011276245 -0.23941604793071747 0.0 255.0 0.0
-0.16788172721862793 -0.10427961498498917 -0.13506805896759033 0.0 255.0 0.0
0.2979346513748169 0.19212187826633453 -0.028332987800240517 0.0 255.0 0.0
-0.039960261434316635 0.22724756598472595 0.014324914664030075 0.0 255.0 0.0
-0.11110013723373413 -0.14792053401470184 -0.1343882828950882 0.0 255.0 0.0
-0.08753539621829987 0.196420818567276 0.15621811151504517 0.0 255.0 0.0
-0.20090775191783905 -0.4020504355430603 0.1377343088388443 0.0 255.0 0.0
0.019351374357938766 -0.2507132291793823 0.08432099223136902 0.0 255.0 0.0
0.23884008824825287 -0.15688006579875946 -0.13506805896759033 0.0 255.0 0.0
-0.3292354643344879 -0.3710178732872009 0.01523968018591404 0.0 255.0 0.0
0.18028557300567627 -0.44111308455467224 0.1508040875196457 0.0 255.0 0.0
-0.1663305014371872 0.0756695568561554 0.16940195858478546 0.0 255.0 0.0
0.21258503198623657 0.5110743045806885 0.08288001269102097 0.0 255.0 0.0
-0.0874580517411232 -0.09711755067110062 -0.13599207997322083 0.0 255.0 0.0
-0.2707524597644806 -0.13706369698047638 0.07775070518255234 0.0 255.0 0.0
0.18732254207134247 -0.14972448348999023 -0.13439062237739563 0.0 255.0 0.0
-0.2724846601486206 -0.16047176718711853 0.050286151468753815 0.0 255.0 0.0
0.1672813892364502 -0.44965359568595886 0.10086971521377563 0.0 255.0 0.0
0.27899453043937683 0.2280120700597763 0.08578010648488998 0.0 255.0 0.0
-0.28634342551231384 -0.425274133682251 0.0675731897354126 0.0 255.0 0.0
-0.061453286558389664 0.0394291952252388 0.16867569088935852 0.0 255.0 0.0
-0.18752333521842957 0.22815115749835968 -0.07033491879701614 0.0 255.0 0.0
0.15784773230552673 -0.3179580271244049 0.05589161068201065 0.0 255.0 0.0
0.29931309819221497 0.1592874974012375 -0.040022216737270355 0.0 255.0 0.0
-0.24168314039707184 0.22589653730392456 0.10000856965780258 0.0 255.0 0.0
-0.09210847318172455 -0.25130486488342285 0.09290912002325058 0.0 255.0 0.0
0.29499220848083496 -0.01152061577886343 0.11364690959453583 0.0 255.0 0.0
0.30260157585144043 0.39586853981018066 0.02517622523009777 0.0 255.0 0.0
-0.26989737153053284 -0.20659439265727997 -0.01977611519396305 0.0 255.0 0.0
0.2175295650959015 -0.37589317560195923 -0.08586371690034866 0.0 255.0 0.0
0.2982676327228546 0.06878823786973953 -0.06650689989328384 0.0 255.0 0.0
0.2912277281284332 0.10040406137704849 0.1128029078245163 0.0 255.0 0.0
-0.26732996106147766 -0.019433865323662758 -0.0017311781411990523 0.0 255.0 0.0
0.19248448312282562 0.49053114652633667 0.0007820184691809118 0.0 255.0 0.0
0.0021787150762975216 0.2292664498090744 -0.03844376280903816 0.0 255.0 0.0
0.22181260585784912 0.22817067801952362 -0.06955794245004654 0.0 255.0 0.0
-0.273959219455719 -0.017314570024609566 -0.05321288853883743 0.0 255.0 0.0
-0.13810193538665771 0.13307012617588043 0.16940195858478546 0.0 255.0 0.0
0.2972581684589386 0.0009467278141528368 -0.07839511334896088 0.0 255.0 0.0
-0.16849195957183838 0.20990273356437683 -0.1355661153793335 0.0 255.0 0.0
-0.2368299514055252 0.07163792848587036 -0.13335274159908295 0.0 255.0 0.0
0.13676318526268005 -0.12980838119983673 -0.1348416805267334 0.0 255.0 0.0
-0.026810506358742714 0.22960017621517181 0.08321306109428406 0.0 255.0 0.0
-0.1257791519165039 0.10047010332345963 0.16940195858478546 0.0 255.0 0.0
-0.2688543200492859 0.029330657795071602 0.0781112015247345 0.0 255.0 0.0
-0.2428375631570816 -0.24904349446296692 -0.1175098642706871 0.0 255.0 0.0
0.29889219999313354 -0.008670859970152378 0.1189434602856636 0.0 255.0 0.0
-0.09962046146392822 0.22812457382678986 0.08869949728250504 0.0 255.0 0.0
0.3026421368122101 0.39325663447380066 0.05618733912706375 0.0 255.0 0.0
0.17598232626914978 -0.44602689146995544 0.01982523500919342 0.0 255.0 0.0
0.2809021472930908 0.22732055187225342 0.07960300892591476 0.0 255.0 0.0
0.26837682723999023 0.18991924822330475 -0.1329096257686615 0.0 255.0 0.0
-0.03997264429926872 -0.2266227751970291 0.16116678714752197 0.0 255.0 0.0
-0.27060604095458984 -0.14374110102653503 -0.04390190541744232 0.0 255.0 0.0
0.29819202423095703 -0.11225578188896179 -0.07670290768146515 0.0 255.0 0.0
0.29822975397109985 -0.07555759698152542 -0.0426984541118145 0.0 255.0 0.0
-0.1816306710243225 -0.40361714363098145 0.04625045135617256 0.0 255.0 0.0
-0.026307132095098495 -0.24704444408416748 -0.03656698390841484 0.0 255.0 0.0
-0.06650672107934952 -0.02325982227921486 0.17119908332824707 0.0 255.0 0.0
0.14199517667293549 0.13888907432556152 -0.13506805896759033 0.0 255.0 0.0
0.21794699132442474 -0.3683428466320038 0.1638137251138687 0.0 255.0 0.0
0.030023830011487007 -0.25140151381492615 0.0675162523984909 0.0 255.0 0.0
0.017209824174642563 0.22812457382678986 0.011598861776292324 0.0 255.0 0.0
-0.192064106464386 0.495003879070282 -0.017089491710066795 0.0 255.0 0.0
-0.2707524597644806 -0.158659890294075 0.07857602089643478 0.0 255.0 0.0
0.29973849654197693 0.055971018970012665 0.04136058688163757 0.0 255.0 0.0
0.23955757915973663 -0.2196873426437378 -0.13631129264831543 0.0 255.0 0.0
0.013017126359045506 0.2204711139202118 -0.2435556948184967 0.0 255.0 0.0
-0.1698140799999237 0.07814944535493851 0.16940195858478546 0.0 255.0 0.0
-0.19202470779418945 -0.25369343161582947 -0.08698324114084244 0.0 255.0 0.0
0.23119975626468658 0.16316422820091248 -0.13231748342514038 0.0 255.0 0.0
-0.16449372470378876 0.3883250057697296 -0.036846596747636795 0.0 255.0 0.0
0.2972581684589386 -0.15703339874744415 0.008983866311609745 0.0 255.0 0.0
-0.2552803158760071 0.33634692430496216 0.018396133556962013 0.0 255.0 0.0
0.22173213958740234 0.45101675391197205 -0.08132591843605042 0.0 255.0 0.0
0.0168057419359684 0.261148601770401 -0.20882278680801392 0.0 255.0 0.0
0.07493586093187332 -0.04336320981383324 0.16504450142383575 0.0 255.0 0.0
-0.31216681003570557 -0.34275585412979126 0.018750034272670746 0.0 255.0 0.0
0.2972581684589386 -0.09977477788925171 -0.08183904737234116 0.0 255.0 0.0
-0.2689960300922394 0.14797545969486237 0.09972292184829712 0.0 255.0 0.0
-0.04371281713247299 -0.0009063654579222202 -0.1379200965166092 0.0 255.0 0.0
0.2972581684589386 -0.16038595139980316 -0.09887229651212692 0.0 255.0 0.0
-0.26992225646972656 0.18274801969528198 0.023210685700178146 0.0 255.0 0.0
0.11197822540998459 0.12303005903959274 -0.13506805896759033 0.0 255.0 0.0
-0.15663670003414154 0.1385665237903595 0.1706828474998474 0.0 255.0 0.0
0.06332247704267502 -0.2501208186149597 0.1394304633140564 0.0 255.0 0.0
-0.1554395705461502 0.4488198459148407 0.024988321587443352 0.0 255.0 0.0
-0.1945611983537674 0.12782207131385803 0.16994626820087433 0.0 255.0 0.0
0.27287623286247253 0.5036985278129578 0.03951733559370041 0.0 255.0 0.0
-0.1353839933872223 -0.13848060369491577 -0.13090839982032776 0.0 255.0 0.0
-0.25021809339523315 -0.19180111587047577 -0.13506805896759033 0.0 255.0 0.0
0.15267246961593628 -0.37696900963783264 -0.028397055342793465 0.0 255.0 0.0
-0.17755809426307678 -0.37721607089042664 0.05899401754140854 0.0 255.0 0.0
0.05256139859557152 -0.24910543859004974 -0.08864948153495789 0.0 255.0 0.0
-0.20164959132671356 0.11886516958475113 -0.1369507908821106 0.0 255.0 0.0
0.2897595465183258 -0.38067197799682617 0.06132471561431885 0.0 255.0 0.0
0.29755422472953796 -0.16709360480308533 0.054221417754888535 0.0 255.0 0.0
0.1620086133480072 0.22407478094100952 -0.02390957437455654 0.0 255.0 0.0
0.3004649579524994 -0.11301829665899277 0.026605891063809395 0.0 255.0 0.0
0.2793726623058319 -0.13884492218494415 0.15827441215515137 0.0 255.0 0.0
-0.30489280819892883 -0.33979299664497375 0.017619682475924492 0.0 255.0 0.0
0.14290767908096313 -0.3688949942588806 0.06824083626270294 0.0 255.0 0.0
0.09999450296163559 -0.22495335340499878 -0.13652671873569489 0.0 255.0 0.0
-0.042507365345954895 0.22812457382678986 -0.02922900766134262 0.0 255.0 0.0
0.28489038348197937 -0.37172019481658936 0.11760110408067703 0.0 255.0 0.0
-0.15813352167606354 0.44309699535369873 0.08021755516529083 0.0 255.0 0.0
-0.2707524597644806 -0.017177138477563858 -0.004375523887574673 0.0 255.0 0.0
0.0369085855782032 0.22869910299777985 0.07278567552566528 0.0 255.0 0.0
-0.2714797854423523 0.14733488857746124 -0.03362078592181206 0.0 255.0 0.0
-0.05838305875658989 -0.0748182162642479 -0.13294392824172974 0.0 255.0 0.0
-0.041240394115448 -0.22673065960407257 0.15731799602508545 0.0 255.0 0.0
0.09274379909038544 -0.25092971324920654 -0.10909292101860046 0.0 255.0 0.0
-0.2021247148513794 -0.43765789270401 0.0959460660815239 0.0 255.0 0.0
-0.18290232121944427 0.0724511370062828 -0.13314613699913025 0.0 255.0 0.0
-0.12913461029529572 0.0719001293182373 0.16821400821208954 0.0 255.0 0.0
-0.1507023423910141 0.01971851848065853 -0.13360346853733063 0.0 255.0 0.0
-0.15116238594055176 0.16372321546077728 -0.13506805896759033 0.0 255.0 0.0
0.2972581684589386 0.17696447670459747 0.0737263411283493 0.0 255.0 0.0
0.20259647071361542 0.47190842032432556 -0.05055167153477669 0.0 255.0 0.0
0.044314902275800705 -0.06362006068229675 0.1667420119047165 0.0 255.0 0.0
-0.26351267099380493 -0.34289827942848206 0.17607325315475464 0.0 255.0 0.0
-0.1755395233631134 -0.11996878683567047 0.1675284504890442 0.0 255.0 0.0
0.2883716821670532 0.4556300640106201 -0.03722863271832466 0.0 255.0 0.0
0.053104761987924576 0.22812457382678986 0.00158482335973531 0.0 255.0 0.0
0.009367318823933601 0.0011088548926636577 -0.13702774047851562 0.0 255.0 0.0
-0.08981183916330338 -0.24964386224746704 -0.03743685781955719 0.0 255.0 0.0
-0.2583925127983093 -0.4567911624908447 0.03814169391989708 0.0 255.0 0.0
-0.2323562204837799 0.20081312954425812 -0.13286560773849487 0.0 255.0 0.0
-0.2711344063282013 -0.08713526278734207 0.0027528165373951197 0.0 255.0 0.0
-0.05106344074010849 0.1668199598789215 -0.13392753899097443 0.0 255.0 0.0
0.2523980438709259 -0.44585567712783813 0.11722300201654434 0.0 255.0 0.0
-0.1832224279642105 -0.365943044424057 -0.04672495648264885 0.0 255.0 0.0
0.1348346471786499 0.19601142406463623 -0.13506805896759033 0.0 255.0 0.0
0.18796822428703308 0.4247496426105499 -0.05189929157495499 0.0 255.0 0.0
-0.19600710272789001 -0.1278149038553238 -0.13506805896759033 0.0 255.0 0.0
0.27479758858680725 -0.2483089566230774 0.12770508229732513 0.0 255.0 0.0
0.09393737465143204 0.14604119956493378 0.16884319484233856 0.0 255.0 0.0
-0.009603534825146198 -0.02605731040239334 0.1703788936138153 0.0 255.0 0.0
0.2972581684589386 -0.22688262164592743 -0.05561348423361778 0.0 255.0 0.0
-0.08909175544977188 -0.25101959705352783 0.08169429004192352 0.0 255.0 0.0
-0.2606678903102875 -0.4441683888435364 0.07562290877103806 0.0 255.0 0.0
-0.24652045965194702 0.014676298014819622 -0.29127007722854614 0.0 255.0 0.0
-0.2012161910533905 -0.3814052939414978 0.11637585610151291 0.0 255.0 0.0
0.21563200652599335 -0.4481355845928192 -0.008995403535664082 0.0 255.0 0.0
0.2863484025001526 -0.419759601354599 0.08917178958654404 0.0 255.0 0.0
