0.11149249970912933 -0.21155628561973572 -0.13514526188373566 0.0 255.0 0.0
0.03433927893638611 0.15627118945121765 -0.13506805896759033 0.0 255.0 0.0
-0.0932994857430458 0.08884814381599426 0.1695864051580429 0.0 255.0 0.0
-0.06727374345064163 0.2290642410516739 0.07804976403713226 0.0 255.0 0.0
-0.2707524597644806 -0.14427457749843597 0.026119738817214966 0.0 255.0 0.0
0.2972581684589386 -0.0035417324397712946 -0.09630956500768661 0.0 255.0 0.0
0.2972581684589386 0.05538879707455635 -0.04670315235853195 0.0 255.0 0.0
-0.27159932255744934 -0.08688973635435104 0.06224116310477257 0.0 255.0 0.0
0.11790456622838974 -0.1808958351612091 -0.13506805896759033 0.0 255.0 0.0
0.29946595430374146 0.4126606285572052 0.08933735638856888 0.0 255.0 0.0
0.2994069457054138 0.05856553092598915 0.11143244802951813 0.0 255.0 0.0
-0.13368389010429382 0.2289646863937378 0.009997938759624958 0.0 255.0 0.0
-0.2707524597644806 0.19452551007270813 0.12208154797554016 0.0 255.0 0.0
-0.038372088223695755 -0.09647048264741898 -0.13513168692588806 0.0 255.0 0.0
0.196971595287323 0.49929288029670715 0.0292096808552742 0.0 255.0 0.0
0.19037973880767822 0.12386958301067352 -0.13562044501304626 0.0 255.0 0.0
-0.054928116500377655 -0.2509059011936188 -0.030647316947579384 0.0 255.0 0.0
0.29780954122543335 0.1714474856853485 0.09242095053195953 0.0 255.0 0.0
0.29434525966644287 0.03727681562304497 -0.029959484934806824 0.0 255.0 0.0
0.09703369438648224 0.20250985026359558 -0.13819022476673126 0.0 255.0 0.0
-0.017837490886449814 0.09289579838514328 0.16712066531181335 0.0 255.0 0.0
0.2970050573348999 0.042075201869010925 0.04312441870570183 0.0 255.0 0.0
0.08312555402517319 0.23079359531402588 0.001475880271755159 0.0 255.0 0.0
-0.11323119699954987 0.10240590572357178 -0.13506805896759033 0.0 255.0 0.0
0.294888436794281 0.04485427960753441 0.08322320133447647 0.0 255.0 0.0
0.1600603610277176 0.12801261246204376 -0.13694526255130768 0.0 255.0 0.0
0.26723161339759827 -0.44478943943977356 0.13822530210018158 0.0 255.0 0.0
-0.20909501612186432 -0.36508163809776306 -0.07386713474988937 0.0 255.0 0.0
0.29606255888938904 0.02378658764064312 -0.003347239689901471 0.0 255.0 0.0
-0.16846798360347748 0.23345662653446198 0.049395475536584854 0.0 255.0 0.0
0.1574207842350006 -0.18589046597480774 -0.1334826499223709 0.0 255.0 0.0
-0.3082796335220337 -0.34366604685783386 0.0007654328946955502 0.0 255.0 0.0
-0.031280193477869034 -0.00013901025522500277 0.166330948472023 0.0 255.0 0.0
-0.27169087529182434 -0.040755562484264374 -0.06777612864971161 0.0 255.0 0.0
0.24522268772125244 0.11728142946958542 -0.1354956179857254 0.0 255.0 0.0
0.17450518906116486 -0.310553640127182 0.07208403199911118 0.0 255.0 0.0
0.2947171628475189 0.07502484321594238 -0.11623217165470123 0.0 255.0 0.0
0.1787266880273819 -0.1359013468027115 -0.1373838633298874 0.0 255.0 0.0
-0.2242923527956009 0.4426938593387604 0.09057866036891937 0.0 255.0 0.0
-0.2716365158557892 -0.16697725653648376 -0.045543961226940155 0.0 255.0 0.0
-0.26516735553741455 0.4325772523880005 0.0274465661495924 0.0 255.0 0.0
0.2972581684589386 0.03341887518763542 0.05694623664021492 0.0 255.0 0.0
0.02846883237361908 0.1249665915966034 -0.13607797026634216 0.0 255.0 0.0
0.05888954550027847 0.1053425669670105 0.16940195858478546 0.0 255.0 0.0
-0.1046706885099411 -0.2257959544658661 0.1539287120103836 0.0 255.0 0.0
0.29682016372680664 0.2017454355955124 0.1213856041431427 0.0 255.0 0.0
0.09588254243135452 -0.25229334831237793 0.012019868940114975 0.0 255.0 0.0
-0.25742557644844055 0.3399672508239746 0.029104404151439667 0.0 255.0 0.0
-0.27291300892829895 -0.019839037209749222 0.038925863802433014 0.0 255.0 0.0
-0.19253221154212952 -0.0240495428442955 -0.134665846824646 0.0 255.0 0.0
0.2983400225639343 -0.17302298545837402 0.12000448256731033 0.0 255.0 0.0
-0.2746651768684387 -0.12627249956130981 0.09371912479400635 0.0 255.0 0.0
0.28721752762794495 -0.3736106753349304 0.05863682180643082 0.0 255.0 0.0
0.19544653594493866 -0.4464247226715088 0.07553588598966599 0.0 255.0 0.0
0.2980670928955078 0.20230627059936523 0.12028022110462189 0.0 255.0 0.0
-0.3226301968097687 -0.3732508420944214 0.13800005614757538 0.0 255.0 0.0
0.29343146085739136 0.20181266963481903 -0.058782730251550674 0.0 255.0 0.0
-0.23637530207633972 -0.2791937589645386 -0.04685654491186142 0.0 255.0 0.0
0.21866574883460999 -0.12753239274024963 -0.13619759678840637 0.0 255.0 0.0
-0.25611308217048645 0.4354482889175415 -0.035997357219457626 0.0 255.0 0.0
-0.1961294412612915 0.4000404477119446 -0.07759217917919159 0.0 255.0 0.0
0.23874600231647491 -0.23153966665267944 -0.13305959105491638 0.0 255.0 0.0
0.29959118366241455 0.3720152974128723 0.041608843952417374 0.0 255.0 0.0
-0.2511165738105774 0.23083369433879852 0.05496900528669357 0.0 255.0 0.0
-0.03843338042497635 -0.25074514746665955 -0.08298178017139435 0.0 255.0 0.0
-0.26368406414985657 0.40578705072402954 0.0854378193616867 0.0 255.0 0.0
0.16194556653499603 0.16756416857242584 -0.13959701359272003 0.0 255.0 0.0
-0.2603124678134918 -0.4558919370174408 0.038055263459682465 0.0 255.0 0.0
0.16758635640144348 0.04680093005299568 -0.13445256650447845 0.0 255.0 0.0
-0.2488192468881607 -0.32603719830513 0.13328969478607178 0.0 255.0 0.0
-0.15325191617012024 0.41268080472946167 0.0090477354824543 0.0 255.0 0.0
0.2972581684589386 -0.20769762992858887 0.11222584545612335 0.0 255.0 0.0
0.19333963096141815 -0.05126561224460602 -0.1341947466135025 0.0 255.0 0.0
0.2073541283607483 0.024318013340234756 -0.13720867037773132 0.0 255.0 0.0
0.18886886537075043 -0.2914509177207947 0.07293309271335602 0.0 255.0 0.0
-0.011887975968420506 0.12920695543289185 -0.13320066034793854 0.0 255.0 0.0
-0.07608634233474731 0.22798621654510498 0.13153336942195892 0.0 255.0 0.0
-0.17319752275943756 -0.22432513535022736 -0.136206716299057 0.0 255.0 0.0
0.023120108991861343 -0.016986694186925888 -0.13331463932991028 0.0 255.0 0.0
0.3012293577194214 0.062325380742549896 -0.1044299453496933 0.0 255.0 0.0
-0.2730054259300232 -0.05402053892612457 0.06472732871770859 0.0 255.0 0.0
-0.16409523785114288 0.47687533497810364 0.05011724308133125 0.0 255.0 0.0
-0.04654018580913544 0.09692096710205078 0.16987833380699158 0.0 255.0 0.0
-0.013428321108222008 0.05940714851021767 0.1735568344593048 0.0 255.0 0.0
0.0026239834260195494 -0.25028520822525024 0.13485270738601685 0.0 255.0 0.0
-0.09863489121198654 -0.05370568484067917 -0.13671883940696716 0.0 255.0 0.0
0.1848231554031372 0.47988325357437134 0.061120886355638504 0.0 255.0 0.0
-0.009603534825146198 -0.02605731040239334 0.1703788936138153 0.0 255.0 0.0
-0.0963040217757225 -0.25129738450050354 -0.014204260893166065 0.0 255.0 0.0
0.2972581684589386 -0.15711309015750885 -0.016842307522892952 0.0 255.0 0.0
0.129182368516922 0.017610644921660423 0.1701050102710724 0.0 255.0 0.0
0.061689771711826324 0.1785723865032196 -0.18509873747825623 0.0 255.0 0.0
0.18618738651275635 -0.4459328055381775 -0.01662568934261799 0.0 255.0 0.0
-0.1790418028831482 -0.3772582709789276 -0.035338398069143295 0.0 255.0 0.0
-0.050197746604681015 -0.2531353533267975 0.07770590484142303 0.0 255.0 0.0
-0.2574211657047272 -0.47252556681632996 -0.016909316182136536 0.0 255.0 0.0
0.23509551584720612 0.40801680088043213 0.10136749595403671 0.0 255.0 0.0
0.16429008543491364 -0.34271782636642456 0.09272626042366028 0.0 255.0 0.0
-0.028699500486254692 -0.1563301980495453 0.17285901308059692 0.0 255.0 0.0
-0.17034660279750824 -0.2517086863517761 -0.076284259557724 0.0 255.0 0.0
0.2950930595397949 -0.15143409371376038 0.13375155627727509 0.0 255.0 0.0
-0.23229849338531494 0.5019537210464478 0.05350017175078392 0.0 255.0 0.0
-0.16449381411075592 0.03328479081392288 0.17019958794116974 0.0 255.0 0.0
0.241900235414505 -0.44850465655326843 0.16292579472064972 0.0 255.0 0.0
0.03578253835439682 0.12083356082439423 -0.13506805896759033 0.0 255.0 0.0
-0.2711344063282013 -0.08713526278734207 0.0027528165373951197 0.0 255.0 0.0
0.12241658568382263 0.07497537136077881 -0.13336284458637238 0.0 255.0 0.0
0.0003469410876277834 -0.25350043177604675 -0.0647318959236145 0.0 255.0 0.0
0.119064100086689 -0.25087663531303406 0.021900832653045654 0.0 255.0 0.0
0.10025293380022049 -0.2507922053337097 0.027964135631918907 0.0 255.0 0.0
-0.27004483342170715 -0.17938797175884247 0.07078289985656738 0.0 255.0 0.0
0.29587864875793457 -0.17460563778877258 0.05152538791298866 0.0 255.0 0.0
0.2256806641817093 0.2090320885181427 0.15632209181785583 0.0 255.0 0.0
-0.0005495387595146894 0.23069573938846588 -0.03133784607052803 0.0 255.0 0.0
-0.268692284822464 0.04668573662638664 -0.09004156291484833 0.0 255.0 0.0
0.2874981164932251 0.37983644008636475 -0.059872981160879135 0.0 255.0 0.0
0.29822975397109985 -0.07555759698152542 -0.0426984541118145 0.0 255.0 0.0
0.28595736622810364 -0.36712753772735596 0.012038219720125198 0.0 255.0 0.0
-0.05248855799436569 0.15727274119853973 -0.1369599848985672 0.0 255.0 0.0
0.2986171841621399 0.017978394404053688 0.026037732139229774 0.0 255.0 0.0
0.2507151663303375 -0.3535310924053192 0.15126147866249084 0.0 255.0 0.0
0.04660773277282715 0.13496798276901245 -0.13574397563934326 0.0 255.0 0.0
0.01357539463788271 -0.09529150277376175 -0.13510571420192719 0.0 255.0 0.0
0.2538825571537018 0.2267543375492096 -0.08322587609291077 0.0 255.0 0.0
0.19955357909202576 0.3958545923233032 -0.07094603776931763 0.0 255.0 0.0
0.30020007491111755 0.4249575138092041 0.00015603439533151686 0.0 255.0 0.0
-0.1802348792552948 0.43175026774406433 -0.06388302147388458 0.0 255.0 0.0
-0.21093732118606567 0.12556234002113342 -0.13506805896759033 0.0 255.0 0.0
0.25628262758255005 -0.4493236839771271 0.14267335832118988 0.0 255.0 0.0
-0.2694837152957916 -0.17299847304821014 -0.052568066865205765 0.0 255.0 0.0
0.2521056532859802 -0.25091853737831116 0.0768311396241188 0.0 255.0 0.0
-0.028496697545051575 0.018113916739821434 -0.13506805896759033 0.0 255.0 0.0
-0.012091771699488163 -0.2507624924182892 -0.01856272853910923 0.0 255.0 0.0
-0.19728121161460876 -0.3426360785961151 0.09032298624515533 0.0 255.0 0.0
-0.18884409964084625 0.23085415363311768 0.07662108540534973 0.0 255.0 0.0
0.2429785430431366 -0.44790011644363403 0.06641068309545517 0.0 255.0 0.0
-0.11473223567008972 -0.06182483211159706 0.17015202343463898 0.0 255.0 0.0
0.17437373101711273 0.09710192680358887 0.1691703349351883 0.0 255.0 0.0
-0.06991152465343475 0.14252471923828125 0.1693698912858963 0.0 255.0 0.0
0.15335559844970703 -0.37582212686538696 -0.029570026323199272 0.0 255.0 0.0
0.30010488629341125 0.18529872596263885 -0.029246313497424126 0.0 255.0 0.0
0.07281918823719025 -0.255336195230484 0.09452705830335617 0.0 255.0 0.0
0.2009994238615036 0.22749868035316467 -0.09150061011314392 0.0 255.0 0.0
-0.07666861265897751 0.22812457382678986 -0.027011513710021973 0.0 255.0 0.0
-0.24338394403457642 -0.44341954588890076 0.12836626172065735 0.0 255.0 0.0
-0.08993110060691833 0.2315082848072052 0.04196292906999588 0.0 255.0 0.0
0.29741913080215454 0.14816825091838837 -0.09442409127950668 0.0 255.0 0.0
0.23909321427345276 0.17171785235404968 -0.13642121851444244 0.0 255.0 0.0
-0.1402491331100464 -0.25238046050071716 -0.074739009141922 0.0 255.0 0.0
-0.2716013193130493 -0.11633669584989548 -0.017694072797894478 0.0 255.0 0.0
-0.1700524240732193 0.227208212018013 -0.09883524477481842 0.0 255.0 0.0
-0.1958756297826767 -0.026908086612820625 0.16936546564102173 0.0 255.0 0.0
0.17368386685848236 0.405948281288147 0.06128010153770447 0.0 255.0 0.0
0.25132328271865845 0.5076249837875366 0.07970579713582993 0.0 255.0 0.0
0.29827257990837097 -0.006396124139428139 0.12069535255432129 0.0 255.0 0.0
-0.2707524597644806 0.1631062924861908 0.12228434532880783 0.0 255.0 0.0
0.039866555482149124 -0.17529895901679993 -0.1351100653409958 0.0 255.0 0.0
0.2975800931453705 -0.07524767518043518 -0.007277271710336208 0.0 255.0 0.0
-0.04143373295664787 0.07251210510730743 0.17184095084667206 0.0 255.0 0.0
0.16507172584533691 0.2264167219400406 -0.011155824176967144 0.0 255.0 0.0
0.1904735118150711 0.47305935621261597 -0.01377793774008751 0.0 255.0 0.0
-0.24050849676132202 -0.03612804785370827 0.15503771603107452 0.0 255.0 0.0
-0.27199310064315796 0.13094544410705566 0.04405290260910988 0.0 255.0 0.0
0.2972581684589386 -0.020339559763669968 0.10003388673067093 0.0 255.0 0.0
0.05400228872895241 -0.24876467883586884 -0.01651434227824211 0.0 255.0 0.0
0.053714677691459656 -0.13666096329689026 0.16940195858478546 0.0 255.0 0.0
0.018527260050177574 -0.21362504363059998 -0.13506805896759033 0.0 255.0 0.0
-0.2707524597644806 0.0664263367652893 0.02471332438290119 0.0 255.0 0.0
-0.1869851052761078 -0.21525615453720093 -0.1324041485786438 0.0 255.0 0.0
-0.04888691008090973 -0.2508549094200134 -0.04410474747419357 0.0 255.0 0.0
-0.1890699863433838 -0.11996190249919891 0.17051386833190918 0.0 255.0 0.0
0.2949432134628296 -0.1639115959405899 -0.03591097146272659 0.0 255.0 0.0
0.004359361249953508 0.26487141847610474 -0.21265427768230438 0.0 255.0 0.0
-0.18431900441646576 0.3415016531944275 0.06230420991778374 0.0 255.0 0.0
-0.06459566950798035 0.04614047706127167 0.1692219078540802 0.0 255.0 0.0
-0.040302857756614685 0.22812457382678986 0.0946178287267685 0.0 255.0 0.0
-0.16406787931919098 0.22549185156822205 -0.07173852622509003 0.0 255.0 0.0
0.0881035104393959 -0.15443362295627594 -0.1310691386461258 0.0 255.0 0.0
0.011549077928066254 0.051298677921295166 0.17241518199443817 0.0 255.0 0.0
-0.13157397508621216 -0.08628291636705399 -0.1379770040512085 0.0 255.0 0.0
-0.04518444091081619 0.2311498373746872 0.11708511412143707 0.0 255.0 0.0
-0.29363927245140076 -0.02891477942466736 -0.26158374547958374 0.0 255.0 0.0
0.27192339301109314 0.4389266073703766 0.1135309636592865 0.0 255.0 0.0
-0.08860772103071213 0.22812457382678986 -0.05477108061313629 0.0 255.0 0.0
0.1567120999097824 -0.3293585479259491 0.0690489187836647 0.0 255.0 0.0
-0.28632229566574097 -0.3170454204082489 0.03701624274253845 0.0 255.0 0.0
0.29988381266593933 0.08976924419403076 0.03688988834619522 0.0 255.0 0.0
-0.11209634691476822 0.11182370781898499 -0.13548509776592255 0.0 255.0 0.0
-0.2402420938014984 0.44141656160354614 -0.06676798313856125 0.0 255.0 0.0
0.2961372435092926 0.03654191642999649 0.07743068784475327 0.0 255.0 0.0
0.2962241470813751 0.2087087780237198 0.051240548491477966 0.0 255.0 0.0
-0.26412954926490784 0.3546154797077179 0.0035765613429248333 0.0 255.0 0.0
0.17102473974227905 -0.3158285617828369 0.06939367204904556 0.0 255.0 0.0
-0.1724899262189865 -0.18811669945716858 -0.12969763576984406 0.0 255.0 0.0
0.16324196755886078 -0.31493934988975525 0.06103997677564621 0.0 255.0 0.0
-0.18911561369895935 -0.40645694732666016 0.08012078702449799 0.0 255.0 0.0
0.05965542420744896 0.15881051123142242 -0.19369995594024658 0.0 255.0 0.0
0.2064906805753708 0.5016712546348572 -0.006071085575968027 0.0 255.0 0.0
0.2972581684589386 -0.035578757524490356 0.04845177382230759 0.0 255.0 0.0
-0.1561974436044693 0.22812457382678986 0.0049818879924714565 0.0 255.0 0.0
-0.26822182536125183 -0.15698251128196716 0.034980397671461105 0.0 255.0 0.0
0.00047784202615730464 0.22812457382678986 0.061472389847040176 0.0 255.0 0.0
-0.26894551515579224 0.05520649626851082 0.0933510810136795 0.0 255.0 0.0
0.14157959818840027 -0.3754645586013794 0.06414341181516647 0.0 255.0 0.0
0.2242104858160019 -0.1523076891899109 0.17156526446342468 0.0 255.0 0.0
-0.2487812340259552 0.24601617455482483 0.023895230144262314 0.0 255.0 0.0
0.29821521043777466 -0.1462979018688202 -0.07105671614408493 0.0 255.0 0.0
-0.18421514332294464 0.05235859379172325 0.1693021059036255 0.0 255.0 0.0
0.027668887749314308 0.05059470236301422 0.16525934636592865 0.0 255.0 0.0
0.2941032350063324 -0.010570334270596504 -0.05172048881649971 0.0 255.0 0.0
-0.2687649130821228 -0.232424795627594 -0.01893511600792408 0.0 255.0 0.0
-0.1762797087430954 -0.3792511224746704 -0.028593793511390686 0.0 255.0 0.0
0.29463139176368713 0.05818957835435867 -0.10756634175777435 0.0 255.0 0.0
0.14716140925884247 -0.33506137132644653 0.026186326518654823 0.0 255.0 0.0
0.2608340084552765 0.4087287485599518 -0.08989249914884567 0.0 255.0 0.0
-0.17953705787658691 -0.20249325037002563 -0.13150466978549957 0.0 255.0 0.0
-0.2707524597644806 -0.1191026121377945 0.028895486146211624 0.0 255.0 0.0
-0.03140460327267647 0.22812457382678986 -0.01103762723505497 0.0 255.0 0.0
0.07692336291074753 -0.044782716780900955 0.16627191007137299 0.0 255.0 0.0
0.29367440938949585 0.20457854866981506 -0.05296943336725235 0.0 255.0 0.0
0.2988225519657135 0.4445471167564392 0.04229125753045082 0.0 255.0 0.0
-0.07823726534843445 0.1929541975259781 -0.133942112326622 0.0 255.0 0.0
-0.19563761353492737 -0.019294599071145058 -0.13506805896759033 0.0 255.0 0.0
0.006101918872445822 -0.03800543397665024 0.16940195858478546 0.0 255.0 0.0
-0.15313050150871277 0.23062539100646973 0.09958502650260925 0.0 255.0 0.0
0.25744131207466125 -0.4461160898208618 0.14321862161159515 0.0 255.0 0.0
-0.2934454679489136 0.020567135885357857 -0.2708760201931 0.0 255.0 0.0
0.25455349683761597 0.511890709400177 0.07263556867837906 0.0 255.0 0.0
-0.1119278147816658 0.2284344881772995 0.05639158934354782 0.0 255.0 0.0
-0.2577398717403412 -0.47367459535598755 -0.012604309245944023 0.0 255.0 0.0
-0.2701321244239807 -0.028812505304813385 0.05720631778240204 0.0 255.0 0.0
0.10888492316007614 -0.24813620746135712 0.00393208023160696 0.0 255.0 0.0
0.3027993142604828 0.3680264353752136 0.052615147083997726 0.0 255.0 0.0
0.29606059193611145 -0.007456664927303791 0.0619819350540638 0.0 255.0 0.0
0.29061421751976013 0.4756302833557129 0.09346903860569 0.0 255.0 0.0
-0.08942154049873352 0.19697728753089905 -0.13633286952972412 0.0 255.0 0.0
0.29833292961120605 0.14154267311096191 -0.06525804847478867 0.0 255.0 0.0
-0.08943632990121841 0.09523873776197433 -0.13506805896759033 0.0 255.0 0.0
0.2952615022659302 0.20679707825183868 -0.07086630165576935 0.0 255.0 0.0
0.1516573280096054 -0.3553997278213501 -0.022762876003980637 0.0 255.0 0.0
-0.08961575478315353 -0.24753990769386292 -0.008131253533065319 0.0 255.0 0.0
0.025386054068803787 -0.005408871453255415 -0.13506805896759033 0.0 255.0 0.0
0.06413666903972626 0.1746726781129837 -0.17866675555706024 0.0 255.0 0.0
0.26385316252708435 -0.29228684306144714 0.05140608921647072 0.0 255.0 0.0
0.03767818957567215 0.22772404551506042 -0.11652015149593353 0.0 255.0 0.0
0.17763569951057434 0.403208464384079 0.07048754394054413 0.0 255.0 0.0
-0.08885999023914337 0.060946024954319 0.1695137768983841 0.0 255.0 0.0
0.1343211978673935 0.18763038516044617 -0.13506805896759033 0.0 255.0 0.0
-0.1284538060426712 0.12207955121994019 -0.13547632098197937 0.0 255.0 0.0
-0.2707524597644806 0.07827862352132797 -0.06939397752285004 0.0 255.0 0.0
-0.04110964387655258 0.10375183820724487 -0.13506805896759033 0.0 255.0 0.0
-0.1692158281803131 -0.3344448506832123 0.0502113439142704 0.0 255.0 0.0
0.19479498267173767 0.15685319900512695 -0.13506805896759033 0.0 255.0 0.0
-0.2721390724182129 -0.23299625515937805 -0.1113646999001503 0.0 255.0 0.0
-0.20202739536762238 0.14290878176689148 -0.13506805896759033 0.0 255.0 0.0
0.012176652438938618 0.20490770041942596 0.1562996506690979 0.0 255.0 0.0
-0.1515730321407318 -0.1446199268102646 -0.13506805896759033 0.0 255.0 0.0
-0.012022841721773148 -0.22460193932056427 0.15628546476364136 0.0 255.0 0.0
0.2801637649536133 -0.4226343631744385 -0.04136306047439575 0.0 255.0 0.0
0.28997907042503357 -0.37327325344085693 0.05995883047580719 0.0 255.0 0.0
0.14702150225639343 -0.2297872006893158 -0.1352926343679428 0.0 255.0 0.0
-0.2643645405769348 0.45106130838394165 0.09005886316299438 0.0 255.0 0.0
0.024810712784528732 0.22812457382678986 -0.07467541843652725 0.0 255.0 0.0
0.24377597868442535 -0.44455334544181824 -0.008358905091881752 0.0 255.0 0.0
0.030767986550927162 0.08467401564121246 0.1721017062664032 0.0 255.0 0.0
0.2999386489391327 -0.14393463730812073 0.08780638873577118 0.0 255.0 0.0
0.29566308856010437 0.4456555247306824 0.08566143363714218 0.0 255.0 0.0
-0.15635058283805847 -0.15619100630283356 -0.13506805896759033 0.0 255.0 0.0
-0.012460784986615181 -0.1466139405965805 -0.13274481892585754 0.0 255.0 0.0
-0.15343426167964935 -0.2732870876789093 -0.007575509138405323 0.0 255.0 0.0
0.18033429980278015 0.22598154842853546 0.1245504766702652 0.0 255.0 0.0
0.02878611348569393 0.05595221742987633 0.17142082750797272 0.0 255.0 0.0
0.11800894141197205 0.20909753441810608 -0.13506805896759033 0.0 255.0 0.0
0.12220393121242523 -0.2507422864437103 -0.0801009014248848 0.0 255.0 0.0
-0.1657894253730774 0.09803283214569092 0.17012052237987518 0.0 255.0 0.0
0.1901138424873352 -0.44636791944503784 0.06902032345533371 0.0 255.0 0.0
0.27839037775993347 -0.3333464562892914 -0.031019698828458786 0.0 255.0 0.0
-0.2753681540489197 -0.4559938907623291 -0.013168052770197392 0.0 255.0 0.0
0.14728012681007385 -0.2531215250492096 0.11521489173173904 0.0 255.0 0.0
-0.16487663984298706 0.2259630262851715 0.12197726964950562 0.0 255.0 0.0
0.16987869143486023 -0.15021301805973053 -0.1316165030002594 0.0 255.0 0.0
0.30029061436653137 -0.19350074231624603 -0.061721257865428925 0.0 255.0 0.0
0.0773378312587738 -0.012522115372121334 -0.13832487165927887 0.0 255.0 0.0
-0.2636718153953552 0.44955673813819885 0.08648813515901566 0.0 255.0 0.0
0.26089686155319214 0.1887332797050476 0.15452887117862701 0.0 255.0 0.0
-0.2155381441116333 -0.1565043032169342 -0.13492721319198608 0.0 255.0 0.0
-0.2705410122871399 -0.0836159735918045 0.13269715011119843 0.0 255.0 0.0
0.14684636890888214 0.22812457382678986 0.09444651752710342 0.0 255.0 0.0
0.17666682600975037 0.44925209879875183 0.06560724973678589 0.0 255.0 0.0
0.18046878278255463 0.43901193141937256 0.0944107174873352 0.0 255.0 0.0
0.20607662200927734 0.506135106086731 0.06873151659965515 0.0 255.0 0.0
-0.0213827695697546 -0.249323770403862 -0.05941149219870567 0.0 255.0 0.0
0.2787475883960724 -0.3952718675136566 -0.04781423136591911 0.0 255.0 0.0
-0.13174937665462494 0.04674645513296127 -0.1363508552312851 0.0 255.0 0.0
0.1912781298160553 -0.08560321480035782 -0.13565072417259216 0.0 255.0 0.0
-0.08265576511621475 0.23066724836826324 -0.005896341055631638 0.0 255.0 0.0
-0.2193712741136551 0.1748477816581726 -0.13805623352527618 0.0 255.0 0.0
0.14618244767189026 -0.4027637839317322 -0.009931174106895924 0.0 255.0 0.0
-0.17677339911460876 -0.2816506624221802 -0.048107415437698364 0.0 255.0 0.0
-0.26731783151626587 -0.30013397336006165 0.007775415200740099 0.0 255.0 0.0
-0.1833415925502777 -0.41575899720191956 0.029204029589891434 0.0 255.0 0.0
0.25401607155799866 -0.3406466841697693 -0.0781928077340126 0.0 255.0 0.0
-0.27489542961120605 -0.34061577916145325 -0.0691111758351326 0.0 255.0 0.0
0.11072950065135956 0.2290307879447937 0.03429298475384712 0.0 255.0 0.0
0.17985324561595917 -0.27880537509918213 0.0565960519015789 0.0 255.0 0.0
-0.1745920032262802 0.10190627723932266 -0.13520672917366028 0.0 255.0 0.0
-0.26561740040779114 0.45642340183258057 0.034831903874874115 0.0 255.0 0.0
-0.1674649566411972 -0.11076407879590988 -0.13984522223472595 0.0 255.0 0.0
-0.024859290570020676 0.22912392020225525 -0.07608804106712341 0.0 255.0 0.0
0.24645739793777466 -0.44380417466163635 0.08311522752046585 0.0 255.0 0.0
0.03960927948355675 -0.16918261349201202 0.17074093222618103 0.0 255.0 0.0
-0.14697906374931335 0.22513264417648315 -0.02712930552661419 0.0 255.0 0.0
-0.2711718678474426 0.11887731403112411 -0.016003046184778214 0.0 255.0 0.0
0.27187380194664 0.32794255018234253 -0.030992107465863228 0.0 255.0 0.0
-0.21194741129875183 -0.37031129002571106 0.13148638606071472 0.0 255.0 0.0
0.23558911681175232 -0.2507511377334595 -0.08458257466554642 0.0 255.0 0.0
0.20246824622154236 0.22523336112499237 -0.0017117706593126059 0.0 255.0 0.0
0.02569972351193428 -0.11151948571205139 0.16940195858478546 0.0 255.0 0.0
-0.16131116449832916 0.2294359654188156 0.043736886233091354 0.0 255.0 0.0
0.10388008505105972 0.23084497451782227 -0.0685393288731575 0.0 255.0 0.0
-0.045995987951755524 0.012304495088756084 -0.13382382690906525 0.0 255.0 0.0
-0.32828834652900696 -0.37995144724845886 -0.02046032063663006 0.0 255.0 0.0
0.19572214782238007 0.3248339891433716 -0.02187764085829258 0.0 255.0 0.0
0.16904102265834808 -0.4460006058216095 0.08707588165998459 0.0 255.0 0.0
-0.03769153356552124 0.020743513479828835 -0.13484205305576324 0.0 255.0 0.0
0.22474585473537445 -0.08889412134885788 -0.1351563185453415 0.0 255.0 0.0
-0.09240327030420303 0.12022346258163452 -0.13872240483760834 0.0 255.0 0.0
-0.19188936054706573 -0.10114908218383789 -0.1327727884054184 0.0 255.0 0.0
0.2982034683227539 0.17716540396213531 -0.038354672491550446 0.0 255.0 0.0
0.17484262585639954 0.3706264793872833 0.008092760108411312 0.0 255.0 0.0
0.2608148753643036 -0.44309931993484497 0.046167828142642975 0.0 255.0 0.0
0.05976428464055061 -0.0373171903192997 0.17462222278118134 0.0 255.0 0.0
-0.1825120896100998 -0.3393126130104065 0.06908401846885681 0.0 255.0 0.0
-0.21680161356925964 -0.4643102288246155 -0.00012806462473236024 0.0 255.0 0.0
-0.27083954215049744 -0.042862750589847565 0.07544378936290741 0.0 255.0 0.0
0.2972581684589386 -0.09623529016971588 0.11211802810430527 0.0 255.0 0.0
-0.24474485218524933 -0.05235160142183304 -0.26894885301589966 0.0 255.0 0.0
-0.11463432013988495 0.15444092452526093 -0.13506805896759033 0.0 255.0 0.0
-0.24300020933151245 -0.47159066796302795 0.027700558304786682 0.0 255.0 0.0
-0.1963246613740921 -0.32725322246551514 -0.06694221496582031 0.0 255.0 0.0
0.23402032256126404 0.4094495177268982 -0.09237103164196014 0.0 255.0 0.0
-0.16988320648670197 0.09037857502698898 -0.13359874486923218 0.0 255.0 0.0
0.27103009819984436 -0.3442314565181732 -0.0530785508453846 0.0 255.0 0.0
0.03198409825563431 0.12679791450500488 -0.13668474555015564 0.0 255.0 0.0
-0.14957468211650848 0.22858357429504395 0.08878462016582489 0.0 255.0 0.0
-0.2019343227148056 -0.44920068979263306 0.01801353506743908 0.0 255.0 0.0
0.10323653370141983 0.22812457382678986 0.058284465223550797 0.0 255.0 0.0
0.30126890540122986 -0.23072423040866852 -0.04692821204662323 0.0 255.0 0.0
-0.056539155542850494 -0.21747258305549622 -0.13473950326442719 0.0 255.0 0.0
0.28567707538604736 -0.3727315068244934 0.02728869952261448 0.0 255.0 0.0
-0.09725186973810196 0.22812457382678986 -0.05839218199253082 0.0 255.0 0.0
-0.23799505829811096 0.16568540036678314 -0.13687288761138916 0.0 255.0 0.0
-0.2127334326505661 -0.23211874067783356 0.15846791863441467 0.0 255.0 0.0
-0.10064498335123062 0.11659075319766998 0.16940195858478546 0.0 255.0 0.0
0.2927383482456207 -0.4196872115135193 0.04550974816083908 0.0 255.0 0.0
0.1844545602798462 -0.446110337972641 0.001463339664041996 0.0 255.0 0.0
-0.27034229040145874 -0.20297399163246155 0.05769752711057663 0.0 255.0 0.0
0.2972581684589386 0.15408581495285034 -0.05399439483880997 0.0 255.0 0.0
-0.15548552572727203 0.35713639855384827 -0.00031463196501135826 0.0 255.0 0.0
0.022406700998544693 0.013484643772244453 0.16940195858478546 0.0 255.0 0.0
-0.18909917771816254 -0.35893765091896057 -0.055125605314970016 0.0 255.0 0.0
-0.27346792817115784 -0.02924160473048687 -0.027680177241563797 0.0 255.0 0.0
0.18683260679244995 -0.24976731836795807 -0.10772420465946198 0.0 255.0 0.0
-0.017639337107539177 -0.09535903483629227 -0.14042171835899353 0.0 255.0 0.0
0.22836880385875702 0.45647314190864563 0.10109501332044601 0.0 255.0 0.0
-0.2183828204870224 0.018685873597860336 -0.13506805896759033 0.0 255.0 0.0
0.17979469895362854 0.0474911667406559 -0.13506805896759033 0.0 255.0 0.0
0.15722507238388062 0.22812457382678986 0.08969248086214066 0.0 255.0 0.0
0.23491911590099335 0.22727131843566895 0.10154300183057785 0.0 255.0 0.0
0.19011154770851135 0.3343052864074707 -0.01982739381492138 0.0 255.0 0.0
-0.09459255635738373 -0.18639272451400757 -0.13506805896759033 0.0 255.0 0.0
-0.17634370923042297 0.4609759449958801 -0.04569055885076523 0.0 255.0 0.0
-0.25616228580474854 0.11152863502502441 0.15632209181785583 0.0 255.0 0.0
-0.27060094475746155 -0.33685681223869324 0.17332004010677338 0.0 255.0 0.0
-0.011435108259320259 0.22661180794239044 0.03795666992664337 0.0 255.0 0.0
0.0495968833565712 -0.00801173597574234 0.17154629528522491 0.0 255.0 0.0
0.10373681783676147 -0.052594345062971115 -0.13369569182395935 0.0 255.0 0.0
-0.26983606815338135 0.06272342801094055 -0.03472229093313217 0.0 255.0 0.0
0.2990346848964691 0.4478906989097595 0.06355316936969757 0.0 255.0 0.0
-0.039033934473991394 -0.22798126935958862 0.15676337480545044 0.0 255.0 0.0
0.299397736787796 0.1620873063802719 0.020132670179009438 0.0 255.0 0.0
-0.0020556896924972534 0.24904517829418182 -0.1972499042749405 0.0 255.0 0.0
0.29819202423095703 -0.11225578188896179 -0.07670290768146515 0.0 255.0 0.0
0.09290917962789536 0.11015091091394424 0.16805633902549744 0.0 255.0 0.0
0.17720407247543335 0.3698066771030426 0.06120159849524498 0.0 255.0 0.0
-0.09514626115560532 0.008048254996538162 -0.13565194606781006 0.0 255.0 0.0
0.2982019782066345 -0.013907073065638542 -0.025245074182748795 0.0 255.0 0.0
-0.17469675838947296 0.14305613934993744 0.17104776203632355 0.0 255.0 0.0
-0.2707524597644806 -0.20136955380439758 0.10970743745565414 0.0 255.0 0.0
0.22823292016983032 0.34635254740715027 0.10997743904590607 0.0 255.0 0.0
0.29600268602371216 0.439005970954895 -0.026730097830295563 0.0 255.0 0.0
0.2150907963514328 -0.4465998709201813 0.10497350245714188 0.0 255.0 0.0
0.08356581628322601 0.22812457382678986 -0.030669039115309715 0.0 255.0 0.0
-0.271648108959198 0.024142200127243996 0.09005240350961685 0.0 255.0 0.0
0.006255959626287222 0.0980125144124031 -0.16131074726581573 0.0 255.0 0.0
0.2091722935438156 0.22638416290283203 -0.11680396646261215 0.0 255.0 0.0
0.12294990569353104 -0.07094010710716248 0.16940195858478546 0.0 255.0 0.0
0.03129398450255394 0.14732465147972107 -0.1363103687763214 0.0 255.0 0.0
-0.19822752475738525 -0.40935519337654114 0.12993605434894562 0.0 255.0 0.0
0.299721896648407 0.40490368008613586 0.08064669370651245 0.0 255.0 0.0
0.18524709343910217 -0.14437711238861084 0.17183859646320343 0.0 255.0 0.0
0.24932795763015747 0.5151064395904541 0.03110155649483204 0.0 255.0 0.0
-0.09242242574691772 -0.16822697222232819 -0.1353931725025177 0.0 255.0 0.0
-0.08276498317718506 0.10454189777374268 0.17362013459205627 0.0 255.0 0.0
-0.1014595478773117 -0.2507426142692566 0.12001504749059677 0.0 255.0 0.0
-0.06076449528336525 0.22589026391506195 0.1290445476770401 0.0 255.0 0.0
0.2972581684589386 -0.1650916039943695 0.12521855533123016 0.0 255.0 0.0
0.2972581684589386 0.04907473176717758 -0.07073432207107544 0.0 255.0 0.0
-0.27513015270233154 -0.31770992279052734 -0.025036213919520378 0.0 255.0 0.0
0.28312450647354126 -0.41465458273887634 -0.02943626418709755 0.0 255.0 0.0
0.09509054571390152 0.22812457382678986 0.10581750422716141 0.0 255.0 0.0
-0.02645500935614109 -0.104061059653759 -0.13633856177330017 0.0 255.0 0.0
0.05824242904782295 0.1526327282190323 -0.1913404017686844 0.0 255.0 0.0
-0.19337856769561768 -0.14860303699970245 -0.13506805896759033 0.0 255.0 0.0
0.10873598605394363 -0.1319311112165451 -0.13506805896759033 0.0 255.0 0.0
0.3001910448074341 0.1775900274515152 -0.03020511381328106 0.0 255.0 0.0
0.17680664360523224 0.040502067655324936 0.16940195858478546 0.0 255.0 0.0
0.1690913736820221 0.09787296503782272 -0.1353611946105957 0.0 255.0 0.0
-0.2707524597644806 -0.23461362719535828 -0.07740183919668198 0.0 255.0 0.0
-0.18443763256072998 -0.1650417149066925 -0.13327744603157043 0.0 255.0 0.0
-0.013117516413331032 -0.05069056153297424 -0.13506805896759033 0.0 255.0 0.0
0.0729934573173523 0.055611010640859604 0.16550308465957642 0.0 255.0 0.0
-0.0035622844006866217 0.22797998785972595 -0.022147873416543007 0.0 255.0 0.0
0.010664202272891998 0.1349962204694748 -0.21524658799171448 0.0 255.0 0.0
0.12210289388895035 -0.06114313378930092 0.175237238407135 0.0 255.0 0.0
0.01432122103869915 -0.0837613046169281 0.16940195858478546 0.0 255.0 0.0
0.2973228394985199 -0.0813131108880043 0.050252765417099 0.0 255.0 0.0
-0.2262786626815796 -0.32328879833221436 0.10494818538427353 0.0 255.0 0.0
0.27879050374031067 -0.3361639678478241 0.08144503831863403 0.0 255.0 0.0
-0.2497204840183258 0.01841779053211212 0.15940359234809875 0.0 255.0 0.0
-0.2142343372106552 -0.024263016879558563 -0.13668398559093475 0.0 255.0 0.0
0.18614977598190308 -0.03594426065683365 0.16940195858478546 0.0 255.0 0.0
0.2972581684589386 -0.18965397775173187 0.042952172458171844 0.0 255.0 0.0
0.2992210388183594 0.419440358877182 0.07414626330137253 0.0 255.0 0.0
0.09898866713047028 0.015408596023917198 0.16940195858478546 0.0 255.0 0.0
0.2718590199947357 0.22780044376850128 -0.10459409654140472 0.0 255.0 0.0
-0.24444212019443512 -0.1226087287068367 -0.13352128863334656 0.0 255.0 0.0
-0.23492300510406494 -0.35355523228645325 0.15660272538661957 0.0 255.0 0.0
-0.2707524597644806 0.19983643293380737 -0.03983189910650253 0.0 255.0 0.0
-0.2637005150318146 0.436107873916626 0.08693448454141617 0.0 255.0 0.0
-0.036927480250597 0.12694191932678223 0.16919323801994324 0.0 255.0 0.0
-0.29265737533569336 -0.4223039150238037 0.05844739452004433 0.0 255.0 0.0
-0.1399468034505844 0.034050941467285156 0.17237576842308044 0.0 255.0 0.0
0.17580707371234894 -0.44493672251701355 0.152836412191391 0.0 255.0 0.0
0.2920699417591095 -0.1856336146593094 0.11282236874103546 0.0 255.0 0.0
-0.2357761263847351 0.006950732320547104 -0.13480457663536072 0.0 255.0 0.0
-0.07841631025075912 -0.22603467106819153 -0.13729839026927948 0.0 255.0 0.0
0.007627226412296295 0.19045034050941467 0.15806756913661957 0.0 255.0 0.0
0.2694711685180664 -0.38195469975471497 -0.06758280843496323 0.0 255.0 0.0
-0.16182424128055573 -0.25010713934898376 0.13636161386966705 0.0 255.0 0.0
0.1977747529745102 0.22805584967136383 0.13627809286117554 0.0 255.0 0.0
-0.2704590857028961 -0.02110401540994644 -0.016352077946066856 0.0 255.0 0.0
-0.30827969312667847 -0.38523370027542114 0.13947682082653046 0.0 255.0 0.0
-0.24491091072559357 0.02215372584760189 -0.2845584452152252 0.0 255.0 0.0
0.014828966930508614 -0.08074086159467697 -0.13514231145381927 0.0 255.0 0.0
0.2741415202617645 -0.1513545960187912 0.15682505071163177 0.0 255.0 0.0
0.21108688414096832 -0.2944734990596771 0.08676561713218689 0.0 255.0 0.0
-0.29716557264328003 -0.4086184799671173 0.08159288763999939 0.0 255.0 0.0
-0.24803932011127472 0.3315278887748718 -0.013468858785927296 0.0 255.0 0.0
-0.2718486487865448 0.06159917637705803 -0.007885976694524288 0.0 255.0 0.0
-0.19366995990276337 0.18592727184295654 -0.1365087777376175 0.0 255.0 0.0
0.2972581684589386 -0.1865154504776001 0.050602737814188004 0.0 255.0 0.0
-0.035631727427244186 -0.25080057978630066 -0.06698154658079147 0.0 255.0 0.0
-0.26807960867881775 0.36716189980506897 0.051178738474845886 0.0 255.0 0.0
-0.31163594126701355 -0.3765745162963867 0.1586446762084961 0.0 255.0 0.0
0.06765918433666229 0.07325607538223267 -0.13506805896759033 0.0 255.0 0.0
0.2589588165283203 -0.36202678084373474 -0.07871003448963165 0.0 255.0 0.0
-0.09965495020151138 -0.2492310255765915 0.05155545845627785 0.0 255.0 0.0
0.2972581684589386 0.17185115814208984 -0.0002999435819219798 0.0 255.0 0.0
0.1448008269071579 -0.40098142623901367 -0.0043669636361300945 0.0 255.0 0.0
-0.15556372702121735 -0.2954834997653961 -0.013888221234083176 0.0 255.0 0.0
-0.011775554157793522 -0.08747008442878723 0.16659045219421387 0.0 255.0 0.0
0.2972497344017029 -0.05783447250723839 0.1399591714143753 0.0 255.0 0.0
-0.22000588476657867 -0.42904871702194214 -0.058466214686632156 0.0 255.0 0.0
-0.06550420075654984 0.02163873426616192 -0.13649781048297882 0.0 255.0 0.0
0.1589728593826294 -0.2504962682723999 0.11494528502225876 0.0 255.0 0.0
0.19323275983333588 -0.3505205512046814 -0.07731882482767105 0.0 255.0 0.0
-0.2652176022529602 0.4458187222480774 0.07060632109642029 0.0 255.0 0.0
0.2972581684589386 -0.11717532575130463 0.06527017056941986 0.0 255.0 0.0
-0.03882073611021042 0.22812457382678986 -0.00941640418022871 0.0 255.0 0.0
-0.2945932447910309 -0.4415089190006256 -0.010968178510665894 0.0 255.0 0.0
0.28777366876602173 0.3328697383403778 0.03401096537709236 0.0 255.0 0.0
-0.2707524597644806 0.14719805121421814 0.10754287242889404 0.0 255.0 0.0
-0.1462661623954773 -0.1273416131734848 0.16940195858478546 0.0 255.0 0.0
-0.2250482738018036 -0.3637513816356659 -0.0864764153957367 0.0 255.0 0.0
-0.06883232295513153 -0.01184506993740797 0.16940195858478546 0.0 255.0 0.0
0.172474667429924 -0.44392073154449463 0.09244608879089355 0.0 255.0 0.0
0.29630032181739807 0.18856510519981384 0.009923121891915798 0.0 255.0 0.0
-0.04281432181596756 -0.2527132034301758 -0.0028626557905226946 0.0 255.0 0.0
-0.009374828077852726 -0.07511096447706223 -0.13809369504451752 0.0 255.0 0.0
0.29442164301872253 -0.1239820197224617 -0.1027313843369484 0.0 255.0 0.0
-0.05336220934987068 -0.007348096463829279 0.16867561638355255 0.0 255.0 0.0
0.23119975626468658 0.16316422820091248 -0.13231748342514038 0.0 255.0 0.0
-0.22527693212032318 -0.15223602950572968 -0.13374605774879456 0.0 255.0 0.0
0.043519873172044754 -0.2110852599143982 -0.13505999743938446 0.0 255.0 0.0
-0.053081583231687546 0.04344141483306885 0.17048263549804688 0.0 255.0 0.0
0.2775828540325165 -0.3454628586769104 0.09913218766450882 0.0 255.0 0.0
-0.21436761319637299 -0.35814109444618225 0.12101665139198303 0.0 255.0 0.0
0.25269532203674316 0.027124211192131042 -0.13506805896759033 0.0 255.0 0.0
-0.2717978358268738 0.07105976343154907 -0.020014960318803787 0.0 255.0 0.0
-0.2736659646034241 0.12089048326015472 0.0979367345571518 0.0 255.0 0.0
0.17460021376609802 0.4109851121902466 0.012187636457383633 0.0 255.0 0.0
-0.29285040497779846 0.03895733505487442 -0.2757738530635834 0.0 255.0 0.0
-0.2596486806869507 0.426213800907135 -0.03986760973930359 0.0 255.0 0.0
0.2958253026008606 0.14313793182373047 0.08601406961679459 0.0 255.0 0.0
0.20647332072257996 0.014874379150569439 -0.1366645246744156 0.0 255.0 0.0
0.2893519401550293 -0.40672567486763 0.09452730417251587 0.0 255.0 0.0
-0.21004576981067657 0.19280236959457397 -0.13506805896759033 0.0 255.0 0.0
0.29476287961006165 0.0482022799551487 -0.002396221971139312 0.0 255.0 0.0
0.16490529477596283 -0.27537664771080017 0.004839313216507435 0.0 255.0 0.0
0.2065446674823761 0.228552907705307 -0.030623994767665863 0.0 255.0 0.0
0.2232055366039276 0.4259820878505707 -0.08576160669326782 0.0 255.0 0.0
-0.3053855001926422 -0.38868606090545654 0.1213388741016388 0.0 255.0 0.0
0.15609022974967957 0.2100779116153717 -0.13360996544361115 0.0 255.0 0.0
-0.07505402714014053 -0.25248515605926514 -0.01860763505101204 0.0 255.0 0.0
-0.11811136454343796 0.04292597994208336 0.17215828597545624 0.0 255.0 0.0
0.2767225205898285 -0.33358240127563477 -0.011056633666157722 0.0 255.0 0.0
-0.16825810074806213 -0.25215649604797363 0.13021554052829742 0.0 255.0 0.0
0.1547287404537201 -0.2511032819747925 0.001254774397239089 0.0 255.0 0.0
0.2900187373161316 -0.3983149528503418 0.09958939254283905 0.0 255.0 0.0
-0.2693520486354828 -0.01600191555917263 -0.026319216936826706 0.0 255.0 0.0
-0.15203699469566345 0.1468028873205185 0.16822028160095215 0.0 255.0 0.0
-0.27300241589546204 -0.23343881964683533 -0.06537938863039017 0.0 255.0 0.0
-0.15208448469638824 0.3995940685272217 0.05899326503276825 0.0 255.0 0.0
0.29811033606529236 0.3824026584625244 -0.01744154840707779 0.0 255.0 0.0
0.14449934661388397 -0.35229769349098206 0.057979434728622437 0.0 255.0 0.0
0.2972581684589386 0.08768283575773239 -0.11525804549455643 0.0 255.0 0.0
-0.1094726026058197 0.22645314037799835 0.07456153631210327 0.0 255.0 0.0
-0.28767937421798706 -0.34560447931289673 -0.061905987560749054 0.0 255.0 0.0
0.193020761013031 0.3286694288253784 -0.012767861597239971 0.0 255.0 0.0
0.10903432220220566 -0.08790768682956696 0.16896271705627441 0.0 255.0 0.0
0.2160874307155609 -0.37034592032432556 0.16346721351146698 0.0 255.0 0.0
0.07127837091684341 0.038230616599321365 -0.13158220052719116 0.0 255.0 0.0
-0.15130145847797394 -0.025254253298044205 -0.13470473885536194 0.0 255.0 0.0
-0.20933090150356293 0.4340204894542694 0.08516938239336014 0.0 255.0 0.0
-0.1645679771900177 0.42561718821525574 -0.04479368031024933 0.0 255.0 0.0
-0.23741206526756287 0.2269190549850464 0.10800499469041824 0.0 255.0 0.0
-0.15122444927692413 -0.17207910120487213 -0.13715620338916779 0.0 255.0 0.0
-0.008382861502468586 -0.16524550318717957 0.16919197142124176 0.0 255.0 0.0
-0.18149103224277496 -0.11560395359992981 -0.1342070996761322 0.0 255.0 0.0
-0.3192109763622284 -0.3838021457195282 0.11450029164552689 0.0 255.0 0.0
0.2100028097629547 -0.13216301798820496 -0.13506805896759033 0.0 255.0 0.0
-0.029312601312994957 0.23031888902187347 0.13257552683353424 0.0 255.0 0.0
-0.28620031476020813 -0.42587676644325256 0.06309670954942703 0.0 255.0 0.0
-0.2707524597644806 -0.036153052002191544 0.08700627088546753 0.0 255.0 0.0
0.25844019651412964 -0.24908502399921417 -0.10447096824645996 0.0 255.0 0.0
-0.11011438071727753 -0.2513135075569153 0.08198270946741104 0.0 255.0 0.0
-0.23559051752090454 0.49370285868644714 -0.015539906919002533 0.0 255.0 0.0
-0.2721739411354065 0.21001595258712769 0.10870405286550522 0.0 255.0 0.0
0.29883700609207153 -0.22203399240970612 -0.06375198811292648 0.0 255.0 0.0
-0.27050071954727173 0.15700757503509521 -0.08666490763425827 0.0 255.0 0.0
0.09579411149024963 0.0332881398499012 -0.13506805896759033 0.0 255.0 0.0
0.06976819783449173 0.22812457382678986 -0.07720887660980225 0.0 255.0 0.0
0.03684192895889282 0.14090421795845032 0.17034219205379486 0.0 255.0 0.0
0.2972581684589386 0.016088232398033142 -0.09194288402795792 0.0 255.0 0.0
-0.2707420289516449 -0.32625848054885864 -0.0580015704035759 0.0 255.0 0.0
0.2644479274749756 -0.4451372027397156 -0.0108422189950943 0.0 255.0 0.0
-0.22470027208328247 -0.38710835576057434 0.1749437302350998 0.0 255.0 0.0
0.11136135458946228 -0.1943686157464981 -0.131590336561203 0.0 255.0 0.0
0.22916071116924286 0.030313163995742798 -0.13396897912025452 0.0 255.0 0.0
0.15693597495555878 -0.2505946457386017 0.1300669014453888 0.0 255.0 0.0
-0.12135238945484161 -0.21884775161743164 0.15384912490844727 0.0 255.0 0.0
0.29640284180641174 -0.08361781388521194 -0.08148263394832611 0.0 255.0 0.0
-0.24716559052467346 -0.28237590193748474 -0.013314614072442055 0.0 255.0 0.0
0.169435515999794 0.22812457382678986 0.07111705094575882 0.0 255.0 0.0
0.27047428488731384 0.22793088853359222 0.11513686180114746 0.0 255.0 0.0
0.25885534286499023 0.09868600219488144 -0.13691824674606323 0.0 255.0 0.0
0.149511456489563 -0.33048543334007263 9.663580567575991e-05 0.0 255.0 0.0
-0.05062608793377876 -0.2508818209171295 -0.027397852391004562 0.0 255.0 0.0
0.036923978477716446 0.1355520635843277 -0.21164993941783905 0.0 255.0 0.0
-0.17126746475696564 0.2294960916042328 0.06447984278202057 0.0 255.0 0.0
-0.2692873179912567 -0.11237816512584686 -0.10461277514696121 0.0 255.0 0.0
-0.006127444561570883 -0.1280820369720459 0.17061814665794373 0.0 255.0 0.0
-0.3153972327709198 -0.3740483224391937 0.15590502321720123 0.0 255.0 0.0
0.1412370651960373 -0.25062695145606995 -0.09621219336986542 0.0 255.0 0.0
-0.18252338469028473 0.13812148571014404 -0.13326618075370789 0.0 255.0 0.0
-0.05827327072620392 -0.2474590539932251 -0.04534927383065224 0.0 255.0 0.0
-0.16606831550598145 0.01859372667968273 0.17178857326507568 0.0 255.0 0.0
-0.2713776230812073 0.13850736618041992 -0.07380086183547974 0.0 255.0 0.0
0.2972581684589386 -0.13429389894008636 -0.10894313454627991 0.0 255.0 0.0
0.29950153827667236 0.4538983106613159 0.04898737743496895 0.0 255.0 0.0
0.2261379212141037 0.08766619861125946 0.1683967113494873 0.0 255.0 0.0
0.10260936617851257 0.22812457382678986 0.09739664196968079 0.0 255.0 0.0
-0.23746992647647858 -0.36467599868774414 -0.09026192873716354 0.0 255.0 0.0
-0.0755547285079956 -0.25095412135124207 0.0811288058757782 0.0 255.0 0.0
-0.2335147261619568 0.0335053987801075 -0.13506805896759033 0.0 255.0 0.0
0.027829362079501152 0.2305784374475479 -0.09544184803962708 0.0 255.0 0.0
0.2957453727722168 -0.17793729901313782 -0.07916507124900818 0.0 255.0 0.0
0.017667392268776894 0.23637151718139648 -0.18582633137702942 0.0 255.0 0.0
-0.1601993590593338 0.1021178662776947 -0.131975457072258 0.0 255.0 0.0
-0.2029322385787964 0.08842095732688904 0.167014479637146 0.0 255.0 0.0
0.22853854298591614 0.08467213064432144 0.1678602695465088 0.0 255.0 0.0
0.21555908024311066 -0.14675869047641754 0.16940195858478546 0.0 255.0 0.0
0.08006265014410019 -0.24927125871181488 0.0665767565369606 0.0 255.0 0.0
-0.18603824079036713 -0.25013911724090576 0.127387136220932 0.0 255.0 0.0
-0.15945880115032196 0.46242284774780273 0.03345955163240433 0.0 255.0 0.0
-0.09141600877046585 -0.25120583176612854 0.03973196819424629 0.0 255.0 0.0
0.2778667211532593 -0.08100782334804535 -0.13629554212093353 0.0 255.0 0.0
0.016385583207011223 -0.09776411950588226 -0.1353299766778946 0.0 255.0 0.0
0.2972581684589386 -0.23017174005508423 0.10014377534389496 0.0 255.0 0.0
-0.15618160367012024 0.4318084716796875 -0.0002664039784576744 0.0 255.0 0.0
-0.2707524597644806 -0.18745259940624237 0.049957524985075 0.0 255.0 0.0
-0.12372678518295288 0.039281897246837616 0.17019625008106232 0.0 255.0 0.0
-0.23661492764949799 -0.25170379877090454 -0.07742414623498917 0.0 255.0 0.0
0.21470803022384644 0.14609135687351227 0.16800862550735474 0.0 255.0 0.0
-0.2707524597644806 -0.025483518838882446 -0.0040151807479560375 0.0 255.0 0.0
0.2986446022987366 0.4050895869731903 -0.03624095767736435 0.0 255.0 0.0
0.24551795423030853 -0.44639742374420166 0.17009365558624268 0.0 255.0 0.0
-0.264342725276947 0.3909429907798767 -0.013064357452094555 0.0 255.0 0.0
0.20281313359737396 -0.3392702043056488 0.12074095755815506 0.0 255.0 0.0
0.04312847554683685 0.22812457382678986 -0.09620016068220139 0.0 255.0 0.0
0.22678129374980927 0.13168737292289734 -0.13147200644016266 0.0 255.0 0.0
0.049792416393756866 0.22951583564281464 0.09247787296772003 0.0 255.0 0.0
0.2598986327648163 0.5111908912658691 0.08525175601243973 0.0 255.0 0.0
-0.2670178711414337 0.08324284851551056 0.1267627775669098 0.0 255.0 0.0
-0.16875608265399933 -0.0884028747677803 0.17263686656951904 0.0 255.0 0.0
0.21346618235111237 0.5132538676261902 0.03290645778179169 0.0 255.0 0.0
0.2703845798969269 0.22855080664157867 -0.07679678499698639 0.0 255.0 0.0
-0.25641828775405884 0.4237307608127594 -0.04928906261920929 0.0 255.0 0.0
-0.2619575262069702 -0.40289509296417236 -0.09252291917800903 0.0 255.0 0.0
-0.036537960171699524 0.028774552047252655 -0.1359008252620697 0.0 255.0 0.0
-0.08584794402122498 0.08375177532434464 -0.13506805896759033 0.0 255.0 0.0
-0.27254319190979004 -0.05257241800427437 -0.045276328921318054 0.0 255.0 0.0
0.12402065098285675 -0.25198644399642944 -0.11859628558158875 0.0 255.0 0.0
0.28022587299346924 -0.3336596190929413 -0.006361337378621101 0.0 255.0 0.0
0.13937073945999146 -0.3961806297302246 0.019201500341296196 0.0 255.0 0.0
0.008024577982723713 -0.12822917103767395 -0.13506805896759033 0.0 255.0 0.0
-0.0005029062158428133 -0.25063663721084595 0.11557404696941376 0.0 255.0 0.0
-0.015586556866765022 -0.250769704580307 0.05961804836988449 0.0 255.0 0.0
-0.1182238832116127 -0.062100183218717575 0.16749918460845947 0.0 255.0 0.0
0.30028724670410156 0.1827727109193802 -0.060280006378889084 0.0 255.0 0.0
-0.060336727648973465 -0.250805139541626 -0.07887652516365051 0.0 255.0 0.0
0.3000277578830719 0.4521673917770386 0.0731320008635521 0.0 255.0 0.0
0.17837829887866974 -0.25409895181655884 -0.07213615626096725 0.0 255.0 0.0
0.20735596120357513 -0.2805596590042114 0.08165745437145233 0.0 255.0 0.0
0.1805347353219986 -0.12394239008426666 -0.1336670219898224 0.0 255.0 0.0
-0.2667495310306549 -0.4330190122127533 -0.09018408507108688 0.0 255.0 0.0
0.20864270627498627 -0.3525943160057068 0.14046859741210938 0.0 255.0 0.0
-0.29463526606559753 0.01741034723818302 -0.25857484340667725 0.0 255.0 0.0
-0.2214154303073883 -0.4543861150741577 -0.03313996270298958 0.0 255.0 0.0
