0.2972581684589386 -0.19631195068359375 0.008633140474557877 0.0 255.0 0.0
-0.27088621258735657 -0.14046013355255127 0.0855877622961998 0.0 255.0 0.0
0.2972581684589386 0.06609287858009338 0.10374011099338531 0.0 255.0 0.0
0.0341392457485199 0.22561651468276978 0.11184123903512955 0.0 255.0 0.0
0.1552119106054306 0.07701335847377777 -0.13347293436527252 0.0 255.0 0.0
-0.26628127694129944 -0.20627447962760925 0.05528178811073303 0.0 255.0 0.0
-0.16459263861179352 0.40956932306289673 -0.03396599739789963 0.0 255.0 0.0
0.17173868417739868 -0.44191691279411316 0.01603369601070881 0.0 255.0 0.0
0.1034911721944809 -0.21215257048606873 0.15607903897762299 0.0 255.0 0.0
0.1993733048439026 0.4383714497089386 -0.06868578493595123 0.0 255.0 0.0
-0.06930746883153915 -0.026202324777841568 -0.13506805896759033 0.0 255.0 0.0
0.060445550829172134 0.03555697947740555 0.16828197240829468 0.0 255.0 0.0
-0.23448698222637177 -0.25466421246528625 -0.08508457988500595 0.0 255.0 0.0
0.08147190511226654 0.22817139327526093 -0.1063653901219368 0.0 255.0 0.0
-0.10404033213853836 -0.077214315533638 -0.13702188432216644 0.0 255.0 0.0
-0.27139151096343994 -0.2223329395055771 -0.0842089056968689 0.0 255.0 0.0
-0.2704690098762512 -0.07956787943840027 0.02093341015279293 0.0 255.0 0.0
0.2974202632904053 0.059892453253269196 0.06535930186510086 0.0 255.0 0.0
-0.1203792467713356 0.10468723624944687 0.17181837558746338 0.0 255.0 0.0
-0.2107791155576706 -0.15823648869991302 -0.13180898129940033 0.0 255.0 0.0
-0.2698213458061218 0.012857264839112759 0.07426471263170242 0.0 255.0 0.0
0.29979801177978516 0.4540274739265442 0.05992945283651352 0.0 255.0 0.0
0.29719728231430054 -0.17524001002311707 0.017096953466534615 0.0 255.0 0.0
0.012911862693727016 -0.12342087179422379 0.1692543923854828 0.0 255.0 0.0
0.2791484594345093 0.16208139061927795 -0.13956880569458008 0.0 255.0 0.0
-0.03095369040966034 -0.104166179895401 0.16835854947566986 0.0 255.0 0.0
-0.17981812357902527 -0.40168631076812744 0.05459980666637421 0.0 255.0 0.0
-0.2784322202205658 -0.4406886696815491 0.05022824555635452 0.0 255.0 0.0
0.0423441156744957 -0.015389707870781422 0.1694975197315216 0.0 255.0 0.0
0.04470626264810562 -0.05602150037884712 0.16984504461288452 0.0 255.0 0.0
-0.2623748481273651 0.44673219323158264 0.08446402847766876 0.0 255.0 0.0
0.1964908242225647 0.22812457382678986 0.01844584383070469 0.0 255.0 0.0
-0.2662973701953888 0.44214341044425964 0.06503181904554367 0.0 255.0 0.0
0.17361192405223846 0.11117767542600632 0.17069301009178162 0.0 255.0 0.0
-0.1841849535703659 -0.1224694550037384 -0.13358451426029205 0.0 255.0 0.0
0.20460624992847443 0.4611445367336273 -0.06229649484157562 0.0 255.0 0.0
0.2733311951160431 0.4958784878253937 0.0025106165558099747 0.0 255.0 0.0
0.1811188906431198 -0.3378874361515045 0.10611002147197723 0.0 255.0 0.0
0.17981363832950592 0.3487752676010132 0.03399936482310295 0.0 255.0 0.0
0.29713860154151917 0.46333953738212585 0.06493876874446869 0.0 255.0 0.0
-0.04637553542852402 -0.23029382526874542 0.15677404403686523 0.0 255.0 0.0
-0.1730661690235138 0.12179393321275711 0.16940195858478546 0.0 255.0 0.0
-0.00932320486754179 0.22499723732471466 0.11488644033670425 0.0 255.0 0.0
0.22110429406166077 0.22814491391181946 -0.07538425922393799 0.0 255.0 0.0
-0.1910516619682312 -0.4277407228946686 0.053145021200180054 0.0 255.0 0.0
-0.15280085802078247 -0.2965792119503021 0.008124087005853653 0.0 255.0 0.0
0.16214795410633087 -0.35305264592170715 -0.038904283195734024 0.0 255.0 0.0
-0.2203308790922165 -0.02042238786816597 -0.13506805896759033 0.0 255.0 0.0
-0.2672560513019562 0.38866087794303894 -0.005980479530990124 0.0 255.0 0.0
0.06081261485815048 0.17726688086986542 -0.19127421081066132 0.0 255.0 0.0
-0.03339454159140587 -0.2541313171386719 -0.011020621284842491 0.0 255.0 0.0
-0.1798495650291443 0.0012687273556366563 0.16828659176826477 0.0 255.0 0.0
0.18006905913352966 -0.38640281558036804 -0.06401542574167252 0.0 255.0 0.0
0.29345035552978516 -0.11000357568264008 0.07897364348173141 0.0 255.0 0.0
0.14941982924938202 0.11537124961614609 -0.13422304391860962 0.0 255.0 0.0
0.23063087463378906 0.05254857614636421 -0.13506805896759033 0.0 255.0 0.0
-0.27178633213043213 -0.2198757529258728 -0.11438417434692383 0.0 255.0 0.0
0.16949161887168884 0.22811588644981384 0.12477734684944153 0.0 255.0 0.0
0.26802924275398254 -0.3580353558063507 -0.06389490514993668 0.0 255.0 0.0
0.2978149652481079 0.19736121594905853 -0.04342915117740631 0.0 255.0 0.0
0.2948269248008728 0.3489336371421814 -0.012238307856023312 0.0 255.0 0.0
0.3001577854156494 0.054592203348875046 -0.009778068400919437 0.0 255.0 0.0
0.09385701268911362 0.23124948143959045 0.056811220943927765 0.0 255.0 0.0
-0.071840301156044 -0.2506127655506134 -0.07884296029806137 0.0 255.0 0.0
-0.16350746154785156 0.06244311481714249 -0.13619635999202728 0.0 255.0 0.0
0.1340169757604599 0.11253131181001663 -0.13294686377048492 0.0 255.0 0.0
-0.18897801637649536 -0.4206610321998596 0.0008772193104960024 0.0 255.0 0.0
0.026135602965950966 0.09837021678686142 -0.1606905311346054 0.0 255.0 0.0
-0.2707524597644806 0.01928114704787731 0.13222655653953552 0.0 255.0 0.0
-0.25281667709350586 0.39184167981147766 -0.06177010387182236 0.0 255.0 0.0
-0.04390683397650719 0.007729693781584501 0.16850928962230682 0.0 255.0 0.0
0.03575565293431282 0.22892744839191437 0.11477860808372498 0.0 255.0 0.0
0.1724741905927658 0.39954322576522827 0.024093789979815483 0.0 255.0 0.0
0.11143848299980164 -0.022068757563829422 0.16754236817359924 0.0 255.0 0.0
0.27209988236427307 -0.31447502970695496 0.036477699875831604 0.0 255.0 0.0
-0.130890890955925 0.20803050696849823 -0.13506805896759033 0.0 255.0 0.0
0.0035463948734104633 -0.010071944445371628 0.17189550399780273 0.0 255.0 0.0
-0.2723286747932434 0.04938158765435219 0.08135444670915604 0.0 255.0 0.0
0.11263660341501236 0.08261561393737793 0.1687338650226593 0.0 255.0 0.0
-0.07804866135120392 -0.15266214311122894 0.1646030694246292 0.0 255.0 0.0
-0.26988425850868225 -0.10791406780481339 0.09273955225944519 0.0 255.0 0.0
-0.07917099446058273 0.22795668244361877 -0.02700546570122242 0.0 255.0 0.0
0.11475366353988647 -0.24819043278694153 0.028231682255864143 0.0 255.0 0.0
-0.17864270508289337 -0.40720075368881226 0.013465115800499916 0.0 255.0 0.0
-0.06504881381988525 -0.25098785758018494 0.0186114814132452 0.0 255.0 0.0
-0.2707524597644806 -0.01577197015285492 -0.07773295044898987 0.0 255.0 0.0
-0.22722227871418 -0.24969473481178284 0.13464845716953278 0.0 255.0 0.0
0.2659817337989807 -0.28814950585365295 0.036144986748695374 0.0 255.0 0.0
-0.06044337898492813 0.22866369783878326 -0.031187208369374275 0.0 255.0 0.0
-0.27051669359207153 -0.1630011796951294 0.09469634294509888 0.0 255.0 0.0
0.09085153043270111 0.19980034232139587 0.15831726789474487 0.0 255.0 0.0
-0.2337626814842224 -0.3646754026412964 0.16352061927318573 0.0 255.0 0.0
0.29581785202026367 0.15925058722496033 -0.013704783283174038 0.0 255.0 0.0
0.2551286220550537 -0.44472286105155945 -0.05137349292635918 0.0 255.0 0.0
-0.22086486220359802 0.44014546275138855 0.08716919273138046 0.0 255.0 0.0
0.03722546249628067 0.20726948976516724 0.15661999583244324 0.0 255.0 0.0
-0.027104288339614868 0.08955935388803482 0.1665797084569931 0.0 255.0 0.0
0.2972581684589386 0.19940149784088135 0.12260232865810394 0.0 255.0 0.0
0.23447807133197784 -0.4451208710670471 -0.05988944321870804 0.0 255.0 0.0
0.010064007714390755 -0.22072835266590118 -0.13506805896759033 0.0 255.0 0.0
0.19533449411392212 -0.2500235140323639 0.11881780624389648 0.0 255.0 0.0
-0.27255529165267944 0.06914888322353363 0.017154455184936523 0.0 255.0 0.0
0.29527828097343445 0.17676123976707458 0.00663805240765214 0.0 255.0 0.0
0.0342106893658638 0.22882317006587982 -0.10665341466665268 0.0 255.0 0.0
0.2880004048347473 -0.37651222944259644 0.0696294978260994 0.0 255.0 0.0
0.14597821235656738 -0.22352997958660126 0.15649493038654327 0.0 255.0 0.0
-0.020119477063417435 0.20491276681423187 -0.13539673388004303 0.0 255.0 0.0
-0.28456372022628784 -0.308689147233963 0.09604282677173615 0.0 255.0 0.0
0.10924903303384781 0.22620010375976562 -0.04827979952096939 0.0 255.0 0.0
0.14391012489795685 -0.10815967619419098 -0.13111108541488647 0.0 255.0 0.0
-0.2707524597644806 -0.03071795217692852 -0.07045391201972961 0.0 255.0 0.0
0.25318482518196106 -0.24848322570323944 -0.10689614713191986 0.0 255.0 0.0
-0.27233245968818665 0.02483968622982502 -0.0369521826505661 0.0 255.0 0.0
-0.028145913034677505 0.06306077539920807 -0.13161051273345947 0.0 255.0 0.0
-0.19046904146671295 -0.3340394198894501 0.07475316524505615 0.0 255.0 0.0
0.2889941930770874 -0.3903069496154785 0.11986763030290604 0.0 255.0 0.0
-0.17059631645679474 -0.375470370054245 0.01222372055053711 0.0 255.0 0.0
0.1724572330713272 -0.16621610522270203 0.17164835333824158 0.0 255.0 0.0
-0.029985086992383003 -0.25198885798454285 -0.02208319678902626 0.0 255.0 0.0
-0.3079655170440674 -0.3379531502723694 0.006938430480659008 0.0 255.0 0.0
0.2234736680984497 -0.13551177084445953 0.1725335717201233 0.0 255.0 0.0
0.1765814870595932 0.12478454411029816 -0.13684634864330292 0.0 255.0 0.0
-0.15485571324825287 0.23066584765911102 0.10707543045282364 0.0 255.0 0.0
0.28777366876602173 0.3328697383403778 0.03401096537709236 0.0 255.0 0.0
0.3015330135822296 0.4470520615577698 0.02178456261754036 0.0 255.0 0.0
-0.26754581928253174 0.43361467123031616 0.020110953599214554 0.0 255.0 0.0
0.2870250940322876 0.37548521161079407 -0.06003245711326599 0.0 255.0 0.0
0.04717788100242615 -0.013229817152023315 -0.13184517621994019 0.0 255.0 0.0
-0.16026107966899872 0.46392878890037537 0.07941783964633942 0.0 255.0 0.0
0.24510380625724792 0.5127781629562378 0.08172383904457092 0.0 255.0 0.0
-0.2522822916507721 -0.13781431317329407 -0.13857993483543396 0.0 255.0 0.0
-0.3230763077735901 -0.3871040642261505 0.07795274257659912 0.0 255.0 0.0
-0.16840559244155884 0.09517685323953629 0.17047622799873352 0.0 255.0 0.0
0.05862565338611603 0.1776527464389801 -0.19393926858901978 0.0 255.0 0.0
-0.056339412927627563 -0.07073406875133514 0.16940195858478546 0.0 255.0 0.0
-0.2707524597644806 0.20701122283935547 0.004776372108608484 0.0 255.0 0.0
0.29520654678344727 -0.05219361558556557 0.048933256417512894 0.0 255.0 0.0
0.20781733095645905 -0.1325925886631012 -0.13757412135601044 0.0 255.0 0.0
-0.25776657462120056 0.46719592809677124 0.09119431674480438 0.0 255.0 0.0
-0.272636741399765 0.02811967395246029 0.05607648566365242 0.0 255.0 0.0
-0.16376838088035583 -0.2516379654407501 -0.0924566388130188 0.0 255.0 0.0
-0.15080255270004272 0.018169082701206207 -0.1360681802034378 0.0 255.0 0.0
0.29747745394706726 0.14368149638175964 -0.06352031230926514 0.0 255.0 0.0
0.1977827101945877 -0.2508021891117096 0.08233312517404556 0.0 255.0 0.0
-0.23394492268562317 0.17512929439544678 0.15462622046470642 0.0 255.0 0.0
0.2972581684589386 -0.04582252353429794 0.053371865302324295 0.0 255.0 0.0
0.13659419119358063 0.09525894373655319 -0.13354210555553436 0.0 255.0 0.0
0.024712054058909416 -0.07545570284128189 0.16962987184524536 0.0 255.0 0.0
-0.22117789089679718 -0.2513147294521332 -0.08299336582422256 0.0 255.0 0.0
0.10500124096870422 -0.14431537687778473 -0.13506805896759033 0.0 255.0 0.0
-0.2735934853553772 -0.208627387881279 -0.06229276582598686 0.0 255.0 0.0
-0.2707524597644806 0.19606095552444458 0.06664177030324936 0.0 255.0 0.0
-0.268491268157959 0.09707268327474594 0.11428772658109665 0.0 255.0 0.0
-0.11942373961210251 -0.028756292536854744 -0.13506805896759033 0.0 255.0 0.0
0.2972581684589386 -0.16478271782398224 0.011566335335373878 0.0 255.0 0.0
-0.028481753543019295 -0.2495211660861969 0.022468894720077515 0.0 255.0 0.0
-0.21936000883579254 -0.3827083706855774 0.16240105032920837 0.0 255.0 0.0
-0.2435709536075592 -0.017493003979325294 0.15617553889751434 0.0 255.0 0.0
0.27121424674987793 -0.2509932518005371 0.03800748661160469 0.0 255.0 0.0
-0.27119845151901245 0.030621083453297615 -0.024702569469809532 0.0 255.0 0.0
-0.18263056874275208 0.4100761115550995 -0.06842450797557831 0.0 255.0 0.0
0.2749437391757965 -0.16638247668743134 0.1562671661376953 0.0 255.0 0.0
-0.2705516815185547 -0.12239589542150497 -0.1113642007112503 0.0 255.0 0.0
0.2873636484146118 0.4824606776237488 0.0789741575717926 0.0 255.0 0.0
0.012826662510633469 -0.24789990484714508 0.020250404253602028 0.0 255.0 0.0
-0.00479929381981492 0.22667600214481354 0.009171582758426666 0.0 255.0 0.0
0.25709837675094604 -0.41576528549194336 -0.08616767078638077 0.0 255.0 0.0
-0.26723745465278625 0.4003237783908844 0.05896054953336716 0.0 255.0 0.0
0.1505570113658905 -0.09638983011245728 0.16690650582313538 0.0 255.0 0.0
-0.28110530972480774 -0.4519948661327362 -0.027458108961582184 0.0 255.0 0.0
-0.27191343903541565 0.18260835111141205 0.0082119544968009 0.0 255.0 0.0
0.24650657176971436 -0.22142425179481506 -0.13610094785690308 0.0 255.0 0.0
0.1390388458967209 -0.35280242562294006 0.020223243162035942 0.0 255.0 0.0
-0.2707524597644806 0.17021071910858154 0.021772027015686035 0.0 255.0 0.0
-0.2716696858406067 0.06186332181096077 -0.009445538744330406 0.0 255.0 0.0
0.2985803782939911 0.141497403383255 0.06749515235424042 0.0 255.0 0.0
-0.2710011601448059 -0.04098862037062645 -0.1175951436161995 0.0 255.0 0.0
-0.022148853167891502 -0.25322049856185913 -0.004883302375674248 0.0 255.0 0.0
0.15780994296073914 -0.17839260399341583 -0.13362321257591248 0.0 255.0 0.0
0.07534529268741608 -0.2507072687149048 -0.0727405995130539 0.0 255.0 0.0
0.2972581684589386 -0.1204526275396347 -0.06868010759353638 0.0 255.0 0.0
-0.01970593072474003 -0.017400380223989487 0.16940195858478546 0.0 255.0 0.0
-0.28941279649734497 -0.4051936864852905 0.12687933444976807 0.0 255.0 0.0
-0.1016080304980278 0.026745706796646118 0.16940195858478546 0.0 255.0 0.0
-0.15148161351680756 0.40001749992370605 0.017914773896336555 0.0 255.0 0.0
0.27566447854042053 -0.322966992855072 -0.036362096667289734 0.0 255.0 0.0
0.21563677489757538 -0.2933200001716614 0.09174687415361404 0.0 255.0 0.0
-0.1737489402294159 -0.2516029179096222 0.09485287219285965 0.0 255.0 0.0
0.27558964490890503 -0.039919763803482056 -0.13475579023361206 0.0 255.0 0.0
0.27389317750930786 -0.3222579061985016 -0.031015951186418533 0.0 255.0 0.0
0.01598113588988781 0.22800059616565704 -0.05634201690554619 0.0 255.0 0.0
0.03153228387236595 0.23252397775650024 -0.07363411784172058 0.0 255.0 0.0
-0.1831638067960739 0.4937466084957123 0.027834642678499222 0.0 255.0 0.0
-0.19532886147499084 0.10964862257242203 0.16995450854301453 0.0 255.0 0.0
-0.2522737681865692 0.37737247347831726 -0.05648854374885559 0.0 255.0 0.0
0.20726950466632843 0.005837553646415472 0.16910618543624878 0.0 255.0 0.0
0.1891845017671585 0.3318648040294647 0.005812356248497963 0.0 255.0 0.0
0.2937636077404022 0.03478729724884033 -0.005338615737855434 0.0 255.0 0.0
0.2595680058002472 -0.04143475368618965 -0.13690441846847534 0.0 255.0 0.0
-0.15441417694091797 0.22812457382678986 -0.0434408038854599 0.0 255.0 0.0
-0.2681044638156891 0.08612259477376938 0.06671135127544403 0.0 255.0 0.0
0.18849220871925354 -0.08511761575937271 -0.13506805896759033 0.0 255.0 0.0
-0.041957493871450424 -0.08909187465906143 0.17005741596221924 0.0 255.0 0.0
-0.0999155044555664 0.22812457382678986 0.11232025921344757 0.0 255.0 0.0
-0.06739635765552521 -0.25091105699539185 0.08324926346540451 0.0 255.0 0.0
0.060084059834480286 0.19143912196159363 -0.19220803678035736 0.0 255.0 0.0
0.2959904968738556 0.45330360531806946 -0.023306071758270264 0.0 255.0 0.0
-0.20275282859802246 -0.3573823869228363 -0.06989509612321854 0.0 255.0 0.0
-0.17344766855239868 -0.28290098905563354 -0.041995469480752945 0.0 255.0 0.0
0.16305431723594666 -0.023962032049894333 -0.13506805896759033 0.0 255.0 0.0
0.20117907226085663 -0.42306309938430786 -0.07983656227588654 0.0 255.0 0.0
-0.09921719878911972 -0.11619601398706436 -0.13446563482284546 0.0 255.0 0.0
-0.26151028275489807 0.4609490931034088 0.08172240853309631 0.0 255.0 0.0
-0.26812663674354553 0.38222795724868774 0.01914205588400364 0.0 255.0 0.0
0.2962968051433563 -0.22860407829284668 0.0007191565237008035 0.0 255.0 0.0
0.05250968411564827 0.22812457382678986 -0.07886336743831635 0.0 255.0 0.0
0.1135253757238388 0.22919130325317383 0.10989434272050858 0.0 255.0 0.0
-0.12239038944244385 0.22901766002178192 -0.047007836401462555 0.0 255.0 0.0
-0.2738409638404846 0.12255771458148956 -0.0702894851565361 0.0 255.0 0.0
0.2864592969417572 -0.3656724691390991 0.06756027042865753 0.0 255.0 0.0
-0.01390807144343853 0.23199795186519623 -0.029469050467014313 0.0 255.0 0.0
-0.2683182954788208 0.4142022728919983 0.007384893950074911 0.0 255.0 0.0
0.2972581684589386 -0.194650799036026 -0.04255009815096855 0.0 255.0 0.0
0.291768878698349 0.395923376083374 -0.04848115146160126 0.0 255.0 0.0
0.15889215469360352 -0.044458966702222824 0.1724361926317215 0.0 255.0 0.0
-0.17736786603927612 0.22809597849845886 0.12944245338439941 0.0 255.0 0.0
0.29739251732826233 -0.15858569741249084 0.09783783555030823 0.0 255.0 0.0
0.26200661063194275 -0.30105331540107727 -0.04203340783715248 0.0 255.0 0.0
0.05547747761011124 -0.25053688883781433 -0.0992211103439331 0.0 255.0 0.0
-0.19188712537288666 -0.43274378776550293 0.03000192902982235 0.0 255.0 0.0
-0.009876708500087261 -0.25347185134887695 0.10585272312164307 0.0 255.0 0.0
0.18377022445201874 0.22807860374450684 0.13440768420696259 0.0 255.0 0.0
-0.16909702122211456 -0.19523899257183075 -0.1327589601278305 0.0 255.0 0.0
0.2053401619195938 -0.44661328196525574 0.05140508711338043 0.0 255.0 0.0
0.11749852448701859 0.0684814453125 -0.13506805896759033 0.0 255.0 0.0
-0.26715004444122314 0.4377259910106659 0.041491467505693436 0.0 255.0 0.0
0.1735176295042038 0.2306419461965561 -0.00018314991029910743 0.0 255.0 0.0
0.20694078505039215 -0.445023775100708 0.16783824563026428 0.0 255.0 0.0
-0.027511747553944588 0.20392443239688873 0.15629474818706512 0.0 255.0 0.0
-0.19168171286582947 0.18024885654449463 -0.1325618028640747 0.0 255.0 0.0
-0.2590370774269104 -0.4389997720718384 0.12746265530586243 0.0 255.0 0.0
-0.27215027809143066 -0.053701967000961304 0.05277087911963463 0.0 255.0 0.0
0.26465219259262085 0.22592796385288239 0.08151515573263168 0.0 255.0 0.0
0.18041422963142395 0.46400678157806396 0.08513768762350082 0.0 255.0 0.0
0.2906759977340698 -0.42570754885673523 0.11164437979459763 0.0 255.0 0.0
0.20767098665237427 0.22825069725513458 -0.08868400752544403 0.0 255.0 0.0
-0.17201891541481018 -0.3473638594150543 -0.038237180560827255 0.0 255.0 0.0
-0.22197465598583221 -0.18798138201236725 -0.13506805896759033 0.0 255.0 0.0
0.2007424682378769 0.4836212694644928 -0.03180522471666336 0.0 255.0 0.0
-0.14851315319538116 0.22813355922698975 -0.06178051605820656 0.0 255.0 0.0
0.18411372601985931 -0.17727364599704742 -0.13953226804733276 0.0 255.0 0.0
0.15824046730995178 -0.1889536827802658 -0.13422559201717377 0.0 255.0 0.0
-0.13058088719844818 -0.167734295129776 -0.13150903582572937 0.0 255.0 0.0
0.1559886932373047 0.22812457382678986 0.0263232234865427 0.0 255.0 0.0
0.29884007573127747 0.12890422344207764 -0.08072850853204727 0.0 255.0 0.0
0.1718970090150833 -0.3785230815410614 -0.055921439081430435 0.0 255.0 0.0
0.2972581684589386 0.16496926546096802 -0.08467453718185425 0.0 255.0 0.0
0.26779985427856445 -0.24950674176216125 0.1355404406785965 0.0 255.0 0.0
0.2633218765258789 0.04370079189538956 -0.13373102247714996 0.0 255.0 0.0
0.07172158360481262 -0.1474955528974533 -0.13506805896759033 0.0 255.0 0.0
0.1379125863313675 -0.41166359186172485 0.11475338041782379 0.0 255.0 0.0
-0.26624783873558044 0.3967339098453522 -0.029293673112988472 0.0 255.0 0.0
-0.05393311008810997 0.10599768906831741 0.16730764508247375 0.0 255.0 0.0
-0.15090803802013397 0.14222237467765808 -0.13735097646713257 0.0 255.0 0.0
-0.15556290745735168 -0.28282806277275085 0.03610071912407875 0.0 255.0 0.0
0.059254176914691925 0.22657258808612823 -0.023359647020697594 0.0 255.0 0.0
-0.15200164914131165 -0.06729340553283691 -0.13506805896759033 0.0 255.0 0.0
-0.16919368505477905 0.33813902735710144 -0.005606856197118759 0.0 255.0 0.0
0.24680349230766296 -0.3609176576137543 -0.08492299914360046 0.0 255.0 0.0
0.000704996520653367 -0.24845170974731445 0.11028048396110535 0.0 255.0 0.0
0.026685457676649094 -0.25247618556022644 0.09005984663963318 0.0 255.0 0.0
-0.1576959639787674 0.4023575782775879 -0.006208155304193497 0.0 255.0 0.0
0.18760907649993896 -0.011463174596428871 -0.13384555280208588 0.0 255.0 0.0
0.29669395089149475 0.06581597030162811 -0.018053045496344566 0.0 255.0 0.0
0.3003457188606262 -0.14802411198616028 -0.04003932699561119 0.0 255.0 0.0
0.18566875159740448 0.4813710153102875 0.026819052174687386 0.0 255.0 0.0
-0.0072947400622069836 -0.08925177156925201 0.16940195858478546 0.0 255.0 0.0
0.02279520221054554 -0.24962031841278076 0.03493505343794823 0.0 255.0 0.0
-0.2533515989780426 -0.28834742307662964 -0.012335050851106644 0.0 255.0 0.0
-0.0026527750305831432 0.12586113810539246 0.16940195858478546 0.0 255.0 0.0
0.10793190449476242 -0.2501406967639923 -0.05692042037844658 0.0 255.0 0.0
0.2977016568183899 -0.024051757529377937 -0.03519877791404724 0.0 255.0 0.0
-0.2707524597644806 0.07264558225870132 0.12913189828395844 0.0 255.0 0.0
-0.2723049223423004 0.1024136021733284 0.012591601349413395 0.0 255.0 0.0
-0.260399729013443 -0.29259613156318665 0.0665849894285202 0.0 255.0 0.0
0.27911582589149475 -0.3356855511665344 0.07775747776031494 0.0 255.0 0.0
0.09231029450893402 -0.2507685422897339 0.05188136547803879 0.0 255.0 0.0
-0.27042070031166077 -0.06890889257192612 -0.10391756892204285 0.0 255.0 0.0
0.03451094031333923 -0.0890251100063324 -0.1345587521791458 0.0 255.0 0.0
-0.13598406314849854 -0.2110511064529419 0.15664447844028473 0.0 255.0 0.0
-0.26494088768959045 0.45960545539855957 0.06916271895170212 0.0 255.0 0.0
0.022023700177669525 0.13962125778198242 -0.13601309061050415 0.0 255.0 0.0
0.13937386870384216 -0.3638042211532593 0.04006321728229523 0.0 255.0 0.0
0.18242758512496948 -0.004263987764716148 -0.13514383137226105 0.0 255.0 0.0
0.03317616879940033 0.22812457382678986 0.05380312353372574 0.0 255.0 0.0
-0.061397917568683624 -0.05971565842628479 0.16940195858478546 0.0 255.0 0.0
0.17743659019470215 0.44369181990623474 0.08383151888847351 0.0 255.0 0.0
-0.27389463782310486 0.13171561062335968 0.04543685540556908 0.0 255.0 0.0
-0.24699684977531433 -0.24890221655368805 -0.062109023332595825 0.0 255.0 0.0
0.2724839150905609 -0.24845589697360992 0.08229486644268036 0.0 255.0 0.0
0.09274136275053024 0.22812457382678986 -0.09946636110544205 0.0 255.0 0.0
0.20984973013401031 -0.09774699062108994 -0.13506805896759033 0.0 255.0 0.0
0.20221054553985596 -0.40018659830093384 -0.08429758995771408 0.0 255.0 0.0
-0.024330444633960724 -0.11256338655948639 -0.1337435096502304 0.0 255.0 0.0
0.2957760691642761 0.3639492392539978 0.045098502188920975 0.0 255.0 0.0
-0.1647511124610901 0.22587816417217255 0.12847848236560822 0.0 255.0 0.0
-0.3228171169757843 -0.3554009795188904 0.016296714544296265 0.0 255.0 0.0
-0.326388418674469 -0.38314658403396606 0.0877765491604805 0.0 255.0 0.0
0.2706741690635681 -0.014380717650055885 -0.13369278609752655 0.0 255.0 0.0
0.0007937647751532495 -0.09715956449508667 0.16924645006656647 0.0 255.0 0.0
0.009733262471854687 0.22812457382678986 0.08352023363113403 0.0 255.0 0.0
0.267328679561615 -0.21268737316131592 0.15794077515602112 0.0 255.0 0.0
-0.16967152059078217 -0.25380533933639526 -0.09527140855789185 0.0 255.0 0.0
0.19099532067775726 -0.0025747392792254686 -0.13506805896759033 0.0 255.0 0.0
0.2897880971431732 -0.4043821394443512 0.051715146750211716 0.0 255.0 0.0
0.2714698910713196 0.0737585499882698 -0.13506805896759033 0.0 255.0 0.0
-0.17565637826919556 -0.134063258767128 0.16711920499801636 0.0 255.0 0.0
0.2800283432006836 0.4956570863723755 -0.013070178218185902 0.0 255.0 0.0
-0.3223903179168701 -0.3422680199146271 0.09197428822517395 0.0 255.0 0.0
0.09635511040687561 0.07586880028247833 -0.13517436385154724 0.0 255.0 0.0
-0.2723883092403412 -0.3315317928791046 0.1711978167295456 0.0 255.0 0.0
-0.16293925046920776 -0.07763628661632538 -0.1329047828912735 0.0 255.0 0.0
-0.18698346614837646 -0.4157906174659729 -0.0013613696210086346 0.0 255.0 0.0
-0.1420866698026657 -0.25349584221839905 0.07471375167369843 0.0 255.0 0.0
0.2590648829936981 -0.25052839517593384 -0.06925364583730698 0.0 255.0 0.0
-0.27018120884895325 -0.11962905526161194 -0.06065404787659645 0.0 255.0 0.0
-0.09803461283445358 -0.033306870609521866 0.16940195858478546 0.0 255.0 0.0
-0.2830146849155426 -0.42462339997291565 0.08002336323261261 0.0 255.0 0.0
0.29643872380256653 0.19826413691043854 -0.01363453734666109 0.0 255.0 0.0
-0.25171133875846863 -0.4651668071746826 0.027381211519241333 0.0 255.0 0.0
0.13083241879940033 -0.13563774526119232 -0.13704223930835724 0.0 255.0 0.0
0.0907755196094513 0.05699160695075989 -0.13473275303840637 0.0 255.0 0.0
-0.14990994334220886 -0.25145184993743896 -0.11018353700637817 0.0 255.0 0.0
0.2645425498485565 -0.3084968328475952 0.07430078834295273 0.0 255.0 0.0
-0.15065759420394897 0.22854113578796387 -0.043266844004392624 0.0 255.0 0.0
-0.08752210438251495 0.14632384479045868 -0.13574762642383575 0.0 255.0 0.0
-0.2707524597644806 -0.22321435809135437 0.10188649594783783 0.0 255.0 0.0
-0.26614806056022644 -0.41036760807037354 0.1787656545639038 0.0 255.0 0.0
-0.13283847272396088 0.03076109103858471 -0.1365964710712433 0.0 255.0 0.0
0.2947571277618408 -0.03213319927453995 0.10773486644029617 0.0 255.0 0.0
-0.22888313233852386 -0.44217342138290405 -0.05785471573472023 0.0 255.0 0.0
0.2641913592815399 -0.29861587285995483 -0.0386480838060379 0.0 255.0 0.0
0.17221814393997192 0.44940024614334106 0.04756339266896248 0.0 255.0 0.0
0.19025132060050964 -0.03494637459516525 0.16940195858478546 0.0 255.0 0.0
-0.17328177392482758 -0.38098499178886414 -0.012479135766625404 0.0 255.0 0.0
0.2972581684589386 0.09151123464107513 0.0032857805490493774 0.0 255.0 0.0
0.30062922835350037 0.10655121505260468 -0.11281277239322662 0.0 255.0 0.0
0.23391319811344147 -0.04372745379805565 -0.142091304063797 0.0 255.0 0.0
-0.2925059497356415 -0.42036518454551697 0.07586198300123215 0.0 255.0 0.0
0.062302492558956146 -0.22350366413593292 -0.1320067197084427 0.0 255.0 0.0
0.03995535522699356 -0.21308651566505432 0.1545327603816986 0.0 255.0 0.0
-0.18438567221164703 -0.02054254524409771 0.17130827903747559 0.0 255.0 0.0
0.2968214750289917 -0.16162365674972534 0.09315618127584457 0.0 255.0 0.0
-0.19027464091777802 0.4976605772972107 -0.013479847460985184 0.0 255.0 0.0
0.036838822066783905 -0.249226912856102 0.01411224901676178 0.0 255.0 0.0
0.29809099435806274 0.007310780696570873 -0.01882452890276909 0.0 255.0 0.0
-0.03790758550167084 -0.03189648315310478 0.16940195858478546 0.0 255.0 0.0
-0.18017740547657013 -0.25015661120414734 0.13433164358139038 0.0 255.0 0.0
-0.0615311898291111 0.11780300736427307 0.17182651162147522 0.0 255.0 0.0
-0.2355068475008011 0.128122478723526 -0.13212546706199646 0.0 255.0 0.0
0.27580004930496216 0.42847567796707153 0.11728397011756897 0.0 255.0 0.0
-0.11319100856781006 0.00648276973515749 -0.13542486727237701 0.0 255.0 0.0
0.18691346049308777 0.22533757984638214 -0.05362449213862419 0.0 255.0 0.0
0.17626045644283295 0.3472479581832886 0.023321786895394325 0.0 255.0 0.0
0.010402249172329903 0.04522525519132614 0.16795434057712555 0.0 255.0 0.0
0.1957707703113556 0.22818955779075623 -0.0032960481476038694 0.0 255.0 0.0
-0.2729829251766205 0.2087491750717163 -0.052487801760435104 0.0 255.0 0.0
-0.08389279246330261 -0.07644345611333847 0.16969867050647736 0.0 255.0 0.0
-0.1359306275844574 -0.2518170475959778 -0.05505570396780968 0.0 255.0 0.0
-0.266836553812027 0.15504665672779083 -0.02193410135805607 0.0 255.0 0.0
-0.20182213187217712 -0.4487841725349426 0.02141861990094185 0.0 255.0 0.0
0.062071677297353745 -0.09565771371126175 -0.13506805896759033 0.0 255.0 0.0
-0.19138002395629883 -0.21578453481197357 -0.13600791990756989 0.0 255.0 0.0
0.2156371772289276 0.5066209435462952 -0.014823321253061295 0.0 255.0 0.0
0.2972581684589386 -0.13909414410591125 -0.0837680846452713 0.0 255.0 0.0
-0.24505843222141266 -0.00616790447384119 -0.25979921221733093 0.0 255.0 0.0
-0.2717713713645935 -0.2333870530128479 -0.06559272855520248 0.0 255.0 0.0
0.06409435719251633 0.1536855548620224 -0.1667688637971878 0.0 255.0 0.0
-0.2702157497406006 -0.011415906250476837 0.1360059231519699 0.0 255.0 0.0
0.1406877487897873 -0.3697989284992218 0.027975350618362427 0.0 255.0 0.0
0.1480443924665451 -0.2516222596168518 0.12568828463554382 0.0 255.0 0.0
0.1408766657114029 0.22998042404651642 -0.07489938288927078 0.0 255.0 0.0
-0.050383277237415314 -0.25528696179389954 0.0017324552172794938 0.0 255.0 0.0
0.10388008505105972 0.23084497451782227 -0.0685393288731575 0.0 255.0 0.0
0.09640076756477356 0.11873796582221985 0.16893352568149567 0.0 255.0 0.0
0.2972581684589386 -0.18836498260498047 0.02933586947619915 0.0 255.0 0.0
-0.013692246749997139 0.12865807116031647 -0.1314821094274521 0.0 255.0 0.0
0.26644963026046753 -0.3041673004627228 -0.0449337512254715 0.0 255.0 0.0
0.27112627029418945 -0.30442148447036743 -0.01362584438174963 0.0 255.0 0.0
-0.07521147280931473 -0.2509576678276062 -0.056799497455358505 0.0 255.0 0.0
0.1567414402961731 0.22787977755069733 0.11757822334766388 0.0 255.0 0.0
0.19963356852531433 -0.4487703740596771 0.044654421508312225 0.0 255.0 0.0
-0.03653043881058693 0.044432949274778366 -0.13506805896759033 0.0 255.0 0.0
-0.255361407995224 -0.4540022313594818 0.07306312769651413 0.0 255.0 0.0
0.29631733894348145 -0.16523431241512299 -0.022800616919994354 0.0 255.0 0.0
-0.2707524597644806 -0.1830616593360901 -0.04580315202474594 0.0 255.0 0.0
-0.22470027208328247 -0.38710835576057434 0.1749437302350998 0.0 255.0 0.0
0.1661425083875656 -0.2907158434391022 0.046965815126895905 0.0 255.0 0.0
0.17229944467544556 0.009586296044290066 0.1669270247220993 0.0 255.0 0.0
-0.2707524597644806 -0.06887772679328918 0.004929846618324518 0.0 255.0 0.0
-0.2673076391220093 0.4402582049369812 0.06503322720527649 0.0 255.0 0.0
0.2972581684589386 0.10624229907989502 0.01959097944200039 0.0 255.0 0.0
0.1520961970090866 -0.3112003803253174 -0.009320785291492939 0.0 255.0 0.0
0.0026782762724906206 0.2325686514377594 -0.1824091225862503 0.0 255.0 0.0
0.011920162476599216 -0.25231486558914185 0.11440278589725494 0.0 255.0 0.0
0.022077027708292007 0.1706906408071518 -0.13506805896759033 0.0 255.0 0.0
0.0006940150633454323 0.11476646363735199 -0.13506805896759033 0.0 255.0 0.0
-0.21263892948627472 -0.45734846591949463 -0.01175638660788536 0.0 255.0 0.0
0.1926441788673401 0.2296009063720703 0.03295573219656944 0.0 255.0 0.0
-0.27167561650276184 0.13496799767017365 -0.05710340663790703 0.0 255.0 0.0
-0.09448462724685669 0.06112372502684593 -0.13609854876995087 0.0 255.0 0.0
0.08284182846546173 -0.0695723220705986 -0.1414240002632141 0.0 255.0 0.0
0.05075744539499283 -0.2528723478317261 0.08435932546854019 0.0 255.0 0.0
-0.25238415598869324 0.3341849446296692 0.02516695111989975 0.0 255.0 0.0
-0.02141221985220909 -0.21828164160251617 -0.13354378938674927 0.0 255.0 0.0
-0.09857641905546188 0.20188647508621216 0.1552896499633789 0.0 255.0 0.0
-0.26774367690086365 -0.07063018530607224 -0.04670149087905884 0.0 255.0 0.0
-0.018586808815598488 -0.19410128891468048 -0.13788871467113495 0.0 255.0 0.0
-0.2693522870540619 -0.20927441120147705 0.048854731023311615 0.0 255.0 0.0
0.20069265365600586 -0.4163699448108673 0.19786636531352997 0.0 255.0 0.0
0.08929581940174103 -0.09147065132856369 -0.13422757387161255 0.0 255.0 0.0
-0.0034237259533256292 -0.2517967224121094 -0.06680627912282944 0.0 255.0 0.0
-0.021022159606218338 0.22812457382678986 -0.03017253242433071 0.0 255.0 0.0
-0.19975969195365906 -0.145213782787323 -0.1327337920665741 0.0 255.0 0.0
0.24671019613742828 0.12501260638237 -0.13061419129371643 0.0 255.0 0.0
-0.1835317462682724 -0.3460715711116791 0.07564179599285126 0.0 255.0 0.0
-0.15338554978370667 0.4247904121875763 0.054108910262584686 0.0 255.0 0.0
-0.2907031774520874 -0.32297995686531067 0.01181518193334341 0.0 255.0 0.0
0.30159470438957214 0.010889085941016674 0.060045935213565826 0.0 255.0 0.0
0.07511318475008011 -0.0697108581662178 -0.1326373964548111 0.0 255.0 0.0
0.17066660523414612 0.4032943546772003 0.01669449359178543 0.0 255.0 0.0
0.11721349507570267 -0.2523723244667053 0.13902050256729126 0.0 255.0 0.0
-0.24244540929794312 0.22789600491523743 -0.10238463431596756 0.0 255.0 0.0
0.2894635796546936 -0.41622141003608704 0.15585920214653015 0.0 255.0 0.0
-0.24351924657821655 -0.04781338572502136 -0.24898643791675568 0.0 255.0 0.0
0.09422296285629272 -0.2507523000240326 0.07903559505939484 0.0 255.0 0.0
-0.24494598805904388 0.15687014162540436 0.15441402792930603 0.0 255.0 0.0
-0.2947274446487427 0.06380704045295715 -0.30134597420692444 0.0 255.0 0.0
-0.26768258213996887 -0.22045187652111053 0.002887971932068467 0.0 255.0 0.0
-0.29555657505989075 0.004390471614897251 -0.2550945281982422 0.0 255.0 0.0
0.2631831467151642 -0.1625175029039383 -0.13506805896759033 0.0 255.0 0.0
-0.11641394346952438 0.06758111715316772 -0.13485726714134216 0.0 255.0 0.0
0.2972581684589386 -0.2201492339372635 -0.04818994179368019 0.0 255.0 0.0
0.26320576667785645 -0.24992996454238892 -0.06401105225086212 0.0 255.0 0.0
0.21049833297729492 0.22812457382678986 0.07624222338199615 0.0 255.0 0.0
-0.19098617136478424 0.11355072259902954 -0.1359139382839203 0.0 255.0 0.0
0.22646062076091766 -0.293255090713501 0.08986195176839828 0.0 255.0 0.0
-0.1591985821723938 0.05522970110177994 0.16940195858478546 0.0 255.0 0.0
0.17335708439350128 -0.13681229948997498 0.16786152124404907 0.0 255.0 0.0
0.08442436158657074 0.22812457382678986 -0.02545034885406494 0.0 255.0 0.0
0.21882356703281403 -0.22972287237644196 0.15515106916427612 0.0 255.0 0.0
0.18700212240219116 -0.24967725574970245 0.11249002069234848 0.0 255.0 0.0
0.07332030683755875 -0.25381582975387573 -0.10211959481239319 0.0 255.0 0.0
-0.2983260452747345 -0.33572298288345337 -0.006389289163053036 0.0 255.0 0.0
0.14125776290893555 -0.40492555499076843 0.012114071287214756 0.0 255.0 0.0
-0.036730315536260605 0.2256559580564499 -0.10383566468954086 0.0 255.0 0.0
0.18741193413734436 0.2300155609846115 0.06986849009990692 0.0 255.0 0.0
0.30133774876594543 0.41312941908836365 -0.01629309356212616 0.0 255.0 0.0
-0.11203441768884659 -0.2510567009449005 -0.07522204518318176 0.0 255.0 0.0
0.2793135643005371 -0.3335288465023041 -0.023766689002513885 0.0 255.0 0.0
0.2606731653213501 -0.2739867568016052 0.03771636635065079 0.0 255.0 0.0
-0.07524915039539337 -0.044784557074308395 0.16971369087696075 0.0 255.0 0.0
-0.22384685277938843 0.23013773560523987 -0.10217804461717606 0.0 255.0 0.0
0.29661092162132263 -0.03389401733875275 0.0558236800134182 0.0 255.0 0.0
0.06261172890663147 -0.21102239191532135 0.15276139974594116 0.0 255.0 0.0
0.22038444876670837 0.14544342458248138 -0.13589391112327576 0.0 255.0 0.0
-0.039529602974653244 0.14513246715068817 -0.18465103209018707 0.0 255.0 0.0
-0.12587812542915344 -0.2112494260072708 -0.1373327523469925 0.0 255.0 0.0
-0.2704410254955292 -0.05227917805314064 0.05079837515950203 0.0 255.0 0.0
0.2979390025138855 -0.20982742309570312 0.09240803867578506 0.0 255.0 0.0
0.07706431299448013 -0.22749187052249908 -0.13244657218456268 0.0 255.0 0.0
0.16425742208957672 -0.44597792625427246 0.13621902465820312 0.0 255.0 0.0
-0.2707524597644806 0.00929221697151661 0.005499958526343107 0.0 255.0 0.0
-0.26729199290275574 0.424407035112381 0.012247323989868164 0.0 255.0 0.0
0.18368710577487946 -0.3593636751174927 -0.06448853015899658 0.0 255.0 0.0
0.22659240663051605 0.2285805493593216 -0.04552152752876282 0.0 255.0 0.0
0.2972581684589386 -0.1066698357462883 -0.005358404479920864 0.0 255.0 0.0
-0.17395652830600739 -0.009167292155325413 -0.13203781843185425 0.0 255.0 0.0
0.06555882841348648 -0.015261342748999596 0.16771461069583893 0.0 255.0 0.0
0.22587229311466217 -0.3619324564933777 0.15976662933826447 0.0 255.0 0.0
-0.17433100938796997 -0.2486693561077118 0.12158073484897614 0.0 255.0 0.0
0.11830785125494003 0.13887640833854675 -0.13210934400558472 0.0 255.0 0.0
0.09711360931396484 -0.18753154575824738 -0.13506805896759033 0.0 255.0 0.0
0.2657885253429413 -0.2825387418270111 -0.005184646230190992 0.0 255.0 0.0
-0.27286696434020996 0.057655226439237595 0.08086274564266205 0.0 255.0 0.0
-0.2862892150878906 -0.3102753758430481 0.09827298671007156 0.0 255.0 0.0
0.09956397116184235 0.20615342259407043 0.16035471856594086 0.0 255.0 0.0
0.1085997223854065 0.20601901412010193 -0.13418714702129364 0.0 255.0 0.0
-0.22455812990665436 0.1252896636724472 -0.1334073543548584 0.0 255.0 0.0
-0.1809217482805252 -0.25304824113845825 -0.09154479205608368 0.0 255.0 0.0
-0.011665779165923595 0.0015110321110114455 0.16940195858478546 0.0 255.0 0.0
-0.18714706599712372 -0.2506876289844513 -0.10186618566513062 0.0 255.0 0.0
0.08063948899507523 0.0062963468953967094 -0.13506805896759033 0.0 255.0 0.0
-0.2687753736972809 0.1653660088777542 0.0023937851656228304 0.0 255.0 0.0
0.2981414794921875 -0.1967933475971222 0.13732147216796875 0.0 255.0 0.0
0.2972581684589386 -0.03813818469643593 -0.05577084794640541 0.0 255.0 0.0
0.2985140383243561 0.2028341293334961 0.06077348440885544 0.0 255.0 0.0
-0.22299960255622864 -0.2278793603181839 -0.13506805896759033 0.0 255.0 0.0
0.2730337381362915 0.12624338269233704 -0.13172794878482819 0.0 255.0 0.0
-0.07458215951919556 -0.25136446952819824 0.0873401090502739 0.0 255.0 0.0
-0.190270334482193 -0.4142751693725586 0.09020070731639862 0.0 255.0 0.0
0.011895725503563881 0.06508640944957733 -0.13518884778022766 0.0 255.0 0.0
0.29477372765541077 0.4689646363258362 0.04045365750789642 0.0 255.0 0.0
0.09677525609731674 -0.14366506040096283 -0.1371123045682907 0.0 255.0 0.0
0.11121474951505661 -0.12809309363365173 0.16808722913265228 0.0 255.0 0.0
0.12545649707317352 -0.25008660554885864 -0.008129849098622799 0.0 255.0 0.0
0.18912068009376526 0.2303885966539383 0.1304846853017807 0.0 255.0 0.0
0.19332179427146912 -0.2994777262210846 0.08294548094272614 0.0 255.0 0.0
0.1845826506614685 -0.3953719735145569 0.17445595562458038 0.0 255.0 0.0
0.17948779463768005 -0.15305854380130768 0.16940195858478546 0.0 255.0 0.0
0.2009226381778717 0.2308928519487381 0.10002430528402328 0.0 255.0 0.0
-0.06384854018688202 -0.0011354773305356503 -0.13367745280265808 0.0 255.0 0.0
0.0397382415831089 -0.2521000802516937 0.0937158539891243 0.0 255.0 0.0
0.26841968297958374 0.10670493543148041 0.15653689205646515 0.0 255.0 0.0
-0.26834824681282043 0.4095226228237152 0.053541429340839386 0.0 255.0 0.0
-0.27137690782546997 -0.14527906477451324 -0.03234383463859558 0.0 255.0 0.0
-0.09799345582723618 -0.2545521855354309 -0.027469322085380554 0.0 255.0 0.0
-0.16709595918655396 0.004325083922594786 -0.13506805896759033 0.0 255.0 0.0
0.29868602752685547 -0.011086026206612587 -0.08657746762037277 0.0 255.0 0.0
-0.2969134747982025 -0.3879832923412323 0.16872943937778473 0.0 255.0 0.0
-0.22816886007785797 -0.2517697513103485 -0.06630009412765503 0.0 255.0 0.0
0.2696623206138611 -0.3082570731639862 -0.03456837311387062 0.0 255.0 0.0
-0.31630438566207886 -0.3415018320083618 0.08862955868244171 0.0 255.0 0.0
0.2305825650691986 0.07437311112880707 -0.13668839633464813 0.0 255.0 0.0
-0.3241936266422272 -0.3997022807598114 0.04165318235754967 0.0 255.0 0.0
0.1780107021331787 0.3581840991973877 0.0730266273021698 0.0 255.0 0.0
0.06588498502969742 -0.15806666016578674 0.16939206421375275 0.0 255.0 0.0
-0.2749041020870209 -0.09053710848093033 0.030891606584191322 0.0 255.0 0.0
-0.015485849231481552 -0.026716332882642746 -0.13140752911567688 0.0 255.0 0.0
-0.15580838918685913 0.4513974189758301 0.03856949508190155 0.0 255.0 0.0
-0.14881649613380432 -0.27579066157341003 0.007874980568885803 0.0 255.0 0.0
-0.17413923144340515 -0.06975113600492477 -0.13506805896759033 0.0 255.0 0.0
-0.19362309575080872 -0.1378060132265091 -0.13415852189064026 0.0 255.0 0.0
0.2972581684589386 -0.11216860264539719 0.04426073655486107 0.0 255.0 0.0
0.2998882830142975 0.3847711682319641 -0.021151456981897354 0.0 255.0 0.0
0.12081767618656158 0.1027778834104538 0.16628292202949524 0.0 255.0 0.0
0.30116984248161316 -0.02401609718799591 0.049256402999162674 0.0 255.0 0.0
-0.15601521730422974 -0.10548479110002518 0.1732950061559677 0.0 255.0 0.0
-0.020201584324240685 0.22564293444156647 -0.02940843626856804 0.0 255.0 0.0
-0.19580605626106262 -0.15763932466506958 -0.13339310884475708 0.0 255.0 0.0
0.2531154751777649 -0.1283734291791916 -0.13506805896759033 0.0 255.0 0.0
-0.16683804988861084 0.4774291217327118 0.07252872735261917 0.0 255.0 0.0
-0.29931044578552246 -0.40507519245147705 -0.08728761970996857 0.0 255.0 0.0
-0.1662226915359497 -0.3345203101634979 0.04365857318043709 0.0 255.0 0.0
0.11298758536577225 -0.06758895516395569 -0.13418026268482208 0.0 255.0 0.0
-0.2706668972969055 0.007148294243961573 -0.02178165689110756 0.0 255.0 0.0
-0.08482588827610016 0.10116227716207504 0.16940195858478546 0.0 255.0 0.0
-0.16517487168312073 -0.06771067529916763 -0.1381060779094696 0.0 255.0 0.0
-0.059020787477493286 -0.09348736703395844 -0.13379283249378204 0.0 255.0 0.0
-0.268350750207901 0.0607718862593174 0.12730562686920166 0.0 255.0 0.0
0.24458248913288116 0.32586950063705444 0.06652208417654037 0.0 255.0 0.0
0.019082393497228622 0.22991709411144257 0.0446804016828537 0.0 255.0 0.0
-0.060270268470048904 0.22735922038555145 0.09215937554836273 0.0 255.0 0.0
0.28234076499938965 0.4591964781284332 -0.04544951766729355 0.0 255.0 0.0
-0.272621214389801 -0.11310314387083054 -0.0800657868385315 0.0 255.0 0.0
0.1729632169008255 0.03034745343029499 -0.13513249158859253 0.0 255.0 0.0
0.15069083869457245 0.08196759223937988 -0.13990511000156403 0.0 255.0 0.0
-0.1452668011188507 0.04647624492645264 0.16940195858478546 0.0 255.0 0.0
-0.26976442337036133 0.12356062978506088 0.0946674793958664 0.0 255.0 0.0
0.021711362525820732 0.22774171829223633 0.06769702583551407 0.0 255.0 0.0
0.28240931034088135 -0.35275986790657043 0.09086000919342041 0.0 255.0 0.0
0.03194680064916611 -0.039642155170440674 -0.1345720887184143 0.0 255.0 0.0
-0.2707524597644806 -0.18658363819122314 -0.06403252482414246 0.0 255.0 0.0
0.03744085133075714 0.1981513947248459 0.15624326467514038 0.0 255.0 0.0
0.05447252467274666 -0.2545797824859619 0.004814632702618837 0.0 255.0 0.0
-0.2707524597644806 -0.10267456620931625 -0.1087828278541565 0.0 255.0 0.0
-0.11850211024284363 -0.07167630642652512 -0.13535194098949432 0.0 255.0 0.0
-0.269204705953598 -0.08730288594961166 0.05077939108014107 0.0 255.0 0.0
0.03483441099524498 0.14417488873004913 -0.215993270277977 0.0 255.0 0.0
-0.12718471884727478 -0.007556547410786152 0.16884399950504303 0.0 255.0 0.0
0.20419272780418396 0.204819917678833 -0.1405419111251831 0.0 255.0 0.0
0.2567501962184906 0.23070767521858215 -0.12076319009065628 0.0 255.0 0.0
-0.1865210235118866 0.3418639004230499 0.07654255628585815 0.0 255.0 0.0
-0.1059812530875206 -0.08322807401418686 -0.13506805896759033 0.0 255.0 0.0
0.2697272300720215 -0.28962209820747375 0.03237519413232803 0.0 255.0 0.0
-0.17173242568969727 0.22812457382678986 0.06949715316295624 0.0 255.0 0.0
0.2995994985103607 -0.2270021289587021 -0.09224905073642731 0.0 255.0 0.0
0.2998599410057068 0.17952357232570648 0.042223479598760605 0.0 255.0 0.0
0.1884358674287796 0.46219712495803833 -0.03379802033305168 0.0 255.0 0.0
0.22664518654346466 -0.22840610146522522 0.16004647314548492 0.0 255.0 0.0
0.19029501080513 -0.21510638296604156 -0.13512538373470306 0.0 255.0 0.0
-0.17379213869571686 0.3323962092399597 0.0055526988580822945 0.0 255.0 0.0
0.2965715825557709 -0.19257815182209015 -0.06986533850431442 0.0 255.0 0.0
0.07281918823719025 -0.255336195230484 0.09452705830335617 0.0 255.0 0.0
0.2544655203819275 -0.07921422272920609 -0.13435862958431244 0.0 255.0 0.0
-0.040261927992105484 0.13446566462516785 -0.1681889295578003 0.0 255.0 0.0
0.022720126435160637 -0.07529452443122864 0.17080025374889374 0.0 255.0 0.0
0.19284701347351074 -0.2227058708667755 0.15622568130493164 0.0 255.0 0.0
0.1948329657316208 -0.28976190090179443 -0.05359529331326485 0.0 255.0 0.0
-0.2663715183734894 0.44806572794914246 0.062214192003011703 0.0 255.0 0.0
-0.1434955894947052 0.14571240544319153 -0.12759742140769958 0.0 255.0 0.0
-0.1397705376148224 -0.2454366534948349 0.13145945966243744 0.0 255.0 0.0
0.11265008896589279 0.14796188473701477 0.17034360766410828 0.0 255.0 0.0
0.2960985600948334 -0.08357523381710052 -0.004241163842380047 0.0 255.0 0.0
0.14048728346824646 -0.38801103830337524 0.04971567168831825 0.0 255.0 0.0
-0.2702639400959015 0.09837870299816132 -0.04262492433190346 0.0 255.0 0.0
-0.2969377636909485 -0.43290355801582336 0.020020244643092155 0.0 255.0 0.0
-0.027506964281201363 0.23267483711242676 -0.09361658245325089 0.0 255.0 0.0
-0.08527166396379471 -0.2495867908000946 -0.08570797741413116 0.0 255.0 0.0
-0.005698447115719318 -0.06735650449991226 0.168535515666008 0.0 255.0 0.0
0.07695809006690979 0.1119740679860115 0.1698659509420395 0.0 255.0 0.0
0.2712906002998352 -0.32603928446769714 0.08151351660490036 0.0 255.0 0.0
0.2934715449810028 -0.15705403685569763 -0.11693154275417328 0.0 255.0 0.0
0.16341349482536316 -0.40088945627212524 -0.048310287296772 0.0 255.0 0.0
0.10232774913311005 -0.2510354816913605 0.09192902594804764 0.0 255.0 0.0
0.12613341212272644 -0.11326403170824051 -0.1349547654390335 0.0 255.0 0.0
0.18373112380504608 -0.3585550785064697 0.13285158574581146 0.0 255.0 0.0
0.08595175296068192 0.0806252583861351 -0.13506805896759033 0.0 255.0 0.0
-0.22862191498279572 0.2292068600654602 0.09849917143583298 0.0 255.0 0.0
-0.08146172016859055 0.20627684891223907 0.16134311258792877 0.0 255.0 0.0
0.014608506113290787 0.16551576554775238 -0.1369803249835968 0.0 255.0 0.0
-0.24265161156654358 0.16721020638942719 -0.13732661306858063 0.0 255.0 0.0
-0.20304404199123383 -0.36060020327568054 -0.07116434723138809 0.0 255.0 0.0
-0.24882587790489197 -0.14856556057929993 -0.13506805896759033 0.0 255.0 0.0
0.29947158694267273 0.06502130627632141 0.026635799556970596 0.0 255.0 0.0
0.10514402389526367 -0.018996383994817734 -0.13758262991905212 0.0 255.0 0.0
0.29922589659690857 -0.0663357526063919 0.05224332585930824 0.0 255.0 0.0
-0.1744793802499771 -0.39258795976638794 0.03167582303285599 0.0 255.0 0.0
-0.2671663761138916 -0.10917820781469345 -0.042738087475299835 0.0 255.0 0.0
0.27312010526657104 0.4978356659412384 0.09934623539447784 0.0 255.0 0.0
0.2972581684589386 0.14032362401485443 0.12066145241260529 0.0 255.0 0.0
0.14874239265918732 -0.37889420986175537 -0.005794375669211149 0.0 255.0 0.0
-0.09621816128492355 0.2281796783208847 -0.10695414245128632 0.0 255.0 0.0
-0.14212854206562042 0.12052176147699356 0.16896584630012512 0.0 255.0 0.0
-0.26776060461997986 0.42084217071533203 0.037979692220687866 0.0 255.0 0.0
-0.2071433812379837 -0.44299083948135376 0.10154017806053162 0.0 255.0 0.0
-0.2707524597644806 -0.15777787566184998 0.030555281788110733 0.0 255.0 0.0
0.17354124784469604 -0.07539241015911102 -0.13506805896759033 0.0 255.0 0.0
0.19339175522327423 0.22831453382968903 -0.010629703290760517 0.0 255.0 0.0
-0.10524116456508636 0.22937315702438354 -0.02465430460870266 0.0 255.0 0.0
-0.2707524597644806 0.14908984303474426 -0.0379602313041687 0.0 255.0 0.0
0.0738946720957756 -0.05797271430492401 -0.13410021364688873 0.0 255.0 0.0
0.1903132200241089 0.3928469121456146 -0.05868559703230858 0.0 255.0 0.0
-0.10028808563947678 0.22785413265228271 0.0901222676038742 0.0 255.0 0.0
-0.17804747819900513 0.4050590395927429 -0.0649590715765953 0.0 255.0 0.0
-0.03892941772937775 0.1679629385471344 -0.1812843531370163 0.0 255.0 0.0
0.20926903188228607 0.33814340829849243 0.0858529657125473 0.0 255.0 0.0
-0.2707524597644806 0.20065465569496155 0.04849260672926903 0.0 255.0 0.0
-0.27686622738838196 -0.3272070288658142 -0.03440530225634575 0.0 255.0 0.0
