-0.005559423007071018 -0.2507489323616028 0.03949902579188347 0.0 255.0 0.0
0.15950241684913635 -0.3095709979534149 -0.01919560693204403 0.0 255.0 0.0
-0.03662168234586716 0.2240065336227417 0.1222689300775528 0.0 255.0 0.0
0.19590871036052704 -0.3102225959300995 0.08956081420183182 0.0 255.0 0.0
0.19185377657413483 -0.25306251645088196 0.09966646134853363 0.0 255.0 0.0
-0.2691558003425598 -0.09888116270303726 0.0622372180223465 0.0 255.0 0.0
0.3001975417137146 0.40990084409713745 0.07620412856340408 0.0 255.0 0.0
0.2451472133398056 -0.446374773979187 0.07199786603450775 0.0 255.0 0.0
0.10803475975990295 -0.2511276602745056 0.10092774778604507 0.0 255.0 0.0
-0.2707524597644806 -0.04165532812476158 0.010745509527623653 0.0 255.0 0.0
0.1426207572221756 -0.12433185428380966 0.16636742651462555 0.0 255.0 0.0
-0.2696976661682129 -0.05597967654466629 0.13372215628623962 0.0 255.0 0.0
-0.24378439784049988 -0.04931815713644028 -0.2628815174102783 0.0 255.0 0.0
-0.15975631773471832 -0.221271350979805 -0.13374963402748108 0.0 255.0 0.0
0.04493264481425285 -0.13994407653808594 0.16824042797088623 0.0 255.0 0.0
0.2794951796531677 0.4867754280567169 -0.025091728195548058 0.0 255.0 0.0
0.25943759083747864 -0.4445609152317047 -0.04814131557941437 0.0 255.0 0.0
0.15721233189105988 -0.05957251787185669 -0.13506805896759033 0.0 255.0 0.0
-0.225948303937912 -0.34421831369400024 0.12410571426153183 0.0 255.0 0.0
0.17607496678829193 0.4047051966190338 0.07636120170354843 0.0 255.0 0.0
-0.22447003424167633 -0.4638091027736664 -0.02394808828830719 0.0 255.0 0.0
-0.2707524597644806 -0.178216353058815 -0.06375294923782349 0.0 255.0 0.0
-0.27037179470062256 0.16666334867477417 -0.08842819184064865 0.0 255.0 0.0
0.1917208582162857 0.3323887288570404 -0.00935202743858099 0.0 255.0 0.0
0.29077208042144775 -0.41851723194122314 0.0989568829536438 0.0 255.0 0.0
0.21092844009399414 -0.28020530939102173 0.0802297368645668 0.0 255.0 0.0
-0.11358777433633804 -0.07032240927219391 -0.135265052318573 0.0 255.0 0.0
0.17475177347660065 0.43391528725624084 0.06080486625432968 0.0 255.0 0.0
-0.22779154777526855 0.1811373382806778 0.15545250475406647 0.0 255.0 0.0
-0.2710084021091461 0.11569143086671829 -0.005170381162315607 0.0 255.0 0.0
0.14368414878845215 -0.08076249808073044 0.16940195858478546 0.0 255.0 0.0
0.22435177862644196 0.34375470876693726 0.1022273525595665 0.0 255.0 0.0
-0.2707524597644806 0.19618047773838043 -0.10779312252998352 0.0 255.0 0.0
0.29688045382499695 -0.04613572731614113 0.11535533517599106 0.0 255.0 0.0
0.29533788561820984 0.035347528755664825 0.10217899084091187 0.0 255.0 0.0
0.2597145438194275 -0.2517648935317993 -0.09977571666240692 0.0 255.0 0.0
-0.052440814673900604 0.2262839674949646 -0.033330608159303665 0.0 255.0 0.0
0.05087123066186905 -0.20404167473316193 -0.13506805896759033 0.0 255.0 0.0
-0.1341550350189209 0.22711589932441711 -0.11284969747066498 0.0 255.0 0.0
-0.24323917925357819 -0.3442067801952362 0.14740575850009918 0.0 255.0 0.0
-0.0588710717856884 0.07953399419784546 -0.13329826295375824 0.0 255.0 0.0
-0.18953625857830048 -0.3969224989414215 -0.0437750443816185 0.0 255.0 0.0
-0.10914146155118942 -0.24919965863227844 -0.002280176617205143 0.0 255.0 0.0
0.2532484531402588 0.20961911976337433 0.155883327126503 0.0 255.0 0.0
0.09660562127828598 0.061990536749362946 -0.13610565662384033 0.0 255.0 0.0
-0.3286993205547333 -0.35554787516593933 0.09087607264518738 0.0 255.0 0.0
0.27121424674987793 -0.2509932518005371 0.03800748661160469 0.0 255.0 0.0
0.2800487279891968 -0.2501954138278961 0.0727832242846489 0.0 255.0 0.0
0.2945382595062256 -0.21776388585567474 -0.08214074373245239 0.0 255.0 0.0
-0.27118411660194397 0.19508500397205353 0.04827999696135521 0.0 255.0 0.0
-0.03262964263558388 0.1386406421661377 -0.13658946752548218 0.0 255.0 0.0
0.2971157431602478 0.15826082229614258 -0.048977963626384735 0.0 255.0 0.0
-0.16993752121925354 0.48548391461372375 0.028914358466863632 0.0 255.0 0.0
0.012844135984778404 0.1915961652994156 -0.23281055688858032 0.0 255.0 0.0
-0.2720389664173126 -0.09808465838432312 -0.08861001580953598 0.0 255.0 0.0
0.30140629410743713 0.3546615242958069 0.01718219183385372 0.0 255.0 0.0
-0.002852686448022723 0.22851797938346863 0.12830276787281036 0.0 255.0 0.0
-0.2730485200881958 0.18484067916870117 -0.08580327779054642 0.0 255.0 0.0
-0.2509905695915222 0.1383364498615265 0.15519008040428162 0.0 255.0 0.0
0.012131697498261929 0.0864359587430954 0.16940195858478546 0.0 255.0 0.0
-0.1012178361415863 0.07450267672538757 -0.13506805896759033 0.0 255.0 0.0
0.2767089605331421 -0.3238677680492401 -0.00719592347741127 0.0 255.0 0.0
-0.2714253067970276 -0.2052048146724701 -0.06601721793413162 0.0 255.0 0.0
-0.24677008390426636 -0.42741161584854126 0.1713382750749588 0.0 255.0 0.0
-0.15936577320098877 0.3941796123981476 -0.024868343025445938 0.0 255.0 0.0
-0.18884409964084625 0.23085415363311768 0.07662108540534973 0.0 255.0 0.0
0.13055145740509033 -0.25031912326812744 -0.06566663831472397 0.0 255.0 0.0
-0.13649006187915802 0.1862359493970871 0.1549404263496399 0.0 255.0 0.0
-0.01444860827177763 0.06633875519037247 0.16940195858478546 0.0 255.0 0.0
-0.2701210379600525 0.01021377369761467 0.047318875789642334 0.0 255.0 0.0
0.2910255491733551 0.4766959249973297 0.049504462629556656 0.0 255.0 0.0
-0.11258448660373688 -0.24747680127620697 -0.11456383764743805 0.0 255.0 0.0
-0.2678334414958954 0.4058043956756592 0.04003962501883507 0.0 255.0 0.0
0.05450160801410675 0.02482902817428112 0.1679183691740036 0.0 255.0 0.0
0.18186046183109283 0.35352084040641785 -0.0080754105001688 0.0 255.0 0.0
0.27575087547302246 -0.2516306936740875 -0.004459128249436617 0.0 255.0 0.0
0.1581343710422516 0.22760243713855743 -0.05819152668118477 0.0 255.0 0.0
-0.06191307678818703 -0.2509869337081909 0.11646132916212082 0.0 255.0 0.0
-0.16182424128055573 -0.25010713934898376 0.13636161386966705 0.0 255.0 0.0
0.2972581684589386 -0.2152198702096939 0.11337227374315262 0.0 255.0 0.0
0.19865363836288452 -0.2503562569618225 0.12828011810779572 0.0 255.0 0.0
0.16331139206886292 -0.25180765986442566 0.1367855966091156 0.0 255.0 0.0
0.2292260080575943 0.15288247168064117 -0.13506805896759033 0.0 255.0 0.0
-0.2707524597644806 -0.1143525168299675 -0.08765506744384766 0.0 255.0 0.0
0.2540470063686371 -0.2063743621110916 -0.13778561353683472 0.0 255.0 0.0
-0.0643056333065033 -0.04909377917647362 -0.13655796647071838 0.0 255.0 0.0
0.298127144575119 -0.047180429100990295 0.00977688655257225 0.0 255.0 0.0
0.12338024377822876 -0.18915899097919464 -0.13506805896759033 0.0 255.0 0.0
0.028383785858750343 -0.24805189669132233 0.06061293184757233 0.0 255.0 0.0
-0.17056411504745483 -0.13924643397331238 0.16940195858478546 0.0 255.0 0.0
-0.2707524597644806 0.15443214774131775 -0.11134512722492218 0.0 255.0 0.0
0.11582456529140472 -0.13337305188179016 -0.13506805896759033 0.0 255.0 0.0
-0.2707524597644806 0.14414513111114502 0.07059980183839798 0.0 255.0 0.0
0.1040191724896431 0.2280702143907547 -0.11260686814785004 0.0 255.0 0.0
0.06698913872241974 0.22812457382678986 0.04188850522041321 0.0 255.0 0.0
0.29751312732696533 -0.202509343624115 0.013304364867508411 0.0 255.0 0.0
-0.25177931785583496 -0.3403584361076355 0.15594033896923065 0.0 255.0 0.0
-0.2753681540489197 -0.4559938907623291 -0.013168052770197392 0.0 255.0 0.0
-0.16062913835048676 0.1672811061143875 -0.1352677047252655 0.0 255.0 0.0
-0.31421250104904175 -0.4005049169063568 0.05603780224919319 0.0 255.0 0.0
0.24903446435928345 -0.40223386883735657 0.2002469003200531 0.0 255.0 0.0
0.1521889865398407 -0.2520844042301178 0.01246635802090168 0.0 255.0 0.0
0.060564715415239334 -0.25118762254714966 0.08671228587627411 0.0 255.0 0.0
-0.019819770008325577 0.11884913593530655 -0.1317424774169922 0.0 255.0 0.0
-0.2707524597644806 0.17519746720790863 -0.08635054528713226 0.0 255.0 0.0
0.19272981584072113 0.37527403235435486 -0.05998794734477997 0.0 255.0 0.0
-0.17948918044567108 0.49215638637542725 0.034755606204271317 0.0 255.0 0.0
-0.14957468211650848 0.22858357429504395 0.08878462016582489 0.0 255.0 0.0
-0.27205491065979004 -0.17725308239459991 0.1126110851764679 0.0 255.0 0.0
0.07333425432443619 0.1060747504234314 -0.13467057049274445 0.0 255.0 0.0
-0.11235213279724121 0.022663146257400513 -0.1365131437778473 0.0 255.0 0.0
0.08163181692361832 0.22812457382678986 -0.0764179602265358 0.0 255.0 0.0
0.10685770958662033 -0.014552347362041473 -0.13506805896759033 0.0 255.0 0.0
0.1841556876897812 0.47730064392089844 0.01890695095062256 0.0 255.0 0.0
-0.02643747627735138 -0.13062432408332825 0.16958722472190857 0.0 255.0 0.0
-0.11120206117630005 -0.25330087542533875 0.03814473748207092 0.0 255.0 0.0
-0.2929786443710327 0.07272966206073761 -0.29046937823295593 0.0 255.0 0.0
0.29530611634254456 0.17001496255397797 -0.0990583524107933 0.0 255.0 0.0
0.29614466428756714 0.18145723640918732 -0.09129337221384048 0.0 255.0 0.0
-0.13583789765834808 -0.062453072518110275 0.16940195858478546 0.0 255.0 0.0
0.2972581684589386 0.09061034023761749 0.09470117837190628 0.0 255.0 0.0
0.1865939050912857 0.020695345476269722 0.16926917433738708 0.0 255.0 0.0
0.2951139509677887 -0.2248242050409317 -0.11425351351499557 0.0 255.0 0.0
-0.2863381803035736 -0.43496179580688477 0.021703889593482018 0.0 255.0 0.0
-0.06104316562414169 0.07828982919454575 -0.13506805896759033 0.0 255.0 0.0
-0.3136087954044342 -0.3759518265724182 0.15471091866493225 0.0 255.0 0.0
-0.0535302571952343 0.22909560799598694 -0.08327005058526993 0.0 255.0 0.0
0.00047784202615730464 0.22812457382678986 0.061472389847040176 0.0 255.0 0.0
-0.10075583308935165 -0.21802805364131927 0.1589469462633133 0.0 255.0 0.0
-0.06499696522951126 -0.25387176871299744 -0.0695905014872551 0.0 255.0 0.0
0.029281271621584892 0.010950022377073765 -0.14034174382686615 0.0 255.0 0.0
0.2974295914173126 -0.1760835349559784 0.030993487685918808 0.0 255.0 0.0
0.06404086202383041 0.14860869944095612 -0.15285342931747437 0.0 255.0 0.0
-0.00434927036985755 0.11236429959535599 -0.13506805896759033 0.0 255.0 0.0
-0.1251061111688614 -0.2269357591867447 0.1563861221075058 0.0 255.0 0.0
-0.11240946501493454 0.12493973225355148 -0.13506805896759033 0.0 255.0 0.0
0.22492149472236633 0.1370847225189209 0.1680576354265213 0.0 255.0 0.0
-0.20819391310214996 -0.37080222368240356 -0.06935875117778778 0.0 255.0 0.0
0.2953677475452423 -0.18903911113739014 0.02634480968117714 0.0 255.0 0.0
0.2662285268306732 -0.2239682972431183 0.1562824249267578 0.0 255.0 0.0
-0.2712104022502899 0.07233384251594543 -0.05235873535275459 0.0 255.0 0.0
-0.2697499394416809 -0.02200833335518837 -0.09979085624217987 0.0 255.0 0.0
-0.17315718531608582 0.22812457382678986 -0.05464421585202217 0.0 255.0 0.0
-0.14109091460704803 -0.2539860010147095 -0.04922603443264961 0.0 255.0 0.0
-0.04419133812189102 0.22724300622940063 0.011679201386868954 0.0 255.0 0.0
-0.20896956324577332 -0.3463260531425476 0.10295935720205307 0.0 255.0 0.0
0.1992809772491455 -0.4464634358882904 0.021620502695441246 0.0 255.0 0.0
-0.2253648042678833 0.22829486429691315 -0.0651998296380043 0.0 255.0 0.0
-0.13691768050193787 -0.20921705663204193 -0.13357307016849518 0.0 255.0 0.0
-0.04170621559023857 0.22812457382678986 0.03723889961838722 0.0 255.0 0.0
0.1923854500055313 -0.043591298162937164 0.1685377061367035 0.0 255.0 0.0
-0.263477087020874 -0.29561999440193176 0.0409100167453289 0.0 255.0 0.0
-0.270227313041687 0.39567801356315613 0.03233925625681877 0.0 255.0 0.0
-0.0188335832208395 -0.21447600424289703 -0.132725328207016 0.0 255.0 0.0
0.09783421456813812 -0.15273337066173553 -0.13524392247200012 0.0 255.0 0.0
-0.26968899369239807 -0.1594579815864563 -0.035219162702560425 0.0 255.0 0.0
-0.23671384155750275 0.0975429117679596 -0.13396978378295898 0.0 255.0 0.0
-0.2576877474784851 0.47400611639022827 0.05259354040026665 0.0 255.0 0.0
-0.2848998010158539 -0.419429212808609 0.09147989004850388 0.0 255.0 0.0
0.295119047164917 0.33930227160453796 0.022300008684396744 0.0 255.0 0.0
-0.03921874240040779 -0.2486990988254547 -0.11768023669719696 0.0 255.0 0.0
0.26160019636154175 0.4193789064884186 -0.08950954675674438 0.0 255.0 0.0
0.26981356739997864 -0.2992812395095825 0.037025462836027145 0.0 255.0 0.0
-0.2724985182285309 -0.019134867936372757 -0.08763106167316437 0.0 255.0 0.0
0.20387060940265656 0.45679110288619995 -0.06577149033546448 0.0 255.0 0.0
0.21858835220336914 0.07855390757322311 -0.13664960861206055 0.0 255.0 0.0
0.17786905169487 -0.10362643748521805 -0.133906751871109 0.0 255.0 0.0
0.19210803508758545 -0.34814321994781494 -0.07056520134210587 0.0 255.0 0.0
0.25282052159309387 -0.2470005750656128 -0.08503752946853638 0.0 255.0 0.0
0.29509785771369934 0.1324848085641861 -0.02337266318500042 0.0 255.0 0.0
-0.18544124066829681 0.4936995506286621 -0.0034790767822414637 0.0 255.0 0.0
-0.06851828098297119 0.05261332541704178 0.16900521516799927 0.0 255.0 0.0
-0.08732394129037857 0.08056676387786865 0.16940195858478546 0.0 255.0 0.0
0.2742554843425751 -0.31052806973457336 0.02775728888809681 0.0 255.0 0.0
-0.08323290944099426 -0.039819274097681046 0.16940195858478546 0.0 255.0 0.0
0.27463898062705994 0.09448575228452682 0.15626150369644165 0.0 255.0 0.0
0.2724129855632782 0.015450107865035534 -0.1347644180059433 0.0 255.0 0.0
-0.0016003880882635713 0.19292807579040527 -0.22755834460258484 0.0 255.0 0.0
-0.09985847026109695 0.11509967595338821 0.1680641770362854 0.0 255.0 0.0
-0.1568354368209839 0.4242796301841736 -0.018054038286209106 0.0 255.0 0.0
0.1290249526500702 -0.24934664368629456 -0.049880251288414 0.0 255.0 0.0
0.20735596120357513 -0.2805596590042114 0.08165745437145233 0.0 255.0 0.0
0.01209512259811163 0.20792484283447266 -0.23537300527095795 0.0 255.0 0.0
-0.2678336203098297 -0.17509299516677856 0.0436667874455452 0.0 255.0 0.0
-0.2683764398097992 0.13423599302768707 0.0251870509237051 0.0 255.0 0.0
-0.2383209764957428 0.23179994523525238 -0.09096930176019669 0.0 255.0 0.0
0.17310436069965363 0.39072540402412415 0.02416086196899414 0.0 255.0 0.0
0.20289483666419983 0.23039361834526062 -0.0854775458574295 0.0 255.0 0.0
0.2038082629442215 0.16195115447044373 -0.13300959765911102 0.0 255.0 0.0
-0.13002869486808777 -0.25309592485427856 -0.035854022949934006 0.0 255.0 0.0
0.07381045818328857 -0.22322560846805573 -0.13506805896759033 0.0 255.0 0.0
0.16759896278381348 -0.33733001351356506 -0.04619016498327255 0.0 255.0 0.0
-0.26928675174713135 0.2087821513414383 -0.0077806878834962845 0.0 255.0 0.0
-0.2643975019454956 0.4196825325489044 0.0604412704706192 0.0 255.0 0.0
-0.031132373958826065 -0.0657821074128151 0.17100529372692108 0.0 255.0 0.0
0.023519249632954597 -0.24824100732803345 -0.07492569833993912 0.0 255.0 0.0
-0.1861470341682434 -0.25074338912963867 -0.10095908492803574 0.0 255.0 0.0
-0.13382022082805634 0.03178290277719498 0.16940195858478546 0.0 255.0 0.0
0.21289487183094025 0.2270180881023407 0.07340558618307114 0.0 255.0 0.0
-0.2703884243965149 0.08652615547180176 -0.07614005357027054 0.0 255.0 0.0
0.007226397283375263 0.26022398471832275 -0.20774085819721222 0.0 255.0 0.0
0.06205326318740845 -0.22840604186058044 0.15630416572093964 0.0 255.0 0.0
-0.17413923144340515 -0.06975113600492477 -0.13506805896759033 0.0 255.0 0.0
-0.2652176022529602 0.4458187222480774 0.07060632109642029 0.0 255.0 0.0
0.2972581684589386 0.16917765140533447 -0.10879025608301163 0.0 255.0 0.0
0.025583824142813683 0.22812457382678986 -0.060607559978961945 0.0 255.0 0.0
0.29572540521621704 -0.14725090563297272 0.08531156927347183 0.0 255.0 0.0
0.2972581684589386 0.00865986105054617 -0.06545493006706238 0.0 255.0 0.0
-0.028448354452848434 0.22812457382678986 0.011749436147511005 0.0 255.0 0.0
0.2975063621997833 0.4074072539806366 0.04395345225930214 0.0 255.0 0.0
0.003481918014585972 0.11286793649196625 -0.13422968983650208 0.0 255.0 0.0
-0.09398040175437927 -0.1451902538537979 0.16900913417339325 0.0 255.0 0.0
0.01783645525574684 -0.07241935282945633 -0.13506805896759033 0.0 255.0 0.0
0.21290959417819977 -0.25252363085746765 -0.07205159217119217 0.0 255.0 0.0
0.2272297590970993 -0.447661817073822 0.0664203092455864 0.0 255.0 0.0
-0.26785290241241455 0.4023230969905853 0.09377720206975937 0.0 255.0 0.0
0.05481100454926491 -0.02379610389471054 -0.13506805896759033 0.0 255.0 0.0
0.30063802003860474 0.13819526135921478 0.009670840576291084 0.0 255.0 0.0
0.2963787019252777 -0.22468240559101105 0.06854867190122604 0.0 255.0 0.0
0.030049430206418037 -0.2506088614463806 -0.09376847743988037 0.0 255.0 0.0
0.17456981539726257 0.3929896354675293 0.025509193539619446 0.0 255.0 0.0
0.14196301996707916 -0.25187981128692627 -0.11149755865335464 0.0 255.0 0.0
0.26839420199394226 -0.19356049597263336 -0.1352698653936386 0.0 255.0 0.0
-0.1667785346508026 0.44726136326789856 -0.03245626389980316 0.0 255.0 0.0
0.17377649247646332 0.42486318945884705 0.05527109280228615 0.0 255.0 0.0
0.1837901473045349 0.47611743211746216 0.06840863078832626 0.0 255.0 0.0
-0.1963532418012619 0.08418948203325272 -0.13478060066699982 0.0 255.0 0.0
0.0592566654086113 -0.10551339387893677 0.17166756093502045 0.0 255.0 0.0
0.0871150940656662 0.2280811071395874 0.1335514634847641 0.0 255.0 0.0
-0.2589641809463501 -0.4241180121898651 0.1466616839170456 0.0 255.0 0.0
-0.2542852759361267 -0.2844200134277344 0.03226715326309204 0.0 255.0 0.0
-0.08103310316801071 0.05751784145832062 0.17037446796894073 0.0 255.0 0.0
-0.16800366342067719 0.22812457382678986 -0.03860832005739212 0.0 255.0 0.0
-0.284089058637619 -0.062243882566690445 -0.26384684443473816 0.0 255.0 0.0
-0.19899889826774597 0.14758571982383728 -0.13463561236858368 0.0 255.0 0.0
0.13775445520877838 0.22833730280399323 0.02964305691421032 0.0 255.0 0.0
0.18088141083717346 -0.04809287562966347 0.16910506784915924 0.0 255.0 0.0
-0.18745113909244537 0.4929257333278656 -0.013590984977781773 0.0 255.0 0.0
0.2699803411960602 -0.25310689210891724 0.05146598070859909 0.0 255.0 0.0
0.19292251765727997 -0.33802273869514465 -0.06897640228271484 0.0 255.0 0.0
-0.1263630986213684 0.0657128244638443 -0.13506805896759033 0.0 255.0 0.0
0.03075546771287918 -0.2238171398639679 -0.13435138761997223 0.0 255.0 0.0
-0.1142629012465477 -0.2146356999874115 -0.13506805896759033 0.0 255.0 0.0
-0.11583414673805237 0.10352379083633423 -0.13403961062431335 0.0 255.0 0.0
0.223922461271286 -0.44789475202560425 0.10631319135427475 0.0 255.0 0.0
-0.19484369456768036 -0.3724204897880554 -0.05883832275867462 0.0 255.0 0.0
0.06739100813865662 -0.2490384727716446 0.02317008376121521 0.0 255.0 0.0
-0.2707524597644806 -0.14952369034290314 -0.0006424610619433224 0.0 255.0 0.0
0.19670696556568146 0.49882110953330994 0.023476067930459976 0.0 255.0 0.0
0.21237464249134064 0.10245328396558762 0.16873334348201752 0.0 255.0 0.0
0.29358023405075073 -0.169404074549675 -0.10977951437234879 0.0 255.0 0.0
-0.12398006021976471 0.22930070757865906 0.1214170902967453 0.0 255.0 0.0
-0.10587426275014877 -0.1781114637851715 -0.13506805896759033 0.0 255.0 0.0
0.18072903156280518 0.3950033187866211 0.09655676037073135 0.0 255.0 0.0
-0.2707524597644806 0.127284437417984 -0.02305612713098526 0.0 255.0 0.0
0.29563814401626587 -0.08125513046979904 -0.09473154693841934 0.0 255.0 0.0
0.19576002657413483 0.437231183052063 -0.06290735304355621 0.0 255.0 0.0
-0.07800884544849396 -0.045984622091054916 0.17036156356334686 0.0 255.0 0.0
-0.23486937582492828 0.12406472116708755 -0.13506805896759033 0.0 255.0 0.0
-0.06115302816033363 0.22861264646053314 -0.021666863933205605 0.0 255.0 0.0
-0.03969850391149521 0.14854425191879272 -0.1820525825023651 0.0 255.0 0.0
-0.04828861728310585 0.23060856759548187 0.030083226040005684 0.0 255.0 0.0
-0.06868299096822739 -0.037714872509241104 -0.13506805896759033 0.0 255.0 0.0
-0.267681747674942 0.37484192848205566 0.016951367259025574 0.0 255.0 0.0
0.05946838855743408 0.059587351977825165 -0.13506805896759033 0.0 255.0 0.0
-0.18905451893806458 0.40024763345718384 -0.07437870651483536 0.0 255.0 0.0
-0.15015794336795807 0.05949362367391586 0.16940195858478546 0.0 255.0 0.0
0.19352592527866364 0.016765277832746506 -0.13628676533699036 0.0 255.0 0.0
-0.048155151307582855 0.22812457382678986 -0.05053148791193962 0.0 255.0 0.0
0.30043551325798035 -0.07392016053199768 0.06340086460113525 0.0 255.0 0.0
-0.018279848620295525 0.2282477170228958 -0.03970283269882202 0.0 255.0 0.0
0.17756684124469757 0.04911213740706444 -0.13559041917324066 0.0 255.0 0.0
-0.15062351524829865 -0.11400281637907028 0.17039833962917328 0.0 255.0 0.0
-0.0058135585859417915 0.2739986777305603 -0.22301439940929413 0.0 255.0 0.0
-0.1616239845752716 -0.2504284381866455 0.13063651323318481 0.0 255.0 0.0
0.259631872177124 -0.04151920601725578 -0.1349211186170578 0.0 255.0 0.0
-0.2043948620557785 0.23018766939640045 0.10181891918182373 0.0 255.0 0.0
0.03631811589002609 0.2161829024553299 -0.17121073603630066 0.0 255.0 0.0
-0.03549939766526222 0.2299824059009552 0.07519490271806717 0.0 255.0 0.0
0.2972581684589386 0.03341887518763542 0.05694623664021492 0.0 255.0 0.0
-0.16300812363624573 -0.3098064661026001 0.0440874882042408 0.0 255.0 0.0
0.004929592367261648 0.03753487020730972 0.16940195858478546 0.0 255.0 0.0
0.03081379272043705 -0.23036958277225494 0.1600523442029953 0.0 255.0 0.0
0.016698595136404037 -0.03101486712694168 -0.13506805896759033 0.0 255.0 0.0
-0.2739529311656952 0.2094896286725998 0.0024145198985934258 0.0 255.0 0.0
0.03519100323319435 0.044109925627708435 0.1700330525636673 0.0 255.0 0.0
0.2972581684589386 0.15484321117401123 0.04543429985642433 0.0 255.0 0.0
0.14449934661388397 -0.35229769349098206 0.057979434728622437 0.0 255.0 0.0
-0.04668016359210014 0.08101282268762589 0.16964676976203918 0.0 255.0 0.0
0.19891107082366943 0.4877628684043884 -0.03923654928803444 0.0 255.0 0.0
0.2664051353931427 -0.11419016867876053 0.15701091289520264 0.0 255.0 0.0
0.06422719359397888 0.1997855007648468 -0.13273143768310547 0.0 255.0 0.0
0.29789483547210693 -0.04531807452440262 0.11540230363607407 0.0 255.0 0.0
0.036797892302274704 -0.08578116446733475 0.16940195858478546 0.0 255.0 0.0
-0.09431189298629761 -0.2510923743247986 0.06928659230470657 0.0 255.0 0.0
0.2738681733608246 -0.2528861165046692 0.11362234503030777 0.0 255.0 0.0
0.24928539991378784 0.5154956579208374 0.059439778327941895 0.0 255.0 0.0
-0.1724270135164261 -0.3306852877140045 0.05821695923805237 0.0 255.0 0.0
-0.26991918683052063 0.43412598967552185 0.009273413568735123 0.0 255.0 0.0
-0.19024917483329773 -0.31880560517311096 -0.059456463903188705 0.0 255.0 0.0
-0.3260689377784729 -0.3654108941555023 0.14296984672546387 0.0 255.0 0.0
-0.29927858710289 -0.34425604343414307 -0.017608249559998512 0.0 255.0 0.0
0.09464608877897263 -0.24976614117622375 0.10424292832612991 0.0 255.0 0.0
0.2887391149997711 0.4737023413181305 -0.005701231304556131 0.0 255.0 0.0
0.17434900999069214 -0.2501256465911865 0.07122812420129776 0.0 255.0 0.0
0.10349831730127335 -0.2509846091270447 0.05915273353457451 0.0 255.0 0.0
0.1497344970703125 0.07090387493371964 -0.13204479217529297 0.0 255.0 0.0
0.2972581684589386 0.00554618239402771 -0.09006638824939728 0.0 255.0 0.0
-0.05890297517180443 -0.11149890720844269 -0.13506805896759033 0.0 255.0 0.0
0.09921994805335999 0.09708209335803986 0.16838932037353516 0.0 255.0 0.0
-0.059070687741041183 -0.10892616957426071 -0.13506805896759033 0.0 255.0 0.0
-0.08695578575134277 0.22813479602336884 -0.01227207388728857 0.0 255.0 0.0
0.26275721192359924 -0.13236291706562042 -0.13518154621124268 0.0 255.0 0.0
0.11466363817453384 0.2266646772623062 0.02062382362782955 0.0 255.0 0.0
0.27973228693008423 -0.4032314419746399 -0.04457554966211319 0.0 255.0 0.0
-0.11446982622146606 -0.22453463077545166 -0.13648149371147156 0.0 255.0 0.0
-0.13715840876102448 -0.15604637563228607 -0.13506805896759033 0.0 255.0 0.0
0.08430132269859314 0.0942014679312706 0.16940195858478546 0.0 255.0 0.0
-0.08443661034107208 0.006321018096059561 0.16896149516105652 0.0 255.0 0.0
-0.14766079187393188 0.20874549448490143 -0.1354377567768097 0.0 255.0 0.0
0.2768794298171997 0.4875720739364624 -0.032632820308208466 0.0 255.0 0.0
0.2435673624277115 0.12017787247896194 -0.13759928941726685 0.0 255.0 0.0
0.2972581684589386 0.20693914592266083 -0.07781173288822174 0.0 255.0 0.0
-0.20447248220443726 0.09009057283401489 0.16933321952819824 0.0 255.0 0.0
0.2906759977340698 -0.4161361753940582 0.11062998324632645 0.0 255.0 0.0
-0.2707524597644806 0.12354005873203278 -0.0030908240005373955 0.0 255.0 0.0
0.10792514681816101 0.09329341351985931 -0.13830459117889404 0.0 255.0 0.0
0.008833669126033783 0.108668252825737 -0.13119326531887054 0.0 255.0 0.0
-0.13045446574687958 -0.19739243388175964 -0.13271470367908478 0.0 255.0 0.0
-0.017820199951529503 0.013910099864006042 0.16929572820663452 0.0 255.0 0.0
-0.05753596872091293 -0.12342512607574463 0.1717035472393036 0.0 255.0 0.0
0.20841452479362488 -0.21265026926994324 -0.13744805753231049 0.0 255.0 0.0
0.24331702291965485 -0.0253694336861372 -0.13721808791160583 0.0 255.0 0.0
0.29670441150665283 -0.007095239590853453 0.005415852181613445 0.0 255.0 0.0
0.1771385669708252 0.353985071182251 0.009653909131884575 0.0 255.0 0.0
-0.04771379381418228 -0.2506987452507019 -0.09318143129348755 0.0 255.0 0.0
0.3020772933959961 0.3921220302581787 0.010566603392362595 0.0 255.0 0.0
0.2786228358745575 -0.4257376790046692 -0.045434970408678055 0.0 255.0 0.0
-0.2589361071586609 -0.4155542850494385 -0.09047552198171616 0.0 255.0 0.0
0.014458434656262398 0.22744865715503693 -0.0360315777361393 0.0 255.0 0.0
0.13390739262104034 0.019608745351433754 -0.13506805896759033 0.0 255.0 0.0
-0.128143310546875 -0.03599998354911804 -0.13506805896759033 0.0 255.0 0.0
-0.16250498592853546 0.22812457382678986 -0.02132691815495491 0.0 255.0 0.0
0.14176388084888458 0.13514548540115356 -0.13741092383861542 0.0 255.0 0.0
0.22056546807289124 0.33169084787368774 0.08264849334955215 0.0 255.0 0.0
0.07531797885894775 -0.16073013842105865 -0.13431504368782043 0.0 255.0 0.0
0.287593275308609 -0.37990066409111023 0.12170396745204926 0.0 255.0 0.0
-0.10123540461063385 -0.15681052207946777 -0.13110117614269257 0.0 255.0 0.0
0.29464206099510193 0.4636876583099365 0.06772030889987946 0.0 255.0 0.0
0.28915727138519287 -0.40251001715660095 0.1608515977859497 0.0 255.0 0.0
0.032315000891685486 0.17073942720890045 -0.13506805896759033 0.0 255.0 0.0
-0.20733770728111267 0.11803149431943893 -0.13506805896759033 0.0 255.0 0.0
-0.20539511740207672 -0.4410924017429352 -0.027895072475075722 0.0 255.0 0.0
-0.2101961225271225 -0.35085463523864746 -0.07585559785366058 0.0 255.0 0.0
0.2972581684589386 -0.07959926873445511 0.08270210772752762 0.0 255.0 0.0
0.19030849635601044 0.228151336312294 0.0002450068714097142 0.0 255.0 0.0
0.15629525482654572 0.22712865471839905 -0.007157111074775457 0.0 255.0 0.0
0.2972581684589386 -0.2218579202890396 -0.03759746253490448 0.0 255.0 0.0
0.10198862105607986 -0.035943593829870224 -0.1336452215909958 0.0 255.0 0.0
0.29739153385162354 -0.20969603955745697 0.11827179789543152 0.0 255.0 0.0
-0.2707524597644806 0.06998676806688309 0.0351092629134655 0.0 255.0 0.0
-0.21226026117801666 0.34147655963897705 0.07873811572790146 0.0 255.0 0.0
0.20094825327396393 -0.14292271435260773 0.1684691607952118 0.0 255.0 0.0
0.24041160941123962 -0.4433618485927582 0.013289548456668854 0.0 255.0 0.0
0.1949683576822281 0.23135744035243988 0.030598344281315804 0.0 255.0 0.0
0.007099771406501532 0.021583881229162216 -0.13664619624614716 0.0 255.0 0.0
-0.29474711418151855 -0.3275146484375 0.030572110787034035 0.0 255.0 0.0
-0.154677152633667 0.23130281269550323 0.0618818998336792 0.0 255.0 0.0
-0.2707524597644806 0.0729466900229454 0.06850390136241913 0.0 255.0 0.0
0.27568352222442627 -0.31787675619125366 0.031214183196425438 0.0 255.0 0.0
0.2941155731678009 -0.07010285556316376 -0.025875447317957878 0.0 255.0 0.0
-0.2623558044433594 0.3980090618133545 -0.036139458417892456 0.0 255.0 0.0
-0.07573746889829636 -0.21861089766025543 -0.13963337242603302 0.0 255.0 0.0
0.2972581684589386 -0.1280580461025238 -0.1113988384604454 0.0 255.0 0.0
-0.21333812177181244 -0.3155477046966553 0.09234850108623505 0.0 255.0 0.0
0.2984146177768707 0.08759083598852158 0.039343733340501785 0.0 255.0 0.0
-0.18008001148700714 0.4937092661857605 0.025259360671043396 0.0 255.0 0.0
0.2757435739040375 -0.25079330801963806 -0.006941572297364473 0.0 255.0 0.0
0.09395864605903625 -0.008885487914085388 0.17001894116401672 0.0 255.0 0.0
0.05846359208226204 -0.2515672743320465 0.13075745105743408 0.0 255.0 0.0
0.21866770088672638 0.0163621436804533 0.1726267784833908 0.0 255.0 0.0
-0.24213826656341553 0.05910545215010643 -0.13447308540344238 0.0 255.0 0.0
0.051176540553569794 0.22977975010871887 -0.011754576116800308 0.0 255.0 0.0
-0.26954108476638794 0.039612095803022385 0.020911717787384987 0.0 255.0 0.0
-0.15748462080955505 0.13121449947357178 0.16774939000606537 0.0 255.0 0.0
-0.028346644714474678 -0.05621342733502388 -0.13759900629520416 0.0 255.0 0.0
-0.046253498643636703 0.2279011756181717 -0.04112648218870163 0.0 255.0 0.0
-0.2709069848060608 0.07114396244287491 0.07279066741466522 0.0 255.0 0.0
0.0952811986207962 0.04194038733839989 -0.1352011114358902 0.0 255.0 0.0
-0.08441131561994553 -0.2517816722393036 0.08106212317943573 0.0 255.0 0.0
0.25739118456840515 0.22830846905708313 -0.05958695709705353 0.0 255.0 0.0
0.19391857087612152 0.43449851870536804 -0.06219615042209625 0.0 255.0 0.0
-0.21214093267917633 -0.3909420967102051 0.15558572113513947 0.0 255.0 0.0
0.15034295618534088 -0.2507624626159668 -0.046176619827747345 0.0 255.0 0.0
-0.24827010929584503 0.030323652550578117 -0.13463081419467926 0.0 255.0 0.0
-0.1886616349220276 -0.051912933588027954 0.17062193155288696 0.0 255.0 0.0
0.30050066113471985 -0.0935758650302887 0.019564932212233543 0.0 255.0 0.0
0.2968669831752777 -0.224492609500885 0.06882303208112717 0.0 255.0 0.0
0.2038470059633255 -0.053977128118276596 0.17022296786308289 0.0 255.0 0.0
-0.055332038551568985 0.04525970667600632 0.17249013483524323 0.0 255.0 0.0
0.13001926243305206 -0.25092586874961853 0.036754824221134186 0.0 255.0 0.0
-0.15691936016082764 0.4344180226325989 0.06329645961523056 0.0 255.0 0.0
0.04617313668131828 0.036162931472063065 -0.13227179646492004 0.0 255.0 0.0
-0.2152380496263504 0.22468219697475433 0.13412024080753326 0.0 255.0 0.0
-0.25468140840530396 -0.2955097556114197 -0.03895329684019089 0.0 255.0 0.0
-0.1979803591966629 -0.41027000546455383 -0.04691419005393982 0.0 255.0 0.0
0.2972581684589386 -0.1186382845044136 0.05430543050169945 0.0 255.0 0.0
-0.10521084815263748 0.10998645424842834 -0.13506805896759033 0.0 255.0 0.0
0.1648721992969513 -0.03591662645339966 0.16905833780765533 0.0 255.0 0.0
0.22389551997184753 -0.14186818897724152 -0.1341332346200943 0.0 255.0 0.0
0.25620272755622864 0.08071497827768326 -0.13416920602321625 0.0 255.0 0.0
0.010507653467357159 0.17242825031280518 -0.13443437218666077 0.0 255.0 0.0
-0.07548625022172928 -0.04817107692360878 -0.13581299781799316 0.0 255.0 0.0
-0.04923958703875542 0.22735477983951569 0.1311519593000412 0.0 255.0 0.0
-0.3023451864719391 -0.41722846031188965 0.0513097383081913 0.0 255.0 0.0
-0.25546547770500183 -0.2896766662597656 -0.02191348932683468 0.0 255.0 0.0
-0.2971439063549042 -0.3945704996585846 0.14050905406475067 0.0 255.0 0.0
-0.17535869777202606 -0.12458089739084244 -0.13467788696289062 0.0 255.0 0.0
-0.2717823088169098 0.1154383197426796 -0.053495775908231735 0.0 255.0 0.0
-0.06561357527971268 -0.25080397725105286 -0.08282677829265594 0.0 255.0 0.0
0.25182124972343445 0.4485388398170471 0.10467684268951416 0.0 255.0 0.0
-0.24367056787014008 -0.006725539453327656 -0.2758145332336426 0.0 255.0 0.0
0.10252240300178528 0.2267991155385971 0.10553941130638123 0.0 255.0 0.0
0.07205884903669357 -0.20320111513137817 -0.13615910708904266 0.0 255.0 0.0
0.2598986327648163 0.5111908912658691 0.08525175601243973 0.0 255.0 0.0
-0.14324814081192017 0.23018571734428406 0.08206681907176971 0.0 255.0 0.0
-0.2707524597644806 0.16244466602802277 -0.0076795355416834354 0.0 255.0 0.0
0.03319551423192024 -0.06164904311299324 0.16870304942131042 0.0 255.0 0.0
-0.2707524597644806 -0.10831231623888016 0.12827731668949127 0.0 255.0 0.0
-0.2688206136226654 0.41604718565940857 0.013255721889436245 0.0 255.0 0.0
0.188640758395195 -0.34720441699028015 -0.06883148103952408 0.0 255.0 0.0
0.25448742508888245 -0.3188258409500122 0.10904339700937271 0.0 255.0 0.0
-0.006247011944651604 -0.24984195828437805 -0.04002740979194641 0.0 255.0 0.0
-0.002396984491497278 0.2311801165342331 0.047163333743810654 0.0 255.0 0.0
0.10356435179710388 -0.08755595237016678 0.17243172228336334 0.0 255.0 0.0
0.09403256326913834 0.07180529087781906 0.16970546543598175 0.0 255.0 0.0
-0.1495823860168457 -0.27855679392814636 0.005222877953201532 0.0 255.0 0.0
0.1263754814863205 -0.25087714195251465 0.11370112746953964 0.0 255.0 0.0
-0.03259100392460823 0.2300853133201599 0.07713636755943298 0.0 255.0 0.0
0.1966313123703003 0.1978399157524109 -0.13484564423561096 0.0 255.0 0.0
-0.09487268328666687 -0.25236862897872925 -0.045033954083919525 0.0 255.0 0.0
0.29347437620162964 0.07435218244791031 0.12081572413444519 0.0 255.0 0.0
0.3018221855163574 0.43350914120674133 0.030142150819301605 0.0 255.0 0.0
-0.10740306973457336 0.22785918414592743 0.10624977201223373 0.0 255.0 0.0
0.10099390894174576 0.11141026020050049 0.16940195858478546 0.0 255.0 0.0
-0.24545742571353912 -0.4638044834136963 0.046316731721162796 0.0 255.0 0.0
0.2984597384929657 -0.07972735911607742 0.06235663220286369 0.0 255.0 0.0
-0.2707524597644806 -0.008394606411457062 0.08636388182640076 0.0 255.0 0.0
-0.13929712772369385 0.03637572377920151 0.16940195858478546 0.0 255.0 0.0
0.2835906744003296 -0.3524457812309265 0.004245055373758078 0.0 255.0 0.0
0.15195819735527039 0.23071807622909546 -0.07144898176193237 0.0 255.0 0.0
-0.11116363108158112 -0.18497765064239502 -0.13721208274364471 0.0 255.0 0.0
-0.2707524597644806 0.07701745629310608 0.12751136720180511 0.0 255.0 0.0
0.051217272877693176 0.08473540097475052 0.16607578098773956 0.0 255.0 0.0
0.1740848273038864 0.22812457382678986 -0.08256317675113678 0.0 255.0 0.0
0.1527709811925888 -0.10421285033226013 0.1665460616350174 0.0 255.0 0.0
-0.01168539747595787 -0.2507295608520508 0.09823473542928696 0.0 255.0 0.0
0.27348098158836365 -0.25150343775749207 -0.07983722537755966 0.0 255.0 0.0
0.29644662141799927 0.1571769118309021 0.12113859504461288 0.0 255.0 0.0
-0.2721427381038666 0.41850796341896057 0.03345545008778572 0.0 255.0 0.0
0.24196498095989227 -0.1670297533273697 -0.13506805896759033 0.0 255.0 0.0
-0.11986362189054489 0.229110985994339 0.06962841749191284 0.0 255.0 0.0
0.18234370648860931 0.44946014881134033 -0.021491408348083496 0.0 255.0 0.0
-0.16086694598197937 0.009480692446231842 0.16830134391784668 0.0 255.0 0.0
0.171830952167511 0.1993323266506195 -0.13506805896759033 0.0 255.0 0.0
-0.17413152754306793 -0.012850278988480568 0.16940195858478546 0.0 255.0 0.0
0.18647052347660065 0.48139408230781555 0.07113071531057358 0.0 255.0 0.0
0.27682656049728394 -0.36983224749565125 -0.048888519406318665 0.0 255.0 0.0
-0.2681959271430969 0.160218745470047 0.13462631404399872 0.0 255.0 0.0
-0.12763388454914093 0.045102667063474655 -0.1402261108160019 0.0 255.0 0.0
-0.15705397725105286 0.1900850385427475 -0.13688774406909943 0.0 255.0 0.0
-0.1986210197210312 -0.018233772367239 0.16751627624034882 0.0 255.0 0.0
-0.2722353935241699 -0.04059156775474548 0.0006832718499936163 0.0 255.0 0.0
0.060143452137708664 0.2089010775089264 -0.13721783459186554 0.0 255.0 0.0
-0.05498940497636795 0.10205213725566864 -0.13623830676078796 0.0 255.0 0.0
0.18040509521961212 -0.0034941111225634813 -0.13639789819717407 0.0 255.0 0.0
0.11876773834228516 -0.1163240373134613 0.1705707609653473 0.0 255.0 0.0
0.27813276648521423 0.45862647891044617 -0.06306173652410507 0.0 255.0 0.0
-0.016381610184907913 0.19401700794696808 0.1561831682920456 0.0 255.0 0.0
0.23581743240356445 -0.447683721780777 0.17201681435108185 0.0 255.0 0.0
0.18246400356292725 -0.4157367944717407 -0.07240992039442062 0.0 255.0 0.0
-0.27007701992988586 -0.19801610708236694 -0.06493163108825684 0.0 255.0 0.0
-0.10464096814393997 -0.12025700509548187 -0.13506805896759033 0.0 255.0 0.0
-0.271796852350235 0.07660387456417084 -0.05768512934446335 0.0 255.0 0.0
0.27579426765441895 0.08493057638406754 -0.13591457903385162 0.0 255.0 0.0
0.25337696075439453 0.4021856486797333 -0.08857658505439758 0.0 255.0 0.0
0.0734725072979927 0.2258678525686264 -0.1066952720284462 0.0 255.0 0.0
0.22742362320423126 0.03862764313817024 -0.13506238162517548 0.0 255.0 0.0
0.18409234285354614 -0.38744834065437317 -0.07002949714660645 0.0 255.0 0.0
-0.15948934853076935 -0.12812179327011108 -0.1335565149784088 0.0 255.0 0.0
0.24679327011108398 -0.24674014747142792 0.1300145536661148 0.0 255.0 0.0
0.012823382392525673 0.008022298105061054 -0.13506805896759033 0.0 255.0 0.0
-0.03093712218105793 -0.18210195004940033 -0.13636484742164612 0.0 255.0 0.0
0.0452665239572525 0.07964524626731873 -0.13506805896759033 0.0 255.0 0.0
-0.2126266360282898 -0.34937867522239685 0.11025479435920715 0.0 255.0 0.0
0.22385971248149872 -0.22748853266239166 0.1562996804714203 0.0 255.0 0.0
-0.17570273578166962 -0.39456138014793396 0.01913304254412651 0.0 255.0 0.0
0.010940369218587875 -0.03201153874397278 0.1678769290447235 0.0 255.0 0.0
0.16279694437980652 -0.2514863610267639 -0.11155056208372116 0.0 255.0 0.0
-0.1719687432050705 -0.3754972517490387 0.00475300895050168 0.0 255.0 0.0
0.011066051200032234 0.041013654321432114 0.16958126425743103 0.0 255.0 0.0
-0.2707524597644806 0.0011910370085388422 -0.09775624424219131 0.0 255.0 0.0
-0.27075091004371643 0.01217695977538824 -0.1143065094947815 0.0 255.0 0.0
0.2972581684589386 0.032394759356975555 -0.054664354771375656 0.0 255.0 0.0
-0.31833764910697937 -0.32745662331581116 0.14560197293758392 0.0 255.0 0.0
0.1838994026184082 0.4784577190876007 0.022206569090485573 0.0 255.0 0.0
-0.03659914433956146 -0.10017888993024826 0.1714671403169632 0.0 255.0 0.0
-0.2685551941394806 0.42713549733161926 0.014491218142211437 0.0 255.0 0.0
-0.22831006348133087 0.20848914980888367 -0.1349717080593109 0.0 255.0 0.0
0.3014698624610901 0.43386000394821167 0.07553930580615997 0.0 255.0 0.0
0.2972581684589386 -0.09161310642957687 0.024346547201275826 0.0 255.0 0.0
-0.1543641984462738 0.4156014323234558 0.06139746308326721 0.0 255.0 0.0
0.1063038557767868 0.05419088155031204 0.16940195858478546 0.0 255.0 0.0
-0.272308349609375 0.04399590566754341 0.10569222271442413 0.0 255.0 0.0
0.28933972120285034 -0.41288435459136963 0.15396973490715027 0.0 255.0 0.0
0.2972581684589386 0.19219514727592468 0.0002611326053738594 0.0 255.0 0.0
0.2741563618183136 -0.08465129882097244 -0.1334114968776703 0.0 255.0 0.0
0.2232445776462555 -0.09076443314552307 0.17167632281780243 0.0 255.0 0.0
-0.21112607419490814 -0.2539807856082916 -0.0674986019730568 0.0 255.0 0.0
0.2972581684589386 0.16941675543785095 0.08542046695947647 0.0 255.0 0.0
-0.13174937665462494 0.04674645513296127 -0.1363508552312851 0.0 255.0 0.0
0.29748430848121643 0.4541618227958679 0.011958683840930462 0.0 255.0 0.0
-0.10137256234884262 -0.25121891498565674 -0.04329843446612358 0.0 255.0 0.0
-0.2688556909561157 -0.13313573598861694 -0.007005508989095688 0.0 255.0 0.0
0.29433953762054443 -0.0009193104924634099 0.12898840010166168 0.0 255.0 0.0
-0.062352314591407776 -0.11982999742031097 -0.13379572331905365 0.0 255.0 0.0
-0.27053672075271606 -0.22441764175891876 0.1342540979385376 0.0 255.0 0.0
0.13611193001270294 -0.42256999015808105 0.08196460455656052 0.0 255.0 0.0
0.1765907257795334 -0.08855634927749634 -0.13497917354106903 0.0 255.0 0.0
-0.2732428312301636 0.18085692822933197 0.11275877803564072 0.0 255.0 0.0
0.0894482284784317 -0.038162678480148315 -0.1338193416595459 0.0 255.0 0.0
-0.1354769468307495 -0.25232943892478943 0.040311019867658615 0.0 255.0 0.0
0.037008125334978104 -0.028119677677750587 -0.13377702236175537 0.0 255.0 0.0
-0.2707524597644806 0.18082720041275024 -0.0228001419454813 0.0 255.0 0.0
0.03707954287528992 -0.20443342626094818 0.15505921840667725 0.0 255.0 0.0
0.18333911895751953 -0.24971888959407806 -0.09120333194732666 0.0 255.0 0.0
0.2816273868083954 0.22773462533950806 -0.09295345842838287 0.0 255.0 0.0
0.296875536441803 -0.02110663801431656 0.02464141696691513 0.0 255.0 0.0
0.1411476582288742 0.22656232118606567 0.12764199078083038 0.0 255.0 0.0
-0.2698586583137512 0.17351937294006348 0.08672542124986649 0.0 255.0 0.0
0.22748959064483643 0.33219459652900696 -0.05539945140480995 0.0 255.0 0.0
-0.26743730902671814 -0.31366780400276184 -0.0324227474629879 0.0 255.0 0.0
-0.2891993820667267 -0.4003094434738159 -0.09023400396108627 0.0 255.0 0.0
0.03126779943704605 0.09607680141925812 0.168292835354805 0.0 255.0 0.0
-0.08311515301465988 -0.252694308757782 -0.034103184938430786 0.0 255.0 0.0
0.10209517925977707 0.23020686209201813 -0.003311718348413706 0.0 255.0 0.0
0.10317835956811905 0.12408342212438583 -0.135529562830925 0.0 255.0 0.0
0.24217677116394043 -0.17520202696323395 -0.13092650473117828 0.0 255.0 0.0
0.28465211391448975 -0.37287643551826477 0.10953523218631744 0.0 255.0 0.0
-0.2707524597644806 -0.22369755804538727 -0.1064336746931076 0.0 255.0 0.0
0.2093578428030014 -0.11940409243106842 0.16759265959262848 0.0 255.0 0.0
-0.09205592423677444 -0.07611866295337677 0.17003734409809113 0.0 255.0 0.0
-0.254903644323349 -0.28939199447631836 0.02053067833185196 0.0 255.0 0.0
0.05470333620905876 -0.05482470244169235 -0.13506805896759033 0.0 255.0 0.0
0.1714445799589157 0.41049256920814514 0.046759869903326035 0.0 255.0 0.0
-0.030251193791627884 -0.24783247709274292 0.04650592803955078 0.0 255.0 0.0
-0.27107855677604675 0.0841425210237503 0.023759126663208008 0.0 255.0 0.0
-0.1420866698026657 -0.14783480763435364 0.16940195858478546 0.0 255.0 0.0
0.005839322227984667 0.2435864359140396 -0.1951538324356079 0.0 255.0 0.0
-0.03286042436957359 -0.06453239172697067 -0.13506805896759033 0.0 255.0 0.0
0.23293864727020264 -0.18829739093780518 -0.13506805896759033 0.0 255.0 0.0
-0.1245119720697403 0.22812457382678986 -0.009851436130702496 0.0 255.0 0.0
0.2972581684589386 0.15812961757183075 0.11437536776065826 0.0 255.0 0.0
0.2958398759365082 -0.05537819489836693 -0.07387267053127289 0.0 255.0 0.0
-0.1888236701488495 -0.3046804368495941 0.07810968160629272 0.0 255.0 0.0
0.007344533689320087 0.11365912854671478 -0.13506805896759033 0.0 255.0 0.0
-0.2548788785934448 -0.2851935923099518 0.017637215554714203 0.0 255.0 0.0
0.10546901822090149 0.0021681897342205048 0.17092940211296082 0.0 255.0 0.0
-0.26814424991607666 0.1896311193704605 -0.0909748449921608 0.0 255.0 0.0
0.2972581684589386 0.014082958921790123 -0.05792931467294693 0.0 255.0 0.0
0.09492654353380203 0.08269679546356201 0.16940195858478546 0.0 255.0 0.0
-0.138201043009758 -0.24938803911209106 0.09411804378032684 0.0 255.0 0.0
-0.21595799922943115 -0.08868886530399323 -0.13506805896759033 0.0 255.0 0.0
-0.08111601322889328 -0.2536447048187256 0.10438140481710434 0.0 255.0 0.0
0.15234170854091644 0.10100177675485611 -0.13882963359355927 0.0 255.0 0.0
0.2972581684589386 0.05902237445116043 0.07247751951217651 0.0 255.0 0.0
0.10636622458696365 -0.09014382213354111 -0.1345350742340088 0.0 255.0 0.0
0.2972581684589386 -0.06280352920293808 -0.08353590965270996 0.0 255.0 0.0
-0.2707524597644806 0.16299723088741302 0.03849804028868675 0.0 255.0 0.0
0.26630356907844543 -0.0850999727845192 0.1560688465833664 0.0 255.0 0.0
-0.2719595730304718 -0.17006851732730865 -0.061178650707006454 0.0 255.0 0.0
-0.10358648002147675 -0.22510826587677002 -0.13506805896759033 0.0 255.0 0.0
-0.15019254386425018 -0.30201274156570435 -0.0015652526635676622 0.0 255.0 0.0
0.06164979189634323 -0.03380981460213661 0.1676022857427597 0.0 255.0 0.0
-0.2319899946451187 0.08088212460279465 -0.13506805896759033 0.0 255.0 0.0
-0.12806931138038635 0.20620384812355042 -0.13282132148742676 0.0 255.0 0.0
0.1973249763250351 0.058403946459293365 0.170440211892128 0.0 255.0 0.0
-0.20059582591056824 -0.3772569000720978 0.1144261509180069 0.0 255.0 0.0
0.2874543070793152 -0.3838927149772644 0.02504279837012291 0.0 255.0 0.0
0.299360066652298 -0.005549990572035313 0.09237641841173172 0.0 255.0 0.0
0.17375370860099792 -0.24630989134311676 -0.08991385251283646 0.0 255.0 0.0
0.18426558375358582 -0.3335496485233307 -0.06217583268880844 0.0 255.0 0.0
0.29444780945777893 0.46140584349632263 0.07319479435682297 0.0 255.0 0.0
-0.17539499700069427 -0.2517552971839905 -0.07764378935098648 0.0 255.0 0.0
0.06709297001361847 -0.12756091356277466 -0.1304478794336319 0.0 255.0 0.0
-0.15162672102451324 0.22808897495269775 0.13137905299663544 0.0 255.0 0.0
-0.24935176968574524 0.196555033326149 0.1578952968120575 0.0 255.0 0.0
0.051721710711717606 -0.1690537929534912 0.1684938669204712 0.0 255.0 0.0
-0.24261291325092316 0.16166774928569794 0.15470755100250244 0.0 255.0 0.0
0.22714059054851532 -0.446332186460495 0.0011188652133569121 0.0 255.0 0.0
-0.1132916510105133 -0.11595921963453293 0.17046605050563812 0.0 255.0 0.0
-0.2707524597644806 -0.12134365737438202 0.10558077692985535 0.0 255.0 0.0
0.2316594272851944 0.22999358177185059 0.12069326639175415 0.0 255.0 0.0
0.06329222023487091 0.009894364513456821 0.16940195858478546 0.0 255.0 0.0
0.20962844789028168 -0.44767799973487854 0.09598622471094131 0.0 255.0 0.0
0.2994685769081116 0.37831684947013855 0.07338312268257141 0.0 255.0 0.0
-0.27210259437561035 -0.23155033588409424 0.01731131412088871 0.0 255.0 0.0
-0.1103506088256836 -0.0032172445207834244 0.17201532423496246 0.0 255.0 0.0
-0.21285174787044525 0.33598291873931885 -0.04656555876135826 0.0 255.0 0.0
-0.0800645723938942 -0.2509709298610687 0.08407669514417648 0.0 255.0 0.0
0.2972581684589386 -0.0797945037484169 0.1152302473783493 0.0 255.0 0.0
0.1377631574869156 0.22928668558597565 0.02519386261701584 0.0 255.0 0.0
0.27845269441604614 0.4925681948661804 0.0874677300453186 0.0 255.0 0.0
-0.2707524597644806 0.04809323325753212 0.05794896185398102 0.0 255.0 0.0
0.2942962944507599 0.17667195200920105 -0.09139092266559601 0.0 255.0 0.0
-0.29704126715660095 0.036098673939704895 -0.2795482873916626 0.0 255.0 0.0
-0.17876483500003815 0.037932928651571274 0.16634146869182587 0.0 255.0 0.0
-0.09138757735490799 -0.08396916091442108 -0.13662280142307281 0.0 255.0 0.0
0.17386941611766815 0.40959352254867554 0.09057395905256271 0.0 255.0 0.0
0.29488256573677063 -0.2299768477678299 -0.00975721050053835 0.0 255.0 0.0
-0.27015814185142517 -0.23419716954231262 0.02330944873392582 0.0 255.0 0.0
-0.21869464218616486 0.01421852596104145 -0.13506805896759033 0.0 255.0 0.0
0.1779571920633316 0.4295278787612915 0.08742058277130127 0.0 255.0 0.0
-0.0014935671351850033 0.0581272654235363 -0.13239283859729767 0.0 255.0 0.0
-0.10581830888986588 0.22828300297260284 0.0494411438703537 0.0 255.0 0.0
0.29805925488471985 0.2011875957250595 -0.09593047201633453 0.0 255.0 0.0
0.29761946201324463 0.12498915195465088 0.10461340844631195 0.0 255.0 0.0
-0.271777480840683 -0.3071587383747101 0.012183597311377525 0.0 255.0 0.0
0.2972581684589386 -0.21355056762695312 -0.09296257793903351 0.0 255.0 0.0
-0.18610040843486786 -0.2921833395957947 -0.04994545876979828 0.0 255.0 0.0
0.2165878266096115 -0.3119544982910156 0.10387936979532242 0.0 255.0 0.0
-0.21975070238113403 -0.35316142439842224 0.13006222248077393 0.0 255.0 0.0
-0.11512662470340729 -0.16182880103588104 -0.1356056034564972 0.0 255.0 0.0
-0.2707524597644806 0.11704899370670319 0.03176797553896904 0.0 255.0 0.0
-0.14517559111118317 0.0625605583190918 0.16940195858478546 0.0 255.0 0.0
0.1581963300704956 -0.16637860238552094 0.16908493638038635 0.0 255.0 0.0
-0.19258064031600952 0.15416978299617767 -0.13756798207759857 0.0 255.0 0.0
-0.271867573261261 -0.2341100424528122 0.11334294080734253 0.0 255.0 0.0
0.1929440200328827 -0.44571319222450256 0.15849654376506805 0.0 255.0 0.0
-0.27306509017944336 0.11341385543346405 -0.07002129405736923 0.0 255.0 0.0
0.2345396876335144 0.22953513264656067 -0.08926224708557129 0.0 255.0 0.0
