-0.13034437596797943 0.22911272943019867 -0.03817504644393921 0.0 255.0 0.0
-0.014374922029674053 0.22739960253238678 -0.031888093799352646 0.0 255.0 0.0
0.13982585072517395 0.22602197527885437 0.11997105926275253 0.0 255.0 0.0
0.035396043211221695 -0.2178899496793747 0.15744511783123016 0.0 255.0 0.0
-0.1178913414478302 0.2294592261314392 0.057236313819885254 0.0 255.0 0.0
0.2972581684589386 0.17087993025779724 0.02864302136003971 0.0 255.0 0.0
0.009554246440529823 0.1685718148946762 -0.13506805896759033 0.0 255.0 0.0
0.1997605562210083 -0.44647014141082764 0.022395215928554535 0.0 255.0 0.0
-0.27348363399505615 -0.144136443734169 0.05865313857793808 0.0 255.0 0.0
0.29849815368652344 -0.10471706092357635 0.1250983476638794 0.0 255.0 0.0
-0.0391070730984211 0.2252957969903946 -0.07241671532392502 0.0 255.0 0.0
0.22302795946598053 0.4350341260433197 -0.08433395624160767 0.0 255.0 0.0
0.014330755919218063 -0.029959795996546745 -0.13506805896759033 0.0 255.0 0.0
-0.15693959593772888 0.3574051856994629 0.04195587709546089 0.0 255.0 0.0
0.0071676322259008884 -0.21035943925380707 0.15804478526115417 0.0 255.0 0.0
0.07172035425901413 0.23045198619365692 0.023468583822250366 0.0 255.0 0.0
-0.17739859223365784 -0.1733313500881195 -0.13657796382904053 0.0 255.0 0.0
0.2950057089328766 0.019636142998933792 0.005697570275515318 0.0 255.0 0.0
0.22083154320716858 -0.4464050233364105 0.16717341542243958 0.0 255.0 0.0
0.19281823933124542 0.4566221535205841 -0.049397099763154984 0.0 255.0 0.0
0.134359672665596 0.22737790644168854 -0.03423148766160011 0.0 255.0 0.0
0.29647326469421387 0.05862349644303322 0.1243952289223671 0.0 255.0 0.0
-0.10848622769117355 0.033243779093027115 0.16940195858478546 0.0 255.0 0.0
0.14270451664924622 -0.22228895127773285 0.15736906230449677 0.0 255.0 0.0
-0.2712721824645996 -0.1837712526321411 0.11783717572689056 0.0 255.0 0.0
0.17506958544254303 -0.2509607672691345 0.08418521285057068 0.0 255.0 0.0
0.26717403531074524 -0.023425664752721786 -0.13387112319469452 0.0 255.0 0.0
0.142316997051239 -0.40986907482147217 -0.017188819125294685 0.0 255.0 0.0
0.28989407420158386 0.40441545844078064 -0.07083293795585632 0.0 255.0 0.0
0.27365583181381226 -0.11073696613311768 0.1562431901693344 0.0 255.0 0.0
-0.03637240082025528 -0.08682961016893387 0.17191636562347412 0.0 255.0 0.0
0.20725464820861816 0.2316201776266098 -0.08306092768907547 0.0 255.0 0.0
0.2972581684589386 0.1154465600848198 -0.057856958359479904 0.0 255.0 0.0
-0.1512080729007721 0.4037366509437561 -0.011921931989490986 0.0 255.0 0.0
0.2995171844959259 -0.04067736491560936 -0.016835523769259453 0.0 255.0 0.0
0.19795116782188416 0.3260223865509033 -0.016187885776162148 0.0 255.0 0.0
-0.038823362439870834 -0.08244935423135757 0.16843600571155548 0.0 255.0 0.0
0.164595827460289 0.22687937319278717 -0.050822723656892776 0.0 255.0 0.0
-0.26917678117752075 0.0562005415558815 0.018382176756858826 0.0 255.0 0.0
0.2999241352081299 0.36877238750457764 0.02729259431362152 0.0 255.0 0.0
-0.14007088541984558 -0.2521155774593353 -0.02471042424440384 0.0 255.0 0.0
0.29989156126976013 -0.05306578055024147 -0.11548291891813278 0.0 255.0 0.0
-0.08886299282312393 -0.0703275203704834 -0.13506805896759033 0.0 255.0 0.0
-0.08196549862623215 -0.2510170042514801 -0.05020608380436897 0.0 255.0 0.0
0.22331717610359192 -0.3759647309780121 0.1747322380542755 0.0 255.0 0.0
0.2578502893447876 -0.25050103664398193 0.09712930023670197 0.0 255.0 0.0
0.09611023962497711 -0.10771498829126358 -0.1377006620168686 0.0 255.0 0.0
0.20308846235275269 -0.04442577809095383 0.16940195858478546 0.0 255.0 0.0
0.298636794090271 -0.14555349946022034 -0.028329642489552498 0.0 255.0 0.0
0.0011854140320792794 0.22790272533893585 -0.24557524919509888 0.0 255.0 0.0
-0.002258573193103075 -0.21222396194934845 0.15744714438915253 0.0 255.0 0.0
0.19348296523094177 0.03197501227259636 0.17082619667053223 0.0 255.0 0.0
0.21101278066635132 -0.11748884618282318 -0.13879571855068207 0.0 255.0 0.0
0.23136797547340393 0.026136018335819244 -0.13224206864833832 0.0 255.0 0.0
0.028465136885643005 0.0605970062315464 -0.13787420094013214 0.0 255.0 0.0
-0.14066535234451294 -0.053781963884830475 0.16940195858478546 0.0 255.0 0.0
0.10268698632717133 -0.25079992413520813 0.023900412023067474 0.0 255.0 0.0
0.19054889678955078 -0.04378015547990799 -0.1312059909105301 0.0 255.0 0.0
0.13568291068077087 0.11547330766916275 -0.13506805896759033 0.0 255.0 0.0
-0.08631373941898346 -0.25032392144203186 -0.11151730269193649 0.0 255.0 0.0
0.22376395761966705 -0.36034202575683594 0.14836359024047852 0.0 255.0 0.0
-0.2670900523662567 -0.45804116129875183 0.009112905710935593 0.0 255.0 0.0
0.15733587741851807 -0.30135101079940796 0.026436639949679375 0.0 255.0 0.0
-0.2686414122581482 -0.06050745025277138 -0.09923801571130753 0.0 255.0 0.0
0.1978590041399002 -0.3505921959877014 0.1366569548845291 0.0 255.0 0.0
0.13767026364803314 -0.403797447681427 0.07822641730308533 0.0 255.0 0.0
0.1652691513299942 0.22691000998020172 0.06976574659347534 0.0 255.0 0.0
-0.06481073051691055 0.23070921003818512 0.02489074133336544 0.0 255.0 0.0
0.17368975281715393 0.22713150084018707 0.11636118590831757 0.0 255.0 0.0
0.08824203163385391 0.12622086703777313 0.16940195858478546 0.0 255.0 0.0
-0.2676035761833191 0.4363141655921936 0.051859207451343536 0.0 255.0 0.0
0.15362870693206787 0.01915106736123562 0.16940195858478546 0.0 255.0 0.0
-0.2707524597644806 0.008447788655757904 0.030489325523376465 0.0 255.0 0.0
-0.0031078585889190435 0.10169699043035507 0.16481295228004456 0.0 255.0 0.0
0.2981727421283722 0.3720940053462982 0.019885098561644554 0.0 255.0 0.0
-0.0991513654589653 0.13272857666015625 -0.13506805896759033 0.0 255.0 0.0
-0.06536165624856949 -0.2532583773136139 0.09571962803602219 0.0 255.0 0.0
0.2864205539226532 -0.3818056881427765 0.029791437089443207 0.0 255.0 0.0
0.2807350754737854 -0.33177414536476135 0.012642708607017994 0.0 255.0 0.0
0.16850034892559052 -0.25366008281707764 -0.08330389857292175 0.0 255.0 0.0
-0.23794487118721008 0.22778549790382385 -0.0545508936047554 0.0 255.0 0.0
-0.2707524597644806 0.17058777809143066 -0.09404091536998749 0.0 255.0 0.0
0.2989335060119629 0.053208328783512115 0.02462741546332836 0.0 255.0 0.0
0.23801004886627197 -0.44654637575149536 0.1602061241865158 0.0 255.0 0.0
-0.05705974996089935 -0.24870653450489044 0.12851695716381073 0.0 255.0 0.0
-0.27036893367767334 0.17152680456638336 0.007028588559478521 0.0 255.0 0.0
-0.1204206719994545 0.22406339645385742 0.07950173318386078 0.0 255.0 0.0
-0.06391731649637222 -0.05504187196493149 -0.13483618199825287 0.0 255.0 0.0
-0.21447236835956573 -0.2502281963825226 -0.08372656255960464 0.0 255.0 0.0
-0.2219584435224533 -0.13676030933856964 -0.13705962896347046 0.0 255.0 0.0
0.1119852140545845 0.04833906888961792 -0.13506805896759033 0.0 255.0 0.0
0.013790087774395943 -0.2521379590034485 -0.09050644934177399 0.0 255.0 0.0
-0.1996683031320572 0.08463109284639359 0.1693512350320816 0.0 255.0 0.0
0.23210977017879486 -0.4492497742176056 -0.05824286490678787 0.0 255.0 0.0
-0.25819727778434753 0.352458655834198 0.06243808567523956 0.0 255.0 0.0
-0.29253384470939636 0.004026337526738644 -0.28271612524986267 0.0 255.0 0.0
-0.15569891035556793 0.07165840268135071 -0.13506805896759033 0.0 255.0 0.0
-0.29054901003837585 -0.3913637697696686 0.16547690331935883 0.0 255.0 0.0
0.29952365159988403 0.0922892615199089 -0.08314184844493866 0.0 255.0 0.0
-0.15386900305747986 0.08619740605354309 -0.13506805896759033 0.0 255.0 0.0
0.1839437633752823 -0.4469415247440338 0.16626586019992828 0.0 255.0 0.0
0.29775962233543396 0.12030113488435745 -0.093540258705616 0.0 255.0 0.0
0.1521224081516266 -0.21828597784042358 -0.13506072759628296 0.0 255.0 0.0
0.14020667970180511 -0.3892582058906555 0.10067782551050186 0.0 255.0 0.0
0.15003806352615356 -0.2510856091976166 -0.01918838359415531 0.0 255.0 0.0
0.22318421304225922 0.43204793334007263 -0.08381858468055725 0.0 255.0 0.0
-0.24285240471363068 -0.054718609899282455 -0.2574235200881958 0.0 255.0 0.0
0.18739981949329376 -0.34993502497673035 -0.07067567855119705 0.0 255.0 0.0
0.2892695665359497 -0.39620885252952576 0.12888599932193756 0.0 255.0 0.0
0.2657206654548645 -0.44572386145591736 0.12139275670051575 0.0 255.0 0.0
-0.2707524597644806 0.14391204714775085 -0.11245301365852356 0.0 255.0 0.0
-0.2703814208507538 0.04617643356323242 0.012259469367563725 0.0 255.0 0.0
0.21729068458080292 -0.31182050704956055 -0.07382068783044815 0.0 255.0 0.0
0.02629290521144867 0.22971712052822113 0.05438573658466339 0.0 255.0 0.0
-0.27031409740448 -0.046523332595825195 -0.04501313343644142 0.0 255.0 0.0
0.20789609849452972 0.4354124069213867 -0.07828155905008316 0.0 255.0 0.0
0.23177789151668549 -0.041531823575496674 -0.13506805896759033 0.0 255.0 0.0
-0.2678626477718353 0.09127043932676315 0.04485134035348892 0.0 255.0 0.0
0.1727660894393921 0.42741042375564575 0.043074365705251694 0.0 255.0 0.0
0.1910015493631363 -0.250583678483963 0.12209532409906387 0.0 255.0 0.0
0.060282327234745026 0.05125465616583824 -0.13318587839603424 0.0 255.0 0.0
0.22216050326824188 0.20322254300117493 0.15629220008850098 0.0 255.0 0.0
0.10130489617586136 -0.06598412990570068 -0.13645724952220917 0.0 255.0 0.0
-0.2707524597644806 0.14375931024551392 -0.10463346540927887 0.0 255.0 0.0
-0.04223101958632469 -0.2501920759677887 0.050513338297605515 0.0 255.0 0.0
0.007359244395047426 0.23651155829429626 -0.18269379436969757 0.0 255.0 0.0
-0.12194721400737762 -0.17745725810527802 -0.13506805896759033 0.0 255.0 0.0
0.04923008382320404 0.032417770475149155 -0.13150304555892944 0.0 255.0 0.0
-0.2560997009277344 -0.2873392701148987 0.0537533201277256 0.0 255.0 0.0
0.26242390275001526 -0.44125235080718994 0.11409348994493484 0.0 255.0 0.0
0.055968791246414185 -0.13929209113121033 0.16934436559677124 0.0 255.0 0.0
0.22900167107582092 0.1949438899755478 -0.13506805896759033 0.0 255.0 0.0
-0.03579631447792053 0.12312410026788712 -0.16729308664798737 0.0 255.0 0.0
0.2035723328590393 -0.2491530328989029 -0.10047920048236847 0.0 255.0 0.0
0.03322434425354004 0.04913739487528801 0.16911981999874115 0.0 255.0 0.0
0.035122305154800415 -0.0952739417552948 0.16935105621814728 0.0 255.0 0.0
0.2751043140888214 0.5063952803611755 0.04290084168314934 0.0 255.0 0.0
-0.25872886180877686 0.34523752331733704 0.013899709098041058 0.0 255.0 0.0
0.2972581684589386 -0.06524652987718582 -0.08873944729566574 0.0 255.0 0.0
-0.2532944977283478 -0.28632524609565735 0.024856720119714737 0.0 255.0 0.0
-0.1873151957988739 0.22765450179576874 -0.07817427814006805 0.0 255.0 0.0
-0.14424513280391693 0.2270473837852478 -0.09380070120096207 0.0 255.0 0.0
-0.26434454321861267 0.35389024019241333 -0.008407256565988064 0.0 255.0 0.0
-0.10251301527023315 0.22738616168498993 0.0490134097635746 0.0 255.0 0.0
-0.25921058654785156 0.3621126711368561 -0.03390879929065704 0.0 255.0 0.0
-0.2941845953464508 -0.01698915660381317 -0.2831409275531769 0.0 255.0 0.0
-0.17900219559669495 0.22839494049549103 0.09135571122169495 0.0 255.0 0.0
0.07477495819330215 -0.25070759654045105 0.09448561072349548 0.0 255.0 0.0
-0.2587834298610687 0.45692649483680725 0.035663653165102005 0.0 255.0 0.0
0.2973768711090088 0.07158437371253967 -0.07416665554046631 0.0 255.0 0.0
-0.10817272216081619 0.23164165019989014 0.004399426281452179 0.0 255.0 0.0
0.19493333995342255 -0.0917014554142952 -0.13506805896759033 0.0 255.0 0.0
-0.27409878373146057 0.061264291405677795 0.01857924461364746 0.0 255.0 0.0
-0.08602184802293777 0.05439893528819084 -0.13307781517505646 0.0 255.0 0.0
-0.025486335158348083 0.2306462824344635 0.06968636065721512 0.0 255.0 0.0
0.18246836960315704 -0.28255483508110046 -0.03990014269948006 0.0 255.0 0.0
0.29462915658950806 -0.08160819113254547 0.09582996368408203 0.0 255.0 0.0
-0.07394091039896011 -0.13745860755443573 -0.13506805896759033 0.0 255.0 0.0
0.25626862049102783 -0.44401875138282776 0.14908382296562195 0.0 255.0 0.0
-0.15536294877529144 0.4487965703010559 0.03555368259549141 0.0 255.0 0.0
-0.168706014752388 -0.3695967197418213 -0.006338086444884539 0.0 255.0 0.0
-0.26805564761161804 -0.02858118899166584 0.005672873929142952 0.0 255.0 0.0
0.20430465042591095 -0.35605207085609436 0.1474185436964035 0.0 255.0 0.0
0.2700093984603882 0.0966172143816948 -0.13565713167190552 0.0 255.0 0.0
-0.16970570385456085 -0.3861353099346161 0.012228017672896385 0.0 255.0 0.0
0.22651489078998566 -0.03819439560174942 0.16940195858478546 0.0 255.0 0.0
-0.267390638589859 0.1881706565618515 0.0759340450167656 0.0 255.0 0.0
0.07979166507720947 0.11197532713413239 -0.13506805896759033 0.0 255.0 0.0
0.2972581684589386 -0.013509548269212246 -0.016812248155474663 0.0 255.0 0.0
0.11252091079950333 -0.2507179081439972 -0.08247585594654083 0.0 255.0 0.0
0.04839606210589409 0.22973735630512238 0.03725409880280495 0.0 255.0 0.0
0.2972581684589386 -0.20932401716709137 -0.11353733390569687 0.0 255.0 0.0
0.2972581684589386 0.061768583953380585 -0.10197494924068451 0.0 255.0 0.0
0.043767884373664856 0.22812457382678986 -0.07717568427324295 0.0 255.0 0.0
-0.19937638938426971 0.22821742296218872 -0.06763375550508499 0.0 255.0 0.0
0.2972581684589386 -0.03355717286467552 0.0699852705001831 0.0 255.0 0.0
0.13618077337741852 0.0051462072879076 -0.13506805896759033 0.0 255.0 0.0
0.26837530732154846 -0.13449163734912872 -0.13538704812526703 0.0 255.0 0.0
-0.27677154541015625 -0.4560379385948181 -0.012230976484715939 0.0 255.0 0.0
-0.1912318766117096 0.4980051517486572 0.08151639252901077 0.0 255.0 0.0
-0.2724846601486206 -0.16047176718711853 0.050286151468753815 0.0 255.0 0.0
-0.12210890650749207 -0.1350688934326172 0.16716675460338593 0.0 255.0 0.0
-0.2531166970729828 0.40476179122924805 -0.06075263023376465 0.0 255.0 0.0
0.045953694730997086 0.013995707035064697 -0.13935069739818573 0.0 255.0 0.0
0.13579098880290985 0.08138550072908401 0.16940195858478546 0.0 255.0 0.0
-0.2731517255306244 -0.16977310180664062 0.08729221671819687 0.0 255.0 0.0
0.008624320849776268 0.16121968626976013 -0.13506805896759033 0.0 255.0 0.0
-0.1192898228764534 0.028788059949874878 0.16821150481700897 0.0 255.0 0.0
0.12115901708602905 0.23036640882492065 0.12979549169540405 0.0 255.0 0.0
0.2081449031829834 0.0961102545261383 0.1678837686777115 0.0 255.0 0.0
0.2989775836467743 -0.22648270428180695 0.050603389739990234 0.0 255.0 0.0
-0.20195133984088898 -0.43544310331344604 0.0954008400440216 0.0 255.0 0.0
-0.035858385264873505 -0.25023335218429565 -0.11320506781339645 0.0 255.0 0.0
0.30113428831100464 0.4062785804271698 0.06669678539037704 0.0 255.0 0.0
-0.057667579501867294 -0.2516329884529114 0.025135552510619164 0.0 255.0 0.0
0.22179411351680756 -0.4077901542186737 -0.08929184079170227 0.0 255.0 0.0
-0.11550066620111465 0.22831270098686218 -0.07103556394577026 0.0 255.0 0.0
0.16176564991474152 -0.006440966855734587 0.16979192197322845 0.0 255.0 0.0
0.218389630317688 -0.4488966166973114 0.14072665572166443 0.0 255.0 0.0
-0.11204793304204941 -0.10274022072553635 -0.1348348706960678 0.0 255.0 0.0
0.23951111733913422 0.22807028889656067 -0.10213194787502289 0.0 255.0 0.0
-0.2775919735431671 -0.4003031849861145 0.17717045545578003 0.0 255.0 0.0
-0.15387964248657227 0.22678154706954956 -0.06082436814904213 0.0 255.0 0.0
-0.2683078646659851 0.20854532718658447 -0.11746939271688461 0.0 255.0 0.0
0.13150164484977722 0.10000710189342499 0.16940195858478546 0.0 255.0 0.0
-0.20953364670276642 -0.3655247092247009 -0.07413391768932343 0.0 255.0 0.0
0.2593470513820648 -0.2524458169937134 0.09735222905874252 0.0 255.0 0.0
-0.031127257272601128 0.0034646226558834314 0.16821935772895813 0.0 255.0 0.0
0.29494744539260864 0.01640031673014164 -0.11198779195547104 0.0 255.0 0.0
0.18939895927906036 0.22591879963874817 -0.08380356431007385 0.0 255.0 0.0
-0.09000264108181 0.09153178334236145 0.17056012153625488 0.0 255.0 0.0
-0.2533273994922638 -0.4381716251373291 0.12763114273548126 0.0 255.0 0.0
0.2685868442058563 0.4938875734806061 -0.02168772928416729 0.0 255.0 0.0
-0.27158620953559875 0.17542366683483124 0.09610342979431152 0.0 255.0 0.0
0.2969285249710083 -0.2251972109079361 0.08386638760566711 0.0 255.0 0.0
0.22562067210674286 0.5129483342170715 0.08931436389684677 0.0 255.0 0.0
0.005992296617478132 0.11521215736865997 0.17480221390724182 0.0 255.0 0.0
-0.2704809010028839 -0.14907561242580414 -0.007919304072856903 0.0 255.0 0.0
0.11365676671266556 0.22812457382678986 0.0846351757645607 0.0 255.0 0.0
0.30115562677383423 0.4386211931705475 0.09711573272943497 0.0 255.0 0.0
0.14245012402534485 -0.2520080804824829 0.05428924411535263 0.0 255.0 0.0
0.2972581684589386 0.0009467278141528368 -0.07839511334896088 0.0 255.0 0.0
0.001807620283216238 -0.2501305639743805 0.03158342093229294 0.0 255.0 0.0
0.19353769719600677 -0.08275852352380753 0.1687299907207489 0.0 255.0 0.0
-0.2281912863254547 0.4935469627380371 -0.011505291797220707 0.0 255.0 0.0
0.24435409903526306 0.0021192780695855618 -0.13506805896759033 0.0 255.0 0.0
-0.2355101853609085 -0.1251588761806488 -0.13456356525421143 0.0 255.0 0.0
0.2972581684589386 -0.06813818961381912 -0.015069840475916862 0.0 255.0 0.0
-0.2567659914493561 -0.4476069509983063 0.052728813141584396 0.0 255.0 0.0
0.19017933309078217 0.23026525974273682 0.12464234232902527 0.0 255.0 0.0
0.16114552319049835 -0.25096482038497925 0.07848020642995834 0.0 255.0 0.0
0.19288435578346252 0.4548493027687073 -0.04842021316289902 0.0 255.0 0.0
-0.14912664890289307 -0.1703905463218689 -0.1357000172138214 0.0 255.0 0.0
0.23507875204086304 -0.446726530790329 -0.0074722724966704845 0.0 255.0 0.0
0.23141729831695557 -0.3260902166366577 0.11976367980241776 0.0 255.0 0.0
0.2972581684589386 0.1094975695014 -0.010622510686516762 0.0 255.0 0.0
0.30084311962127686 -0.01685445010662079 0.12076245993375778 0.0 255.0 0.0
0.0909305214881897 0.2280891239643097 -0.03513290360569954 0.0 255.0 0.0
0.1909022182226181 -0.2847297489643097 0.0706372782588005 0.0 255.0 0.0
0.21748191118240356 -0.28637784719467163 -0.06655382364988327 0.0 255.0 0.0
0.29734018445014954 -0.04475042223930359 -0.00914840865880251 0.0 255.0 0.0
0.1937807947397232 -0.4465790390968323 0.1407962441444397 0.0 255.0 0.0
-0.003085687756538391 0.2666856050491333 -0.21545550227165222 0.0 255.0 0.0
0.29779890179634094 -0.07188978791236877 0.07971598207950592 0.0 255.0 0.0
0.20188133418560028 -0.015640737488865852 0.16811375319957733 0.0 255.0 0.0
0.20107628405094147 0.31762975454330444 -0.00855271890759468 0.0 255.0 0.0
-0.26555711030960083 0.4079646170139313 0.0919216200709343 0.0 255.0 0.0
-0.16350746154785156 0.06244311481714249 -0.13619635999202728 0.0 255.0 0.0
-0.15277710556983948 0.39723673462867737 0.08000551909208298 0.0 255.0 0.0
-0.25678113102912903 0.22729015350341797 0.08037901669740677 0.0 255.0 0.0
-0.178870290517807 -0.3671051561832428 -0.03608990088105202 0.0 255.0 0.0
0.2972581684589386 0.13231399655342102 0.005411412101238966 0.0 255.0 0.0
0.16389693319797516 -0.2983781099319458 0.045277006924152374 0.0 255.0 0.0
0.015067905187606812 -0.2534236013889313 0.1012357771396637 0.0 255.0 0.0
0.07452326267957687 -0.21515201032161713 0.15553905069828033 0.0 255.0 0.0
0.11381557583808899 -0.2502520680427551 0.09163570404052734 0.0 255.0 0.0
0.2609669268131256 -0.2502729594707489 -0.08693637698888779 0.0 255.0 0.0
0.20385541021823883 0.22767190635204315 0.055274028331041336 0.0 255.0 0.0
0.1941629946231842 0.44224870204925537 -0.057504042983055115 0.0 255.0 0.0
0.29757651686668396 0.14792220294475555 -0.020899957045912743 0.0 255.0 0.0
-0.2697129249572754 -0.0004614283097907901 0.03340531885623932 0.0 255.0 0.0
-0.2203395962715149 0.20009654760360718 -0.13717606663703918 0.0 255.0 0.0
-0.15878069400787354 -0.023576978594064713 0.16555729508399963 0.0 255.0 0.0
0.17185378074645996 0.38248732686042786 0.03815312683582306 0.0 255.0 0.0
0.17563174664974213 0.3665968179702759 0.004518755245953798 0.0 255.0 0.0
0.20433519780635834 0.091888427734375 0.16827848553657532 0.0 255.0 0.0
0.23304376006126404 -0.24947959184646606 0.12927328050136566 0.0 255.0 0.0
-0.2717619240283966 0.09782414883375168 -0.06763464212417603 0.0 255.0 0.0
0.15125775337219238 -0.2540145218372345 -0.09243202209472656 0.0 255.0 0.0
-0.026434609666466713 0.22809864580631256 0.12870799005031586 0.0 255.0 0.0
0.29723936319351196 -0.015059239231050014 -0.09210959821939468 0.0 255.0 0.0
-0.2680932283401489 0.02640843577682972 0.009710103273391724 0.0 255.0 0.0
-0.21592390537261963 -0.13352197408676147 -0.13584640622138977 0.0 255.0 0.0
0.06515201926231384 0.22724352777004242 -0.04530626907944679 0.0 255.0 0.0
0.01338885072618723 0.0822819173336029 0.1677139699459076 0.0 255.0 0.0
0.2972581684589386 -0.11424361169338226 -0.037361279129981995 0.0 255.0 0.0
-0.26931190490722656 0.42215436697006226 0.04641806706786156 0.0 255.0 0.0
-0.16792595386505127 0.4756951332092285 0.03931941092014313 0.0 255.0 0.0
-0.1235109344124794 0.2060205489397049 -0.13663089275360107 0.0 255.0 0.0
-0.2718432545661926 0.20077136158943176 0.026396702975034714 0.0 255.0 0.0
-0.12836091220378876 0.1688428372144699 -0.131698876619339 0.0 255.0 0.0
0.08241863548755646 -0.15383358299732208 -0.1395699828863144 0.0 255.0 0.0
-0.015319264493882656 0.014732164330780506 0.16940195858478546 0.0 255.0 0.0
-0.2688356041908264 -0.19882814586162567 0.11759327352046967 0.0 255.0 0.0
-0.15423786640167236 0.41700655221939087 0.08226746320724487 0.0 255.0 0.0
-0.21181204915046692 -0.45458272099494934 -0.016867125406861305 0.0 255.0 0.0
0.07465846091508865 -0.250731885433197 0.047386493533849716 0.0 255.0 0.0
-0.27064016461372375 -0.040181271731853485 0.0016161877429112792 0.0 255.0 0.0
0.2758210599422455 -0.40177837014198303 -0.052523452788591385 0.0 255.0 0.0
0.2972581684589386 -0.054014794528484344 -0.06688766181468964 0.0 255.0 0.0
-0.2707524597644806 -0.15032897889614105 -0.040627866983413696 0.0 255.0 0.0
-0.18795152008533478 -0.4283609390258789 0.011454569175839424 0.0 255.0 0.0
0.23931872844696045 0.22355924546718597 -0.08928298205137253 0.0 255.0 0.0
-0.25293052196502686 0.1433519423007965 0.1594773828983307 0.0 255.0 0.0
-0.26811522245407104 -0.19791334867477417 -0.08319651335477829 0.0 255.0 0.0
0.2423258125782013 -0.09102218598127365 -0.13506805896759033 0.0 255.0 0.0
-0.203627347946167 -0.11486266553401947 -0.13506805896759033 0.0 255.0 0.0
-0.24848055839538574 -0.19470469653606415 0.15314245223999023 0.0 255.0 0.0
-0.2707524597644806 0.15998299419879913 -0.06325496733188629 0.0 255.0 0.0
0.2993333339691162 0.029621221125125885 -0.018431954085826874 0.0 255.0 0.0
0.19571761786937714 -0.3621445596218109 0.14177139103412628 0.0 255.0 0.0
0.30363398790359497 0.4428894519805908 0.07821422070264816 0.0 255.0 0.0
0.10182827711105347 -0.09411618858575821 -0.13506805896759033 0.0 255.0 0.0
-0.22138863801956177 -0.2186203896999359 0.1579122394323349 0.0 255.0 0.0
-0.22738057374954224 0.22797705233097076 0.12543357908725739 0.0 255.0 0.0
-0.1027812659740448 0.22514678537845612 -0.050337765365839005 0.0 255.0 0.0
-0.2231345772743225 -0.3684771955013275 0.14262092113494873 0.0 255.0 0.0
-0.07292356342077255 -0.22570081055164337 -0.13499204814434052 0.0 255.0 0.0
-0.2617424726486206 0.46361854672431946 0.03598260506987572 0.0 255.0 0.0
0.08180490881204605 -0.044029731303453445 -0.13306047022342682 0.0 255.0 0.0
-0.27197298407554626 -0.01238067913800478 0.059350721538066864 0.0 255.0 0.0
0.13828708231449127 0.1950247883796692 0.1583814024925232 0.0 255.0 0.0
0.25030288100242615 -0.3649264872074127 0.15890398621559143 0.0 255.0 0.0
0.024450119584798813 -0.2514295279979706 -0.0945839062333107 0.0 255.0 0.0
0.22892098128795624 -0.3939289152622223 0.19325004518032074 0.0 255.0 0.0
0.09270771592855453 0.22940072417259216 -0.05872248858213425 0.0 255.0 0.0
-0.031669940799474716 0.22851012647151947 -0.09456229209899902 0.0 255.0 0.0
-0.2526840567588806 -0.14322419464588165 -0.13298393785953522 0.0 255.0 0.0
-0.16356341540813446 0.0882592722773552 -0.13414332270622253 0.0 255.0 0.0
0.18215638399124146 0.4508171081542969 -0.022757694125175476 0.0 255.0 0.0
0.28244224190711975 -0.40917640924453735 -0.043607376515865326 0.0 255.0 0.0
0.1797468215227127 -0.31250545382499695 -0.05244472995400429 0.0 255.0 0.0
0.2972327172756195 -0.11978030949831009 -0.08823279291391373 0.0 255.0 0.0
0.2945804297924042 -0.13433143496513367 -0.08932484686374664 0.0 255.0 0.0
0.29589298367500305 0.0911087766289711 -0.0925980731844902 0.0 255.0 0.0
0.11980465799570084 -0.24816837906837463 -0.027570880949497223 0.0 255.0 0.0
-0.13632014393806458 -0.18494769930839539 -0.13356992602348328 0.0 255.0 0.0
0.20024394989013672 0.43682754039764404 -0.06921721994876862 0.0 255.0 0.0
-0.27009284496307373 -0.21795377135276794 0.05289013311266899 0.0 255.0 0.0
-0.08333020657300949 0.22857871651649475 0.11540176719427109 0.0 255.0 0.0
-0.030438434332609177 0.02830757014453411 0.16940195858478546 0.0 255.0 0.0
0.276787668466568 -0.12026242911815643 -0.13387431204319 0.0 255.0 0.0
-0.1955859661102295 0.4138304889202118 -0.07671485096216202 0.0 255.0 0.0
-0.13130666315555573 0.0678982362151146 0.16940195858478546 0.0 255.0 0.0
0.20461060106754303 0.22838622331619263 -0.05660480633378029 0.0 255.0 0.0
0.23376895487308502 0.1889602541923523 0.15528008341789246 0.0 255.0 0.0
-0.1249634250998497 0.031805817037820816 -0.13649819791316986 0.0 255.0 0.0
0.24243579804897308 -0.34134936332702637 0.13563776016235352 0.0 255.0 0.0
-0.12725968658924103 -0.2514919936656952 -0.03790577873587608 0.0 255.0 0.0
-0.2732504606246948 0.18660548329353333 0.10520065575838089 0.0 255.0 0.0
0.29478156566619873 -0.04338638484477997 -0.01644531451165676 0.0 255.0 0.0
0.1281215250492096 0.2046387493610382 -0.13582710921764374 0.0 255.0 0.0
-0.1940619796514511 0.05913933739066124 -0.13448061048984528 0.0 255.0 0.0
-0.06479134410619736 -0.1639147847890854 -0.13506805896759033 0.0 255.0 0.0
0.2972581684589386 0.11352967470884323 0.13193579018115997 0.0 255.0 0.0
0.26831331849098206 -0.34179800748825073 -0.06134120747447014 0.0 255.0 0.0
0.05239257588982582 -0.250715047121048 -0.0637349858880043 0.0 255.0 0.0
-0.29261866211891174 0.06519610434770584 -0.27575162053108215 0.0 255.0 0.0
0.24160820245742798 -0.11662567406892776 -0.13506805896759033 0.0 255.0 0.0
-0.19410520792007446 -0.0973379984498024 -0.13506805896759033 0.0 255.0 0.0
0.04097918048501015 0.1267932653427124 -0.13795936107635498 0.0 255.0 0.0
-0.29118940234184265 0.06043566018342972 -0.28659874200820923 0.0 255.0 0.0
0.2020893096923828 0.44336193799972534 -0.06776761263608932 0.0 255.0 0.0
0.18326793611049652 -0.44663816690444946 -0.009552114643156528 0.0 255.0 0.0
0.14306563138961792 -0.3942444920539856 0.12624125182628632 0.0 255.0 0.0
0.23404408991336823 -0.44654348492622375 0.09566857665777206 0.0 255.0 0.0
-0.24257910251617432 -0.456127405166626 -0.056171439588069916 0.0 255.0 0.0
0.23096680641174316 -0.031652431935071945 -0.1313372105360031 0.0 255.0 0.0
-0.2688769996166229 -0.04152936488389969 -0.07116419821977615 0.0 255.0 0.0
-0.2707524597644806 -0.09595051407814026 -0.015506674535572529 0.0 255.0 0.0
-0.2938435673713684 0.05826673284173012 -0.2742660641670227 0.0 255.0 0.0
0.20662912726402283 0.09179319441318512 0.1701844036579132 0.0 255.0 0.0
0.024389488622546196 -0.24723485112190247 -0.04959004372358322 0.0 255.0 0.0
-0.26784008741378784 -0.14057576656341553 0.12109223008155823 0.0 255.0 0.0
0.020342200994491577 0.22808122634887695 0.133519247174263 0.0 255.0 0.0
-0.16533783078193665 -0.22237053513526917 -0.13459259271621704 0.0 255.0 0.0
-0.269284725189209 -0.009664170444011688 -0.03660519793629646 0.0 255.0 0.0
-0.012701875530183315 0.15688693523406982 -0.13601239025592804 0.0 255.0 0.0
0.2507151663303375 -0.3535310924053192 0.15126147866249084 0.0 255.0 0.0
-0.18946042656898499 -0.40868815779685974 0.08984661847352982 0.0 255.0 0.0
-0.2725711166858673 0.20580480992794037 -0.04888289049267769 0.0 255.0 0.0
0.2972581684589386 0.13080845773220062 -0.09211976826190948 0.0 255.0 0.0
-0.055815160274505615 0.22812457382678986 0.09993704408407211 0.0 255.0 0.0
0.29770395159721375 -0.04475637152791023 -0.0529516227543354 0.0 255.0 0.0
-0.14417096972465515 0.22812457382678986 0.024150175973773003 0.0 255.0 0.0
0.1487893909215927 -0.1646072268486023 0.17126356065273285 0.0 255.0 0.0
-0.26876530051231384 0.3863314092159271 0.006772391963750124 0.0 255.0 0.0
0.07740313559770584 -0.2506999373435974 0.09748975932598114 0.0 255.0 0.0
-0.1535528153181076 0.4016791582107544 0.005569092929363251 0.0 255.0 0.0
-0.27210259437561035 -0.23155033588409424 0.01731131412088871 0.0 255.0 0.0
0.12280784547328949 0.08675726503133774 0.16924609243869781 0.0 255.0 0.0
-0.15600688755512238 0.12569287419319153 0.1690264344215393 0.0 255.0 0.0
-0.1712358295917511 0.3723853826522827 -0.04076021537184715 0.0 255.0 0.0
-0.03878006339073181 -0.1425752192735672 -0.13669951260089874 0.0 255.0 0.0
0.28869736194610596 -0.38563647866249084 0.09195802360773087 0.0 255.0 0.0
-0.16099293529987335 0.22984196245670319 0.031570401042699814 0.0 255.0 0.0
0.2526416480541229 0.22814646363258362 -0.07533911615610123 0.0 255.0 0.0
0.20210663974285126 0.3202274441719055 -0.017079554498195648 0.0 255.0 0.0
0.30092257261276245 0.17442253232002258 0.07366951555013657 0.0 255.0 0.0
-0.027397599071264267 -0.1512286216020584 -0.13579556345939636 0.0 255.0 0.0
0.15768299996852875 0.037646111100912094 -0.13682319223880768 0.0 255.0 0.0
-0.2838663160800934 -0.332263320684433 -0.03797295689582825 0.0 255.0 0.0
0.12161301076412201 0.1479872316122055 0.16867592930793762 0.0 255.0 0.0
0.29013732075691223 0.4804610311985016 0.058857280761003494 0.0 255.0 0.0
0.29554930329322815 0.4636184275150299 0.04369562119245529 0.0 255.0 0.0
-0.28853607177734375 -0.32432734966278076 0.008837724104523659 0.0 255.0 0.0
-0.12728333473205566 -0.25159749388694763 0.04345366731286049 0.0 255.0 0.0
-0.16310618817806244 0.15133370459079742 -0.13454748690128326 0.0 255.0 0.0
0.29691413044929504 0.3679155707359314 0.0669831857085228 0.0 255.0 0.0
-0.16473518311977386 0.38893914222717285 -0.04271074756979942 0.0 255.0 0.0
-0.26912495493888855 0.058229148387908936 -0.05841253325343132 0.0 255.0 0.0
-0.08715319633483887 -0.24819257855415344 0.08408282697200775 0.0 255.0 0.0
0.29756441712379456 0.06181291863322258 0.08975043147802353 0.0 255.0 0.0
-0.09050098061561584 0.032616984099149704 -0.1359069049358368 0.0 255.0 0.0
-0.07300148904323578 -0.2275107204914093 0.15410710871219635 0.0 255.0 0.0
0.24620941281318665 -0.4448604881763458 0.1387629508972168 0.0 255.0 0.0
-0.17382878065109253 0.15518635511398315 -0.1375957429409027 0.0 255.0 0.0
-0.1662226915359497 -0.3345203101634979 0.04365857318043709 0.0 255.0 0.0
-0.2117910236120224 -0.17524145543575287 -0.13309386372566223 0.0 255.0 0.0
0.21851558983325958 -0.1929013878107071 -0.13506805896759033 0.0 255.0 0.0
0.2595096528530121 0.1214912012219429 -0.13558408617973328 0.0 255.0 0.0
0.04496057331562042 -0.25071462988853455 -0.05934542044997215 0.0 255.0 0.0
-0.18806833028793335 -0.4272688627243042 0.05431082472205162 0.0 255.0 0.0
-0.25125694274902344 -0.006464801263064146 0.1596711277961731 0.0 255.0 0.0
0.29838910698890686 0.42456352710723877 0.09172036498785019 0.0 255.0 0.0
0.0657799020409584 -0.24999287724494934 0.09604590386152267 0.0 255.0 0.0
0.19425377249717712 0.4871869385242462 0.09122274070978165 0.0 255.0 0.0
-0.14199182391166687 -0.06992863118648529 0.16831745207309723 0.0 255.0 0.0
-0.18953625857830048 -0.3969224989414215 -0.0437750443816185 0.0 255.0 0.0
-0.15325061976909637 0.381081223487854 0.009810595773160458 0.0 255.0 0.0
0.01862938329577446 0.14741556346416473 -0.13290967047214508 0.0 255.0 0.0
-0.17389455437660217 0.3332463800907135 0.010486151091754436 0.0 255.0 0.0
-0.06937633454799652 -0.07455515116453171 0.16880197823047638 0.0 255.0 0.0
0.2972581684589386 -0.07153350114822388 0.042189065366983414 0.0 255.0 0.0
-0.15712390840053558 -0.31060391664505005 0.015987133607268333 0.0 255.0 0.0
-0.00936537329107523 0.2254718840122223 0.0096369544044137 0.0 255.0 0.0
0.20499657094478607 0.22489044070243835 0.05007965862751007 0.0 255.0 0.0
0.14920574426651 -0.3951372504234314 -0.01846540905535221 0.0 255.0 0.0
0.18101423978805542 0.4640634059906006 0.06212056428194046 0.0 255.0 0.0
0.2218829244375229 -0.4461860954761505 -0.01942380703985691 0.0 255.0 0.0
0.1128314957022667 -0.0905122458934784 0.1688014566898346 0.0 255.0 0.0
-0.14332038164138794 0.07658890634775162 0.17058540880680084 0.0 255.0 0.0
-0.24299485981464386 0.4912251830101013 0.06803704053163528 0.0 255.0 0.0
-0.27781790494918823 -0.40463680028915405 0.18783389031887054 0.0 255.0 0.0
-0.27380597591400146 -0.033633675426244736 -0.008652393706142902 0.0 255.0 0.0
0.2972581684589386 0.06001274660229683 0.03510836139321327 0.0 255.0 0.0
0.28766295313835144 0.42905834317207336 -0.05682676285505295 0.0 255.0 0.0
0.29679757356643677 -0.19174985587596893 -0.11025284230709076 0.0 255.0 0.0
-0.10950466245412827 -0.2500876784324646 -0.045480791479349136 0.0 255.0 0.0
0.2683573067188263 -0.2946275472640991 -0.03902524337172508 0.0 255.0 0.0
-0.12493697553873062 0.04896478354930878 0.16940195858478546 0.0 255.0 0.0
-0.009684798307716846 0.009535412304103374 -0.13506805896759033 0.0 255.0 0.0
-0.2431587278842926 0.05680180713534355 -0.13506805896759033 0.0 255.0 0.0
0.14090603590011597 -0.2536064386367798 -0.03906849026679993 0.0 255.0 0.0
-0.17153184115886688 -0.08243855088949203 0.16940195858478546 0.0 255.0 0.0
0.12712623178958893 0.1809634268283844 -0.13554172217845917 0.0 255.0 0.0
-0.0893029123544693 0.22812457382678986 0.0011731358245015144 0.0 255.0 0.0
-0.3189890384674072 -0.35528847575187683 0.015570995397865772 0.0 255.0 0.0
0.13468831777572632 0.22812457382678986 0.10470385104417801 0.0 255.0 0.0
0.1814873367547989 -0.1252536028623581 0.16940195858478546 0.0 255.0 0.0
0.16950258612632751 0.22759315371513367 -0.09147503972053528 0.0 255.0 0.0
-0.16417427361011505 0.38580694794654846 -0.042558662593364716 0.0 255.0 0.0
-0.06958106905221939 0.11826083809137344 -0.13537171483039856 0.0 255.0 0.0
0.005002141464501619 -0.22245416045188904 -0.13249123096466064 0.0 255.0 0.0
0.2972581684589386 -0.09342274069786072 0.08724156767129898 0.0 255.0 0.0
-0.08424066007137299 0.22801625728607178 -0.1188071072101593 0.0 255.0 0.0
-0.18098154664039612 -0.19866999983787537 -0.13506805896759033 0.0 255.0 0.0
-0.3099181652069092 -0.44209006428718567 -0.06019609421491623 0.0 255.0 0.0
0.12644827365875244 -0.13830327987670898 -0.13466334342956543 0.0 255.0 0.0
0.16761784255504608 -0.2796030342578888 0.04381175339221954 0.0 255.0 0.0
-0.12815500795841217 0.048852864652872086 0.16940195858478546 0.0 255.0 0.0
0.16012166440486908 -0.0400230810046196 0.16880114376544952 0.0 255.0 0.0
-0.2707524597644806 -0.04169955104589462 -0.06751289963722229 0.0 255.0 0.0
0.024404004216194153 -0.1741415113210678 -0.13627855479717255 0.0 255.0 0.0
-0.2512401342391968 -0.2508675754070282 0.11497728526592255 0.0 255.0 0.0
-0.0977083295583725 -0.14117680490016937 -0.13840284943580627 0.0 255.0 0.0
0.020770035684108734 0.05135565623641014 -0.1337929666042328 0.0 255.0 0.0
-0.134196475148201 -0.0065076625905931 0.16940195858478546 0.0 255.0 0.0
0.05581679567694664 0.22812457382678986 0.06926239281892776 0.0 255.0 0.0
0.06452683359384537 0.0828966498374939 -0.13378819823265076 0.0 255.0 0.0
0.29666081070899963 -0.029381433501839638 -0.09336477518081665 0.0 255.0 0.0
-0.26861366629600525 0.14920580387115479 0.12461964040994644 0.0 255.0 0.0
0.06881865113973618 0.05917688086628914 0.17073523998260498 0.0 255.0 0.0
-0.026969561353325844 -0.11066984385251999 -0.13327805697917938 0.0 255.0 0.0
0.2972581684589386 -0.19664406776428223 -0.0666026622056961 0.0 255.0 0.0
-0.10187146812677383 -0.22566722333431244 0.15520690381526947 0.0 255.0 0.0
-0.25806859135627747 -0.4563319981098175 -0.06722009927034378 0.0 255.0 0.0
0.29621779918670654 -0.23111693561077118 -0.057038236409425735 0.0 255.0 0.0
-0.006748864892870188 0.03338397294282913 -0.13506805896759033 0.0 255.0 0.0
0.1318819224834442 0.2052120417356491 -0.13506805896759033 0.0 255.0 0.0
-0.15319661796092987 0.3911705017089844 0.02903737872838974 0.0 255.0 0.0
-0.11378118395805359 0.20176732540130615 -0.1345943808555603 0.0 255.0 0.0
-0.3192157447338104 -0.4161519408226013 0.0058397711254656315 0.0 255.0 0.0
-0.269387811422348 0.04124192148447037 0.08689496666193008 0.0 255.0 0.0
0.20656290650367737 0.23315957188606262 0.06977874040603638 0.0 255.0 0.0
0.2960962653160095 0.20901678502559662 -0.06458517163991928 0.0 255.0 0.0
0.3044895529747009 0.39830371737480164 0.01993127167224884 0.0 255.0 0.0
-0.025734424591064453 -0.22703614830970764 0.15531736612319946 0.0 255.0 0.0
-0.23072317242622375 0.22992020845413208 -0.06424710899591446 0.0 255.0 0.0
-0.2696889340877533 -0.11358793079853058 -0.009310318157076836 0.0 255.0 0.0
0.1412237286567688 -0.38224872946739197 0.02390197664499283 0.0 255.0 0.0
0.1140269935131073 -0.13450483977794647 -0.13506805896759033 0.0 255.0 0.0
0.1990385502576828 -0.44269517064094543 0.11418985575437546 0.0 255.0 0.0
0.19574616849422455 -0.4103524386882782 -0.08154083788394928 0.0 255.0 0.0
0.22509676218032837 -0.44701412320137024 0.04244345426559448 0.0 255.0 0.0
-0.002766396151855588 0.06890758872032166 0.1691330373287201 0.0 255.0 0.0
-0.1621903032064438 0.35691797733306885 -0.02352965623140335 0.0 255.0 0.0
0.2787475883960724 -0.3952718675136566 -0.04781423136591911 0.0 255.0 0.0
-0.23986436426639557 -0.2785276472568512 -0.04677492380142212 0.0 255.0 0.0
-0.043842196464538574 -0.2508266568183899 -0.049101948738098145 0.0 255.0 0.0
0.1814182549715042 -0.4457513391971588 -0.017308643087744713 0.0 255.0 0.0
0.14685063064098358 -0.16231341660022736 -0.13734687864780426 0.0 255.0 0.0
0.14972420036792755 -0.18185392022132874 -0.13506805896759033 0.0 255.0 0.0
-0.06883155554533005 -0.06961391866207123 -0.13635613024234772 0.0 255.0 0.0
-0.2712286412715912 -0.1432313472032547 0.026580849662423134 0.0 255.0 0.0
-0.27062639594078064 -0.08878803998231888 -0.03755497559905052 0.0 255.0 0.0
-0.015078142285346985 0.2252550572156906 0.10345828533172607 0.0 255.0 0.0
0.22375011444091797 0.02600996568799019 0.17032687366008759 0.0 255.0 0.0
-0.06384854018688202 -0.0011354773305356503 -0.13367745280265808 0.0 255.0 0.0
-0.16683244705200195 0.4768848419189453 0.009779672138392925 0.0 255.0 0.0
-0.0630626231431961 0.13699986040592194 -0.13356128334999084 0.0 255.0 0.0
-0.02447778731584549 0.12052629142999649 0.16877160966396332 0.0 255.0 0.0
0.04415912553668022 0.2247176468372345 0.011255936697125435 0.0 255.0 0.0
0.06935472041368484 0.1956537365913391 0.15644288063049316 0.0 255.0 0.0
0.2246483713388443 0.029704894870519638 -0.13026458024978638 0.0 255.0 0.0
-0.02442331239581108 -0.0516640804708004 0.1707771122455597 0.0 255.0 0.0
0.23080360889434814 0.22656911611557007 -0.06846384704113007 0.0 255.0 0.0
0.12518897652626038 0.2348511815071106 -0.08194389194250107 0.0 255.0 0.0
0.1687491536140442 -0.33954474329948425 -0.055165451020002365 0.0 255.0 0.0
0.15806718170642853 -0.25102734565734863 0.1342245191335678 0.0 255.0 0.0
0.29485440254211426 -0.1843816488981247 -0.03449355065822601 0.0 255.0 0.0
0.2972581684589386 0.09122242033481598 -0.08457708358764648 0.0 255.0 0.0
0.09134310483932495 0.22810450196266174 0.0897727906703949 0.0 255.0 0.0
-0.005110745783895254 -0.2512315809726715 -0.06452884525060654 0.0 255.0 0.0
0.06202258542180061 -0.07586707919836044 -0.13703332841396332 0.0 255.0 0.0
-0.2541242837905884 0.4585472047328949 -0.01620747707784176 0.0 255.0 0.0
0.2800746262073517 -0.3466911315917969 0.10000815987586975 0.0 255.0 0.0
0.21281056106090546 0.028259068727493286 -0.13725605607032776 0.0 255.0 0.0
0.22701343894004822 0.22813810408115387 -0.08557560294866562 0.0 255.0 0.0
-0.22511152923107147 0.16562697291374207 -0.1355964094400406 0.0 255.0 0.0
-0.2846432328224182 -0.3188803791999817 0.008398251608014107 0.0 255.0 0.0
-0.07320287823677063 0.017807209864258766 0.1662609726190567 0.0 255.0 0.0
0.29353952407836914 0.10127897560596466 0.13979049026966095 0.0 255.0 0.0
-0.1439487189054489 0.22785569727420807 -0.056697115302085876 0.0 255.0 0.0
0.06105009838938713 -0.2507162392139435 -0.006048077251762152 0.0 255.0 0.0
-0.08380908519029617 -0.2507386803627014 0.1170094758272171 0.0 255.0 0.0
-0.04668016359210014 0.08101282268762589 0.16964676976203918 0.0 255.0 0.0
-0.06932700425386429 0.22807031869888306 -0.003106276039034128 0.0 255.0 0.0
-0.20901109278202057 -0.25171032547950745 -0.08215174823999405 0.0 255.0 0.0
0.07485894113779068 0.22833940386772156 -0.04603055864572525 0.0 255.0 0.0
0.2287432700395584 -0.25049281120300293 0.12172742187976837 0.0 255.0 0.0
0.2956710755825043 0.13666407763957977 0.04519288241863251 0.0 255.0 0.0
-0.022951100021600723 -0.15007618069648743 0.16840104758739471 0.0 255.0 0.0
0.2973911762237549 0.12116328626871109 -0.11104492098093033 0.0 255.0 0.0
0.18093058466911316 -0.2508620619773865 0.1047263965010643 0.0 255.0 0.0
-0.09307972341775894 -0.09063266962766647 -0.13428020477294922 0.0 255.0 0.0
0.29310572147369385 0.07667318731546402 -0.022669797763228416 0.0 255.0 0.0
0.26774072647094727 -0.31150388717651367 0.06847766786813736 0.0 255.0 0.0
0.11035265028476715 -0.06778901070356369 0.1700601428747177 0.0 255.0 0.0
0.25765687227249146 -0.19121281802654266 -0.13506805896759033 0.0 255.0 0.0
-0.04733504354953766 0.08140093088150024 0.1724126636981964 0.0 255.0 0.0
-0.1657894253730774 0.09803283214569092 0.17012052237987518 0.0 255.0 0.0
0.1932283639907837 -0.37182098627090454 0.16138730943202972 0.0 255.0 0.0
-0.039363179355859756 -0.016957532614469528 -0.13506805896759033 0.0 255.0 0.0
-0.030037134885787964 0.017939992249011993 0.16758054494857788 0.0 255.0 0.0
-0.26863938570022583 -0.11282019317150116 0.09242989122867584 0.0 255.0 0.0
0.17298628389835358 0.42066892981529236 0.019061604514718056 0.0 255.0 0.0
0.2921268045902252 0.38347959518432617 -0.05663833022117615 0.0 255.0 0.0
-0.17634370923042297 0.4609759449958801 -0.04569055885076523 0.0 255.0 0.0
0.29522764682769775 -0.007207506336271763 0.12887220084667206 0.0 255.0 0.0
-0.2710932195186615 0.20249469578266144 0.025385113433003426 0.0 255.0 0.0
-0.0903845727443695 -0.25124379992485046 0.006905827671289444 0.0 255.0 0.0
-0.21270020306110382 -0.4614519476890564 0.005189124960452318 0.0 255.0 0.0
-0.270137220621109 0.16717925667762756 0.10287826508283615 0.0 255.0 0.0
0.29541632533073425 -0.1081032007932663 0.03987693041563034 0.0 255.0 0.0
-0.19485843181610107 0.22745810449123383 -0.08412444591522217 0.0 255.0 0.0
0.19031010568141937 -0.3146291971206665 0.09041544049978256 0.0 255.0 0.0
-0.19681988656520844 0.06945959478616714 -0.13414211571216583 0.0 255.0 0.0
-0.20452585816383362 -0.25252005457878113 0.09187433868646622 0.0 255.0 0.0
-0.23078322410583496 -0.2224491834640503 -0.13506805896759033 0.0 255.0 0.0
0.23139892518520355 0.46178171038627625 0.10212906450033188 0.0 255.0 0.0
0.11932612955570221 -0.12340442836284637 -0.13775013387203217 0.0 255.0 0.0
0.13784900307655334 -0.406755268573761 0.10365966707468033 0.0 255.0 0.0
0.002008434385061264 0.11599113047122955 -0.135187566280365 0.0 255.0 0.0
-0.27111607789993286 0.10726357996463776 0.044948503375053406 0.0 255.0 0.0
0.16332712769508362 -0.07104092836380005 -0.13253474235534668 0.0 255.0 0.0
0.1290733367204666 -0.15714649856090546 0.16875828802585602 0.0 255.0 0.0
-0.0661768764257431 0.2327849119901657 0.08635521680116653 0.0 255.0 0.0
0.186499685049057 -0.29584383964538574 -0.047856688499450684 0.0 255.0 0.0
-0.14434492588043213 0.19406050443649292 0.15674833953380585 0.0 255.0 0.0
0.09433507174253464 -0.25003954768180847 0.14031042158603668 0.0 255.0 0.0
-0.22851766645908356 0.20925293862819672 -0.13506805896759033 0.0 255.0 0.0
0.1726512610912323 -0.335985392332077 -0.051651157438755035 0.0 255.0 0.0
-0.20770463347434998 0.2277025431394577 -0.055066730827093124 0.0 255.0 0.0
-0.2673385441303253 -0.4659947454929352 -0.013473574072122574 0.0 255.0 0.0
0.15382671356201172 -0.24896138906478882 -0.02831760235130787 0.0 255.0 0.0
0.2962324023246765 0.016647709533572197 -0.021399617195129395 0.0 255.0 0.0
-0.2708665430545807 -0.18917153775691986 -0.05189899355173111 0.0 255.0 0.0
-0.323432594537735 -0.3843975365161896 -0.0397833026945591 0.0 255.0 0.0
-0.19901183247566223 -0.4010213315486908 0.13585937023162842 0.0 255.0 0.0
0.22227159142494202 -0.4151768386363983 -0.08934871852397919 0.0 255.0 0.0
0.14553646743297577 -0.3700477182865143 0.10967523604631424 0.0 255.0 0.0
-0.18635839223861694 -0.1483125537633896 0.1692521721124649 0.0 255.0 0.0
0.1765315681695938 0.4292179048061371 -0.010908006690442562 0.0 255.0 0.0
0.18347527086734772 -0.4468855857849121 0.17817464470863342 0.0 255.0 0.0
0.2261916995048523 -0.4030545949935913 -0.08782439678907394 0.0 255.0 0.0
-0.06061320751905441 -0.24950143694877625 0.12981367111206055 0.0 255.0 0.0
0.016123134642839432 0.22447475790977478 -0.16961383819580078 0.0 255.0 0.0
-0.07780405879020691 -0.14020676910877228 0.16763177514076233 0.0 255.0 0.0
0.1381625384092331 -0.3943725824356079 0.06604080647230148 0.0 255.0 0.0
-0.06817280501127243 0.22622309625148773 0.1071799099445343 0.0 255.0 0.0
-0.05457977578043938 0.19955308735370636 0.15914300084114075 0.0 255.0 0.0
0.007663520984351635 0.26445692777633667 -0.21736711263656616 0.0 255.0 0.0
-0.12093460559844971 0.2255052626132965 -0.10196935385465622 0.0 255.0 0.0
-0.16105271875858307 -0.342755526304245 0.017443768680095673 0.0 255.0 0.0
0.1894489973783493 -0.25046268105506897 0.125678151845932 0.0 255.0 0.0
0.04753763601183891 -0.24822966754436493 -0.020256688818335533 0.0 255.0 0.0
-0.2709898352622986 0.044917941093444824 0.02954685688018799 0.0 255.0 0.0
0.05582485347986221 0.22738870978355408 0.13195538520812988 0.0 255.0 0.0
-0.14704781770706177 -0.25162574648857117 -0.06429679691791534 0.0 255.0 0.0
-0.03552592545747757 0.22631897032260895 0.047673508524894714 0.0 255.0 0.0
-0.30216842889785767 -0.3551001250743866 -0.036066748201847076 0.0 255.0 0.0
0.29805105924606323 -0.19490362703800201 -0.08215192705392838 0.0 255.0 0.0
0.17962409555912018 0.4630659818649292 0.07848949730396271 0.0 255.0 0.0
-0.08031202107667923 0.14088569581508636 0.17010897397994995 0.0 255.0 0.0
0.1807895451784134 -0.1645701825618744 0.16488739848136902 0.0 255.0 0.0
0.06020005792379379 -0.25372937321662903 0.01931125856935978 0.0 255.0 0.0
-0.19712504744529724 0.07643195986747742 0.1704079806804657 0.0 255.0 0.0
0.2017967700958252 -0.07330192625522614 -0.13425213098526 0.0 255.0 0.0
-0.2708366811275482 -0.06343141943216324 0.11761058121919632 0.0 255.0 0.0
0.03947734460234642 0.00038062583189457655 -0.13086119294166565 0.0 255.0 0.0
-0.24732813239097595 0.0077427588403224945 -0.29309579730033875 0.0 255.0 0.0
-0.1323108822107315 0.22647465765476227 -0.07545675337314606 0.0 255.0 0.0
0.18066085875034332 0.452589750289917 -0.011676693335175514 0.0 255.0 0.0
0.2972581684589386 -0.04124510660767555 -0.04089943319559097 0.0 255.0 0.0
0.25995200872421265 -0.44505244493484497 0.17004773020744324 0.0 255.0 0.0
0.2168153077363968 0.11991647630929947 -0.13506805896759033 0.0 255.0 0.0
-0.2412431836128235 -0.1961338371038437 0.15611156821250916 0.0 255.0 0.0
-0.2522541284561157 -0.20418252050876617 -0.13533185422420502 0.0 255.0 0.0
-0.016348140314221382 -0.24804317951202393 0.12189600616693497 0.0 255.0 0.0
0.09520157426595688 -0.10428251326084137 0.16969047486782074 0.0 255.0 0.0
-0.27323633432388306 0.07224805653095245 0.10867291688919067 0.0 255.0 0.0
0.019275007769465446 0.22836843132972717 0.10653501749038696 0.0 255.0 0.0
0.0018653715960681438 0.22555842995643616 -0.08795462548732758 0.0 255.0 0.0
-0.12205257266759872 -0.25051721930503845 -0.030607210472226143 0.0 255.0 0.0
0.08259589970111847 -0.09128261357545853 0.17042337357997894 0.0 255.0 0.0
0.2972581684589386 -0.11519711464643478 -0.10043741762638092 0.0 255.0 0.0
-0.15543650090694427 -0.17527061700820923 -0.13506805896759033 0.0 255.0 0.0
0.02070995233952999 0.24437634646892548 -0.2568717896938324 0.0 255.0 0.0
