-0.15813352167606354 0.44309699535369873 0.08021755516529083 0.0 255.0 0.0
0.055546194314956665 0.22531093657016754 -0.017446907237172127 0.0 255.0 0.0
-0.0001626375742489472 -0.04455795884132385 -0.13660107553005219 0.0 255.0 0.0
-0.31411993503570557 -0.3840649127960205 -0.05704360455274582 0.0 255.0 0.0
0.1778753250837326 -0.25098299980163574 -0.06760512292385101 0.0 255.0 0.0
0.25512775778770447 0.004300648346543312 -0.1358262449502945 0.0 255.0 0.0
-0.26408639550209045 -0.46037378907203674 0.009218785911798477 0.0 255.0 0.0
0.2972581684589386 -0.23285429179668427 0.08889484405517578 0.0 255.0 0.0
-0.2707524597644806 0.17798392474651337 0.015754833817481995 0.0 255.0 0.0
-0.2684966027736664 0.3687486946582794 0.0062757255509495735 0.0 255.0 0.0
0.13839615881443024 0.2251640260219574 -0.08637500554323196 0.0 255.0 0.0
0.11456438899040222 -0.25430718064308167 0.10217278450727463 0.0 255.0 0.0
0.258901447057724 -0.03156362101435661 -0.13711822032928467 0.0 255.0 0.0
-0.2617626190185547 0.3722819685935974 0.08009926229715347 0.0 255.0 0.0
0.24923336505889893 0.23023885488510132 0.09123189002275467 0.0 255.0 0.0
0.19210803508758545 -0.34814321994781494 -0.07056520134210587 0.0 255.0 0.0
-0.24320892989635468 0.2265716940164566 0.1383548378944397 0.0 255.0 0.0
0.29499921202659607 0.16761361062526703 0.10249578952789307 0.0 255.0 0.0
0.18858574330806732 -0.28811660408973694 0.06881485879421234 0.0 255.0 0.0
0.01152841653674841 0.22812457382678986 -0.04091491177678108 0.0 255.0 0.0
-0.10611627995967865 -0.251480370759964 -0.0002990573411807418 0.0 255.0 0.0
-0.16233015060424805 0.385389506816864 -0.0348479226231575 0.0 255.0 0.0
-0.08220453560352325 -0.02088385447859764 0.17143917083740234 0.0 255.0 0.0
-0.274591326713562 -0.4110231101512909 0.14135414361953735 0.0 255.0 0.0
0.11873593181371689 -0.22821275889873505 0.1544298231601715 0.0 255.0 0.0
0.21470925211906433 0.22809484601020813 -0.10761299729347229 0.0 255.0 0.0
0.1271410584449768 -0.25090596079826355 0.0401156023144722 0.0 255.0 0.0
0.13709864020347595 -0.4108547568321228 0.06457095593214035 0.0 255.0 0.0
0.14860492944717407 0.042063429951667786 0.16739971935749054 0.0 255.0 0.0
0.09557248651981354 0.22877736389636993 0.02117050252854824 0.0 255.0 0.0
0.11746422946453094 0.0714307427406311 0.16683350503444672 0.0 255.0 0.0
0.12773239612579346 0.20702795684337616 -0.1347242295742035 0.0 255.0 0.0
0.2493194192647934 0.5120083093643188 0.09538252651691437 0.0 255.0 0.0
-0.2965121865272522 -0.3229547142982483 0.06493515521287918 0.0 255.0 0.0
-0.0037095604930073023 -0.2479923963546753 -0.05053228884935379 0.0 255.0 0.0
0.29917359352111816 0.13026590645313263 -0.06211445853114128 0.0 255.0 0.0
0.29843831062316895 -0.1327522248029709 -0.11020801216363907 0.0 255.0 0.0
0.2972581684589386 -0.2202354222536087 -0.09227056801319122 0.0 255.0 0.0
-0.083894282579422 -0.13087041676044464 -0.13825756311416626 0.0 255.0 0.0
-0.18437737226486206 -0.10380449891090393 0.17028343677520752 0.0 255.0 0.0
0.19087019562721252 0.3354658782482147 -0.025229893624782562 0.0 255.0 0.0
-0.31972676515579224 -0.4086267948150635 0.02480628527700901 0.0 255.0 0.0
0.19572214782238007 0.3248339891433716 -0.02187764085829258 0.0 255.0 0.0
-0.2953900694847107 -0.0027015770319849253 -0.2773471474647522 0.0 255.0 0.0
0.2972581684589386 0.025468558073043823 0.11282072961330414 0.0 255.0 0.0
0.17881762981414795 0.1031353771686554 0.16780702769756317 0.0 255.0 0.0
0.28197580575942993 -0.3364991247653961 0.07402300834655762 0.0 255.0 0.0
-0.06355969607830048 -0.13721060752868652 -0.1379854530096054 0.0 255.0 0.0
0.202113077044487 0.4767983853816986 -0.039419807493686676 0.0 255.0 0.0
0.251236230134964 0.07290136814117432 -0.1335466057062149 0.0 255.0 0.0
0.019791817292571068 -0.2507132589817047 0.005017630290240049 0.0 255.0 0.0
0.26907360553741455 -0.03608477860689163 -0.13506805896759033 0.0 255.0 0.0
0.29125070571899414 -0.40865567326545715 0.07047147303819656 0.0 255.0 0.0
0.2193705439567566 -0.2890293002128601 -0.06279072165489197 0.0 255.0 0.0
0.2696932852268219 -0.3148649334907532 -0.035404596477746964 0.0 255.0 0.0
-0.2534145414829254 -0.07274670153856277 0.15281140804290771 0.0 255.0 0.0
-0.12993787229061127 -0.1638191193342209 -0.13402077555656433 0.0 255.0 0.0
-0.2689497470855713 -0.08558351546525955 -0.11331633478403091 0.0 255.0 0.0
0.29597458243370056 -0.013511402532458305 -0.05740988627076149 0.0 255.0 0.0
0.29752105474472046 0.019101789221167564 0.10228060930967331 0.0 255.0 0.0
0.14794278144836426 -0.3679782748222351 0.09422945231199265 0.0 255.0 0.0
0.2972581684589386 0.20778325200080872 0.11259298771619797 0.0 255.0 0.0
-0.2203308790922165 -0.02042238786816597 -0.13506805896759033 0.0 255.0 0.0
0.2140558511018753 -0.4444217085838318 -0.03192523121833801 0.0 255.0 0.0
0.20132148265838623 -0.28356772661209106 0.07561440765857697 0.0 255.0 0.0
0.019182616844773293 -0.25070905685424805 -0.07204273343086243 0.0 255.0 0.0
0.14318807423114777 -0.400424599647522 0.027631929144263268 0.0 255.0 0.0
0.1450040340423584 -0.03491371124982834 0.16757610440254211 0.0 255.0 0.0
-0.062014516443014145 0.03560275584459305 -0.13328585028648376 0.0 255.0 0.0
-0.2707524597644806 0.1791672706604004 0.044075507670640945 0.0 255.0 0.0
-0.16228638589382172 0.4482170641422272 -0.010765336453914642 0.0 255.0 0.0
0.29591986536979675 0.05958379805088043 0.026896387338638306 0.0 255.0 0.0
-0.26962965726852417 0.018230272457003593 -0.07004040479660034 0.0 255.0 0.0
-0.2690688669681549 0.404668927192688 0.027584435418248177 0.0 255.0 0.0
0.04417167976498604 0.2266988307237625 0.004553862847387791 0.0 255.0 0.0
0.04840078204870224 -0.25251293182373047 0.06804753094911575 0.0 255.0 0.0
-0.2669784128665924 0.3622342646121979 0.015605905093252659 0.0 255.0 0.0
0.29785457253456116 -0.0038380820769816637 0.11788862198591232 0.0 255.0 0.0
-0.19859358668327332 -0.32128047943115234 0.08307459205389023 0.0 255.0 0.0
0.27615419030189514 -0.33702999353408813 0.06992790848016739 0.0 255.0 0.0
0.19368435442447662 0.4006977379322052 -0.0646025761961937 0.0 255.0 0.0
-0.251714825630188 -0.2958937883377075 -0.049525558948516846 0.0 255.0 0.0
-0.05689717084169388 -0.022866584360599518 -0.13506805896759033 0.0 255.0 0.0
0.23261615633964539 -0.35124948620796204 0.1441468596458435 0.0 255.0 0.0
-0.18447920680046082 -0.3214471936225891 0.0735197365283966 0.0 255.0 0.0
-0.19003134965896606 -0.05732550099492073 -0.13506805896759033 0.0 255.0 0.0
0.09541518986225128 -0.04885172098875046 -0.13506805896759033 0.0 255.0 0.0
0.08518562465906143 -0.029873846098780632 -0.1311788707971573 0.0 255.0 0.0
0.29590314626693726 0.13224227726459503 0.07160499691963196 0.0 255.0 0.0
0.2583650052547455 0.06807056069374084 -0.13796907663345337 0.0 255.0 0.0
-0.2064639925956726 -0.387172132730484 -0.06951301544904709 0.0 255.0 0.0
-0.19477961957454681 -0.2726248502731323 -0.05591864138841629 0.0 255.0 0.0
0.26909369230270386 -0.024636002257466316 0.1561668962240219 0.0 255.0 0.0
0.19460825622081757 0.43231868743896484 -0.06176859140396118 0.0 255.0 0.0
-0.13693346083164215 -0.2539394497871399 0.07857773452997208 0.0 255.0 0.0
-0.20433703064918518 -0.4504036605358124 0.04644915461540222 0.0 255.0 0.0
-0.09588927030563354 0.22822782397270203 0.13071519136428833 0.0 255.0 0.0
0.06150555983185768 0.01861853525042534 0.1700567901134491 0.0 255.0 0.0
0.018620911985635757 0.035391125828027725 -0.13192176818847656 0.0 255.0 0.0
0.2942088842391968 0.38055935502052307 -0.034504856914281845 0.0 255.0 0.0
-0.19750738143920898 -0.05907263234257698 -0.13637636601924896 0.0 255.0 0.0
0.07968701422214508 -0.24981167912483215 0.01963292621076107 0.0 255.0 0.0
-0.050593845546245575 -0.0025771844666451216 -0.13506805896759033 0.0 255.0 0.0
0.06804920732975006 -0.038064345717430115 -0.13506805896759033 0.0 255.0 0.0
-0.1886616051197052 -0.4045209586620331 0.09940703958272934 0.0 255.0 0.0
-0.2689354121685028 -0.1563342660665512 0.10271003842353821 0.0 255.0 0.0
0.02588827535510063 0.17417551577091217 -0.13802433013916016 0.0 255.0 0.0
-0.03951182961463928 -0.24787825345993042 -0.11813950538635254 0.0 255.0 0.0
-0.27166590094566345 0.08848045766353607 0.11846549808979034 0.0 255.0 0.0
-0.26582708954811096 0.37616461515426636 0.0414525605738163 0.0 255.0 0.0
0.17599451541900635 0.37287968397140503 -0.01469552144408226 0.0 255.0 0.0
0.06876131147146225 0.09023596346378326 -0.13517732918262482 0.0 255.0 0.0
0.2972581684589386 0.1318766176700592 0.06539414823055267 0.0 255.0 0.0
0.1803969442844391 0.11430450528860092 -0.13456767797470093 0.0 255.0 0.0
-0.2743237018585205 -0.002411419292911887 -0.10648670792579651 0.0 255.0 0.0
-0.08388175815343857 -0.03734603896737099 0.16724681854248047 0.0 255.0 0.0
-0.04488230496644974 -0.15467530488967896 0.17002497613430023 0.0 255.0 0.0
0.15504848957061768 -0.10937179625034332 -0.1318843513727188 0.0 255.0 0.0
0.2065446674823761 0.228552907705307 -0.030623994767665863 0.0 255.0 0.0
0.15673716366291046 -0.30291274189949036 -0.0016388104995712638 0.0 255.0 0.0
-0.036103539168834686 -0.12478111684322357 0.1705741286277771 0.0 255.0 0.0
0.29913783073425293 -0.10635886341333389 -0.1004563570022583 0.0 255.0 0.0
-0.2707524597644806 0.16567444801330566 0.07145699113607407 0.0 255.0 0.0
0.21854422986507416 -0.44442325830459595 -0.028590010479092598 0.0 255.0 0.0
0.16709448397159576 0.11486098915338516 -0.1345834583044052 0.0 255.0 0.0
-0.1890103965997696 -0.14945481717586517 0.1693912148475647 0.0 255.0 0.0
-0.17646971344947815 -0.25242239236831665 0.0898628830909729 0.0 255.0 0.0
-0.2634125053882599 -0.4510231018066406 0.04879967123270035 0.0 255.0 0.0
-0.15509657561779022 0.45908334851264954 0.0666104406118393 0.0 255.0 0.0
-0.11854258179664612 0.04393467307090759 0.17184202373027802 0.0 255.0 0.0
0.17486132681369781 0.35303428769111633 0.018983684480190277 0.0 255.0 0.0
-0.1369457095861435 0.22605478763580322 -0.02695651166141033 0.0 255.0 0.0
0.19033199548721313 0.02924133650958538 0.16766591370105743 0.0 255.0 0.0
0.10477942228317261 0.0905674397945404 0.17116005718708038 0.0 255.0 0.0
0.17228621244430542 -0.4490915536880493 0.11043012887239456 0.0 255.0 0.0
0.051849205046892166 0.1316196620464325 -0.13506805896759033 0.0 255.0 0.0
0.07754641026258469 -0.20976682007312775 -0.1350831687450409 0.0 255.0 0.0
-0.07438654452562332 0.22812457382678986 0.06937207281589508 0.0 255.0 0.0
-0.23771899938583374 -0.1344279646873474 -0.13506805896759033 0.0 255.0 0.0
0.15262436866760254 -0.3163105547428131 0.0003330647887196392 0.0 255.0 0.0
0.24445970356464386 0.22716927528381348 0.07475768774747849 0.0 255.0 0.0
-0.26897042989730835 0.20422106981277466 0.019381262362003326 0.0 255.0 0.0
-0.23765775561332703 0.4943910539150238 0.08769385516643524 0.0 255.0 0.0
0.25568005442619324 0.16336697340011597 -0.1336483508348465 0.0 255.0 0.0
0.14877425134181976 0.10465703159570694 0.17109674215316772 0.0 255.0 0.0
-0.06463049352169037 0.07723335921764374 -0.13412727415561676 0.0 255.0 0.0
-0.18692250549793243 -0.3265922963619232 0.07681208848953247 0.0 255.0 0.0
0.2904161512851715 0.3869026303291321 -0.050762854516506195 0.0 255.0 0.0
-0.03428494930267334 0.22822554409503937 0.10732242465019226 0.0 255.0 0.0
0.08292682468891144 -0.08140241354703903 0.16734245419502258 0.0 255.0 0.0
0.2443726807832718 -0.09627874940633774 -0.13506805896759033 0.0 255.0 0.0
0.20612317323684692 0.22812457382678986 0.0966358408331871 0.0 255.0 0.0
-0.12466175109148026 -0.0011649270309135318 0.17087838053703308 0.0 255.0 0.0
-0.0733896866440773 0.026781372725963593 0.16995321214199066 0.0 255.0 0.0
-0.21261538565158844 0.5038298964500427 0.06655771285295486 0.0 255.0 0.0
0.20417124032974243 -0.3020800054073334 0.09168171882629395 0.0 255.0 0.0
0.17395730316638947 0.40176963806152344 0.0853603407740593 0.0 255.0 0.0
-0.18403641879558563 -0.1215701475739479 -0.13249003887176514 0.0 255.0 0.0
0.11341866105794907 0.042482949793338776 -0.1346530169248581 0.0 255.0 0.0
-0.2733204960823059 0.048388030380010605 -0.07176225632429123 0.0 255.0 0.0
0.25965625047683716 -0.279121071100235 -0.030286962166428566 0.0 255.0 0.0
-0.19317863881587982 0.2106224000453949 0.15300635993480682 0.0 255.0 0.0
-0.15322060883045197 0.39046522974967957 -0.0064328392036259174 0.0 255.0 0.0
0.24176840484142303 0.15720263123512268 -0.13364212214946747 0.0 255.0 0.0
-0.12770451605319977 0.17625021934509277 -0.13493886590003967 0.0 255.0 0.0
-0.1984579712152481 -0.04497075825929642 0.16935577988624573 0.0 255.0 0.0
0.29577651619911194 0.13296253979206085 -0.04479105398058891 0.0 255.0 0.0
-0.275204062461853 -0.459966778755188 -0.015056001953780651 0.0 255.0 0.0
0.03896114602684975 -0.21084314584732056 -0.13506805896759033 0.0 255.0 0.0
0.161863312125206 0.1520775407552719 -0.13506805896759033 0.0 255.0 0.0
-0.04525890573859215 0.22531737387180328 0.0784992128610611 0.0 255.0 0.0
-0.2740001082420349 -0.45809614658355713 0.0009266706765629351 0.0 255.0 0.0
0.07534116506576538 -0.009436807595193386 -0.1366286426782608 0.0 255.0 0.0
0.2977932393550873 -0.2126474529504776 -0.11033487319946289 0.0 255.0 0.0
0.11136601120233536 0.019713835790753365 0.16940195858478546 0.0 255.0 0.0
0.030213888734579086 0.0538269467651844 0.16940195858478546 0.0 255.0 0.0
0.25441837310791016 0.5071588754653931 -0.013139289803802967 0.0 255.0 0.0
-0.309367299079895 -0.38267403841018677 0.1434870809316635 0.0 255.0 0.0
-0.10651266574859619 -0.25181105732917786 -0.09965154528617859 0.0 255.0 0.0
0.25754523277282715 -0.24566788971424103 0.0998365581035614 0.0 255.0 0.0
-0.19434872269630432 -0.40491783618927 0.11188954859972 0.0 255.0 0.0
-0.2707524597644806 0.004126281477510929 0.04757742956280708 0.0 255.0 0.0
0.29951098561286926 -0.10356064885854721 -0.11433036625385284 0.0 255.0 0.0
-0.26205363869667053 0.463419109582901 0.06602060049772263 0.0 255.0 0.0
0.12191882729530334 -0.2519674301147461 0.026132244616746902 0.0 255.0 0.0
0.14852003753185272 -0.12228145450353622 0.16940195858478546 0.0 255.0 0.0
-0.2525547444820404 -0.2515731155872345 -0.06379816681146622 0.0 255.0 0.0
0.19460982084274292 0.2247621864080429 0.03225477412343025 0.0 255.0 0.0
0.2479160726070404 -0.2522704005241394 0.13733190298080444 0.0 255.0 0.0
0.1519654393196106 -0.3310903012752533 0.04860319569706917 0.0 255.0 0.0
-0.08490292727947235 0.2294735461473465 0.09937935322523117 0.0 255.0 0.0
-0.017820199951529503 0.013910099864006042 0.16929572820663452 0.0 255.0 0.0
-0.25725942850112915 0.4718206822872162 0.07427012920379639 0.0 255.0 0.0
-0.31833764910697937 -0.32745662331581116 0.14560197293758392 0.0 255.0 0.0
0.01023124624043703 0.02844604291021824 0.171702042222023 0.0 255.0 0.0
0.22406654059886932 -0.2504405379295349 0.12452192604541779 0.0 255.0 0.0
-0.08545506000518799 0.16776198148727417 -0.13696621358394623 0.0 255.0 0.0
0.1811079978942871 0.3444223999977112 0.02573196031153202 0.0 255.0 0.0
-0.3204406201839447 -0.4013364911079407 0.04762410372495651 0.0 255.0 0.0
0.22910313308238983 -0.05490715429186821 0.16985692083835602 0.0 255.0 0.0
-0.15579083561897278 0.22773005068302155 0.11897702515125275 0.0 255.0 0.0
-0.08185576647520065 0.20760653913021088 0.1563136726617813 0.0 255.0 0.0
0.17088384926319122 -0.3289816379547119 -0.04769761860370636 0.0 255.0 0.0
-0.19320319592952728 -0.23040953278541565 0.15631447732448578 0.0 255.0 0.0
-0.23947033286094666 -0.36616313457489014 -0.0910414531826973 0.0 255.0 0.0
-0.17945803701877594 0.2264227420091629 -0.09487022459506989 0.0 255.0 0.0
0.1468874216079712 -0.14137722551822662 0.17155903577804565 0.0 255.0 0.0
-0.0005255223950371146 -0.09845268726348877 0.172405406832695 0.0 255.0 0.0
0.15694984793663025 0.22812457382678986 -0.06457143276929855 0.0 255.0 0.0
0.11905653029680252 -0.2530696988105774 0.0722808688879013 0.0 255.0 0.0
0.284037709236145 -0.35573917627334595 0.08941563963890076 0.0 255.0 0.0
0.1920979619026184 -0.42186182737350464 -0.08051574975252151 0.0 255.0 0.0
-0.1346014142036438 0.22851619124412537 0.037764884531497955 0.0 255.0 0.0
0.12834550440311432 -0.14000418782234192 -0.13497662544250488 0.0 255.0 0.0
-0.2707524597644806 0.03151678293943405 0.022190073505043983 0.0 255.0 0.0
0.2695453464984894 -0.023156683892011642 -0.12819258868694305 0.0 255.0 0.0
-0.2178148627281189 0.18574634194374084 -0.1334247589111328 0.0 255.0 0.0
0.2661397457122803 -0.31654614210128784 -0.03693988919258118 0.0 255.0 0.0
-0.26712414622306824 0.44075846672058105 0.024710386991500854 0.0 255.0 0.0
-0.26815369725227356 0.027002593502402306 0.04275406152009964 0.0 255.0 0.0
-0.0801059901714325 -0.12941189110279083 -0.13555003702640533 0.0 255.0 0.0
-0.2711416184902191 0.08884529769420624 0.07150354236364365 0.0 255.0 0.0
0.24195490777492523 0.18672868609428406 0.15511099994182587 0.0 255.0 0.0
0.026358777657151222 0.2287406176328659 -0.032170768827199936 0.0 255.0 0.0
-0.14415544271469116 -0.025882286950945854 0.1682804375886917 0.0 255.0 0.0
0.24613627791404724 0.4134812653064728 0.10308501124382019 0.0 255.0 0.0
0.2972581684589386 -0.10728006064891815 0.0032539539970457554 0.0 255.0 0.0
-0.08897141367197037 -0.2494710087776184 0.12554775178432465 0.0 255.0 0.0
0.01978822611272335 -0.10203960537910461 0.1671992987394333 0.0 255.0 0.0
0.10619167983531952 -0.028348108753561974 0.16875527799129486 0.0 255.0 0.0
-0.15601792931556702 -0.2512126564979553 0.10887660086154938 0.0 255.0 0.0
0.25965559482574463 -0.4487169086933136 0.1789027899503708 0.0 255.0 0.0
-0.19058147072792053 -0.03276188671588898 0.16614781320095062 0.0 255.0 0.0
-0.024909473955631256 0.1292123794555664 0.1687147617340088 0.0 255.0 0.0
0.13799640536308289 -0.4100489616394043 0.09578687697649002 0.0 255.0 0.0
-0.26537024974823 0.44448480010032654 0.009868001565337181 0.0 255.0 0.0
-0.09424781054258347 0.2274797409772873 -0.01574765332043171 0.0 255.0 0.0
-0.14312012493610382 -0.11249614506959915 0.17404977977275848 0.0 255.0 0.0
-0.18862813711166382 -0.3787539005279541 0.08094944059848785 0.0 255.0 0.0
-0.2693622410297394 0.140623077750206 -0.0661088153719902 0.0 255.0 0.0
0.17746798694133759 0.22812457382678986 0.010502579621970654 0.0 255.0 0.0
-0.114130899310112 -0.04570465534925461 0.1644316166639328 0.0 255.0 0.0
-0.09436589479446411 -0.2339225709438324 0.15600325167179108 0.0 255.0 0.0
0.2952495515346527 0.1182013601064682 -0.08989422768354416 0.0 255.0 0.0
0.2619071304798126 -0.2766890227794647 -0.014075350016355515 0.0 255.0 0.0
-0.2707524597644806 0.10745370388031006 -0.016011089086532593 0.0 255.0 0.0
0.2998320460319519 0.384263277053833 0.03496241942048073 0.0 255.0 0.0
0.17276985943317413 -0.4461393356323242 0.15531089901924133 0.0 255.0 0.0
0.2098262459039688 -0.4032016098499298 0.1986265927553177 0.0 255.0 0.0
-0.12008556723594666 -0.2533327043056488 -0.08933337777853012 0.0 255.0 0.0
-0.2428375631570816 -0.24904349446296692 -0.1175098642706871 0.0 255.0 0.0
0.045280858874320984 0.15266326069831848 -0.13506805896759033 0.0 255.0 0.0
-0.2341742366552353 -0.09744372963905334 -0.14055553078651428 0.0 255.0 0.0
0.25811007618904114 -0.051021773368120193 -0.13339565694332123 0.0 255.0 0.0
-0.2708430588245392 0.1487521380186081 -0.10044951736927032 0.0 255.0 0.0
-0.2707524597644806 0.13575683534145355 -0.0719943642616272 0.0 255.0 0.0
-0.2655681073665619 -0.17778202891349792 -0.02704687789082527 0.0 255.0 0.0
0.2972581684589386 -0.233810693025589 -0.06167621165513992 0.0 255.0 0.0
0.2972581684589386 0.11218369007110596 0.09148871153593063 0.0 255.0 0.0
-0.2707524597644806 0.17371824383735657 0.08785226196050644 0.0 255.0 0.0
0.1680174022912979 -0.01887398771941662 0.16940195858478546 0.0 255.0 0.0
-0.2695675492286682 -0.34243783354759216 0.1823987066745758 0.0 255.0 0.0
-0.23513132333755493 -0.012667151167988777 -0.13462598621845245 0.0 255.0 0.0
0.2972549796104431 0.008212708868086338 0.13801294565200806 0.0 255.0 0.0
-0.09032818675041199 -0.13398730754852295 -0.1347404420375824 0.0 255.0 0.0
-0.135568767786026 -0.25221773982048035 -0.026021279394626617 0.0 255.0 0.0
0.25626862049102783 -0.44401875138282776 0.14908382296562195 0.0 255.0 0.0
-0.15389171242713928 0.3991875946521759 0.028526591137051582 0.0 255.0 0.0
0.009779410436749458 0.22812457382678986 -0.009071150794625282 0.0 255.0 0.0
0.14280053973197937 0.22812263667583466 -0.10171010345220566 0.0 255.0 0.0
-0.2707524597644806 0.09944473206996918 -0.1142880991101265 0.0 255.0 0.0
0.1547626554965973 -0.2504173815250397 0.09822706133127213 0.0 255.0 0.0
-0.17758125066757202 0.38200071454048157 -0.06108234077692032 0.0 255.0 0.0
-0.11423005163669586 -0.08539784699678421 -0.133435919880867 0.0 255.0 0.0
0.3019769489765167 0.43565723299980164 0.06876207888126373 0.0 255.0 0.0
0.02748098224401474 -0.02053617686033249 0.1720903515815735 0.0 255.0 0.0
0.2972758412361145 -0.17742469906806946 0.0022592367604374886 0.0 255.0 0.0
0.05658431723713875 -0.10668502748012543 0.16940195858478546 0.0 255.0 0.0
0.29889219999313354 -0.008670859970152378 0.1189434602856636 0.0 255.0 0.0
-0.17992527782917023 -0.3137945830821991 0.06972452998161316 0.0 255.0 0.0
-0.27138954401016235 0.10842210054397583 0.1259622871875763 0.0 255.0 0.0
0.2972581684589386 -0.20499470829963684 -0.05234486982226372 0.0 255.0 0.0
-0.09005359560251236 0.02176506258547306 -0.13742193579673767 0.0 255.0 0.0
-0.10763221234083176 -0.16074442863464355 0.1652759462594986 0.0 255.0 0.0
0.19867849349975586 -0.37390923500061035 0.1646818220615387 0.0 255.0 0.0
0.20852288603782654 -0.13423031568527222 0.1679665893316269 0.0 255.0 0.0
-0.1408861130475998 -0.0681026428937912 0.16810820996761322 0.0 255.0 0.0
-0.08496300131082535 0.05606009066104889 -0.1352875977754593 0.0 255.0 0.0
-0.27253958582878113 -0.2007552534341812 0.09913784265518188 0.0 255.0 0.0
0.059453558176755905 -0.24839191138744354 0.08158381283283234 0.0 255.0 0.0
0.1561533808708191 -0.07169298082590103 0.17215020954608917 0.0 255.0 0.0
-0.002684992738068104 0.08665730059146881 0.16857753694057465 0.0 255.0 0.0
0.2500625550746918 0.32677343487739563 0.06768869608640671 0.0 255.0 0.0
0.00861200038343668 0.24623753130435944 -0.19782784581184387 0.0 255.0 0.0
0.2787248492240906 -0.3206026256084442 0.007751902565360069 0.0 255.0 0.0
-0.12771327793598175 0.06253930926322937 -0.13633354008197784 0.0 255.0 0.0
-0.24636927247047424 0.019853657111525536 -0.28938692808151245 0.0 255.0 0.0
-0.19742351770401 0.3510337173938751 0.0917212963104248 0.0 255.0 0.0
0.17325414717197418 -0.11228234320878983 -0.13296282291412354 0.0 255.0 0.0
-0.10406123101711273 -0.016537118703126907 -0.13506805896759033 0.0 255.0 0.0
0.2088204026222229 -0.10121448338031769 -0.13506805896759033 0.0 255.0 0.0
-0.2360122799873352 0.11391538381576538 -0.13506805896759033 0.0 255.0 0.0
0.17698396742343903 -0.3438032865524292 -0.05674155056476593 0.0 255.0 0.0
-0.1879461258649826 0.48605114221572876 -0.025957925245165825 0.0 255.0 0.0
0.02269349992275238 0.09393402934074402 -0.16632525622844696 0.0 255.0 0.0
0.07038114219903946 -0.06941279768943787 0.17098742723464966 0.0 255.0 0.0
-0.2707524597644806 0.02884133718907833 0.10045835375785828 0.0 255.0 0.0
0.2972581684589386 0.13183574378490448 -0.03758153319358826 0.0 255.0 0.0
-0.08431477099657059 -0.2509986460208893 0.08022859692573547 0.0 255.0 0.0
-0.272636741399765 -0.03094293735921383 0.13262932002544403 0.0 255.0 0.0
-0.2706584632396698 -0.14687827229499817 0.005982973612844944 0.0 255.0 0.0
-0.1623062938451767 -0.1729525923728943 -0.1365581601858139 0.0 255.0 0.0
-0.18932975828647614 0.43317797780036926 -0.07135109603404999 0.0 255.0 0.0
-0.2582274377346039 0.4293076694011688 -0.0479956790804863 0.0 255.0 0.0
-0.12481675297021866 0.23058001697063446 0.058328475803136826 0.0 255.0 0.0
0.17862915992736816 0.09793363511562347 0.16940195858478546 0.0 255.0 0.0
-0.19009076058864594 0.0861247256398201 -0.13506805896759033 0.0 255.0 0.0
-0.20452585816383362 -0.25252005457878113 0.09187433868646622 0.0 255.0 0.0
0.29971152544021606 -0.030682099983096123 0.01120997965335846 0.0 255.0 0.0
0.1887933909893036 -0.40398839116096497 0.1949588507413864 0.0 255.0 0.0
-0.03563142195343971 -0.25232115387916565 0.10343676060438156 0.0 255.0 0.0
0.029328275471925735 -0.01483637373894453 -0.13675759732723236 0.0 255.0 0.0
-0.2712712287902832 0.09286317974328995 0.013044050894677639 0.0 255.0 0.0
0.2984629273414612 -0.12296977639198303 0.08311203867197037 0.0 255.0 0.0
-0.31247079372406006 -0.3544323444366455 -0.004620144609361887 0.0 255.0 0.0
0.2960703670978546 0.4264031648635864 0.09727980196475983 0.0 255.0 0.0
-0.2592056393623352 -0.4334508180618286 0.11653053015470505 0.0 255.0 0.0
-0.1753326654434204 -0.29367226362228394 0.052893806248903275 0.0 255.0 0.0
0.03839201107621193 -0.13447479903697968 0.16909025609493256 0.0 255.0 0.0
-0.2707524597644806 0.009482073597609997 0.11014095693826675 0.0 255.0 0.0
-0.022944025695323944 0.22945190966129303 0.06859134882688522 0.0 255.0 0.0
0.17591838538646698 0.40672895312309265 0.07321745157241821 0.0 255.0 0.0
0.17220453917980194 -0.4083993136882782 -0.06139329448342323 0.0 255.0 0.0
0.18000154197216034 0.4492092728614807 -0.015582813881337643 0.0 255.0 0.0
0.2972581684589386 0.1873905062675476 0.02254338748753071 0.0 255.0 0.0
0.1878943145275116 -0.391722172498703 0.17747145891189575 0.0 255.0 0.0
0.2527022659778595 0.049831878393888474 -0.1355964094400406 0.0 255.0 0.0
0.013719319365918636 -0.028424786403775215 -0.13506805896759033 0.0 255.0 0.0
0.15062783658504486 0.16069364547729492 -0.13506805896759033 0.0 255.0 0.0
0.2955789566040039 0.19431239366531372 0.05658906325697899 0.0 255.0 0.0
-0.19130262732505798 0.059059564024209976 0.16938261687755585 0.0 255.0 0.0
0.18432164192199707 -0.14178623259067535 0.16770042479038239 0.0 255.0 0.0
0.2207401692867279 -0.2507100999355316 0.11900066584348679 0.0 255.0 0.0
0.18876183032989502 0.0647418275475502 -0.13439235091209412 0.0 255.0 0.0
-0.17539499700069427 -0.2517552971839905 -0.07764378935098648 0.0 255.0 0.0
0.25855544209480286 0.09476057440042496 -0.13506805896759033 0.0 255.0 0.0
-0.29693302512168884 -0.38348880410194397 0.17567038536071777 0.0 255.0 0.0
-0.19017374515533447 0.4968201816082001 0.0353144071996212 0.0 255.0 0.0
0.18924376368522644 0.012316874228417873 -0.13472256064414978 0.0 255.0 0.0
-0.2707524597644806 0.0061640008352696896 -0.0829923003911972 0.0 255.0 0.0
0.17254716157913208 0.09618715941905975 0.16848698258399963 0.0 255.0 0.0
-0.16503268480300903 0.41339296102523804 -0.042633917182683945 0.0 255.0 0.0
0.2972581684589386 0.1657499372959137 -0.09385558217763901 0.0 255.0 0.0
-0.12420841306447983 0.12405604124069214 -0.13506805896759033 0.0 255.0 0.0
0.0202332753688097 0.060087814927101135 0.17161203920841217 0.0 255.0 0.0
0.22075234353542328 0.5059775710105896 -0.021750040352344513 0.0 255.0 0.0
-0.20927204191684723 -0.2528010308742523 0.09012918919324875 0.0 255.0 0.0
0.1463911086320877 0.20396248996257782 0.15629561245441437 0.0 255.0 0.0
-0.16086694598197937 0.009480692446231842 0.16830134391784668 0.0 255.0 0.0
-0.012022841721773148 -0.22460193932056427 0.15628546476364136 0.0 255.0 0.0
0.17198802530765533 0.07615338265895844 -0.13506805896759033 0.0 255.0 0.0
0.273363322019577 -0.30844011902809143 0.026387721300125122 0.0 255.0 0.0
-0.10515934973955154 0.013862991705536842 0.16940195858478546 0.0 255.0 0.0
0.1362994909286499 -0.41114333271980286 0.06805450469255447 0.0 255.0 0.0
0.17270031571388245 0.22812457382678986 0.008070021867752075 0.0 255.0 0.0
-0.3117273449897766 -0.35175228118896484 0.017638834193348885 0.0 255.0 0.0
0.2972581684589386 0.17820817232131958 -0.11436950415372849 0.0 255.0 0.0
-0.1775074601173401 0.49046462774276733 0.009747299365699291 0.0 255.0 0.0
-0.10336080938577652 0.20602469146251678 -0.13506805896759033 0.0 255.0 0.0
0.20181922614574432 -0.15800045430660248 -0.1384502649307251 0.0 255.0 0.0
-0.3156552314758301 -0.4153258204460144 0.012690936215221882 0.0 255.0 0.0
0.2570449411869049 0.3302100598812103 0.08435001969337463 0.0 255.0 0.0
0.15116766095161438 0.22520489990711212 -0.06141219288110733 0.0 255.0 0.0
-0.2723323404788971 0.13633950054645538 0.03263304382562637 0.0 255.0 0.0
-0.27615103125572205 -0.4230951964855194 0.10718229413032532 0.0 255.0 0.0
-0.2596590518951416 0.4700329899787903 0.06826423108577728 0.0 255.0 0.0
0.07630977779626846 -0.25074294209480286 -0.008008922450244427 0.0 255.0 0.0
0.13845479488372803 -0.02476145513355732 -0.1377718597650528 0.0 255.0 0.0
0.2972581684589386 -0.13691812753677368 -0.07245362550020218 0.0 255.0 0.0
-0.24695615470409393 0.05158592015504837 -0.13506805896759033 0.0 255.0 0.0
-0.26571086049079895 -0.42376869916915894 0.13961762189865112 0.0 255.0 0.0
0.22916071116924286 0.030313163995742798 -0.13396897912025452 0.0 255.0 0.0
0.19814054667949677 -0.44651228189468384 0.08342276513576508 0.0 255.0 0.0
0.23708277940750122 -0.4449983239173889 -0.03884299099445343 0.0 255.0 0.0
-0.2739488184452057 -0.1548604667186737 -0.07473801076412201 0.0 255.0 0.0
0.0777553841471672 -0.24712425470352173 -0.08079253882169724 0.0 255.0 0.0
-0.23755782842636108 -0.17885759472846985 -0.13512811064720154 0.0 255.0 0.0
-0.03617396950721741 0.14063742756843567 -0.18103736639022827 0.0 255.0 0.0
0.17371736466884613 -0.2477598339319229 0.11210708320140839 0.0 255.0 0.0
0.2995283603668213 0.3915458917617798 -0.02487657219171524 0.0 255.0 0.0
0.29548022150993347 0.06838157773017883 0.014662320725619793 0.0 255.0 0.0
-0.22815756499767303 0.12560029327869415 -0.13079848885536194 0.0 255.0 0.0
0.10745406895875931 -0.25051841139793396 -0.10185112804174423 0.0 255.0 0.0
-0.1695646345615387 0.11420534551143646 -0.13591846823692322 0.0 255.0 0.0
-0.16875608265399933 -0.0884028747677803 0.17263686656951904 0.0 255.0 0.0
0.2972581684589386 0.13433808088302612 0.13669434189796448 0.0 255.0 0.0
0.13372774422168732 0.23187530040740967 -0.05715934932231903 0.0 255.0 0.0
-0.27564647793769836 -0.46538546681404114 -0.03817299008369446 0.0 255.0 0.0
-0.18106606602668762 0.013431413099169731 -0.13506805896759033 0.0 255.0 0.0
-0.07287462800741196 -0.2510327100753784 -0.014813982881605625 0.0 255.0 0.0
0.018718160688877106 -0.05226338654756546 0.16940195858478546 0.0 255.0 0.0
-0.1894260197877884 7.461028872057796e-05 0.16938965022563934 0.0 255.0 0.0
-0.1558680385351181 0.4428980350494385 0.012457105331122875 0.0 255.0 0.0
-0.24395550787448883 -0.14812533557415009 0.15618261694908142 0.0 255.0 0.0
0.2962740659713745 -0.1962929666042328 0.005671161692589521 0.0 255.0 0.0
-0.26931455731391907 -0.21682296693325043 -0.08051297068595886 0.0 255.0 0.0
-0.15763238072395325 0.07759061455726624 0.1680944263935089 0.0 255.0 0.0
0.1953418105840683 -0.21421125531196594 0.15952374041080475 0.0 255.0 0.0
-0.11204793304204941 -0.10274022072553635 -0.1348348706960678 0.0 255.0 0.0
-0.26302239298820496 0.36869561672210693 0.029611535370349884 0.0 255.0 0.0
0.28203025460243225 -0.340053915977478 -0.014913677237927914 0.0 255.0 0.0
-0.044100984930992126 0.2274782359600067 -0.08018080145120621 0.0 255.0 0.0
0.0330030731856823 -0.15811078250408173 -0.13022302091121674 0.0 255.0 0.0
-0.2707524597644806 0.20676834881305695 -0.06629953533411026 0.0 255.0 0.0
-0.2707524597644806 -0.22250619530677795 -0.028252994641661644 0.0 255.0 0.0
0.007476716302335262 0.24491925537586212 -0.26290836930274963 0.0 255.0 0.0
0.22127975523471832 0.12477286159992218 -0.13481523096561432 0.0 255.0 0.0
-0.18115833401679993 -0.41179805994033813 0.018580995500087738 0.0 255.0 0.0
-0.2707524597644806 0.1499769538640976 0.04553544521331787 0.0 255.0 0.0
-0.1687285453081131 0.0951152816414833 -0.13506805896759033 0.0 255.0 0.0
-0.013998274691402912 -0.2508252263069153 -0.04151994362473488 0.0 255.0 0.0
0.2967770993709564 0.377437949180603 -0.026019347831606865 0.0 255.0 0.0
-0.2849876582622528 -0.41663843393325806 0.10332472622394562 0.0 255.0 0.0
0.21573621034622192 -0.06373365223407745 -0.13742846250534058 0.0 255.0 0.0
-0.11303718388080597 0.2322390079498291 0.13411250710487366 0.0 255.0 0.0
-0.3121762275695801 -0.3904859125614166 0.10972822457551956 0.0 255.0 0.0
0.02580356039106846 -0.027278052642941475 0.16897757351398468 0.0 255.0 0.0
-0.2645758092403412 0.3632930815219879 0.027200238779187202 0.0 255.0 0.0
-0.031127257272601128 0.0034646226558834314 0.16821935772895813 0.0 255.0 0.0
0.21388834714889526 -0.4493195414543152 0.16311730444431305 0.0 255.0 0.0
0.017192931845784187 -0.08256293088197708 0.16940195858478546 0.0 255.0 0.0
-0.0073019759729504585 -0.09733577817678452 0.16914081573486328 0.0 255.0 0.0
-0.005965822841972113 -0.2507537007331848 0.007722100708633661 0.0 255.0 0.0
0.2972581684589386 -0.1674499362707138 0.025440892204642296 0.0 255.0 0.0
0.00298385601490736 -0.19501608610153198 -0.1356065422296524 0.0 255.0 0.0
0.30118653178215027 0.15445604920387268 0.050179313868284225 0.0 255.0 0.0
-0.138089120388031 -0.05706839635968208 0.16928979754447937 0.0 255.0 0.0
0.195984348654747 -0.44756367802619934 0.10591556131839752 0.0 255.0 0.0
-0.13687725365161896 0.230915829539299 0.08559925109148026 0.0 255.0 0.0
0.03129398450255394 0.14732465147972107 -0.1363103687763214 0.0 255.0 0.0
-0.2587190568447113 0.373852014541626 -0.0408162921667099 0.0 255.0 0.0
0.10421676188707352 0.029800424352288246 -0.13804174959659576 0.0 255.0 0.0
0.2965277433395386 -0.0032614346127957106 -0.11701612174510956 0.0 255.0 0.0
-0.32117873430252075 -0.331731915473938 0.13276903331279755 0.0 255.0 0.0
0.11876846849918365 0.08484335988759995 0.16908226907253265 0.0 255.0 0.0
-0.08469134569168091 -0.10730567574501038 0.1740121990442276 0.0 255.0 0.0
-0.07268335670232773 -0.24999527633190155 -0.06879871338605881 0.0 255.0 0.0
0.29752957820892334 0.4581751227378845 0.05396643653512001 0.0 255.0 0.0
-0.2245536595582962 0.00667507154867053 -0.13497617840766907 0.0 255.0 0.0
-0.26882994174957275 -0.0500522181391716 0.0536382794380188 0.0 255.0 0.0
-0.2950262725353241 -0.3503550589084625 -0.0471627414226532 0.0 255.0 0.0
-0.27092254161834717 -0.21454983949661255 0.09273470938205719 0.0 255.0 0.0
-0.06505884975194931 0.22688645124435425 0.10488419979810715 0.0 255.0 0.0
0.2666178047657013 0.22578789293766022 -0.10178862512111664 0.0 255.0 0.0
0.1690337210893631 -0.1489202231168747 -0.13458023965358734 0.0 255.0 0.0
0.28101620078086853 0.47229817509651184 -0.039429113268852234 0.0 255.0 0.0
0.2975929379463196 -0.019564328715205193 0.09725912660360336 0.0 255.0 0.0
-0.27108561992645264 -0.21542954444885254 0.0323728509247303 0.0 255.0 0.0
0.2766522467136383 0.22974856197834015 0.06632356345653534 0.0 255.0 0.0
0.0310068242251873 -0.2507140040397644 0.025551972910761833 0.0 255.0 0.0
0.048090532422065735 -0.013547766953706741 -0.13308049738407135 0.0 255.0 0.0
-0.03307609260082245 -0.22385770082473755 -0.13880082964897156 0.0 255.0 0.0
0.189356729388237 -0.16562415659427643 -0.13647772371768951 0.0 255.0 0.0
-0.17467965185642242 -0.1775561422109604 -0.1394781619310379 0.0 255.0 0.0
0.23358643054962158 0.1501644253730774 -0.13596267998218536 0.0 255.0 0.0
0.2972581684589386 0.10501253604888916 -0.0031126306857913733 0.0 255.0 0.0
0.2697363793849945 0.0686412900686264 -0.13082414865493774 0.0 255.0 0.0
-0.13775236904621124 -0.2519398331642151 0.06199079379439354 0.0 255.0 0.0
-0.27381232380867004 0.027111219242215157 0.00789552927017212 0.0 255.0 0.0
-0.23103618621826172 0.22664549946784973 -0.04401562735438347 0.0 255.0 0.0
-0.2518238127231598 -0.05967383459210396 -0.13506805896759033 0.0 255.0 0.0
-0.03784416988492012 0.22806747257709503 -0.11319859325885773 0.0 255.0 0.0
-0.19037023186683655 0.22926203906536102 -0.09512297809123993 0.0 255.0 0.0
-0.19937638938426971 0.22821742296218872 -0.06763375550508499 0.0 255.0 0.0
-0.2689974904060364 0.20860764384269714 0.03816624730825424 0.0 255.0 0.0
-0.05610321834683418 0.13932564854621887 0.17367510497570038 0.0 255.0 0.0
0.14687012135982513 -0.3286370635032654 0.02873532846570015 0.0 255.0 0.0
-0.2608378529548645 0.34880682826042175 0.028766512870788574 0.0 255.0 0.0
-0.2682124376296997 -0.1303122341632843 0.012202220968902111 0.0 255.0 0.0
0.11671426147222519 0.22812457382678986 -0.03828625753521919 0.0 255.0 0.0
0.23778562247753143 0.32517296075820923 0.06571804732084274 0.0 255.0 0.0
0.1409236043691635 -0.2510465979576111 0.009182658977806568 0.0 255.0 0.0
0.009873675182461739 -0.2115974873304367 -0.13313746452331543 0.0 255.0 0.0
-0.23390766978263855 -0.17144611477851868 -0.1368771344423294 0.0 255.0 0.0
0.2987229824066162 0.20435774326324463 -0.018168305978178978 0.0 255.0 0.0
0.14383839070796967 -0.3855404853820801 0.1078735962510109 0.0 255.0 0.0
-0.002611651783809066 0.22812457382678986 -0.07288747280836105 0.0 255.0 0.0
0.004719250835478306 0.1619797646999359 -0.22146601974964142 0.0 255.0 0.0
-0.31692788004875183 -0.3831745684146881 0.12021850794553757 0.0 255.0 0.0
-0.16491690278053284 0.03870762884616852 -0.13229921460151672 0.0 255.0 0.0
-0.27115756273269653 -0.3013096749782562 0.07871658354997635 0.0 255.0 0.0
-0.05501420795917511 0.23033639788627625 0.12383322417736053 0.0 255.0 0.0
-0.2251657098531723 -0.05874030292034149 -0.13704554736614227 0.0 255.0 0.0
-0.282012015581131 -0.3599168062210083 -0.08015719801187515 0.0 255.0 0.0
0.2254725992679596 0.22915199398994446 0.135450541973114 0.0 255.0 0.0
-0.0766243264079094 0.22812457382678986 -0.096855029463768 0.0 255.0 0.0
-0.2545761168003082 0.4728332459926605 0.008224795572459698 0.0 255.0 0.0
0.08071973919868469 -0.08299246430397034 0.17384059727191925 0.0 255.0 0.0
-0.024144120514392853 0.15261687338352203 -0.13506805896759033 0.0 255.0 0.0
-0.04162324592471123 -0.2483798861503601 0.12508469820022583 0.0 255.0 0.0
0.01994076371192932 0.14472664892673492 -0.1341385692358017 0.0 255.0 0.0
-0.0011114609660580754 0.22453418374061584 0.03634431213140488 0.0 255.0 0.0
0.1641627699136734 -0.445840060710907 0.07994400709867477 0.0 255.0 0.0
0.2972581684589386 0.12567517161369324 0.0022184692788869143 0.0 255.0 0.0
0.031786657869815826 0.227994903922081 -0.048545368015766144 0.0 255.0 0.0
0.27683746814727783 0.5007995367050171 0.05347390100359917 0.0 255.0 0.0
-0.05405213683843613 -0.10097179561853409 0.167908176779747 0.0 255.0 0.0
0.06706637144088745 0.0634627491235733 0.1705423891544342 0.0 255.0 0.0
-0.09561081230640411 -0.21970859169960022 0.1562291979789734 0.0 255.0 0.0
-0.24739548563957214 -0.44778311252593994 0.1003398448228836 0.0 255.0 0.0
0.2991759777069092 -0.0016357434215024114 0.06874647736549377 0.0 255.0 0.0
0.11036179214715958 0.18486683070659637 -0.13330739736557007 0.0 255.0 0.0
-0.27048227190971375 -0.23349535465240479 -0.07362128049135208 0.0 255.0 0.0
0.1154620423913002 0.04682507738471031 0.1734628826379776 0.0 255.0 0.0
0.20396381616592407 0.43300068378448486 -0.07549978047609329 0.0 255.0 0.0
0.004787581041455269 0.2548878490924835 -0.20300772786140442 0.0 255.0 0.0
-0.268642783164978 0.009105468168854713 0.1402151882648468 0.0 255.0 0.0
-0.09377113729715347 -0.2534047067165375 0.025617728009819984 0.0 255.0 0.0
0.2010517418384552 -0.24982619285583496 0.13884548842906952 0.0 255.0 0.0
0.19807788729667664 -0.44661369919776917 0.13520587980747223 0.0 255.0 0.0
0.2972581684589386 0.10380028188228607 0.05102311074733734 0.0 255.0 0.0
0.20396992564201355 0.48607349395751953 -0.036231573671102524 0.0 255.0 0.0
-0.2714797556400299 -0.1092839166522026 0.11110655963420868 0.0 255.0 0.0
0.1999518871307373 -0.3431647717952728 -0.07470016181468964 0.0 255.0 0.0
0.15206585824489594 -0.3279143273830414 0.04643811658024788 0.0 255.0 0.0
-0.028145913034677505 0.06306077539920807 -0.13161051273345947 0.0 255.0 0.0
-0.2366572469472885 0.07346395403146744 -0.13154084980487823 0.0 255.0 0.0
0.14941324293613434 -0.3395254909992218 -0.009544113650918007 0.0 255.0 0.0
-0.18838120996952057 -0.032912712544202805 0.1684470921754837 0.0 255.0 0.0
0.2924266755580902 -0.08486896008253098 0.09255604445934296 0.0 255.0 0.0
0.03814943507313728 -0.205882266163826 0.15380752086639404 0.0 255.0 0.0
-0.3076832890510559 -0.37243562936782837 0.18411670625209808 0.0 255.0 0.0
0.028220200911164284 0.2280944585800171 0.1298891007900238 0.0 255.0 0.0
0.2994089126586914 -0.20172418653964996 0.00863459799438715 0.0 255.0 0.0
-0.24252380430698395 -0.049353476613759995 -0.26215168833732605 0.0 255.0 0.0
0.30010801553726196 -0.22490790486335754 0.1262613981962204 0.0 255.0 0.0
0.14728616178035736 -0.24826708436012268 -0.0013994249748066068 0.0 255.0 0.0
-0.15055273473262787 0.23026850819587708 -0.09181447327136993 0.0 255.0 0.0
-0.27265843749046326 0.15969519317150116 0.07637874037027359 0.0 255.0 0.0
-0.15715022385120392 0.08056899160146713 0.17184430360794067 0.0 255.0 0.0
0.19674864411354065 0.07460024952888489 -0.1327495127916336 0.0 255.0 0.0
0.2972581684589386 0.03026796318590641 -0.026522984728217125 0.0 255.0 0.0
0.22447432577610016 0.19329328835010529 -0.13506805896759033 0.0 255.0 0.0
0.044572632759809494 0.2253340780735016 0.11110883951187134 0.0 255.0 0.0
-0.2210616022348404 -0.36766692996025085 0.14642705023288727 0.0 255.0 0.0
-0.2707524597644806 -0.013099240139126778 0.08252494782209396 0.0 255.0 0.0
-0.1174812912940979 0.16527220606803894 -0.13506805896759033 0.0 255.0 0.0
0.2943800687789917 -0.1159459725022316 0.11365286260843277 0.0 255.0 0.0
0.2933814227581024 0.09195610880851746 0.09429094940423965 0.0 255.0 0.0
-0.17684584856033325 0.4913572072982788 0.020818276330828667 0.0 255.0 0.0
-0.22839288413524628 0.494906485080719 -0.020021848380565643 0.0 255.0 0.0
0.24753685295581818 -0.035915836691856384 -0.1379307210445404 0.0 255.0 0.0
-0.10790949314832687 0.22734519839286804 0.13150684535503387 0.0 255.0 0.0
0.2973877787590027 -0.03023572452366352 -0.010431842878460884 0.0 255.0 0.0
0.011221146211028099 -0.10458143055438995 -0.1361084282398224 0.0 255.0 0.0
0.2972581684589386 0.005839517805725336 0.1056259498000145 0.0 255.0 0.0
-0.19532324373722076 -0.4040853679180145 0.1093730553984642 0.0 255.0 0.0
-0.2814452350139618 -0.30861085653305054 0.05961252376437187 0.0 255.0 0.0
0.045082688331604004 0.14538262784481049 0.17321762442588806 0.0 255.0 0.0
-0.1594705432653427 -0.03158756345510483 -0.13446830213069916 0.0 255.0 0.0
-0.004935232922434807 0.06904841959476471 -0.13457506895065308 0.0 255.0 0.0
-0.06286216527223587 0.23027530312538147 0.0738612711429596 0.0 255.0 0.0
0.2646125853061676 -0.30697348713874817 -0.050024040043354034 0.0 255.0 0.0
0.1773964911699295 0.3617205023765564 0.053307387977838516 0.0 255.0 0.0
-0.2707524597644806 -0.045215755701065063 0.0017342939972877502 0.0 255.0 0.0
0.06274435669183731 0.1440879851579666 -0.18092091381549835 0.0 255.0 0.0
-0.23537956178188324 0.22690024971961975 -0.10378704965114594 0.0 255.0 0.0
0.043084289878606796 -0.14084987342357635 -0.1359747052192688 0.0 255.0 0.0
0.2891440987586975 -0.40778496861457825 0.033124472945928574 0.0 255.0 0.0
-0.02464127354323864 -0.20337644219398499 -0.13695010542869568 0.0 255.0 0.0
0.2972581684589386 0.14897434413433075 -0.06183147057890892 0.0 255.0 0.0
-0.1683318316936493 -0.2195667028427124 0.15746064484119415 0.0 255.0 0.0
-0.27128657698631287 -0.1455785483121872 -0.10370315611362457 0.0 255.0 0.0
0.2995859980583191 0.37474972009658813 0.04648726060986519 0.0 255.0 0.0
-0.2676924765110016 0.183328777551651 -0.037211593240499496 0.0 255.0 0.0
-0.2707524597644806 0.18581555783748627 0.08301816135644913 0.0 255.0 0.0
-0.2707524597644806 0.1551843136548996 0.05633850395679474 0.0 255.0 0.0
-0.19635966420173645 0.4011666178703308 -0.07766015082597733 0.0 255.0 0.0
-0.22779154777526855 0.1811373382806778 0.15545250475406647 0.0 255.0 0.0
0.05855003371834755 0.07868072390556335 -0.13506805896759033 0.0 255.0 0.0
-0.09639193117618561 0.08224033564329147 0.16940195858478546 0.0 255.0 0.0
-0.27058157324790955 0.1435423195362091 0.08884775638580322 0.0 255.0 0.0
0.16557727754116058 -0.25148749351501465 0.08473070710897446 0.0 255.0 0.0
-0.20518097281455994 -0.2519320845603943 -0.07940799742937088 0.0 255.0 0.0
0.22128081321716309 -0.10513751953840256 -0.13573391735553741 0.0 255.0 0.0
0.17073579132556915 -0.31509387493133545 -0.03974856063723564 0.0 255.0 0.0
0.2093578428030014 -0.11940409243106842 0.16759265959262848 0.0 255.0 0.0
0.27052026987075806 -0.3249882757663727 0.07157871127128601 0.0 255.0 0.0
0.0033132790122181177 -0.17093394696712494 -0.13506805896759033 0.0 255.0 0.0
0.09815045446157455 -0.25079143047332764 0.018307724967598915 0.0 255.0 0.0
-0.2710660398006439 -0.03935803472995758 -0.09016167372465134 0.0 255.0 0.0
0.26263540983200073 -0.2504202127456665 -0.07400992512702942 0.0 255.0 0.0
-0.26773956418037415 -0.07771486788988113 0.045389316976070404 0.0 255.0 0.0
-0.2840554714202881 -0.4037301540374756 0.15344266593456268 0.0 255.0 0.0
0.21414196491241455 0.17932456731796265 -0.13479097187519073 0.0 255.0 0.0
0.22132326662540436 -0.07994939386844635 -0.13616465032100677 0.0 255.0 0.0
0.16869017481803894 -0.32087913155555725 -0.03517132252454758 0.0 255.0 0.0
0.14875346422195435 -0.06566176563501358 0.1703038066625595 0.0 255.0 0.0
-0.2686784565448761 -0.061898332089185715 0.13540199398994446 0.0 255.0 0.0
0.014762572012841702 0.22582420706748962 0.020948082208633423 0.0 255.0 0.0
0.15978151559829712 -0.32052698731422424 -0.024383220821619034 0.0 255.0 0.0
-0.26976484060287476 0.16549253463745117 0.11620432883501053 0.0 255.0 0.0
0.0752263143658638 0.016491109505295753 -0.13654647767543793 0.0 255.0 0.0
-0.08909682929515839 -0.2480086386203766 0.10700307041406631 0.0 255.0 0.0
0.2998354434967041 -0.04899761825799942 -0.0955398753285408 0.0 255.0 0.0
0.19457125663757324 0.2254359871149063 -0.10440889745950699 0.0 255.0 0.0
0.1871866136789322 -0.037743888795375824 0.16940195858478546 0.0 255.0 0.0
-0.16898031532764435 0.3960723876953125 -0.054355770349502563 0.0 255.0 0.0
0.10713273286819458 -0.13349993526935577 0.16940195858478546 0.0 255.0 0.0
-0.12036275863647461 0.22812457382678986 -0.022729652002453804 0.0 255.0 0.0
0.22664698958396912 0.22940316796302795 0.13626669347286224 0.0 255.0 0.0
-0.11615345627069473 0.07128381729125977 0.16940195858478546 0.0 255.0 0.0
0.2942390441894531 -0.09583447128534317 -0.06297536194324493 0.0 255.0 0.0
-0.2707524597644806 0.03356161341071129 -0.11163754016160965 0.0 255.0 0.0
-0.27415525913238525 0.09215907752513885 -0.07856955379247665 0.0 255.0 0.0
-0.26984187960624695 -0.11738124489784241 0.12919214367866516 0.0 255.0 0.0
-0.201590433716774 -0.2251712679862976 -0.13263748586177826 0.0 255.0 0.0
0.2930246591567993 0.4655178189277649 -0.006837582215666771 0.0 255.0 0.0
0.1789793074131012 -0.1877274066209793 -0.13525819778442383 0.0 255.0 0.0
0.21810376644134521 -0.14094652235507965 0.16977442800998688 0.0 255.0 0.0
0.018620863556861877 -0.24934172630310059 -0.057925913482904434 0.0 255.0 0.0
0.06392796337604523 -0.14311401546001434 0.16940195858478546 0.0 255.0 0.0
-0.2261057198047638 -0.22141677141189575 -0.13506805896759033 0.0 255.0 0.0
-0.10180727392435074 -0.01565486192703247 0.16940195858478546 0.0 255.0 0.0
0.09697165340185165 -0.24955175817012787 -0.11788183450698853 0.0 255.0 0.0
0.13339382410049438 -0.25056445598602295 0.12385348975658417 0.0 255.0 0.0
-0.18793225288391113 -0.25632208585739136 0.10688070952892303 0.0 255.0 0.0
0.29113319516181946 -0.4125472605228424 0.07826022803783417 0.0 255.0 0.0
-0.2715832591056824 -0.3258236050605774 0.16108262538909912 0.0 255.0 0.0
0.2987299859523773 0.3850723206996918 0.09275967627763748 0.0 255.0 0.0
0.007627226412296295 0.19045034050941467 0.15806756913661957 0.0 255.0 0.0
-0.3133159577846527 -0.3305133581161499 0.09716619551181793 0.0 255.0 0.0
-0.15147629380226135 -0.22096984088420868 -0.13710644841194153 0.0 255.0 0.0
0.0038137922529131174 -0.16364997625350952 0.16936495900154114 0.0 255.0 0.0
-0.05707039311528206 -0.141408771276474 0.17239096760749817 0.0 255.0 0.0
0.283291220664978 -0.3507630228996277 0.006323333363980055 0.0 255.0 0.0
0.09948702156543732 -0.1561463624238968 -0.13506805896759033 0.0 255.0 0.0
0.10503565520048141 0.17372672259807587 -0.1354922354221344 0.0 255.0 0.0
0.29671040177345276 0.1416402906179428 -0.09658963978290558 0.0 255.0 0.0
-0.2707524597644806 -0.22754104435443878 -0.09140945225954056 0.0 255.0 0.0
