0.02678547613322735 -0.250178724527359 -0.08889903128147125 0.0 255.0 0.0
-0.05330734699964523 -0.2496866136789322 0.12893876433372498 0.0 255.0 0.0
0.1859259456396103 -0.3191278576850891 0.08851107209920883 0.0 255.0 0.0
-0.13733163475990295 0.0005486884620040655 0.16842448711395264 0.0 255.0 0.0
0.08162513375282288 0.22812457382678986 0.05820271000266075 0.0 255.0 0.0
-0.30756717920303345 -0.428802490234375 -0.020106950774788857 0.0 255.0 0.0
-0.247191920876503 0.04647869989275932 -0.29232677817344666 0.0 255.0 0.0
0.19887152314186096 -0.171499103307724 -0.13573385775089264 0.0 255.0 0.0
0.00833884160965681 -0.0006419125711545348 -0.1340460628271103 0.0 255.0 0.0
0.1736842542886734 -0.44968846440315247 0.11529827862977982 0.0 255.0 0.0
-0.24473993480205536 -0.058019403368234634 -0.2649698853492737 0.0 255.0 0.0
-0.19873911142349243 0.2097046971321106 0.15759608149528503 0.0 255.0 0.0
0.29649823904037476 0.12855011224746704 0.11516012996435165 0.0 255.0 0.0
-0.16159434616565704 0.003693919163197279 -0.1328708976507187 0.0 255.0 0.0
-0.14670993387699127 -0.06782615184783936 -0.13539642095565796 0.0 255.0 0.0
-0.262744665145874 0.37343335151672363 -0.03304147720336914 0.0 255.0 0.0
-0.03536834940314293 0.22490715980529785 -0.029139675199985504 0.0 255.0 0.0
0.18325290083885193 0.4741860628128052 0.069495290517807 0.0 255.0 0.0
0.2792574465274811 -0.3365061283111572 -0.012295928783714771 0.0 255.0 0.0
-0.12939007580280304 0.22812457382678986 -0.04888681322336197 0.0 255.0 0.0
-0.2734276056289673 -0.15677744150161743 0.14067965745925903 0.0 255.0 0.0
-0.26792004704475403 -0.1734774261713028 -0.08170299232006073 0.0 255.0 0.0
0.22657270729541779 -0.10353249311447144 0.17137472331523895 0.0 255.0 0.0
-0.18458817899227142 -0.3760680854320526 0.07721886783838272 0.0 255.0 0.0
0.2989058494567871 0.129672572016716 -0.01463867723941803 0.0 255.0 0.0
-0.16017770767211914 0.0005799285136163235 0.16940195858478546 0.0 255.0 0.0
-0.06254030019044876 0.11907628178596497 0.17101745307445526 0.0 255.0 0.0
-0.26613742113113403 -0.3470059633255005 0.18124674260616302 0.0 255.0 0.0
0.29825544357299805 -0.18425814807415009 -0.09182445704936981 0.0 255.0 0.0
-0.26864737272262573 0.04716353118419647 0.13658574223518372 0.0 255.0 0.0
0.056129880249500275 -0.1082056313753128 0.16839632391929626 0.0 255.0 0.0
-0.15950867533683777 0.20738573372364044 -0.13643769919872284 0.0 255.0 0.0
-0.23937666416168213 -0.4527777135372162 -0.05315980687737465 0.0 255.0 0.0
-0.17586225271224976 0.14760248363018036 0.16774316132068634 0.0 255.0 0.0
0.2962537407875061 0.13446153700351715 -0.10441700369119644 0.0 255.0 0.0
0.04861962050199509 -0.2205861210823059 0.15702630579471588 0.0 255.0 0.0
-0.24232399463653564 -0.047415200620889664 -0.26231956481933594 0.0 255.0 0.0
0.13895173370838165 -0.39523136615753174 0.09892986714839935 0.0 255.0 0.0
-0.32627972960472107 -0.39364737272262573 0.05901021882891655 0.0 255.0 0.0
0.07752736657857895 0.22953319549560547 0.05400571599602699 0.0 255.0 0.0
-0.04340881481766701 -0.21447527408599854 0.15919600427150726 0.0 255.0 0.0
-0.26888564229011536 0.15451323986053467 0.13261042535305023 0.0 255.0 0.0
-0.23135916888713837 -0.17338567972183228 -0.13695771992206573 0.0 255.0 0.0
0.2972581684589386 0.1522282510995865 0.09935302287340164 0.0 255.0 0.0
0.022126954048871994 0.07108563929796219 0.16984796524047852 0.0 255.0 0.0
-0.23777790367603302 -0.1804843544960022 -0.13521994650363922 0.0 255.0 0.0
0.14191503822803497 0.12054406851530075 -0.1333344727754593 0.0 255.0 0.0
0.19800852239131927 0.01207361463457346 0.17004920542240143 0.0 255.0 0.0
0.29768186807632446 0.061602190136909485 0.027545539662241936 0.0 255.0 0.0
0.1610703319311142 -0.06154379993677139 0.1677103489637375 0.0 255.0 0.0
0.18344761431217194 0.34017395973205566 0.034155432134866714 0.0 255.0 0.0
-0.09436589479446411 -0.2339225709438324 0.15600325167179108 0.0 255.0 0.0
0.23638282716274261 0.22813156247138977 0.10474807769060135 0.0 255.0 0.0
-0.13951076567173004 0.10704997181892395 0.16940195858478546 0.0 255.0 0.0
-0.16426262259483337 -0.22245639562606812 0.1562691628932953 0.0 255.0 0.0
-0.2440289556980133 -0.20894627273082733 -0.13506805896759033 0.0 255.0 0.0
-0.26899453997612 -0.011381486430764198 0.010548790916800499 0.0 255.0 0.0
-0.08692356199026108 -0.25108760595321655 0.053794410079717636 0.0 255.0 0.0
-0.2707524597644806 0.16742394864559174 0.09393123537302017 0.0 255.0 0.0
0.08222942054271698 0.19776232540607452 0.1578315645456314 0.0 255.0 0.0
0.29663601517677307 0.0720745250582695 -0.09138606488704681 0.0 255.0 0.0
0.2797919809818268 -0.36683252453804016 -0.03686453774571419 0.0 255.0 0.0
-0.2736756503582001 -0.3027586042881012 0.016241591423749924 0.0 255.0 0.0
-0.2031645029783249 -0.3648436963558197 0.1075313612818718 0.0 255.0 0.0
-0.25055980682373047 -0.4578690528869629 0.04502277821302414 0.0 255.0 0.0
0.2735399603843689 0.36796772480010986 -0.0733327567577362 0.0 255.0 0.0
-0.17196854948997498 -0.08836669474840164 -0.13506805896759033 0.0 255.0 0.0
0.036084260791540146 -0.1619836837053299 -0.13506805896759033 0.0 255.0 0.0
-0.1427263766527176 0.22812457382678986 0.08895008265972137 0.0 255.0 0.0
-0.2095230221748352 -0.30123990774154663 0.091667540371418 0.0 255.0 0.0
0.15042613446712494 0.009657695889472961 0.16708683967590332 0.0 255.0 0.0
-0.18007485568523407 -0.3199211061000824 0.06552740186452866 0.0 255.0 0.0
-0.2978454530239105 -0.3208433985710144 0.06855713576078415 0.0 255.0 0.0
0.2536902129650116 -0.38845035433769226 0.18805167078971863 0.0 255.0 0.0
-0.0073019759729504585 -0.09733577817678452 0.16914081573486328 0.0 255.0 0.0
0.2975929379463196 -0.019564328715205193 0.09725912660360336 0.0 255.0 0.0
-0.026052303612232208 -0.06665891408920288 0.16324755549430847 0.0 255.0 0.0
0.27253714203834534 -0.3938172161579132 -0.06775765866041183 0.0 255.0 0.0
-0.2705641984939575 -0.007604522164911032 0.11988978832960129 0.0 255.0 0.0
-0.292548269033432 -0.3353244960308075 -0.01869519054889679 0.0 255.0 0.0
0.30000609159469604 -0.046972714364528656 -0.0403696745634079 0.0 255.0 0.0
0.18093562126159668 0.18573559820652008 -0.13874030113220215 0.0 255.0 0.0
-0.2677665948867798 0.08514533191919327 0.012902120128273964 0.0 255.0 0.0
0.1999518871307373 -0.3431647717952728 -0.07470016181468964 0.0 255.0 0.0
-0.21409137547016144 -0.15896356105804443 -0.13506805896759033 0.0 255.0 0.0
-0.2623807191848755 -0.03561830520629883 -0.04371759667992592 0.0 255.0 0.0
-0.2673080265522003 -0.3142235577106476 -0.03793042525649071 0.0 255.0 0.0
0.2041822224855423 -0.33581823110580444 0.11745044589042664 0.0 255.0 0.0
0.297365665435791 -0.026418916881084442 -0.055011481046676636 0.0 255.0 0.0
0.12680630385875702 0.22812457382678986 0.090022511780262 0.0 255.0 0.0
0.18653352558612823 -0.09166337549686432 0.16940195858478546 0.0 255.0 0.0
0.15607613325119019 0.13263674080371857 -0.132902592420578 0.0 255.0 0.0
-0.18419624865055084 -0.1857745349407196 0.16255836188793182 0.0 255.0 0.0
-0.050147540867328644 0.11929832398891449 0.16940195858478546 0.0 255.0 0.0
0.29863977432250977 0.01133144274353981 0.05524912476539612 0.0 255.0 0.0
-0.19532886147499084 0.10964862257242203 0.16995450854301453 0.0 255.0 0.0
0.16799794137477875 -0.15720517933368683 -0.13316288590431213 0.0 255.0 0.0
-0.18158192932605743 -0.07992708683013916 0.1677737981081009 0.0 255.0 0.0
0.2058909684419632 -0.1484614759683609 0.16821375489234924 0.0 255.0 0.0
-0.148140549659729 -0.227205291390419 0.15562838315963745 0.0 255.0 0.0
0.22931474447250366 0.22676680982112885 -0.06922424584627151 0.0 255.0 0.0
-0.26621511578559875 0.38052481412887573 -0.006804314907640219 0.0 255.0 0.0
-0.09251504391431808 0.22406990826129913 -0.08441605418920517 0.0 255.0 0.0
0.19500695168972015 -0.30113887786865234 -0.058913495391607285 0.0 255.0 0.0
0.19996868073940277 -0.05256437882781029 0.16940195858478546 0.0 255.0 0.0
0.3028034269809723 0.026552993804216385 0.002645613392814994 0.0 255.0 0.0
-0.24383623898029327 -0.15704640746116638 -0.13607093691825867 0.0 255.0 0.0
-0.02713150717318058 -0.2206643968820572 -0.1379336565732956 0.0 255.0 0.0
-0.04399069771170616 0.22454102337360382 0.12325533479452133 0.0 255.0 0.0
0.29534533619880676 0.43919679522514343 -0.02346046455204487 0.0 255.0 0.0
-0.205516517162323 -0.36973845958709717 0.11837903410196304 0.0 255.0 0.0
-0.2707524597644806 -0.19187332689762115 0.09974774718284607 0.0 255.0 0.0
-0.14593933522701263 -0.21789796650409698 -0.136435404419899 0.0 255.0 0.0
-0.07813405245542526 0.20066973567008972 0.15627850592136383 0.0 255.0 0.0
0.3020029664039612 0.42965593934059143 0.04818426072597504 0.0 255.0 0.0
0.06118503212928772 0.1805548220872879 -0.1839923858642578 0.0 255.0 0.0
-0.03891778737306595 0.16421963274478912 -0.18101847171783447 0.0 255.0 0.0
0.29617229104042053 -0.126154825091362 0.009193679317831993 0.0 255.0 0.0
0.176904559135437 0.23061132431030273 0.03207052871584892 0.0 255.0 0.0
-0.20932826399803162 -0.4268683195114136 -0.04550201818346977 0.0 255.0 0.0
0.2934461832046509 0.4709690809249878 0.022608891129493713 0.0 255.0 0.0
-0.16250817477703094 0.3828850984573364 -0.035218916833400726 0.0 255.0 0.0
0.040955983102321625 0.03652741014957428 0.16940195858478546 0.0 255.0 0.0
0.2945065200328827 -0.15616481006145477 0.13266515731811523 0.0 255.0 0.0
-0.2294834703207016 -0.17768867313861847 -0.13506805896759033 0.0 255.0 0.0
0.2057730108499527 0.22871160507202148 -0.027961522340774536 0.0 255.0 0.0
0.26235687732696533 -0.4451177418231964 0.07223936170339584 0.0 255.0 0.0
0.029075656086206436 -0.2504086196422577 -0.1081189438700676 0.0 255.0 0.0
0.1099449023604393 -0.1020331159234047 0.16877791285514832 0.0 255.0 0.0
0.112559974193573 -0.24995388090610504 -0.06983618438243866 0.0 255.0 0.0
-0.273529589176178 0.14188867807388306 0.11215349286794662 0.0 255.0 0.0
0.3002334237098694 -0.06682804226875305 0.0501570887863636 0.0 255.0 0.0
-0.17719732224941254 -0.37887266278266907 -0.03540753573179245 0.0 255.0 0.0
-0.29022517800331116 -0.3139961361885071 0.0739666298031807 0.0 255.0 0.0
0.2862180173397064 -0.4016610383987427 -0.0012182651553303003 0.0 255.0 0.0
-0.06383620202541351 0.12168708443641663 -0.13506805896759033 0.0 255.0 0.0
0.30001479387283325 0.43997541069984436 0.07066184282302856 0.0 255.0 0.0
0.2666517198085785 0.08969879895448685 0.15606258809566498 0.0 255.0 0.0
-0.10301758348941803 0.05242520570755005 -0.13506805896759033 0.0 255.0 0.0
0.2268393188714981 0.5154513716697693 0.08168190717697144 0.0 255.0 0.0
-0.13903698325157166 -0.1484328657388687 -0.13654324412345886 0.0 255.0 0.0
-0.0770166739821434 0.19755172729492188 0.1597965955734253 0.0 255.0 0.0
-0.2669287621974945 -0.015839986503124237 -0.07554019242525101 0.0 255.0 0.0
-0.009595555253326893 0.22811837494373322 0.12362875789403915 0.0 255.0 0.0
-0.2702317535877228 0.19851785898208618 0.08833813667297363 0.0 255.0 0.0
0.13521313667297363 -0.2508220672607422 0.12265415489673615 0.0 255.0 0.0
0.1587548404932022 -0.44659143686294556 0.11226235330104828 0.0 255.0 0.0
-0.058366239070892334 0.2312590777873993 -0.01462534163147211 0.0 255.0 0.0
-0.27015814185142517 -0.23419716954231262 0.02330944873392582 0.0 255.0 0.0
0.2255450338125229 -0.25196608901023865 0.11548008024692535 0.0 255.0 0.0
0.2588694989681244 0.22848135232925415 -0.08384187519550323 0.0 255.0 0.0
-0.2287193089723587 0.19852487742900848 -0.1361882984638214 0.0 255.0 0.0
0.2972581684589386 -0.16387653350830078 0.10343405604362488 0.0 255.0 0.0
-0.3008969724178314 -0.33521947264671326 0.02571169286966324 0.0 255.0 0.0
-0.13656190037727356 -0.028118209913372993 0.16573132574558258 0.0 255.0 0.0
-0.16677448153495789 0.371816486120224 -0.0430724136531353 0.0 255.0 0.0
-0.24090510606765747 0.4864546060562134 -0.017703311517834663 0.0 255.0 0.0
-0.0010130181908607483 -0.20938420295715332 -0.13506805896759033 0.0 255.0 0.0
0.20935754477977753 0.34291404485702515 0.09944173693656921 0.0 255.0 0.0
0.16360458731651306 0.18816424906253815 0.15578889846801758 0.0 255.0 0.0
0.21760156750679016 -0.11633611470460892 -0.13506805896759033 0.0 255.0 0.0
0.17735175788402557 0.22812457382678986 0.04991242662072182 0.0 255.0 0.0
-0.2678626477718353 0.09127043932676315 0.04485134035348892 0.0 255.0 0.0
-0.00516247283667326 -0.16211220622062683 0.16937242448329926 0.0 255.0 0.0
0.2871072590351105 0.44396981596946716 -0.04850330948829651 0.0 255.0 0.0
-0.042973291128873825 0.22812457382678986 -0.08163627982139587 0.0 255.0 0.0
-0.08752210438251495 0.14632384479045868 -0.13574762642383575 0.0 255.0 0.0
-0.02673884481191635 -0.2538999021053314 -0.036901090294122696 0.0 255.0 0.0
-0.04491047188639641 -0.2018107920885086 -0.1353546530008316 0.0 255.0 0.0
0.2963351607322693 -0.02544475346803665 0.092696413397789 0.0 255.0 0.0
-0.30343014001846313 -0.33423522114753723 0.029172712936997414 0.0 255.0 0.0
0.12368298321962357 0.19629405438899994 0.15621627867221832 0.0 255.0 0.0
-0.033764079213142395 -0.25260603427886963 0.016408875584602356 0.0 255.0 0.0
0.2946096360683441 0.46956560015678406 0.07096434384584427 0.0 255.0 0.0
0.293027400970459 0.020239686593413353 -0.020366884768009186 0.0 255.0 0.0
0.1037582978606224 0.23028044402599335 0.12173064798116684 0.0 255.0 0.0
0.023550724610686302 -0.0549766905605793 -0.13349319994449615 0.0 255.0 0.0
0.18145708739757538 0.11941537261009216 0.16940195858478546 0.0 255.0 0.0
-0.1355282962322235 0.22486139833927155 0.08170011639595032 0.0 255.0 0.0
0.11259402334690094 0.04729970917105675 0.16858376562595367 0.0 255.0 0.0
-0.06392642855644226 -0.034233447164297104 0.17277824878692627 0.0 255.0 0.0
-0.26839974522590637 0.38406431674957275 0.02016974240541458 0.0 255.0 0.0
0.06319183111190796 0.22811049222946167 -0.10412926226854324 0.0 255.0 0.0
-0.163437619805336 0.00047020564670674503 0.1693532019853592 0.0 255.0 0.0
0.1050124317407608 0.02068670280277729 -0.13816490769386292 0.0 255.0 0.0
0.019281040877103806 -0.2507132291793823 0.07990270853042603 0.0 255.0 0.0
0.29768210649490356 -0.048497527837753296 -0.08560232073068619 0.0 255.0 0.0
0.20187176764011383 0.07501509040594101 0.16940195858478546 0.0 255.0 0.0
-0.1001063659787178 -0.0559084452688694 -0.13626255095005035 0.0 255.0 0.0
0.155922532081604 -0.2505863308906555 0.12319281697273254 0.0 255.0 0.0
-0.08600717782974243 0.226270854473114 -0.015719041228294373 0.0 255.0 0.0
-0.1756836324930191 0.14946861565113068 -0.1383512020111084 0.0 255.0 0.0
0.2975780665874481 -0.11878389120101929 -0.09694467484951019 0.0 255.0 0.0
0.28197580575942993 -0.3364991247653961 0.07402300834655762 0.0 255.0 0.0
0.10259218513965607 -0.14357295632362366 -0.13506805896759033 0.0 255.0 0.0
0.2679966986179352 0.0030546935740858316 -0.13514357805252075 0.0 255.0 0.0
0.008274669758975506 -0.24990610778331757 -0.05762616917490959 0.0 255.0 0.0
0.2618935704231262 -0.20510968565940857 0.15292122960090637 0.0 255.0 0.0
-0.2832821309566498 -0.3605428636074066 -0.07529747486114502 0.0 255.0 0.0
0.28694409132003784 -0.39415913820266724 0.013695749454200268 0.0 255.0 0.0
-0.2684337794780731 0.14541611075401306 -0.07343748956918716 0.0 255.0 0.0
-0.269538015127182 -0.1394995152950287 -0.11190880089998245 0.0 255.0 0.0
0.15216350555419922 -0.3341958820819855 0.0557611882686615 0.0 255.0 0.0
0.2977728843688965 0.3885939121246338 0.09893804043531418 0.0 255.0 0.0
0.030777443200349808 -0.25481775403022766 0.09827149659395218 0.0 255.0 0.0
0.07747302204370499 -0.07708486914634705 -0.13240686058998108 0.0 255.0 0.0
-0.0267513245344162 0.027522195130586624 0.1724911779165268 0.0 255.0 0.0
0.10264089703559875 -0.250800222158432 0.02296634390950203 0.0 255.0 0.0
0.17185796797275543 -0.3760276734828949 -0.05645862594246864 0.0 255.0 0.0
0.1891358494758606 0.3354983627796173 -0.019916590303182602 0.0 255.0 0.0
-0.09037551283836365 -0.06535578519105911 0.17017659544944763 0.0 255.0 0.0
-0.17825259268283844 -0.39863213896751404 0.05638353154063225 0.0 255.0 0.0
0.22980982065200806 0.04005339741706848 -0.13546419143676758 0.0 255.0 0.0
0.1411476582288742 0.22656232118606567 0.12764199078083038 0.0 255.0 0.0
0.1986803412437439 0.11468951404094696 0.1685705929994583 0.0 255.0 0.0
-0.19489425420761108 0.04672550410032272 0.16739045083522797 0.0 255.0 0.0
0.30125758051872253 0.1916491538286209 -0.0359049029648304 0.0 255.0 0.0
-0.023071765899658203 -0.24763651192188263 0.014402858912944794 0.0 255.0 0.0
0.07774379849433899 -0.2509438991546631 0.00043426689808256924 0.0 255.0 0.0
-0.08754163980484009 0.035285308957099915 -0.1329527050256729 0.0 255.0 0.0
-0.060376640409231186 0.23187370598316193 -0.0926169753074646 0.0 255.0 0.0
-0.27066871523857117 -0.1703699827194214 -0.07151664793491364 0.0 255.0 0.0
0.3002986013889313 0.1695706695318222 0.045373402535915375 0.0 255.0 0.0
0.024389488622546196 -0.24723485112190247 -0.04959004372358322 0.0 255.0 0.0
-0.04705207049846649 -0.2064310908317566 -0.13506805896759033 0.0 255.0 0.0
0.14597846567630768 -0.039895299822092056 -0.13310793042182922 0.0 255.0 0.0
0.029888682067394257 -0.1302148848772049 -0.13607783615589142 0.0 255.0 0.0
0.18299579620361328 0.4550153315067291 -0.023175444453954697 0.0 255.0 0.0
0.2051033079624176 0.00828553643077612 0.16914087533950806 0.0 255.0 0.0
0.04702283814549446 -0.24745246767997742 0.0961131826043129 0.0 255.0 0.0
0.29809990525245667 -0.03186757117509842 -0.051152367144823074 0.0 255.0 0.0
0.30084845423698425 0.3719886839389801 0.022139940410852432 0.0 255.0 0.0
0.24954211711883545 0.1851910501718521 0.15353156626224518 0.0 255.0 0.0
0.1406005471944809 -0.39968574047088623 0.1255299299955368 0.0 255.0 0.0
-0.06768230348825455 -0.16266071796417236 -0.13626503944396973 0.0 255.0 0.0
-0.03262964263558388 0.1386406421661377 -0.13658946752548218 0.0 255.0 0.0
-0.2665538191795349 0.0744461938738823 0.09910091012716293 0.0 255.0 0.0
0.018582921475172043 0.1540977507829666 -0.21915166079998016 0.0 255.0 0.0
0.2972581684589386 -0.1348763108253479 -0.08152717351913452 0.0 255.0 0.0
-0.22140471637248993 0.14346998929977417 -0.13506805896759033 0.0 255.0 0.0
-0.32991865277290344 -0.40357309579849243 0.003148188116028905 0.0 255.0 0.0
0.20670022070407867 0.2260439246892929 -0.061080437153577805 0.0 255.0 0.0
-0.1529049426317215 0.40463387966156006 0.04377106577157974 0.0 255.0 0.0
-0.079948790371418 -0.2508126497268677 -0.08997315913438797 0.0 255.0 0.0
0.29771140217781067 -0.10710089653730392 -0.09426753968000412 0.0 255.0 0.0
0.27715668082237244 0.22657527029514313 0.063224658370018 0.0 255.0 0.0
-0.09866084158420563 -0.2517611086368561 -0.08645546436309814 0.0 255.0 0.0
0.2972581684589386 0.2100237011909485 -0.09085613489151001 0.0 255.0 0.0
-0.26804879307746887 0.06475285440683365 -0.00790520291775465 0.0 255.0 0.0
0.18496528267860413 0.47866174578666687 0.0666852742433548 0.0 255.0 0.0
0.19513559341430664 -0.05699308589100838 0.16940195858478546 0.0 255.0 0.0
0.17767703533172607 0.4140513837337494 0.09183643758296967 0.0 255.0 0.0
0.19493333995342255 -0.0917014554142952 -0.13506805896759033 0.0 255.0 0.0
-0.15861259400844574 0.22812457382678986 -0.07607927918434143 0.0 255.0 0.0
-0.23370632529258728 -0.27656885981559753 -0.04857798293232918 0.0 255.0 0.0
-0.269284725189209 -0.009664170444011688 -0.03660519793629646 0.0 255.0 0.0
-0.27064645290374756 -0.22136342525482178 -0.07322195917367935 0.0 255.0 0.0
-0.1424388885498047 0.22812457382678986 0.00331763899885118 0.0 255.0 0.0
0.20116287469863892 0.3360615372657776 0.07277927547693253 0.0 255.0 0.0
-0.06340929865837097 -0.250414103269577 0.07127857208251953 0.0 255.0 0.0
0.2145463228225708 0.22815833985805511 0.0887143686413765 0.0 255.0 0.0
-0.1005815863609314 -0.25338947772979736 -0.09388921409845352 0.0 255.0 0.0
0.1567666381597519 -0.25062739849090576 0.12048652768135071 0.0 255.0 0.0
-0.07292356342077255 -0.22570081055164337 -0.13499204814434052 0.0 255.0 0.0
0.30079618096351624 0.20263069868087769 0.10846151411533356 0.0 255.0 0.0
0.2317018359899521 0.11860020458698273 -0.13739797472953796 0.0 255.0 0.0
0.2892383635044098 0.4683549106121063 0.10772349685430527 0.0 255.0 0.0
-0.2707021236419678 0.18159209191799164 0.057439543306827545 0.0 255.0 0.0
0.17785927653312683 -0.02884489670395851 -0.13652974367141724 0.0 255.0 0.0
0.29941418766975403 0.445862352848053 0.04732578992843628 0.0 255.0 0.0
-0.22291137278079987 0.22819508612155914 0.09339642524719238 0.0 255.0 0.0
0.10609687864780426 0.22777099907398224 -0.04018829017877579 0.0 255.0 0.0
0.20063181221485138 -0.3754088878631592 -0.07359455525875092 0.0 255.0 0.0
0.2972581684589386 -0.12328894436359406 -0.08270689845085144 0.0 255.0 0.0
-0.2707524597644806 0.1985902339220047 -0.10471007227897644 0.0 255.0 0.0
0.17799052596092224 0.43784692883491516 -0.011343567632138729 0.0 255.0 0.0
0.10483952611684799 -0.05980439856648445 -0.1389634907245636 0.0 255.0 0.0
0.26336249709129333 -0.28312864899635315 0.04895820841193199 0.0 255.0 0.0
0.29588010907173157 0.13302816450595856 0.07631686329841614 0.0 255.0 0.0
0.2972581684589386 0.08186007291078568 0.10645236819982529 0.0 255.0 0.0
-0.2707524597644806 -0.20496146380901337 -0.0721110850572586 0.0 255.0 0.0
0.2978149652481079 0.19736121594905853 -0.04342915117740631 0.0 255.0 0.0
0.008098525926470757 0.22915829718112946 0.09981454163789749 0.0 255.0 0.0
-0.2426731139421463 -0.24797865748405457 -0.1169029027223587 0.0 255.0 0.0
0.2972581684589386 -0.03134698420763016 0.0003774944634642452 0.0 255.0 0.0
-0.2707524597644806 -0.17012269794940948 -0.049069054424762726 0.0 255.0 0.0
0.07439406961202621 -0.21276165544986725 -0.13477088510990143 0.0 255.0 0.0
0.15180703997612 -0.38088276982307434 -0.027247974649071693 0.0 255.0 0.0
0.12388494610786438 0.12493781745433807 0.16994433104991913 0.0 255.0 0.0
-0.2707524597644806 -0.050941165536642075 0.07230845838785172 0.0 255.0 0.0
-0.18950727581977844 -0.2514122724533081 -0.08766928315162659 0.0 255.0 0.0
-0.27008047699928284 -0.17152588069438934 -0.012890410609543324 0.0 255.0 0.0
-0.22532027959823608 -0.33561187982559204 0.11613499373197556 0.0 255.0 0.0
-0.1889543980360031 0.22807638347148895 -0.06999224424362183 0.0 255.0 0.0
-0.29308781027793884 -0.45097866654396057 -0.03281004726886749 0.0 255.0 0.0
-0.2707524597644806 0.08577620983123779 -0.10438375920057297 0.0 255.0 0.0
-0.14024032652378082 0.028209660202264786 0.16940195858478546 0.0 255.0 0.0
-0.29691246151924133 -0.32931575179100037 0.014756284654140472 0.0 255.0 0.0
0.2034945785999298 0.22304707765579224 -0.06173842400312424 0.0 255.0 0.0
-0.2707524597644806 0.15569902956485748 0.015332461334764957 0.0 255.0 0.0
0.2874543070793152 -0.3838927149772644 0.02504279837012291 0.0 255.0 0.0
-0.2731993794441223 -0.08993871510028839 0.06139236316084862 0.0 255.0 0.0
0.21322327852249146 0.13545650243759155 0.16734400391578674 0.0 255.0 0.0
-0.1282520294189453 -0.13641080260276794 -0.13506805896759033 0.0 255.0 0.0
0.19598612189292908 -0.12413623183965683 0.1695854216814041 0.0 255.0 0.0
0.08016304671764374 0.06464016437530518 -0.13486218452453613 0.0 255.0 0.0
-0.16066806018352509 -0.121892049908638 0.16940195858478546 0.0 255.0 0.0
0.2972581684589386 -0.07706659287214279 -0.07859338819980621 0.0 255.0 0.0
-0.2524125277996063 -0.2862189710140228 0.03848900645971298 0.0 255.0 0.0
-0.1560084968805313 0.39414072036743164 -0.013102899305522442 0.0 255.0 0.0
0.11673521250486374 0.23046177625656128 0.10511980205774307 0.0 255.0 0.0
-0.1516878306865692 0.39327526092529297 0.07106325030326843 0.0 255.0 0.0
0.02682899311184883 0.012762434780597687 -0.13697434961795807 0.0 255.0 0.0
0.19317694008350372 -0.44639694690704346 -0.051008645445108414 0.0 255.0 0.0
-0.026660040020942688 -0.2214929312467575 0.15347672998905182 0.0 255.0 0.0
0.22324049472808838 -0.01663030870258808 0.1675443798303604 0.0 255.0 0.0
0.017373695969581604 -0.14546331763267517 -0.13506805896759033 0.0 255.0 0.0
0.1937536597251892 0.22812457382678986 0.05361292511224747 0.0 255.0 0.0
0.15365447103977203 -0.30937233567237854 0.005347710568457842 0.0 255.0 0.0
0.2107243686914444 -0.28374427556991577 -0.05984936282038689 0.0 255.0 0.0
0.1459915190935135 -0.38994359970092773 -0.02285696379840374 0.0 255.0 0.0
-0.06985092163085938 -0.014051176607608795 -0.13669231534004211 0.0 255.0 0.0
0.29369908571243286 0.3568641245365143 -0.03140907734632492 0.0 255.0 0.0
-0.2590295076370239 -0.39720308780670166 -0.09343478828668594 0.0 255.0 0.0
0.20630843937397003 0.22739923000335693 0.09548246115446091 0.0 255.0 0.0
-0.25540971755981445 -0.442287415266037 0.08630164712667465 0.0 255.0 0.0
0.23976729810237885 0.08214320987462997 -0.13332808017730713 0.0 255.0 0.0
0.1957341581583023 0.190972238779068 0.15823638439178467 0.0 255.0 0.0
-0.022842761129140854 -0.2507920265197754 -0.0027891129720956087 0.0 255.0 0.0
-0.17297181487083435 0.13411857187747955 0.1694677323102951 0.0 255.0 0.0
-0.23382587730884552 -0.2742467522621155 -0.044464729726314545 0.0 255.0 0.0
0.29208189249038696 0.42549270391464233 -0.05184851586818695 0.0 255.0 0.0
-0.04027021303772926 -0.2507489025592804 0.10606548190116882 0.0 255.0 0.0
0.17517738044261932 -0.015231816098093987 -0.1351952999830246 0.0 255.0 0.0
0.27568352222442627 -0.31787675619125366 0.031214183196425438 0.0 255.0 0.0
0.2950670123100281 -0.23152965307235718 -0.04316938668489456 0.0 255.0 0.0
-0.16564209759235382 0.11735992878675461 0.17108730971813202 0.0 255.0 0.0
0.16888019442558289 0.22812457382678986 0.0430612713098526 0.0 255.0 0.0
0.14895518124103546 -0.14849714934825897 0.16921834647655487 0.0 255.0 0.0
0.297751247882843 0.05174655839800835 -0.09253844618797302 0.0 255.0 0.0
-0.17546629905700684 -0.34066933393478394 -0.04495846852660179 0.0 255.0 0.0
0.08952359110116959 0.011250580660998821 -0.13455823063850403 0.0 255.0 0.0
-0.18069864809513092 -0.37647491693496704 0.07736122608184814 0.0 255.0 0.0
0.04849410057067871 -0.08531202375888824 -0.1349940299987793 0.0 255.0 0.0
0.1496177762746811 -0.4233832061290741 -0.020720509812235832 0.0 255.0 0.0
0.2972581684589386 0.14547742903232574 0.07670674473047256 0.0 255.0 0.0
-0.155544251203537 0.3639077842235565 -0.021549073979258537 0.0 255.0 0.0
-0.26847898960113525 -0.17327572405338287 -0.07890264689922333 0.0 255.0 0.0
0.2769865095615387 0.3331145644187927 0.06290079653263092 0.0 255.0 0.0
0.05907709151506424 -0.05309249088168144 0.17008158564567566 0.0 255.0 0.0
-0.09983772039413452 0.229503333568573 0.1017736867070198 0.0 255.0 0.0
-0.0226204264909029 0.14410145580768585 -0.13581085205078125 0.0 255.0 0.0
-0.2707524597644806 0.18472163379192352 0.05735325440764427 0.0 255.0 0.0
0.3000261187553406 0.43953388929367065 0.06898242235183716 0.0 255.0 0.0
-0.031117776408791542 -0.13830672204494476 0.17274990677833557 0.0 255.0 0.0
-0.049096010625362396 0.22783038020133972 -0.09959326684474945 0.0 255.0 0.0
0.09338129311800003 0.18513250350952148 0.15573254227638245 0.0 255.0 0.0
0.21515750885009766 0.3330797255039215 0.0683170035481453 0.0 255.0 0.0
0.08772528916597366 -0.20943354070186615 -0.13444699347019196 0.0 255.0 0.0
-0.2424355298280716 0.22541674971580505 -0.10779908299446106 0.0 255.0 0.0
0.14561939239501953 0.22812457382678986 -0.07583178579807281 0.0 255.0 0.0
-0.2707524597644806 0.1543254554271698 -0.046826254576444626 0.0 255.0 0.0
-0.004178691189736128 0.22595717012882233 -0.035874735563993454 0.0 255.0 0.0
-0.21553179621696472 -0.006530639715492725 -0.13605991005897522 0.0 255.0 0.0
-0.20080193877220154 -0.2501802444458008 -0.08102068305015564 0.0 255.0 0.0
0.3007875978946686 0.3617947995662689 0.02904762141406536 0.0 255.0 0.0
0.1721876859664917 -0.3983396887779236 -0.05529674515128136 0.0 255.0 0.0
-0.077566958963871 0.12324678897857666 0.16940195858478546 0.0 255.0 0.0
0.29994505643844604 0.41644731163978577 -0.015924615785479546 0.0 255.0 0.0
0.2968572974205017 0.16652445495128632 -0.05606323108077049 0.0 255.0 0.0
0.25782257318496704 0.511898398399353 0.08050866425037384 0.0 255.0 0.0
0.29707929491996765 -0.16658765077590942 -0.06608903408050537 0.0 255.0 0.0
0.12024353444576263 0.22807808220386505 0.06420484930276871 0.0 255.0 0.0
-0.001272372086532414 0.22812457382678986 -0.05555114150047302 0.0 255.0 0.0
0.059678662568330765 0.22778615355491638 0.02113838866353035 0.0 255.0 0.0
0.10386578738689423 0.22812457382678986 0.043649282306432724 0.0 255.0 0.0
-0.2672852873802185 0.43628692626953125 0.03482893109321594 0.0 255.0 0.0
-0.02474653720855713 0.14005251228809357 -0.20534421503543854 0.0 255.0 0.0
0.1866118311882019 -0.23110245168209076 0.1572434902191162 0.0 255.0 0.0
-0.2699807584285736 0.13589972257614136 0.14036822319030762 0.0 255.0 0.0
0.25559523701667786 0.2279059737920761 -0.11727353185415268 0.0 255.0 0.0
0.29529914259910583 -0.188191220164299 0.0823667049407959 0.0 255.0 0.0
-0.21750470995903015 -0.45598694682121277 -0.022676166146993637 0.0 255.0 0.0
0.09333889186382294 -0.20639437437057495 -0.13531719148159027 0.0 255.0 0.0
0.17731180787086487 0.22564995288848877 0.05941871181130409 0.0 255.0 0.0
-0.2323443591594696 -0.15921348333358765 -0.13506805896759033 0.0 255.0 0.0
0.06514864414930344 0.1575138121843338 -0.1687428504228592 0.0 255.0 0.0
0.27067941427230835 -0.37428510189056396 -0.06289821863174438 0.0 255.0 0.0
0.29963523149490356 -0.0004588252631947398 -0.0922686755657196 0.0 255.0 0.0
-0.11497030407190323 0.10003014653921127 0.17057831585407257 0.0 255.0 0.0
0.20655211806297302 0.08107080310583115 0.16940195858478546 0.0 255.0 0.0
-0.16001835465431213 0.025954153388738632 -0.1348595917224884 0.0 255.0 0.0
-0.08907123655080795 -0.15803205966949463 -0.13496454060077667 0.0 255.0 0.0
0.14449934661388397 -0.35229769349098206 0.057979434728622437 0.0 255.0 0.0
0.1273966133594513 -0.059339191764593124 -0.13335728645324707 0.0 255.0 0.0
0.04452162981033325 0.13864876329898834 -0.20623503625392914 0.0 255.0 0.0
-0.1334577202796936 0.22812457382678986 0.015249052084982395 0.0 255.0 0.0
-0.19591179490089417 -0.38646838068962097 0.10952449589967728 0.0 255.0 0.0
0.2213866114616394 0.22558605670928955 0.10540600121021271 0.0 255.0 0.0
-0.08120425045490265 -0.226710706949234 -0.13499486446380615 0.0 255.0 0.0
-0.27174216508865356 0.0460832417011261 -0.08957915008068085 0.0 255.0 0.0
-0.19271597266197205 -0.3447951376438141 0.08372493088245392 0.0 255.0 0.0
0.08698678761720657 0.22812457382678986 0.04378899559378624 0.0 255.0 0.0
-0.26889553666114807 -0.1436549425125122 -0.11935202777385712 0.0 255.0 0.0
-0.15462355315685272 -0.25031670928001404 -0.11041203141212463 0.0 255.0 0.0
-0.22214630246162415 0.1148282065987587 -0.13506805896759033 0.0 255.0 0.0
0.17994636297225952 -0.12533226609230042 -0.13710980117321014 0.0 255.0 0.0
-0.2707524597644806 0.015259907580912113 0.00313444621860981 0.0 255.0 0.0
0.2575349807739258 -0.100140281021595 -0.1372801959514618 0.0 255.0 0.0
0.03546493127942085 0.22778046131134033 0.03559372201561928 0.0 255.0 0.0
-0.1779554933309555 0.3431466817855835 0.0743822380900383 0.0 255.0 0.0
-0.27731361985206604 0.038215745240449905 0.1009545549750328 0.0 255.0 0.0
-0.2707524597644806 0.11937349289655685 0.09478192031383514 0.0 255.0 0.0
0.1737794429063797 0.3946355879306793 0.007356554269790649 0.0 255.0 0.0
0.2508332133293152 -0.22131450474262238 -0.13475929200649261 0.0 255.0 0.0
-0.09969776123762131 0.18015249073505402 -0.13555115461349487 0.0 255.0 0.0
0.10537698119878769 -0.18866512179374695 -0.13484403491020203 0.0 255.0 0.0
0.2972581684589386 -0.11649215221405029 -0.015307924710214138 0.0 255.0 0.0
0.17237193882465363 0.1440817415714264 0.16936199367046356 0.0 255.0 0.0
0.16803735494613647 0.20397797226905823 -0.13700352609157562 0.0 255.0 0.0
0.26779985427856445 -0.24950674176216125 0.1355404406785965 0.0 255.0 0.0
-0.031240224838256836 -0.25021132826805115 0.13743498921394348 0.0 255.0 0.0
0.22063471376895905 0.021483970806002617 0.16940195858478546 0.0 255.0 0.0
-0.18995554745197296 -0.42728447914123535 0.0006450128857977688 0.0 255.0 0.0
0.029078088700771332 0.21526820957660675 -0.2368517816066742 0.0 255.0 0.0
-0.0401843823492527 -0.25279298424720764 -0.1052451804280281 0.0 255.0 0.0
-0.047762688249349594 -0.09918855130672455 0.16782262921333313 0.0 255.0 0.0
-0.11682406067848206 0.05692350119352341 0.16960012912750244 0.0 255.0 0.0
0.15599891543388367 -0.15811866521835327 0.16959425806999207 0.0 255.0 0.0
-0.01071240846067667 0.10987429320812225 0.17084930837154388 0.0 255.0 0.0
-0.1558862328529358 0.38734596967697144 0.05029932036995888 0.0 255.0 0.0
-0.3276299238204956 -0.3415530323982239 0.14590561389923096 0.0 255.0 0.0
0.2972581684589386 0.09955539554357529 0.08680671453475952 0.0 255.0 0.0
0.2972581684589386 -0.1436106413602829 -0.009007706306874752 0.0 255.0 0.0
-0.2662413716316223 0.38724496960639954 0.06272487342357635 0.0 255.0 0.0
-0.18177016079425812 0.10566126555204391 0.16823932528495789 0.0 255.0 0.0
0.17095348238945007 0.42035621404647827 0.005314155947417021 0.0 255.0 0.0
0.029128091409802437 0.11981940269470215 -0.13375234603881836 0.0 255.0 0.0
-0.16134825348854065 0.46804651618003845 0.07085201889276505 0.0 255.0 0.0
0.0725865587592125 -0.16179171204566956 0.16937397420406342 0.0 255.0 0.0
0.10062286257743835 0.20071227848529816 -0.13506805896759033 0.0 255.0 0.0
0.2972581684589386 0.08352214097976685 0.0715167447924614 0.0 255.0 0.0
-0.11339624971151352 -0.02293054759502411 -0.13371601700782776 0.0 255.0 0.0
-0.14106662571430206 -0.19518251717090607 -0.13415250182151794 0.0 255.0 0.0
-0.22037458419799805 -0.380984365940094 -0.0812007263302803 0.0 255.0 0.0
0.2989419102668762 0.3829782009124756 0.029210345819592476 0.0 255.0 0.0
-0.2862892150878906 -0.3102753758430481 0.09827298671007156 0.0 255.0 0.0
0.17939792573451996 -0.0645611584186554 -0.13233605027198792 0.0 255.0 0.0
-0.26898831129074097 -0.1656850427389145 0.0007575499475933611 0.0 255.0 0.0
0.0901472270488739 -0.24990400671958923 0.0625896230340004 0.0 255.0 0.0
0.2717585265636444 -0.09712792932987213 0.1515466272830963 0.0 255.0 0.0
-0.2707524597644806 -0.04747820645570755 -0.012433343566954136 0.0 255.0 0.0
0.2987936735153198 -0.14448979496955872 0.07003522664308548 0.0 255.0 0.0
0.11662236601114273 -0.250850111246109 -0.013285445980727673 0.0 255.0 0.0
0.13758623600006104 0.22614939510822296 -0.10861023515462875 0.0 255.0 0.0
-0.2718028426170349 -0.011374453082680702 0.03270561993122101 0.0 255.0 0.0
0.16580899059772491 -0.3653125762939453 0.1288117915391922 0.0 255.0 0.0
-0.02286117896437645 0.018429292365908623 -0.1370396465063095 0.0 255.0 0.0
-0.06518606841564178 -0.24819675087928772 0.004556008614599705 0.0 255.0 0.0
0.08895795792341232 -0.2507294714450836 0.0923994854092598 0.0 255.0 0.0
0.1994590163230896 -0.4462146759033203 0.18494637310504913 0.0 255.0 0.0
0.25915688276290894 -0.2982155382633209 0.0727318599820137 0.0 255.0 0.0
-0.21888060867786407 -0.4651091992855072 -0.00959504023194313 0.0 255.0 0.0
0.29941511154174805 0.3689174950122833 0.002019505714997649 0.0 255.0 0.0
-0.199567973613739 -0.06698134541511536 0.16995595395565033 0.0 255.0 0.0
-0.10995756834745407 -0.25014472007751465 0.03723394498229027 0.0 255.0 0.0
-0.1471284180879593 0.22654883563518524 0.08189700543880463 0.0 255.0 0.0
-0.033040836453437805 0.011488428339362144 -0.13296696543693542 0.0 255.0 0.0
0.29138731956481934 -0.14885665476322174 -0.02268090471625328 0.0 255.0 0.0
-0.2515428066253662 -0.17035940289497375 -0.13266032934188843 0.0 255.0 0.0
0.3010599613189697 0.2012285441160202 -0.03325602412223816 0.0 255.0 0.0
-0.1340663731098175 -0.03294384479522705 0.16940195858478546 0.0 255.0 0.0
-0.10914146155118942 -0.24919965863227844 -0.002280176617205143 0.0 255.0 0.0
-0.19822989404201508 -0.1546030193567276 0.17177961766719818 0.0 255.0 0.0
0.19713176786899567 0.22993896901607513 -0.01351217832416296 0.0 255.0 0.0
-0.27405405044555664 -0.3072378635406494 -0.012393256649374962 0.0 255.0 0.0
-0.2739897668361664 -0.15149128437042236 -0.02695217728614807 0.0 255.0 0.0
0.2951247990131378 0.025301668792963028 -0.020121103152632713 0.0 255.0 0.0
-0.03123590350151062 -0.2507803440093994 -0.04289965704083443 0.0 255.0 0.0
0.29681310057640076 -0.000627690926194191 0.0872446820139885 0.0 255.0 0.0
0.2989118695259094 0.39013561606407166 0.06694890558719635 0.0 255.0 0.0
0.21854422986507416 -0.44442325830459595 -0.028590010479092598 0.0 255.0 0.0
-0.1558462232351303 0.01202384289354086 0.16940195858478546 0.0 255.0 0.0
-0.2067173421382904 -0.43718719482421875 0.09359277039766312 0.0 255.0 0.0
0.1822849065065384 0.3299945294857025 0.009150772355496883 0.0 255.0 0.0
-0.19391682744026184 -0.33719733357429504 0.08220653980970383 0.0 255.0 0.0
-0.19231988489627838 -0.021781394258141518 0.17109984159469604 0.0 255.0 0.0
-0.1601695418357849 -0.09758134186267853 0.17146003246307373 0.0 255.0 0.0
0.12241658568382263 0.07497537136077881 -0.13336284458637238 0.0 255.0 0.0
0.04011659324169159 -0.25071462988853455 0.02905270643532276 0.0 255.0 0.0
0.1642361283302307 -0.08906081318855286 0.167383074760437 0.0 255.0 0.0
-0.023062121123075485 -0.2193365842103958 -0.13722774386405945 0.0 255.0 0.0
-0.09377385675907135 0.16664248704910278 -0.13200151920318604 0.0 255.0 0.0
0.0847107321023941 0.22901466488838196 -0.013138913549482822 0.0 255.0 0.0
0.14330747723579407 0.22812457382678986 -0.03246674686670303 0.0 255.0 0.0
-0.05327087640762329 -0.02503327839076519 -0.13506805896759033 0.0 255.0 0.0
-0.28452610969543457 -0.445614755153656 0.002101382240653038 0.0 255.0 0.0
0.23856154084205627 -0.03753712773323059 -0.13184699416160583 0.0 255.0 0.0
0.0736168771982193 -0.09775592386722565 0.16882887482643127 0.0 255.0 0.0
0.14811384677886963 0.1171293556690216 -0.1362168937921524 0.0 255.0 0.0
-0.27036893367767334 0.17152680456638336 0.007028588559478521 0.0 255.0 0.0
0.031771402806043625 -0.20694632828235626 -0.13797767460346222 0.0 255.0 0.0
-0.2707524597644806 0.1135716363787651 -0.08807239681482315 0.0 255.0 0.0
0.05620163679122925 0.19571906328201294 0.15638120472431183 0.0 255.0 0.0
0.17744863033294678 -0.44621434807777405 0.0638994574546814 0.0 255.0 0.0
-0.2717260420322418 0.06292828172445297 -0.05360403656959534 0.0 255.0 0.0
-0.24326719343662262 0.19270314276218414 -0.13701899349689484 0.0 255.0 0.0
-0.26766377687454224 0.36356428265571594 -0.0069696931168437 0.0 255.0 0.0
0.2972581684589386 0.152162104845047 0.07359784096479416 0.0 255.0 0.0
0.01156277023255825 0.1913747787475586 -0.23059295117855072 0.0 255.0 0.0
-0.2106921523809433 -0.4455527067184448 -0.021085163578391075 0.0 255.0 0.0
-0.16816450655460358 0.017639242112636566 -0.13506805896759033 0.0 255.0 0.0
-0.04960166662931442 0.06872779875993729 0.16940195858478546 0.0 255.0 0.0
0.243000790476799 -0.23242254555225372 -0.13506805896759033 0.0 255.0 0.0
-0.1856905072927475 0.13740599155426025 0.17071524262428284 0.0 255.0 0.0
0.18446175754070282 0.40063872933387756 -0.03475712612271309 0.0 255.0 0.0
0.17630137503147125 0.4142725467681885 -0.008795160800218582 0.0 255.0 0.0
0.2930801808834076 -0.13417677581310272 -0.10594403743743896 0.0 255.0 0.0
0.059429217129945755 -0.2506893277168274 -0.0784950777888298 0.0 255.0 0.0
-0.2687864303588867 -0.1728636920452118 0.049068111926317215 0.0 255.0 0.0
-0.1548052877187729 0.4088708162307739 0.008619055151939392 0.0 255.0 0.0
-0.2019343227148056 -0.44920068979263306 0.01801353506743908 0.0 255.0 0.0
-0.2730005085468292 0.16556066274642944 -0.10789453238248825 0.0 255.0 0.0
-0.2359645515680313 0.1199246421456337 -0.1368962526321411 0.0 255.0 0.0
0.09754718095064163 -0.14428383111953735 -0.135067880153656 0.0 255.0 0.0
-0.128960981965065 -0.02155410125851631 -0.13626280426979065 0.0 255.0 0.0
-0.08725301176309586 0.2264208048582077 0.10242767632007599 0.0 255.0 0.0
0.015161850489675999 -0.0581202395260334 -0.1345539540052414 0.0 255.0 0.0
0.11190730333328247 -0.22665707767009735 -0.13310228288173676 0.0 255.0 0.0
-0.24123863875865936 -0.183770090341568 -0.13431206345558167 0.0 255.0 0.0
-0.257071852684021 -0.45362403988838196 0.05887743830680847 0.0 255.0 0.0
0.137544646859169 0.22822922468185425 0.02567809447646141 0.0 255.0 0.0
0.2959701418876648 -0.049811266362667084 -0.05339633673429489 0.0 255.0 0.0
-0.25209927558898926 -0.3349776864051819 0.14857365190982819 0.0 255.0 0.0
-0.05117641016840935 0.0033601033501327038 -0.13427133858203888 0.0 255.0 0.0
-0.2451636642217636 0.3265395164489746 0.027982188388705254 0.0 255.0 0.0
0.2977626323699951 0.14205846190452576 0.007957144640386105 0.0 255.0 0.0
-0.22779154777526855 0.1811373382806778 0.15545250475406647 0.0 255.0 0.0
0.11041156202554703 -0.25077900290489197 -0.06241225823760033 0.0 255.0 0.0
-0.14034990966320038 0.12437473982572556 0.16940195858478546 0.0 255.0 0.0
0.0892900601029396 -0.017511902377009392 -0.13506805896759033 0.0 255.0 0.0
-0.17751944065093994 0.05813444033265114 -0.135907843708992 0.0 255.0 0.0
-0.065755195915699 -0.25083255767822266 -0.03359217569231987 0.0 255.0 0.0
-0.2671818435192108 0.11137949675321579 -0.03266012668609619 0.0 255.0 0.0
-0.04789607971906662 -0.14503470063209534 0.17008435726165771 0.0 255.0 0.0
-0.2707524597644806 -0.07533828169107437 0.04507514834403992 0.0 255.0 0.0
-0.18588970601558685 -0.4099915325641632 -0.027099793776869774 0.0 255.0 0.0
-0.010832533240318298 0.22812457382678986 0.07088896632194519 0.0 255.0 0.0
-0.2707524597644806 0.019840814173221588 0.08887460827827454 0.0 255.0 0.0
0.06521275639533997 0.2281424105167389 0.09048548340797424 0.0 255.0 0.0
0.17635567486286163 -0.446180522441864 0.06477678567171097 0.0 255.0 0.0
-0.2618740200996399 -0.45441681146621704 0.036755260080099106 0.0 255.0 0.0
-0.2165459245443344 -0.001767065143212676 -0.13506805896759033 0.0 255.0 0.0
0.29667750000953674 0.071549192070961 -0.09574057161808014 0.0 255.0 0.0
-0.26785364747047424 -0.18014439940452576 0.06288046389818192 0.0 255.0 0.0
-0.2707524597644806 -0.020326662808656693 0.01122998259961605 0.0 255.0 0.0
-0.174815833568573 -0.01669919677078724 -0.13506805896759033 0.0 255.0 0.0
0.25717616081237793 -0.44475531578063965 0.06835433095693588 0.0 255.0 0.0
-0.25611022114753723 0.4764513075351715 0.0006880980799905956 0.0 255.0 0.0
0.2984527349472046 -0.19270384311676025 0.12605631351470947 0.0 255.0 0.0
0.08739840239286423 -0.06402196735143661 0.1671430915594101 0.0 255.0 0.0
-0.32545650005340576 -0.37602442502975464 -0.015148459933698177 0.0 255.0 0.0
-0.27035319805145264 -0.14061512053012848 0.10904350876808167 0.0 255.0 0.0
0.030767986550927162 0.08467401564121246 0.1721017062664032 0.0 255.0 0.0
0.11297199875116348 0.22755886614322662 0.11855456233024597 0.0 255.0 0.0
0.14570586383342743 -0.11496993154287338 -0.131317138671875 0.0 255.0 0.0
-0.1710139364004135 0.021397653967142105 -0.13506805896759033 0.0 255.0 0.0
-0.2707524597644806 -0.09595051407814026 -0.015506674535572529 0.0 255.0 0.0
0.1883748322725296 -0.44466203451156616 0.07452794909477234 0.0 255.0 0.0
0.2924433946609497 0.3925400972366333 -0.05180346593260765 0.0 255.0 0.0
-0.22233355045318604 -0.37807372212409973 0.16216501593589783 0.0 255.0 0.0
-0.23741434514522552 0.49150148034095764 -0.009314815513789654 0.0 255.0 0.0
-0.2505311071872711 0.22842217981815338 -0.08880877494812012 0.0 255.0 0.0
0.07294618338346481 0.23067733645439148 -0.10340284556150436 0.0 255.0 0.0
0.1226787269115448 0.024511003866791725 0.16940195858478546 0.0 255.0 0.0
0.26097556948661804 -0.44587668776512146 0.0763062909245491 0.0 255.0 0.0
-0.13415616750717163 0.22812457382678986 0.014251253567636013 0.0 255.0 0.0
-0.1828669011592865 -0.09172045439481735 0.16436754167079926 0.0 255.0 0.0
0.0664307102560997 -0.01778777875006199 0.17080256342887878 0.0 255.0 0.0
-0.2206578552722931 -0.37480470538139343 -0.0819699764251709 0.0 255.0 0.0
0.29731735587120056 0.39759403467178345 0.10295014828443527 0.0 255.0 0.0
-0.2071433812379837 -0.44299083948135376 0.10154017806053162 0.0 255.0 0.0
-0.24577665328979492 -0.2807506322860718 -0.029158765450119972 0.0 255.0 0.0
0.18810245394706726 -0.4141044318675995 -0.07375819236040115 0.0 255.0 0.0
-0.08261295408010483 0.1882697343826294 -0.13506805896759033 0.0 255.0 0.0
0.09924578666687012 -0.06861766427755356 0.16767974197864532 0.0 255.0 0.0
0.2243754267692566 -0.03808270022273064 -0.13506805896759033 0.0 255.0 0.0
0.04764780029654503 -0.24878017604351044 0.014053096994757652 0.0 255.0 0.0
-0.07380103319883347 0.22962050139904022 -0.06508340686559677 0.0 255.0 0.0
0.05648983642458916 -0.2507159411907196 0.0014970011543482542 0.0 255.0 0.0
-0.10625547915697098 0.2068246603012085 -0.13506805896759033 0.0 255.0 0.0
-0.18942639231681824 0.09364461898803711 0.16938965022563934 0.0 255.0 0.0
-0.17811185121536255 -0.3947771191596985 0.046621911227703094 0.0 255.0 0.0
0.2647213339805603 0.5134316086769104 0.06396231800317764 0.0 255.0 0.0
-0.1594705432653427 -0.03158756345510483 -0.13446830213069916 0.0 255.0 0.0
-0.2381429523229599 -0.3922552466392517 -0.08951908349990845 0.0 255.0 0.0
-0.0066574811935424805 0.1557011604309082 -0.13384096324443817 0.0 255.0 0.0
0.08888231962919235 0.22807645797729492 -0.007988594472408295 0.0 255.0 0.0
-0.19179372489452362 0.4977467358112335 0.05243830382823944 0.0 255.0 0.0
-0.12294861674308777 -0.15165457129478455 -0.13472595810890198 0.0 255.0 0.0
-0.2707524597644806 -0.11953521519899368 -0.09569316357374191 0.0 255.0 0.0
-0.272671639919281 0.12966638803482056 0.0968998447060585 0.0 255.0 0.0
0.29639390110969543 -0.2240203619003296 0.12671495974063873 0.0 255.0 0.0
-0.2695433795452118 0.1324695348739624 -0.05724289268255234 0.0 255.0 0.0
-0.050914324820041656 -0.0013187936274334788 0.1645417958498001 0.0 255.0 0.0
0.1306048184633255 -0.2244628369808197 -0.13521333038806915 0.0 255.0 0.0
-0.06771381199359894 -0.060679949820041656 -0.13345041871070862 0.0 255.0 0.0
-0.06798764318227768 0.22808389365673065 0.13278107345104218 0.0 255.0 0.0
-0.2863381803035736 -0.43496179580688477 0.021703889593482018 0.0 255.0 0.0
0.3002898097038269 -0.06501832604408264 0.06281302124261856 0.0 255.0 0.0
0.12566284835338593 -0.08560920506715775 -0.1359773427248001 0.0 255.0 0.0
-0.219374880194664 -0.4415367543697357 -0.04805746302008629 0.0 255.0 0.0
-0.3128892183303833 -0.35478222370147705 -0.0019389977678656578 0.0 255.0 0.0
-0.19721809029579163 0.08272477239370346 0.17167764902114868 0.0 255.0 0.0
-0.18127721548080444 -0.014584255404770374 -0.13506805896759033 0.0 255.0 0.0
-0.17159464955329895 -0.3617125153541565 0.049827687442302704 0.0 255.0 0.0
-0.269963800907135 0.10244636237621307 -0.11278652399778366 0.0 255.0 0.0
-0.26799988746643066 -0.2070791870355606 0.09685762226581573 0.0 255.0 0.0
-0.2707524597644806 -0.22724351286888123 0.062439970672130585 0.0 255.0 0.0
0.20448924601078033 -0.16936953365802765 0.1702835112810135 0.0 255.0 0.0
0.17341011762619019 -0.31337082386016846 0.07549672573804855 0.0 255.0 0.0
-0.0769183337688446 0.22812457382678986 0.019678181037306786 0.0 255.0 0.0
-0.1114489734172821 0.07568619400262833 0.16940195858478546 0.0 255.0 0.0
0.21534977853298187 -0.36605873703956604 0.1623443216085434 0.0 255.0 0.0
0.19159938395023346 -0.4464144706726074 0.17180843651294708 0.0 255.0 0.0
0.06948069483041763 0.22812457382678986 -0.059358831495046616 0.0 255.0 0.0
-0.16181915998458862 -0.09849503636360168 -0.13771025836467743 0.0 255.0 0.0
-0.2707524597644806 -0.06980980932712555 -0.08175940811634064 0.0 255.0 0.0
0.2977176308631897 0.011083296500146389 0.09607373178005219 0.0 255.0 0.0
0.1777392327785492 0.14540407061576843 -0.13506805896759033 0.0 255.0 0.0
-0.06894732266664505 0.10857679694890976 -0.13427403569221497 0.0 255.0 0.0
-0.26969048380851746 0.06522303819656372 -0.008760486729443073 0.0 255.0 0.0
-0.1987721025943756 -0.44065988063812256 0.05586571991443634 0.0 255.0 0.0
0.11026086658239365 0.22973588109016418 0.029548248276114464 0.0 255.0 0.0
0.05057283863425255 0.13900217413902283 -0.1334051638841629 0.0 255.0 0.0
-0.025494076311588287 0.0828700140118599 0.16830651462078094 0.0 255.0 0.0
0.1268419325351715 0.22822636365890503 0.10810637474060059 0.0 255.0 0.0
0.16657067835330963 0.22603175044059753 -0.0023878775537014008 0.0 255.0 0.0
0.18347527086734772 -0.4468855857849121 0.17817464470863342 0.0 255.0 0.0
-0.22591713070869446 -0.22613459825515747 -0.13814090192317963 0.0 255.0 0.0
