0.29666081070899963 -0.029381433501839638 -0.09336477518081665 0.0 255.0 0.0
0.29738569259643555 0.4406664967536926 0.10074979066848755 0.0 255.0 0.0
0.2946699559688568 0.37540918588638306 -0.013284148648381233 0.0 255.0 0.0
-0.15780456364154816 0.40460753440856934 -0.024642402306199074 0.0 255.0 0.0
-0.15039800107479095 0.18901327252388 -0.13552361726760864 0.0 255.0 0.0
0.22210392355918884 0.22808602452278137 0.13261257112026215 0.0 255.0 0.0
-0.2747517228126526 -0.016417361795902252 -0.028187960386276245 0.0 255.0 0.0
0.274100661277771 -0.3858186900615692 -0.055965106934309006 0.0 255.0 0.0
0.2972581684589386 0.122904472053051 -0.014254897832870483 0.0 255.0 0.0
-0.2721390724182129 -0.23299625515937805 -0.1113646999001503 0.0 255.0 0.0
-0.25300124287605286 -0.4516299366950989 0.07095194607973099 0.0 255.0 0.0
0.29219192266464233 0.4234730303287506 -0.023569580167531967 0.0 255.0 0.0
-0.1755603551864624 0.18643175065517426 0.16007813811302185 0.0 255.0 0.0
-0.251681923866272 -0.13819360733032227 -0.1372123509645462 0.0 255.0 0.0
0.2951544225215912 0.1422666758298874 0.014091141521930695 0.0 255.0 0.0
0.14721442759037018 0.01835509017109871 -0.13500897586345673 0.0 255.0 0.0
0.295486181974411 0.358081579208374 -0.006057385355234146 0.0 255.0 0.0
-0.2707524597644806 0.009482073597609997 0.11014095693826675 0.0 255.0 0.0
-0.17461705207824707 -0.374682754278183 -0.024880709126591682 0.0 255.0 0.0
0.2972047030925751 0.09980662167072296 -0.10336075723171234 0.0 255.0 0.0
-0.2707524597644806 -0.15028850734233856 0.12359894812107086 0.0 255.0 0.0
0.3003024458885193 -0.02551656775176525 0.05286668241024017 0.0 255.0 0.0
0.2972581684589386 0.12472685426473618 0.06690481305122375 0.0 255.0 0.0
0.17781738936901093 -0.3637130558490753 -0.06300812214612961 0.0 255.0 0.0
0.015051011927425861 0.22753484547138214 0.07041652500629425 0.0 255.0 0.0
0.22872184216976166 -0.25125521421432495 0.10227609425783157 0.0 255.0 0.0
-0.18624231219291687 0.2281864583492279 -0.11243666708469391 0.0 255.0 0.0
-0.2706342935562134 -0.03297026827931404 0.08282872289419174 0.0 255.0 0.0
0.21953199803829193 -0.44488656520843506 0.04300372302532196 0.0 255.0 0.0
0.28658539056777954 -0.3790270686149597 0.11454743146896362 0.0 255.0 0.0
0.13460741937160492 0.22754786908626556 -0.015881873667240143 0.0 255.0 0.0
0.0697479173541069 0.020905259996652603 -0.13651229441165924 0.0 255.0 0.0
0.22992157936096191 -0.4468357264995575 -0.04579119756817818 0.0 255.0 0.0
-0.12676450610160828 0.016753235831856728 0.16904354095458984 0.0 255.0 0.0
0.1262221783399582 0.17017467319965363 -0.1342419534921646 0.0 255.0 0.0
0.2923356890678406 -0.06443766504526138 -0.11390061676502228 0.0 255.0 0.0
0.2765941023826599 -0.19804751873016357 -0.1358415186405182 0.0 255.0 0.0
0.2895667552947998 -0.3912493884563446 0.09018740057945251 0.0 255.0 0.0
-0.07871895283460617 -0.24814066290855408 0.012896544300019741 0.0 255.0 0.0
0.29004889726638794 -0.41528788208961487 0.1270165741443634 0.0 255.0 0.0
0.2951032221317291 0.023622898384928703 -0.07029805332422256 0.0 255.0 0.0
-0.21934330463409424 0.22930115461349487 0.07054424285888672 0.0 255.0 0.0
-0.2707524597644806 -0.14808757603168488 -0.1074722483754158 0.0 255.0 0.0
0.14548280835151672 0.03703830763697624 0.1716831922531128 0.0 255.0 0.0
-0.19066885113716125 0.13098859786987305 -0.1359538435935974 0.0 255.0 0.0
-0.24386003613471985 0.4924522936344147 0.03981573134660721 0.0 255.0 0.0
-0.14351001381874084 -0.16225753724575043 -0.13506805896759033 0.0 255.0 0.0
-0.2707524597644806 -0.2340320497751236 0.023315561935305595 0.0 255.0 0.0
0.12996049225330353 0.22812457382678986 0.06657801568508148 0.0 255.0 0.0
0.07103168964385986 -0.2507176101207733 -0.03762132301926613 0.0 255.0 0.0
0.013778403401374817 -0.24774351716041565 -0.07808350771665573 0.0 255.0 0.0
-0.21751324832439423 -0.25138020515441895 -0.08295980840921402 0.0 255.0 0.0
-0.2407064586877823 -0.25031518936157227 0.11527738720178604 0.0 255.0 0.0
-0.23585742712020874 0.49553781747817993 0.05202982947230339 0.0 255.0 0.0
0.013172450475394726 -0.1905684471130371 -0.1340135633945465 0.0 255.0 0.0
0.21861475706100464 -0.015769077464938164 0.17008031904697418 0.0 255.0 0.0
0.2962537407875061 0.13446153700351715 -0.10441700369119644 0.0 255.0 0.0
0.29828524589538574 0.12356062233448029 0.08695729821920395 0.0 255.0 0.0
-0.27288198471069336 -0.11476057767868042 0.10379939526319504 0.0 255.0 0.0
0.17876072227954865 0.4503554105758667 0.08603290468454361 0.0 255.0 0.0
-0.1968834400177002 -0.2503099739551544 -0.10787145048379898 0.0 255.0 0.0
-0.2726363241672516 -0.18353326618671417 0.07075496762990952 0.0 255.0 0.0
0.2776234447956085 -0.25057747960090637 0.06766736507415771 0.0 255.0 0.0
0.2957991361618042 0.45498019456863403 -0.018792983144521713 0.0 255.0 0.0
0.20552408695220947 0.22750091552734375 0.0006758173694834113 0.0 255.0 0.0
-0.32298675179481506 -0.3455192744731903 0.07048659026622772 0.0 255.0 0.0
0.20533260703086853 0.5027329921722412 0.08312971144914627 0.0 255.0 0.0
0.014050542376935482 -0.07579721510410309 0.16999411582946777 0.0 255.0 0.0
0.13733363151550293 -0.38410916924476624 0.04376113414764404 0.0 255.0 0.0
0.17254410684108734 -0.447451651096344 0.012131849303841591 0.0 255.0 0.0
-0.24097245931625366 0.0610806867480278 -0.13506805896759033 0.0 255.0 0.0
-0.2917470335960388 -0.038370806723833084 -0.2680363059043884 0.0 255.0 0.0
-0.24450865387916565 -0.45725277066230774 0.07811710238456726 0.0 255.0 0.0
-0.2673076391220093 0.4402582049369812 0.06503322720527649 0.0 255.0 0.0
-0.11981870234012604 0.06964357197284698 0.16940195858478546 0.0 255.0 0.0
0.12529310584068298 0.02045220509171486 0.16940195858478546 0.0 255.0 0.0
-0.27063480019569397 -0.06769437342882156 0.032757412642240524 0.0 255.0 0.0
-0.31944096088409424 -0.3491728603839874 0.0475027821958065 0.0 255.0 0.0
0.14723250269889832 0.20028413832187653 -0.13459718227386475 0.0 255.0 0.0
-0.04328622296452522 -0.22881631553173065 0.1585635542869568 0.0 255.0 0.0
-0.16054756939411163 0.41077759861946106 -0.0132841682061553 0.0 255.0 0.0
0.0023503729607909918 -0.2507324814796448 0.08115705847740173 0.0 255.0 0.0
-0.26630470156669617 0.42028504610061646 -0.01680399850010872 0.0 255.0 0.0
0.2758254110813141 -0.31358426809310913 -0.0018493883544579148 0.0 255.0 0.0
-0.06581343710422516 0.12868809700012207 -0.13584089279174805 0.0 255.0 0.0
-0.19350415468215942 -0.3756296932697296 -0.053027790039777756 0.0 255.0 0.0
0.10679884254932404 -0.2501085698604584 0.13926120102405548 0.0 255.0 0.0
0.27930232882499695 0.44311854243278503 -0.06375449150800705 0.0 255.0 0.0
0.11780714243650436 0.09969174116849899 -0.13506805896759033 0.0 255.0 0.0
-0.006907582748681307 0.27989861369132996 -0.22967003285884857 0.0 255.0 0.0
0.052458517253398895 0.020552735775709152 -0.13449609279632568 0.0 255.0 0.0
0.06355617940425873 -0.11217010766267776 0.16940195858478546 0.0 255.0 0.0
0.11726275831460953 -0.09404220432043076 -0.13481518626213074 0.0 255.0 0.0
0.037725210189819336 -0.21401762962341309 -0.13506805896759033 0.0 255.0 0.0
0.0019978354685008526 -0.1324499547481537 0.1682688295841217 0.0 255.0 0.0
-0.2218625247478485 -0.09977879375219345 -0.13379508256912231 0.0 255.0 0.0
0.29618024826049805 0.10171258449554443 0.08893890678882599 0.0 255.0 0.0
0.17672966420650482 0.47119367122650146 0.04990900680422783 0.0 255.0 0.0
-0.017685890197753906 0.12127094715833664 -0.13506805896759033 0.0 255.0 0.0
-0.013053138740360737 0.2279462218284607 -0.04804641008377075 0.0 255.0 0.0
0.08468546718358994 0.04113537073135376 0.16784358024597168 0.0 255.0 0.0
-0.19937476515769958 -0.43530943989753723 0.07459057867527008 0.0 255.0 0.0
-0.26829051971435547 -0.14510959386825562 0.09011051803827286 0.0 255.0 0.0
0.2869899570941925 -0.3605813682079315 0.08159088343381882 0.0 255.0 0.0
-0.2664535343647003 0.3895924687385559 0.0742068737745285 0.0 255.0 0.0
-0.16548456251621246 -0.0675537958741188 -0.1318812370300293 0.0 255.0 0.0
0.19436466693878174 -0.2750263512134552 -0.043699219822883606 0.0 255.0 0.0
-0.13246603310108185 -0.05044751241803169 0.16984093189239502 0.0 255.0 0.0
-0.2941149175167084 0.047834474593400955 -0.27477380633354187 0.0 255.0 0.0
-0.0039662509225308895 0.22872385382652283 0.13345006108283997 0.0 255.0 0.0
0.21537327766418457 -0.3582000732421875 0.15297402441501617 0.0 255.0 0.0
-0.010262995958328247 0.22812457382678986 0.0742202028632164 0.0 255.0 0.0
-0.17099332809448242 0.33780190348625183 -0.014966332353651524 0.0 255.0 0.0
0.2972581684589386 0.04907473176717758 -0.07073432207107544 0.0 255.0 0.0
0.2983350455760956 0.1803736537694931 0.09499897062778473 0.0 255.0 0.0
0.24485114216804504 -0.09984580427408218 -0.13917073607444763 0.0 255.0 0.0
-0.18610785901546478 0.22817225754261017 0.09203028678894043 0.0 255.0 0.0
0.22708143293857574 -0.44663554430007935 0.13699734210968018 0.0 255.0 0.0
-0.17129582166671753 -0.347292423248291 0.0555938184261322 0.0 255.0 0.0
0.29801225662231445 0.40133029222488403 -0.01937885954976082 0.0 255.0 0.0
0.17815828323364258 0.35806506872177124 -0.004139486234635115 0.0 255.0 0.0
0.2817053496837616 -0.3595457077026367 -0.024779055267572403 0.0 255.0 0.0
-0.02036198601126671 -0.25095251202583313 0.051394086331129074 0.0 255.0 0.0
0.2033780813217163 -0.38057470321655273 -0.08127103000879288 0.0 255.0 0.0
-0.11158209294080734 0.1163342148065567 0.17046687006950378 0.0 255.0 0.0
-0.18866461515426636 0.5013414025306702 0.03572830185294151 0.0 255.0 0.0
-0.09276324510574341 0.03398408740758896 -0.13506805896759033 0.0 255.0 0.0
-0.21527957916259766 0.13048511743545532 -0.1361708641052246 0.0 255.0 0.0
-0.24777351319789886 -0.05382801219820976 0.15666061639785767 0.0 255.0 0.0
0.1685435026884079 -0.22581641376018524 -0.1387242078781128 0.0 255.0 0.0
-0.2750193774700165 -0.3180682361125946 -0.038451746106147766 0.0 255.0 0.0
0.29701995849609375 0.1478775590658188 -0.0005222820327617228 0.0 255.0 0.0
0.28821754455566406 -0.3846442699432373 0.102028988301754 0.0 255.0 0.0
0.17866210639476776 0.4654344916343689 0.005033966153860092 0.0 255.0 0.0
0.018918339163064957 0.13268475234508514 -0.13240279257297516 0.0 255.0 0.0
0.2973797023296356 0.1389513909816742 -0.028963057324290276 0.0 255.0 0.0
-0.17171476781368256 -0.3450239300727844 -0.037314288318157196 0.0 255.0 0.0
-0.2010599970817566 -0.38704878091812134 -0.0644783228635788 0.0 255.0 0.0
-0.26870784163475037 -0.10812775045633316 0.08687925338745117 0.0 255.0 0.0
0.13800323009490967 -0.11258414387702942 0.16834624111652374 0.0 255.0 0.0
0.016313347965478897 -0.06948942691087723 -0.13506805896759033 0.0 255.0 0.0
0.0263017937541008 -0.09577731788158417 0.16619376838207245 0.0 255.0 0.0
0.16848792135715485 -0.40821054577827454 -0.060703907161951065 0.0 255.0 0.0
0.30087506771087646 0.37669336795806885 0.024737577885389328 0.0 255.0 0.0
-0.01610598899424076 0.23116731643676758 0.062458187341690063 0.0 255.0 0.0
-0.19564490020275116 -0.4127219617366791 -0.04069216921925545 0.0 255.0 0.0
0.018018024042248726 0.16231966018676758 -0.2210596352815628 0.0 255.0 0.0
-0.25292524695396423 -0.45028939843177795 0.06697933375835419 0.0 255.0 0.0
-0.2713156044483185 0.12368573993444443 0.13380755484104156 0.0 255.0 0.0
0.16014273464679718 0.07235626131296158 -0.13311384618282318 0.0 255.0 0.0
-0.16322988271713257 0.2272382229566574 -0.03139854595065117 0.0 255.0 0.0
0.09338129311800003 0.18513250350952148 0.15573254227638245 0.0 255.0 0.0
0.1831677109003067 0.47493186593055725 0.07309094816446304 0.0 255.0 0.0
-0.22752045094966888 -0.0519324466586113 -0.13506805896759033 0.0 255.0 0.0
-0.2707524597644806 -0.08789101988077164 0.11168002337217331 0.0 255.0 0.0
0.12168050557374954 -0.1375780701637268 0.17119500041007996 0.0 255.0 0.0
0.1838943511247635 0.37092867493629456 -0.03708874061703682 0.0 255.0 0.0
0.2512701153755188 0.5126380920410156 0.03321130573749542 0.0 255.0 0.0
-0.02436370775103569 0.22975029051303864 -0.04711000248789787 0.0 255.0 0.0
-0.005788824055343866 0.10899212956428528 0.1707524061203003 0.0 255.0 0.0
0.19571644067764282 0.22906449437141418 -0.06902529299259186 0.0 255.0 0.0
-0.27066394686698914 -0.04420051723718643 -0.037494760006666183 0.0 255.0 0.0
0.2972581684589386 0.05902237445116043 0.07247751951217651 0.0 255.0 0.0
-0.27304795384407043 0.2076670527458191 -0.011165148578584194 0.0 255.0 0.0
0.23196974396705627 0.22909940779209137 0.11319706588983536 0.0 255.0 0.0
0.13726823031902313 -0.0202016681432724 -0.13634249567985535 0.0 255.0 0.0
-0.1995377242565155 -0.4379782974720001 -0.011845742352306843 0.0 255.0 0.0
-0.04276790842413902 -0.24682727456092834 -0.10029701888561249 0.0 255.0 0.0
-0.2707524597644806 0.12158994376659393 -0.024930300191044807 0.0 255.0 0.0
-0.062014516443014145 0.03560275584459305 -0.13328585028648376 0.0 255.0 0.0
-0.2583988308906555 0.35413700342178345 0.07106076925992966 0.0 255.0 0.0
0.21892310678958893 0.09296337515115738 0.16940195858478546 0.0 255.0 0.0
0.21470364928245544 -0.01869530789554119 -0.13506805896759033 0.0 255.0 0.0
0.24818138778209686 -0.11303572356700897 -0.13571108877658844 0.0 255.0 0.0
0.298066645860672 0.09329244494438171 -0.003967694006860256 0.0 255.0 0.0
0.08232714235782623 -0.24968627095222473 0.0102528166025877 0.0 255.0 0.0
0.23016582429409027 -0.21411311626434326 0.15614724159240723 0.0 255.0 0.0
0.16545480489730835 -0.3739054799079895 0.14064310491085052 0.0 255.0 0.0
-0.04803524538874626 -0.0020560440607368946 -0.13321998715400696 0.0 255.0 0.0
-0.2711279094219208 0.17287573218345642 0.06547416746616364 0.0 255.0 0.0
0.27119722962379456 -0.14428524672985077 -0.13352330029010773 0.0 255.0 0.0
0.2889336347579956 -0.421239972114563 0.028104400262236595 0.0 255.0 0.0
0.30008664727211 0.04900858923792839 0.008315295912325382 0.0 255.0 0.0
0.1875322014093399 -0.29122281074523926 0.07217498123645782 0.0 255.0 0.0
-0.26659929752349854 0.14514873921871185 0.1352471113204956 0.0 255.0 0.0
0.21557064354419708 0.22810545563697815 -0.105401910841465 0.0 255.0 0.0
0.17558850347995758 0.40817490220069885 0.02784280851483345 0.0 255.0 0.0
-0.2707524597644806 0.20743538439273834 -0.04649052768945694 0.0 255.0 0.0
0.03835436329245567 -0.2029731273651123 -0.1344866305589676 0.0 255.0 0.0
0.16735060513019562 -0.29195812344551086 -0.022852493450045586 0.0 255.0 0.0
0.2669864892959595 -0.10393062233924866 -0.13686423003673553 0.0 255.0 0.0
-0.13044984638690948 0.22885558009147644 -0.06581296026706696 0.0 255.0 0.0
-0.24450553953647614 -0.4519380033016205 -0.062417104840278625 0.0 255.0 0.0
0.10152292251586914 0.22713355720043182 0.09046371281147003 0.0 255.0 0.0
-0.0028793606907129288 -0.25247642397880554 0.1314883679151535 0.0 255.0 0.0
-0.144603431224823 0.10150118172168732 0.16940195858478546 0.0 255.0 0.0
-0.26611384749412537 0.4339715838432312 0.007573319133371115 0.0 255.0 0.0
-0.25627607107162476 -0.2851946949958801 0.03303202986717224 0.0 255.0 0.0
-0.1809200644493103 -0.41862204670906067 0.0322079211473465 0.0 255.0 0.0
0.2972581684589386 0.10583095997571945 0.07506660372018814 0.0 255.0 0.0
-0.09588927030563354 0.22822782397270203 0.13071519136428833 0.0 255.0 0.0
0.02114875800907612 0.22812457382678986 0.1040463000535965 0.0 255.0 0.0
0.2356238216161728 -0.13304010033607483 -0.13506805896759033 0.0 255.0 0.0
-0.07073070853948593 -0.0545477569103241 0.16940195858478546 0.0 255.0 0.0
0.0656689926981926 0.19162389636039734 -0.1383007913827896 0.0 255.0 0.0
-0.0654870793223381 0.22702807188034058 -0.11208011209964752 0.0 255.0 0.0
-0.2707524597644806 0.10744137316942215 -0.03671858459711075 0.0 255.0 0.0
0.14103874564170837 0.01780441775918007 -0.13190986216068268 0.0 255.0 0.0
-0.295842707157135 -0.35093817114830017 -0.04599218815565109 0.0 255.0 0.0
-0.033127784729003906 0.22812457382678986 -0.09710627049207687 0.0 255.0 0.0
-0.18879225850105286 -0.015141193754971027 0.16939203441143036 0.0 255.0 0.0
-0.24971723556518555 -0.43872225284576416 0.12462998926639557 0.0 255.0 0.0
0.12060310691595078 -0.06698505580425262 -0.13506805896759033 0.0 255.0 0.0
0.2972581684589386 0.0503569059073925 -0.09767872840166092 0.0 255.0 0.0
0.2946006953716278 -0.12476704269647598 0.05115090310573578 0.0 255.0 0.0
-0.27244365215301514 -0.09886855632066727 0.0470978207886219 0.0 255.0 0.0
0.1381596326828003 -0.40229523181915283 0.02641298435628414 0.0 255.0 0.0
-0.19905292987823486 0.5038468837738037 0.051466673612594604 0.0 255.0 0.0
0.16943375766277313 -0.44590309262275696 0.03698405995965004 0.0 255.0 0.0
0.27318620681762695 -0.444062739610672 0.024426380172371864 0.0 255.0 0.0
0.08999183028936386 0.11165274679660797 0.1712120771408081 0.0 255.0 0.0
-0.08864307403564453 -0.24922829866409302 0.02684980444610119 0.0 255.0 0.0
0.28971877694129944 0.46427103877067566 -0.025787603110074997 0.0 255.0 0.0
-0.2290370613336563 -0.24673351645469666 0.10351582616567612 0.0 255.0 0.0
0.21258503198623657 0.5110743045806885 0.08288001269102097 0.0 255.0 0.0
0.24470914900302887 0.18921934068202972 -0.13312508165836334 0.0 255.0 0.0
-0.050737328827381134 0.09859426319599152 -0.13506805896759033 0.0 255.0 0.0
-0.12419111281633377 0.1159743219614029 0.16940195858478546 0.0 255.0 0.0
-0.3159959614276886 -0.3960515856742859 0.07920508086681366 0.0 255.0 0.0
-0.028567088767886162 0.22875136137008667 0.08830966055393219 0.0 255.0 0.0
-0.02507183887064457 0.22700534760951996 0.005130212754011154 0.0 255.0 0.0
-0.06324301660060883 -0.25052404403686523 -0.025842785835266113 0.0 255.0 0.0
-0.19940978288650513 0.20574547350406647 -0.1353306770324707 0.0 255.0 0.0
0.13842302560806274 -0.38684648275375366 0.04034341499209404 0.0 255.0 0.0
0.21541211009025574 0.04174503684043884 -0.13506805896759033 0.0 255.0 0.0
0.042052265256643295 0.22812457382678986 0.07415196299552917 0.0 255.0 0.0
-0.26968812942504883 0.20726895332336426 -0.09518276900053024 0.0 255.0 0.0
-0.15318676829338074 -0.2846056818962097 0.004422580823302269 0.0 255.0 0.0
-0.1449918895959854 -0.046399783343076706 0.17390836775302887 0.0 255.0 0.0
0.2720925211906433 -0.03843162581324577 -0.13648246228694916 0.0 255.0 0.0
0.29812091588974 -0.22686699032783508 0.05174580588936806 0.0 255.0 0.0
0.27026304602622986 -0.22914688289165497 -0.13309459388256073 0.0 255.0 0.0
0.27882400155067444 -0.20092983543872833 -0.13506805896759033 0.0 255.0 0.0
-0.26679134368896484 0.3650323748588562 0.015198147855699062 0.0 255.0 0.0
0.1913321316242218 0.22838690876960754 -0.019758835434913635 0.0 255.0 0.0
0.2975294888019562 0.07435116916894913 0.0688154324889183 0.0 255.0 0.0
-0.11887934058904648 -0.05246436595916748 -0.13007332384586334 0.0 255.0 0.0
-0.2707524597644806 -0.020326662808656693 0.01122998259961605 0.0 255.0 0.0
-0.2690046429634094 -0.22888101637363434 -0.09050805121660233 0.0 255.0 0.0
-0.26817235350608826 -0.10810822248458862 -0.06852870434522629 0.0 255.0 0.0
0.11834295094013214 -0.11888426542282104 0.16940195858478546 0.0 255.0 0.0
-0.26994529366493225 -0.1801399290561676 0.03958096727728844 0.0 255.0 0.0
0.23292289674282074 0.22843323647975922 0.07571597397327423 0.0 255.0 0.0
0.2972581684589386 -0.20972177386283875 0.04239433631300926 0.0 255.0 0.0
0.14708200097084045 -0.17887666821479797 -0.13371333479881287 0.0 255.0 0.0
-0.13983047008514404 -0.02072802372276783 -0.13506805896759033 0.0 255.0 0.0
-0.2707524597644806 0.03641088306903839 -0.0998430922627449 0.0 255.0 0.0
-0.2069394737482071 0.009224146604537964 -0.13515585660934448 0.0 255.0 0.0
-0.24103766679763794 0.1627376228570938 0.15447960793972015 0.0 255.0 0.0
-0.16161587834358215 0.3425206243991852 0.004041960462927818 0.0 255.0 0.0
-0.16150131821632385 -0.3422608971595764 -0.012798493728041649 0.0 255.0 0.0
0.29432591795921326 -0.08763658255338669 -0.11328946053981781 0.0 255.0 0.0
-0.27080559730529785 0.11198211461305618 -0.07792338728904724 0.0 255.0 0.0
-0.18690316379070282 -0.0056873345747590065 -0.1370716392993927 0.0 255.0 0.0
-0.1288028359413147 -0.13918782770633698 0.16940195858478546 0.0 255.0 0.0
0.22603465616703033 -0.44608914852142334 0.11207030713558197 0.0 255.0 0.0
-0.1446729451417923 0.22696584463119507 -0.06590317189693451 0.0 255.0 0.0
-0.10306528210639954 -0.1343335211277008 -0.13506805896759033 0.0 255.0 0.0
-0.2072412222623825 0.08743706345558167 -0.13506805896759033 0.0 255.0 0.0
0.15319927036762238 -0.13193058967590332 0.17087313532829285 0.0 255.0 0.0
0.2793547511100769 -0.32835716009140015 0.03282745182514191 0.0 255.0 0.0
-0.2706703245639801 -0.20017652213573456 0.08203490078449249 0.0 255.0 0.0
0.2979982793331146 -0.04336993768811226 0.014403124339878559 0.0 255.0 0.0
-0.26874658465385437 -0.1703530251979828 0.005144777242094278 0.0 255.0 0.0
-0.20092763006687164 -0.014693286269903183 0.16994069516658783 0.0 255.0 0.0
-0.26972752809524536 0.16192923486232758 -0.08241798728704453 0.0 255.0 0.0
0.2872872054576874 -0.4184390902519226 0.08230971544981003 0.0 255.0 0.0
-0.22907549142837524 -0.2526179850101471 0.1202443391084671 0.0 255.0 0.0
-0.2707524597644806 0.038023725152015686 0.039485640823841095 0.0 255.0 0.0
-0.2706129252910614 0.12858931720256805 -0.06873393803834915 0.0 255.0 0.0
-0.27017590403556824 -0.04557187110185623 -0.034242790192365646 0.0 255.0 0.0
-0.18720416724681854 -0.2713567912578583 -0.047584857791662216 0.0 255.0 0.0
0.09959115833044052 0.22889162600040436 0.08415587246417999 0.0 255.0 0.0
-0.2712078392505646 -0.2254985123872757 0.09222643822431564 0.0 255.0 0.0
-0.2707524597644806 -0.2206740528345108 0.01835010200738907 0.0 255.0 0.0
0.17170317471027374 -0.37854501605033875 0.15585832297801971 0.0 255.0 0.0
0.022332049906253815 0.1458524465560913 -0.21862618625164032 0.0 255.0 0.0
0.29581117630004883 0.19610294699668884 0.10832762718200684 0.0 255.0 0.0
0.11676714569330215 0.2277863472700119 -0.05334882438182831 0.0 255.0 0.0
-0.18178778886795044 -0.15671898424625397 -0.1364496946334839 0.0 255.0 0.0
-0.31906041502952576 -0.4235047996044159 -0.03861730545759201 0.0 255.0 0.0
-0.2707524597644806 -0.13155363500118256 -0.03973957151174545 0.0 255.0 0.0
-0.23412756621837616 0.4934857189655304 0.08078228682279587 0.0 255.0 0.0
0.12064507603645325 0.0989002212882042 0.16984540224075317 0.0 255.0 0.0
-0.26982858777046204 -0.19607536494731903 -0.009887428022921085 0.0 255.0 0.0
0.21425959467887878 0.22803902626037598 0.09822957962751389 0.0 255.0 0.0
-0.10157762467861176 0.23053009808063507 0.11340731382369995 0.0 255.0 0.0
-0.1121663972735405 0.23038208484649658 0.051493044942617416 0.0 255.0 0.0
-0.05723395571112633 0.14230526983737946 0.16937100887298584 0.0 255.0 0.0
0.29847830533981323 0.19888785481452942 -0.08454673737287521 0.0 255.0 0.0
-0.060323718935251236 0.12950557470321655 0.16940195858478546 0.0 255.0 0.0
0.17299425601959229 0.45677340030670166 0.03846022114157677 0.0 255.0 0.0
0.18208861351013184 -0.30661270022392273 0.07967101782560349 0.0 255.0 0.0
-0.2715635895729065 -0.06680108606815338 0.08095601946115494 0.0 255.0 0.0
0.17443981766700745 -0.295809268951416 -0.03480925038456917 0.0 255.0 0.0
-0.2718604505062103 -0.009841716848313808 -0.050482578575611115 0.0 255.0 0.0
0.1854240596294403 0.12132686376571655 -0.13506805896759033 0.0 255.0 0.0
-0.18351753056049347 -0.35346853733062744 -0.052522800862789154 0.0 255.0 0.0
-0.30156391859054565 -0.31414830684661865 0.12407735735177994 0.0 255.0 0.0
0.15420907735824585 -0.03551100566983223 -0.13506805896759033 0.0 255.0 0.0
0.05812615528702736 -0.2506815195083618 -0.0810096487402916 0.0 255.0 0.0
-0.26940596103668213 -0.2333391159772873 0.1264091283082962 0.0 255.0 0.0
-0.19892184436321259 -0.21207456290721893 -0.1381411850452423 0.0 255.0 0.0
0.30075764656066895 0.17223072052001953 -0.06747924536466599 0.0 255.0 0.0
0.17874830961227417 -0.44803452491760254 0.11950810253620148 0.0 255.0 0.0
0.296711266040802 -0.19955860078334808 -0.05646536871790886 0.0 255.0 0.0
0.14468027651309967 -0.25083544850349426 0.09145472943782806 0.0 255.0 0.0
-0.2707524597644806 -0.18170110881328583 0.12330282479524612 0.0 255.0 0.0
0.1884140819311142 0.42003098130226135 -0.05553669109940529 0.0 255.0 0.0
0.12171722203493118 0.22812457382678986 0.01758223958313465 0.0 255.0 0.0
-0.27011561393737793 0.19324688613414764 0.12554465234279633 0.0 255.0 0.0
-0.28742703795433044 -0.44306808710098267 0.009181003086268902 0.0 255.0 0.0
-0.18033435940742493 0.228359192609787 -0.04410726949572563 0.0 255.0 0.0
0.02328510209918022 0.22593256831169128 0.056282538920640945 0.0 255.0 0.0
0.04365609213709831 -0.16275876760482788 -0.13743609189987183 0.0 255.0 0.0
-0.16368210315704346 -0.08560807257890701 0.16529633104801178 0.0 255.0 0.0
0.0012623330112546682 0.2261502742767334 0.09467808157205582 0.0 255.0 0.0
-0.0485057570040226 0.01662752591073513 0.16940195858478546 0.0 255.0 0.0
0.17355044186115265 0.4325750470161438 0.009384416043758392 0.0 255.0 0.0
0.20151105523109436 -0.1363801509141922 0.17121152579784393 0.0 255.0 0.0
-0.26994723081588745 0.050930771976709366 0.08857601135969162 0.0 255.0 0.0
0.2633218765258789 0.04370079189538956 -0.13373102247714996 0.0 255.0 0.0
0.2983701229095459 -0.06533639878034592 0.07746757566928864 0.0 255.0 0.0
0.18095064163208008 -0.005991320125758648 -0.13747024536132812 0.0 255.0 0.0
0.1837892085313797 -0.07387193292379379 0.16520972549915314 0.0 255.0 0.0
0.04774938523769379 0.1100815162062645 0.1672966331243515 0.0 255.0 0.0
-0.06997957080602646 -0.12595891952514648 -0.14138104021549225 0.0 255.0 0.0
0.2972581684589386 -0.19086849689483643 -0.10505245625972748 0.0 255.0 0.0
0.18932151794433594 0.48734915256500244 0.07510951161384583 0.0 255.0 0.0
-0.043353717774152756 0.230145663022995 0.1283322125673294 0.0 255.0 0.0
-0.26995524764060974 0.08684051781892776 -0.056052520871162415 0.0 255.0 0.0
-0.011962752789258957 0.22740837931632996 0.05079972743988037 0.0 255.0 0.0
0.2972581684589386 0.12567517161369324 0.0022184692788869143 0.0 255.0 0.0
0.29933738708496094 0.08815911412239075 -0.08236941695213318 0.0 255.0 0.0
0.14385594427585602 -0.25092554092407227 -0.047651585191488266 0.0 255.0 0.0
0.13112986087799072 0.22881458699703217 0.11296485364437103 0.0 255.0 0.0
0.1750742644071579 -0.37186965346336365 0.1434902846813202 0.0 255.0 0.0
0.2851129472255707 -0.3533213436603546 0.03319228067994118 0.0 255.0 0.0
-0.01991480030119419 -0.16098420321941376 0.17189228534698486 0.0 255.0 0.0
0.1370057612657547 -0.2008253037929535 -0.1345638632774353 0.0 255.0 0.0
-0.2203395962715149 0.20009654760360718 -0.13717606663703918 0.0 255.0 0.0
-0.2707524597644806 -0.12148930132389069 -0.025697700679302216 0.0 255.0 0.0
0.148337259888649 0.19932705163955688 -0.13472621142864227 0.0 255.0 0.0
0.08385506272315979 0.17707902193069458 -0.13535884022712708 0.0 255.0 0.0
0.14507558941841125 0.005625372286885977 0.17460860311985016 0.0 255.0 0.0
0.14992767572402954 -0.039067842066287994 0.16940195858478546 0.0 255.0 0.0
-0.025400593876838684 0.2280903160572052 0.1310083270072937 0.0 255.0 0.0
0.221395343542099 -0.4503462016582489 0.053311288356781006 0.0 255.0 0.0
-0.16364218294620514 -0.2871139645576477 0.050642091780900955 0.0 255.0 0.0
-0.0833284929394722 0.15777446329593658 -0.13506805896759033 0.0 255.0 0.0
-0.13134287297725677 -0.08886010944843292 0.17458434402942657 0.0 255.0 0.0
0.2996385991573334 0.04076763615012169 0.09818139672279358 0.0 255.0 0.0
0.2701144218444824 -0.289730429649353 -0.018308086320757866 0.0 255.0 0.0
0.22451692819595337 -0.4466528594493866 0.14200632274150848 0.0 255.0 0.0
-0.07022970169782639 -0.10451926290988922 0.16917307674884796 0.0 255.0 0.0
0.2972581684589386 -0.05754046514630318 0.12992748618125916 0.0 255.0 0.0
0.29205065965652466 0.36508870124816895 -0.02499382011592388 0.0 255.0 0.0
-0.257739394903183 0.4673297703266144 0.0033194536808878183 0.0 255.0 0.0
0.04507778212428093 -0.04280352219939232 0.16830134391784668 0.0 255.0 0.0
-0.26897186040878296 -0.20224949717521667 -0.07732365280389786 0.0 255.0 0.0
0.2943629026412964 0.0013406764483079314 -0.10717678815126419 0.0 255.0 0.0
-0.3225286304950714 -0.33001089096069336 0.14255113899707794 0.0 255.0 0.0
0.29250046610832214 0.19385895133018494 -0.03130524605512619 0.0 255.0 0.0
0.026076605543494225 0.13574261963367462 -0.2136780321598053 0.0 255.0 0.0
-0.21720333397388458 -0.36129578948020935 -0.08276073634624481 0.0 255.0 0.0
0.1659567654132843 -0.44572269916534424 0.15688316524028778 0.0 255.0 0.0
0.2936168313026428 -0.10446109622716904 -0.08780307322740555 0.0 255.0 0.0
-0.26909536123275757 -0.16207164525985718 -0.000413296656915918 0.0 255.0 0.0
0.055968791246414185 -0.13929209113121033 0.16934436559677124 0.0 255.0 0.0
-0.2721739411354065 0.21001595258712769 0.10870405286550522 0.0 255.0 0.0
-0.2431558519601822 -0.15770593285560608 0.15382350981235504 0.0 255.0 0.0
-0.272213339805603 -0.0056298356503248215 0.11269120126962662 0.0 255.0 0.0
-0.3221399486064911 -0.36349546909332275 0.17340469360351562 0.0 255.0 0.0
0.29910558462142944 0.1281636357307434 -0.03516465798020363 0.0 255.0 0.0
-0.26698189973831177 -0.30863264203071594 -0.03624839708209038 0.0 255.0 0.0
-0.2652316093444824 0.4354058504104614 0.07537248730659485 0.0 255.0 0.0
0.2928783595561981 0.47169002890586853 0.013418802060186863 0.0 255.0 0.0
0.04906177893280983 0.15225622057914734 -0.13798360526561737 0.0 255.0 0.0
-0.10107481479644775 -0.055241335183382034 0.16940195858478546 0.0 255.0 0.0
-0.27130326628685 0.045721087604761124 -0.11798808723688126 0.0 255.0 0.0
-0.17056411504745483 -0.13924643397331238 0.16940195858478546 0.0 255.0 0.0
-0.2707524597644806 -0.20763061940670013 -0.0348549522459507 0.0 255.0 0.0
0.10999000817537308 0.1980237066745758 -0.13460931181907654 0.0 255.0 0.0
0.11523666977882385 0.2258819341659546 -0.011013217270374298 0.0 255.0 0.0
0.29756662249565125 0.417257696390152 0.10156659036874771 0.0 255.0 0.0
0.29596003890037537 0.40541335940361023 -0.03550485521554947 0.0 255.0 0.0
0.14569149911403656 0.05545912683010101 -0.13511735200881958 0.0 255.0 0.0
0.14078259468078613 -0.3973523676395416 0.011676467955112457 0.0 255.0 0.0
-0.10734492540359497 -0.2506089210510254 0.1273045837879181 0.0 255.0 0.0
-0.0696965903043747 -0.08715593814849854 -0.13483412563800812 0.0 255.0 0.0
-0.22871218621730804 -0.3803238272666931 0.17524217069149017 0.0 255.0 0.0
-0.1392289698123932 0.22458279132843018 -0.00011854161130031571 0.0 255.0 0.0
-0.1903921365737915 -0.3297123610973358 -0.063811294734478 0.0 255.0 0.0
0.13137558102607727 -0.250174880027771 -0.003925203811377287 0.0 255.0 0.0
0.08657407760620117 -0.021918416023254395 -0.13506805896759033 0.0 255.0 0.0
0.08319849520921707 -0.15428292751312256 -0.13506805896759033 0.0 255.0 0.0
-0.24220606684684753 0.2283996343612671 -0.0771932452917099 0.0 255.0 0.0
0.005648999009281397 -0.05574989318847656 0.16887596249580383 0.0 255.0 0.0
-0.002588953822851181 -0.2510290741920471 0.10154221206903458 0.0 255.0 0.0
0.01658293418586254 -0.25080665946006775 0.024074064567685127 0.0 255.0 0.0
0.1116553544998169 0.06680630892515182 -0.13515569269657135 0.0 255.0 0.0
0.2659698724746704 -0.11136270314455032 0.15442244708538055 0.0 255.0 0.0
0.2168491631746292 0.22740928828716278 0.06279391050338745 0.0 255.0 0.0
0.16460981965065002 -0.44610294699668884 0.12417618185281754 0.0 255.0 0.0
0.26232343912124634 0.023198537528514862 -0.13390694558620453 0.0 255.0 0.0
-0.2733265459537506 -0.33457237482070923 0.172970712184906 0.0 255.0 0.0
-0.19140145182609558 -0.42024877667427063 -0.023399384692311287 0.0 255.0 0.0
0.29652145504951477 -0.136837899684906 0.05458131060004234 0.0 255.0 0.0
0.2972581684589386 0.033747829496860504 -0.07691670209169388 0.0 255.0 0.0
-0.16450898349285126 -0.35976898670196533 3.0010218324605376e-05 0.0 255.0 0.0
-0.13899536430835724 -0.20524024963378906 -0.13506805896759033 0.0 255.0 0.0
-0.010425979271531105 0.15515394508838654 -0.13644009828567505 0.0 255.0 0.0
-0.04033227637410164 0.22812457382678986 0.004495278932154179 0.0 255.0 0.0
-0.07232450693845749 -0.1401398926973343 -0.1364067643880844 0.0 255.0 0.0
0.17816224694252014 0.1533581167459488 -0.13468946516513824 0.0 255.0 0.0
-0.09175360202789307 0.18803288042545319 -0.1376500278711319 0.0 255.0 0.0
0.17598232626914978 -0.44602689146995544 0.01982523500919342 0.0 255.0 0.0
0.1810009926557541 0.35936158895492554 0.060199376195669174 0.0 255.0 0.0
0.2972581684589386 0.11056917160749435 0.1247602328658104 0.0 255.0 0.0
-0.144027978181839 -0.22148671746253967 0.15493211150169373 0.0 255.0 0.0
0.2973797917366028 -0.1728278249502182 -0.08817420899868011 0.0 255.0 0.0
-0.21947677433490753 0.0779789537191391 -0.13601452112197876 0.0 255.0 0.0
0.2966356873512268 0.37270888686180115 0.07371576875448227 0.0 255.0 0.0
0.23162229359149933 0.20988520979881287 -0.13455119729042053 0.0 255.0 0.0
0.06790969520807266 0.08662959933280945 -0.13541533052921295 0.0 255.0 0.0
0.15122050046920776 -0.14521530270576477 -0.1338871568441391 0.0 255.0 0.0
0.17894813418388367 0.3663812577724457 0.061681441962718964 0.0 255.0 0.0
0.05914788320660591 -0.15628103911876678 0.17079082131385803 0.0 255.0 0.0
-0.2718580961227417 -0.09512399882078171 0.07855026423931122 0.0 255.0 0.0
-0.038556527346372604 -0.006645915098488331 0.17011761665344238 0.0 255.0 0.0
-0.26319581270217896 0.44879150390625 -0.0011353010777384043 0.0 255.0 0.0
0.17570477724075317 0.4222259819507599 0.011141687631607056 0.0 255.0 0.0
0.07752736657857895 0.22953319549560547 0.05400571599602699 0.0 255.0 0.0
-0.13215801119804382 -0.25469329953193665 0.017233749851584435 0.0 255.0 0.0
0.24258698523044586 -0.18380209803581238 -0.13484667241573334 0.0 255.0 0.0
0.06268820911645889 -0.1639702171087265 -0.1347472220659256 0.0 255.0 0.0
-0.2707524597644806 0.002960784127935767 0.01586272567510605 0.0 255.0 0.0
-0.10278161615133286 0.2244034707546234 0.014893397688865662 0.0 255.0 0.0
-0.27088478207588196 0.007459207437932491 0.011523955501616001 0.0 255.0 0.0
0.29472050070762634 0.04562719911336899 -0.04725312441587448 0.0 255.0 0.0
-0.2707524597644806 -0.04843874275684357 -0.09492619335651398 0.0 255.0 0.0
-0.05254290625452995 0.22812457382678986 -0.006538968998938799 0.0 255.0 0.0
-0.27045562863349915 0.1438949555158615 -0.09481636434793472 0.0 255.0 0.0
-0.07736021280288696 0.0007004349026829004 0.17103637754917145 0.0 255.0 0.0
-0.2705138921737671 -0.17494013905525208 0.11667537689208984 0.0 255.0 0.0
-0.24329398572444916 -0.025697708129882812 -0.13506805896759033 0.0 255.0 0.0
-0.02689412236213684 -0.25298169255256653 -0.0397154837846756 0.0 255.0 0.0
0.17284762859344482 -0.3498889207839966 0.11405285447835922 0.0 255.0 0.0
-0.24638265371322632 0.32229140400886536 0.03119685873389244 0.0 255.0 0.0
0.13377392292022705 0.1590319275856018 -0.13506805896759033 0.0 255.0 0.0
0.2651013731956482 0.22811603546142578 0.08155300468206406 0.0 255.0 0.0
0.2996678948402405 -0.11415189504623413 0.059093303978443146 0.0 255.0 0.0
-0.2707524597644806 -0.17652387917041779 -0.10904310643672943 0.0 255.0 0.0
-0.06940356642007828 0.23135264217853546 0.0041047194972634315 0.0 255.0 0.0
0.1213160827755928 0.03603622317314148 -0.13205984234809875 0.0 255.0 0.0
-0.10186026990413666 -0.11792212724685669 0.16936007142066956 0.0 255.0 0.0
0.28453123569488525 0.453450083732605 -0.04805827513337135 0.0 255.0 0.0
-0.10242772847414017 0.06817568093538284 0.16889813542366028 0.0 255.0 0.0
0.18151739239692688 0.4610975384712219 0.023825280368328094 0.0 255.0 0.0
0.2969531714916229 0.3707663416862488 0.0943140909075737 0.0 255.0 0.0
-0.0010618146043270826 -0.19997335970401764 -0.13293428719043732 0.0 255.0 0.0
-0.1536470204591751 0.20661062002182007 -0.13816963136196136 0.0 255.0 0.0
0.12540096044540405 0.22812457382678986 0.07439693808555603 0.0 255.0 0.0
-0.2531163692474365 0.16027386486530304 -0.13342183828353882 0.0 255.0 0.0
0.09893317520618439 0.023056291043758392 0.1687113493680954 0.0 255.0 0.0
-0.24343740940093994 -0.32767078280448914 0.12563350796699524 0.0 255.0 0.0
0.10377892106771469 0.227783203125 0.08306504040956497 0.0 255.0 0.0
0.11332456767559052 -0.2520814538002014 -0.04640018567442894 0.0 255.0 0.0
0.3004649579524994 -0.11301829665899277 0.026605891063809395 0.0 255.0 0.0
0.29832956194877625 0.36126330494880676 0.05255242809653282 0.0 255.0 0.0
-0.22803843021392822 0.2295197993516922 0.13053745031356812 0.0 255.0 0.0
-0.060435328632593155 -0.09231572598218918 -0.13554827868938446 0.0 255.0 0.0
0.2706906199455261 -0.392923504114151 -0.06547065079212189 0.0 255.0 0.0
0.286933034658432 -0.37311428785324097 0.0798148512840271 0.0 255.0 0.0
0.1832762509584427 0.4542953073978424 -0.02180388756096363 0.0 255.0 0.0
-0.25316908955574036 -0.28100961446762085 0.026218058541417122 0.0 255.0 0.0
-0.26911666989326477 -0.03770511969923973 -0.06565527617931366 0.0 255.0 0.0
0.17147615551948547 -0.4111838638782501 -0.05763627588748932 0.0 255.0 0.0
-0.285950630903244 -0.06200835108757019 -0.2574765384197235 0.0 255.0 0.0
0.0323413610458374 0.23207902908325195 0.06991853564977646 0.0 255.0 0.0
-0.059590425342321396 -0.04068302363157272 -0.13506805896759033 0.0 255.0 0.0
0.09665234386920929 0.030948713421821594 -0.1347685009241104 0.0 255.0 0.0
0.1469975709915161 -0.1561650186777115 -0.13571974635124207 0.0 255.0 0.0
-0.1725238859653473 -0.33701661229133606 0.05694260448217392 0.0 255.0 0.0
0.2955135405063629 -0.02873918041586876 -0.08736132085323334 0.0 255.0 0.0
0.2232206016778946 -0.16193771362304688 -0.13422033190727234 0.0 255.0 0.0
0.297079473733902 -0.08557772636413574 -0.0021982481703162193 0.0 255.0 0.0
-0.2710486352443695 -0.04130709543824196 -0.07148253172636032 0.0 255.0 0.0
-0.12832824885845184 0.2296459674835205 0.104366235435009 0.0 255.0 0.0
-0.27077430486679077 0.09546642005443573 -0.0006551464321091771 0.0 255.0 0.0
0.19812674820423126 0.477254182100296 -0.03984304144978523 0.0 255.0 0.0
0.22080327570438385 0.22806350886821747 0.13841110467910767 0.0 255.0 0.0
0.11059999465942383 0.22937096655368805 0.02925518900156021 0.0 255.0 0.0
-0.2707524597644806 -0.21746933460235596 -0.0414220467209816 0.0 255.0 0.0
-0.107742078602314 -0.04304593801498413 -0.13489539921283722 0.0 255.0 0.0
0.23268534243106842 -0.4465514123439789 0.0877845287322998 0.0 255.0 0.0
0.2956710755825043 0.13666407763957977 0.04519288241863251 0.0 255.0 0.0
0.08958042412996292 0.0631059855222702 -0.13506805896759033 0.0 255.0 0.0
-0.19804444909095764 0.42337483167648315 -0.07525753229856491 0.0 255.0 0.0
0.14592285454273224 0.031847819685935974 -0.13553936779499054 0.0 255.0 0.0
-0.27050110697746277 0.08915287256240845 0.07364193350076675 0.0 255.0 0.0
0.11409381777048111 -0.23109619319438934 -0.13603124022483826 0.0 255.0 0.0
-0.26987510919570923 -0.0960017740726471 0.019255904480814934 0.0 255.0 0.0
-0.14459878206253052 -0.11747404932975769 0.1719227284193039 0.0 255.0 0.0
-0.31700798869132996 -0.433492511510849 -0.05767476558685303 0.0 255.0 0.0
0.298933207988739 -0.01072789914906025 -0.11698814481496811 0.0 255.0 0.0
0.20675554871559143 0.22979532182216644 0.06714513897895813 0.0 255.0 0.0
0.2132735550403595 -0.3988194763660431 -0.08655504137277603 0.0 255.0 0.0
-0.2707524597644806 0.12826228141784668 0.028443509712815285 0.0 255.0 0.0
0.2989899814128876 -0.020816652104258537 -0.03787748143076897 0.0 255.0 0.0
0.17268790304660797 0.17990125715732574 -0.13643835484981537 0.0 255.0 0.0
0.22014155983924866 -0.44383737444877625 0.030982935801148415 0.0 255.0 0.0
-0.18642334640026093 0.49026957154273987 -0.020478636026382446 0.0 255.0 0.0
0.15125775337219238 -0.2540145218372345 -0.09243202209472656 0.0 255.0 0.0
0.15079408884048462 -0.0704268217086792 0.1746903508901596 0.0 255.0 0.0
-0.2690533995628357 -0.1989784836769104 0.11889559030532837 0.0 255.0 0.0
-0.048625312745571136 -0.25363630056381226 -0.09506897628307343 0.0 255.0 0.0
-0.04536540433764458 -0.05608091875910759 -0.13506805896759033 0.0 255.0 0.0
-0.3193477392196655 -0.33444592356681824 0.13137172162532806 0.0 255.0 0.0
-0.268191397190094 0.13645906746387482 0.09925440698862076 0.0 255.0 0.0
0.26090145111083984 0.22685080766677856 0.11481791734695435 0.0 255.0 0.0
0.3009749948978424 0.4064285159111023 0.06828755140304565 0.0 255.0 0.0
0.08283916860818863 -0.16058681905269623 -0.1321011781692505 0.0 255.0 0.0
-0.23878605663776398 -0.41900813579559326 -0.0803566500544548 0.0 255.0 0.0
0.30073678493499756 -0.06335441768169403 0.11886608600616455 0.0 255.0 0.0
-0.08058999478816986 -0.25069278478622437 -0.06223852559924126 0.0 255.0 0.0
0.19359782338142395 -0.4475383162498474 0.04039105400443077 0.0 255.0 0.0
0.15682195127010345 -0.25063222646713257 0.1200740858912468 0.0 255.0 0.0
0.022323917597532272 -0.2509344518184662 0.11128130555152893 0.0 255.0 0.0
-0.30786991119384766 -0.36740565299987793 0.1859561949968338 0.0 255.0 0.0
0.04742196202278137 0.07291483134031296 -0.13475115597248077 0.0 255.0 0.0
-0.03873375430703163 0.08997128903865814 -0.13506805896759033 0.0 255.0 0.0
-0.26875531673431396 0.030909014865756035 -0.0878366231918335 0.0 255.0 0.0
-0.27822867035865784 -0.4597720205783844 -0.031113212928175926 0.0 255.0 0.0
-0.059382930397987366 0.09713822603225708 -0.13538134098052979 0.0 255.0 0.0
0.2737312316894531 -0.34797677397727966 -0.053876496851444244 0.0 255.0 0.0
0.18858574330806732 -0.28811660408973694 0.06881485879421234 0.0 255.0 0.0
0.05965542420744896 0.15881051123142242 -0.19369995594024658 0.0 255.0 0.0
0.1858014166355133 0.4915865361690521 0.055294468998909 0.0 255.0 0.0
-0.08029723167419434 -0.02490285597741604 0.16940195858478546 0.0 255.0 0.0
0.24930556118488312 0.5159409642219543 0.07909513264894485 0.0 255.0 0.0
0.18586376309394836 0.46246954798698425 -0.034014757722616196 0.0 255.0 0.0
-0.16944408416748047 0.07747708261013031 0.16788601875305176 0.0 255.0 0.0
0.27889829874038696 -0.3398708999156952 0.07919497787952423 0.0 255.0 0.0
-0.19872862100601196 0.03792865574359894 -0.13259927928447723 0.0 255.0 0.0
-0.08638964593410492 0.0682416558265686 0.16940195858478546 0.0 255.0 0.0
-0.1833358108997345 0.20952434837818146 -0.1361049860715866 0.0 255.0 0.0
-0.0594773069024086 0.07560091465711594 -0.13136903941631317 0.0 255.0 0.0
-0.11345775425434113 -0.12232410907745361 0.16646069288253784 0.0 255.0 0.0
0.2340073585510254 -0.40652352571487427 -0.08809038251638412 0.0 255.0 0.0
0.008978401310741901 0.12645234167575836 0.16940195858478546 0.0 255.0 0.0
0.2972581684589386 0.10476670414209366 0.12284143269062042 0.0 255.0 0.0
0.04668721929192543 -0.2507150173187256 0.05262532830238342 0.0 255.0 0.0
-0.266385942697525 0.36733895540237427 0.06377995014190674 0.0 255.0 0.0
0.2972581684589386 0.005839517805725336 0.1056259498000145 0.0 255.0 0.0
-0.2004736214876175 0.07449202984571457 -0.13263346254825592 0.0 255.0 0.0
0.29183757305145264 -0.39029431343078613 0.10899875313043594 0.0 255.0 0.0
-0.12290998548269272 -0.16431784629821777 -0.13506805896759033 0.0 255.0 0.0
-0.22764183580875397 -0.2506345212459564 -0.09707751870155334 0.0 255.0 0.0
0.21631669998168945 -0.01593935489654541 -0.13506805896759033 0.0 255.0 0.0
-0.270691454410553 -0.07358366996049881 -0.04650047793984413 0.0 255.0 0.0
0.16267117857933044 -0.07622924447059631 -0.13506805896759033 0.0 255.0 0.0
-0.2707524597644806 0.03356161341071129 -0.11163754016160965 0.0 255.0 0.0
0.29208508133888245 0.34750691056251526 0.02604587934911251 0.0 255.0 0.0
0.2972581684589386 0.09028344601392746 0.07461163401603699 0.0 255.0 0.0
0.29143354296684265 0.4605497419834137 -0.022724060341715813 0.0 255.0 0.0
0.2972327172756195 -0.11978030949831009 -0.08823279291391373 0.0 255.0 0.0
0.1808549165725708 0.35899627208709717 0.06390894204378128 0.0 255.0 0.0
0.2995590567588806 0.14223670959472656 0.11641447991132736 0.0 255.0 0.0
-0.06547475606203079 0.1477653831243515 0.1724807620048523 0.0 255.0 0.0
0.3004821240901947 0.437428742647171 0.06178420037031174 0.0 255.0 0.0
-0.2707524597644806 -0.18030177056789398 -0.07107238471508026 0.0 255.0 0.0
0.21989035606384277 0.5127933025360107 0.022356707602739334 0.0 255.0 0.0
0.2959817945957184 0.3730425536632538 -0.025660742074251175 0.0 255.0 0.0
0.05293576046824455 -0.2509172260761261 0.08857949823141098 0.0 255.0 0.0
0.0029114619828760624 -0.14269950985908508 0.16788898408412933 0.0 255.0 0.0
-0.06972761452198029 0.22940006852149963 -0.09417346119880676 0.0 255.0 0.0
-0.15549828112125397 0.39246416091918945 0.06702782958745956 0.0 255.0 0.0
-0.18583178520202637 -0.34913283586502075 0.08110729604959488 0.0 255.0 0.0
0.29816579818725586 -0.17761892080307007 -0.08224011957645416 0.0 255.0 0.0
0.04946359246969223 -0.05308343470096588 0.16940195858478546 0.0 255.0 0.0
0.17755743861198425 -0.05767398327589035 -0.13738062977790833 0.0 255.0 0.0
0.17763569951057434 0.403208464384079 0.07048754394054413 0.0 255.0 0.0
-0.21010512113571167 0.05703653022646904 -0.13506805896759033 0.0 255.0 0.0
-0.2721593976020813 0.0005949208280071616 0.0778934508562088 0.0 255.0 0.0
0.07432816177606583 -0.22251620888710022 0.1564631313085556 0.0 255.0 0.0
0.2732546627521515 -0.3146538734436035 0.05524221807718277 0.0 255.0 0.0
-0.2034708857536316 -0.3839322328567505 -0.0657547190785408 0.0 255.0 0.0
-0.15445023775100708 0.4262997806072235 0.05083359032869339 0.0 255.0 0.0
0.15414132177829742 -0.3789055347442627 -0.03463147208094597 0.0 255.0 0.0
0.2955581247806549 -0.07144745439291 -0.115358367562294 0.0 255.0 0.0
0.014342998154461384 -0.1024758443236351 -0.13506805896759033 0.0 255.0 0.0
0.2591302990913391 -0.2739518880844116 -0.031817466020584106 0.0 255.0 0.0
-0.13705888390541077 -0.194444939494133 -0.13751690089702606 0.0 255.0 0.0
-0.2724946141242981 0.18832051753997803 0.08469446003437042 0.0 255.0 0.0
-0.1856994777917862 -0.3958113491535187 0.08126471191644669 0.0 255.0 0.0
-0.24366948008537292 -0.327475905418396 0.12451708316802979 0.0 255.0 0.0
0.10875482857227325 -0.05873961001634598 0.16950225830078125 0.0 255.0 0.0
-0.24358004331588745 0.2292570173740387 -0.04949863627552986 0.0 255.0 0.0
0.08131691813468933 -0.09498605877161026 0.1659083217382431 0.0 255.0 0.0
0.27987486124038696 0.4980953335762024 0.060937535017728806 0.0 255.0 0.0
-0.0017988483887165785 -0.2011243999004364 -0.13506805896759033 0.0 255.0 0.0
0.2555224597454071 0.33480721712112427 0.09991061687469482 0.0 255.0 0.0
-0.14286716282367706 0.129276305437088 0.16940195858478546 0.0 255.0 0.0
0.2972581684589386 -0.051381949335336685 0.07254232466220856 0.0 255.0 0.0
-0.17962604761123657 0.48881635069847107 -0.0027263991069048643 0.0 255.0 0.0
-0.2707524597644806 0.18230794370174408 0.0348869189620018 0.0 255.0 0.0
-0.29100367426872253 0.04013419896364212 -0.25775450468063354 0.0 255.0 0.0
0.10923652350902557 -0.2512044608592987 -0.05983710661530495 0.0 255.0 0.0
-0.11517437547445297 0.2260608673095703 0.04192657768726349 0.0 255.0 0.0
0.05406349524855614 -0.11542761325836182 0.16940195858478546 0.0 255.0 0.0
-0.3199215829372406 -0.40720754861831665 0.022749491035938263 0.0 255.0 0.0
-0.12116961926221848 -0.230177104473114 0.15510493516921997 0.0 255.0 0.0
0.18379180133342743 0.23156321048736572 -0.05469832569360733 0.0 255.0 0.0
0.24639096856117249 -0.19036750495433807 -0.13575515151023865 0.0 255.0 0.0
-0.2707524597644806 -0.02644931897521019 -0.06294329464435577 0.0 255.0 0.0
0.2972581684589386 0.05378755182027817 0.06293686479330063 0.0 255.0 0.0
-0.0157757755368948 -0.25077009201049805 0.07410186529159546 0.0 255.0 0.0
0.2965364456176758 0.16942790150642395 0.08386798948049545 0.0 255.0 0.0
-0.13992354273796082 0.09075531363487244 0.17074787616729736 0.0 255.0 0.0
-0.07800884544849396 -0.045984622091054916 0.17036156356334686 0.0 255.0 0.0
0.17407821118831635 -0.07744818925857544 0.16867075860500336 0.0 255.0 0.0
0.29668116569519043 0.3845694065093994 0.03264818713068962 0.0 255.0 0.0
-0.30997949838638306 -0.33877405524253845 0.03996464982628822 0.0 255.0 0.0
0.27820637822151184 -0.35372620820999146 0.1071176826953888 0.0 255.0 0.0
0.05192473530769348 0.07337880879640579 -0.1330777108669281 0.0 255.0 0.0
-0.18748168647289276 -0.3932512402534485 0.08615300804376602 0.0 255.0 0.0
-0.19293458759784698 0.23041300475597382 -0.04464809596538544 0.0 255.0 0.0
-0.07653238624334335 0.11058928072452545 0.1695568710565567 0.0 255.0 0.0
-0.13787175714969635 0.087151437997818 -0.13612963259220123 0.0 255.0 0.0
