-0.20613223314285278 -0.22214969992637634 -0.13320477306842804 0.0 255.0 0.0
0.29742687940597534 0.15032976865768433 0.12366408109664917 0.0 255.0 0.0
-0.2650805711746216 0.42017292976379395 0.006830096244812012 0.0 255.0 0.0
0.2692253291606903 -0.29245027899742126 0.013176708482205868 0.0 255.0 0.0
0.010207565501332283 -0.1417607218027115 -0.13812372088432312 0.0 255.0 0.0
-0.1268981397151947 -0.1572585254907608 0.167007178068161 0.0 255.0 0.0
0.20903380215168 -0.44761592149734497 0.0006692578899674118 0.0 255.0 0.0
-0.2388296276330948 0.082353875041008 -0.13142161071300507 0.0 255.0 0.0
-0.241407573223114 -0.2503073215484619 -0.08861378580331802 0.0 255.0 0.0
0.2579474449157715 -0.02721485123038292 -0.13676957786083221 0.0 255.0 0.0
-0.26968657970428467 0.16330251097679138 -0.06273923069238663 0.0 255.0 0.0
0.15439414978027344 -0.3060496747493744 0.003264128929004073 0.0 255.0 0.0
0.1744629144668579 -0.1955704689025879 -0.13506805896759033 0.0 255.0 0.0
0.1084141880273819 -0.25079604983329773 0.05976016819477081 0.0 255.0 0.0
0.2969985902309418 0.1935609132051468 0.1280839592218399 0.0 255.0 0.0
0.2956050932407379 0.01817919686436653 0.05185312032699585 0.0 255.0 0.0
0.3019028306007385 0.3936605453491211 0.04847610741853714 0.0 255.0 0.0
0.25098416209220886 -0.04141365736722946 -0.13409623503684998 0.0 255.0 0.0
0.10908836871385574 0.22612789273262024 -0.056381139904260635 0.0 255.0 0.0
0.2251044064760208 0.39206022024154663 -0.09077254682779312 0.0 255.0 0.0
-0.2692432403564453 -0.29868149757385254 0.04627196490764618 0.0 255.0 0.0
-0.16617639362812042 0.1157330572605133 0.16999368369579315 0.0 255.0 0.0
0.01993841864168644 0.22908742725849152 0.0070323701947927475 0.0 255.0 0.0
-0.0901041105389595 -0.2511681318283081 0.05528561398386955 0.0 255.0 0.0
0.2965410053730011 0.17318758368492126 -0.08043329417705536 0.0 255.0 0.0
-0.1718767285346985 0.19125130772590637 0.15412133932113647 0.0 255.0 0.0
-0.3024258017539978 -0.3549339771270752 -0.018672138452529907 0.0 255.0 0.0
0.23639820516109467 -0.01044086180627346 -0.13306337594985962 0.0 255.0 0.0
-0.20934408903121948 0.43809348344802856 0.08675029873847961 0.0 255.0 0.0
-0.24825811386108398 -0.12667684257030487 -0.13477209210395813 0.0 255.0 0.0
0.19639718532562256 -0.44495901465415955 0.0023578170221298933 0.0 255.0 0.0
0.17827582359313965 -0.21742752194404602 0.15739469230175018 0.0 255.0 0.0
0.18021075427532196 0.20019908249378204 0.15478602051734924 0.0 255.0 0.0
0.24176840484142303 0.15720263123512268 -0.13364212214946747 0.0 255.0 0.0
0.27489638328552246 0.31752875447273254 -0.0018683254020288587 0.0 255.0 0.0
-0.247826486825943 -0.28465020656585693 0.0644528791308403 0.0 255.0 0.0
-0.23722456395626068 0.03245346248149872 -0.13506805896759033 0.0 255.0 0.0
-0.1534847468137741 0.38563209772109985 0.015071158297359943 0.0 255.0 0.0
-0.16764406859874725 -0.2508998513221741 -0.09912411123514175 0.0 255.0 0.0
0.2693452835083008 -0.29264307022094727 0.0175336766988039 0.0 255.0 0.0
0.17382405698299408 -0.32228270173072815 0.08042684197425842 0.0 255.0 0.0
0.1364436149597168 -0.3802254796028137 0.05832849442958832 0.0 255.0 0.0
0.2174031138420105 0.2282508760690689 -0.059113211929798126 0.0 255.0 0.0
-0.19360284507274628 -0.15435227751731873 -0.1352689564228058 0.0 255.0 0.0
0.27047428488731384 0.22793088853359222 0.11513686180114746 0.0 255.0 0.0
0.1921461969614029 -0.25110918283462524 -0.06583798676729202 0.0 255.0 0.0
-0.2643556296825409 -0.2979070842266083 -0.0044784946367144585 0.0 255.0 0.0
0.292182594537735 -0.20554830133914948 0.008348324336111546 0.0 255.0 0.0
0.21373872458934784 -0.25045353174209595 -0.10210739821195602 0.0 255.0 0.0
0.12704938650131226 0.22812457382678986 0.03460732847452164 0.0 255.0 0.0
-0.23906919360160828 -0.2797796130180359 -0.04930546134710312 0.0 255.0 0.0
0.005702884867787361 -0.2504086196422577 -0.07948333770036697 0.0 255.0 0.0
0.05688702315092087 0.22682200372219086 -0.04088977724313736 0.0 255.0 0.0
0.2448330819606781 0.5133751630783081 0.056955233216285706 0.0 255.0 0.0
0.12687483429908752 -0.13201205432415009 0.1685655117034912 0.0 255.0 0.0
0.2832309603691101 -0.3668876886367798 -0.003925865050405264 0.0 255.0 0.0
0.20214435458183289 0.41939327120780945 -0.07131649553775787 0.0 255.0 0.0
0.24814555048942566 -0.1457676738500595 -0.1359742283821106 0.0 255.0 0.0
0.13746702671051025 0.22808057069778442 0.13377414643764496 0.0 255.0 0.0
0.2972581684589386 -0.009547832421958447 -0.01657203957438469 0.0 255.0 0.0
0.17041437327861786 0.2271667718887329 0.12910889089107513 0.0 255.0 0.0
-0.26907554268836975 -0.06109708547592163 0.00022493654978461564 0.0 255.0 0.0
-0.10554326325654984 -0.24995243549346924 0.030332045629620552 0.0 255.0 0.0
0.2972581684589386 -0.15902715921401978 -0.0516190305352211 0.0 255.0 0.0
-0.11780765652656555 -0.1022089272737503 -0.13506805896759033 0.0 255.0 0.0
-0.04970698058605194 0.22812457382678986 0.009687405079603195 0.0 255.0 0.0
0.0008157198317348957 0.22998195886611938 -0.07317005842924118 0.0 255.0 0.0
0.13895173370838165 -0.39523136615753174 0.09892986714839935 0.0 255.0 0.0
0.2779465913772583 -0.11622655391693115 -0.13251158595085144 0.0 255.0 0.0
0.003592588473111391 -0.07992935925722122 -0.13302110135555267 0.0 255.0 0.0
0.2972581684589386 -0.1761319935321808 -0.05792118236422539 0.0 255.0 0.0
-0.021904369816184044 0.22812457382678986 -0.09648866206407547 0.0 255.0 0.0
0.2898588478565216 0.4745914340019226 0.09843368828296661 0.0 255.0 0.0
0.24676044285297394 -0.23116478323936462 -0.13618895411491394 0.0 255.0 0.0
0.05914788320660591 -0.15628103911876678 0.17079082131385803 0.0 255.0 0.0
-0.17957818508148193 -0.2492915540933609 0.12256507575511932 0.0 255.0 0.0
0.2968510687351227 0.17506219446659088 0.08542683720588684 0.0 255.0 0.0
-0.15532952547073364 0.09313873946666718 0.17066574096679688 0.0 255.0 0.0
0.2977190613746643 0.11055009067058563 -0.06944189965724945 0.0 255.0 0.0
-0.26862090826034546 -0.23260262608528137 -0.06649709492921829 0.0 255.0 0.0
0.17369474470615387 0.40402549505233765 0.059163618832826614 0.0 255.0 0.0
-0.08358456194400787 -0.249966561794281 -0.09461094439029694 0.0 255.0 0.0
0.16491587460041046 0.22808314859867096 0.13319016993045807 0.0 255.0 0.0
-0.043489642441272736 0.22812457382678986 -0.018304919824004173 0.0 255.0 0.0
0.19926446676254272 -0.3333881199359894 0.1085711196064949 0.0 255.0 0.0
-0.180622398853302 0.493958055973053 0.011476744897663593 0.0 255.0 0.0
0.17872214317321777 -0.4459766745567322 0.17585359513759613 0.0 255.0 0.0
-0.07716253399848938 0.09414876997470856 0.16912177205085754 0.0 255.0 0.0
-0.18591509759426117 0.22636114060878754 0.07447857409715652 0.0 255.0 0.0
-0.06765151023864746 0.2294996827840805 -0.11255544424057007 0.0 255.0 0.0
0.30036067962646484 0.09897568821907043 0.04841345548629761 0.0 255.0 0.0
0.2907678484916687 0.4063328206539154 -0.04934260621666908 0.0 255.0 0.0
0.2906759977340698 -0.4197983145713806 0.0768226608633995 0.0 255.0 0.0
0.18103234469890594 0.429666131734848 -0.029193615540862083 0.0 255.0 0.0
0.17090973258018494 -0.38138121366500854 0.16384990513324738 0.0 255.0 0.0
0.22540199756622314 -0.020602716132998466 -0.1332535743713379 0.0 255.0 0.0
-0.23122389614582062 0.18849928677082062 -0.13610681891441345 0.0 255.0 0.0
0.177663192152977 -0.14726471900939941 0.16940195858478546 0.0 255.0 0.0
-0.0013468482065945864 -0.24915671348571777 0.05737685784697533 0.0 255.0 0.0
0.2961892783641815 0.06609740108251572 0.07595093548297882 0.0 255.0 0.0
0.29678648710250854 0.01633405312895775 -0.031054500490427017 0.0 255.0 0.0
-0.2681591212749481 0.3737570345401764 0.0044822306372225285 0.0 255.0 0.0
0.1949683576822281 0.23135744035243988 0.030598344281315804 0.0 255.0 0.0
-0.2697780430316925 -0.18696309626102448 0.12433703988790512 0.0 255.0 0.0
-0.15452620387077332 0.19552747905254364 -0.13690602779388428 0.0 255.0 0.0
0.24024206399917603 0.4010330140590668 0.10073272138834 0.0 255.0 0.0
0.15495294332504272 -0.4012468755245209 -0.037557702511548996 0.0 255.0 0.0
0.10114006698131561 0.23064441978931427 -0.010781248100101948 0.0 255.0 0.0
-0.1924149990081787 0.05936925858259201 -0.13303256034851074 0.0 255.0 0.0
0.17302586138248444 -0.083481065928936 -0.1370372474193573 0.0 255.0 0.0
0.24226097762584686 -0.21275854110717773 0.15537355840206146 0.0 255.0 0.0
0.15600597858428955 0.23128239810466766 -0.07993892580270767 0.0 255.0 0.0
-0.32168278098106384 -0.39146170020103455 -0.048466943204402924 0.0 255.0 0.0
0.05825455114245415 -0.2506827116012573 -0.08061883598566055 0.0 255.0 0.0
0.2971309721469879 0.13776716589927673 0.11026792228221893 0.0 255.0 0.0
0.15315793454647064 -0.3352392315864563 0.05895814299583435 0.0 255.0 0.0
0.0894482284784317 -0.038162678480148315 -0.1338193416595459 0.0 255.0 0.0
0.2391350418329239 0.1615379899740219 -0.135995551943779 0.0 255.0 0.0
-0.13441403210163116 0.23072323203086853 0.017713118344545364 0.0 255.0 0.0
-0.06750588864088058 -0.09053520858287811 0.16940195858478546 0.0 255.0 0.0
-0.10737928748130798 -0.1437917947769165 -0.13667729496955872 0.0 255.0 0.0
0.2931329905986786 0.41507309675216675 -0.03502211347222328 0.0 255.0 0.0
-0.13525323569774628 0.16753791272640228 -0.13443335890769958 0.0 255.0 0.0
-0.2657826244831085 -0.29682227969169617 0.04705890640616417 0.0 255.0 0.0
0.2972581684589386 -0.13429389894008636 -0.10894313454627991 0.0 255.0 0.0
-0.04495902359485626 0.07039397209882736 -0.1348133534193039 0.0 255.0 0.0
-0.24345716834068298 -0.0010877707973122597 -0.27230197191238403 0.0 255.0 0.0
-0.002366723958402872 -0.25174638628959656 -0.017467185854911804 0.0 255.0 0.0
-0.16831688582897186 0.2300006002187729 -0.0845966711640358 0.0 255.0 0.0
0.04256129637360573 -0.1700921356678009 0.1713576465845108 0.0 255.0 0.0
0.2979355454444885 0.06299249827861786 0.06745453178882599 0.0 255.0 0.0
0.09275142103433609 0.013789056800305843 0.16682745516300201 0.0 255.0 0.0
-0.27481383085250854 -0.3064843416213989 0.015309315174818039 0.0 255.0 0.0
0.13790851831436157 -0.25243133306503296 0.09366357326507568 0.0 255.0 0.0
0.29717883467674255 0.018090499565005302 0.07059020549058914 0.0 255.0 0.0
-0.17353694140911102 -0.25291907787323 -0.06603185087442398 0.0 255.0 0.0
0.2950159013271332 -0.05551312863826752 0.08498060703277588 0.0 255.0 0.0
0.2651935815811157 -0.2027079463005066 0.15600185096263885 0.0 255.0 0.0
-0.29710134863853455 -0.40247055888175964 0.11366680264472961 0.0 255.0 0.0
0.17495091259479523 0.41790130734443665 -0.0017872961470857263 0.0 255.0 0.0
0.2969230115413666 0.1767425537109375 -0.04634261876344681 0.0 255.0 0.0
0.2994959056377411 -0.11127093434333801 -0.06363454461097717 0.0 255.0 0.0
-0.1153024360537529 0.22822701930999756 -0.07561623305082321 0.0 255.0 0.0
0.13029953837394714 0.22812457382678986 -0.004142442252486944 0.0 255.0 0.0
-0.2701553404331207 -0.06789137423038483 -0.09230832755565643 0.0 255.0 0.0
0.2961920201778412 0.08891653269529343 0.0640481486916542 0.0 255.0 0.0
-0.24284808337688446 -0.03586374595761299 -0.25326719880104065 0.0 255.0 0.0
0.23925389349460602 -0.4463052451610565 0.07305130362510681 0.0 255.0 0.0
0.12943051755428314 -0.24767455458641052 0.04483543708920479 0.0 255.0 0.0
0.278970330953598 -0.3422923982143402 0.1045994982123375 0.0 255.0 0.0
0.21911418437957764 0.22963201999664307 -0.07964685559272766 0.0 255.0 0.0
-0.22450493276119232 0.20208582282066345 -0.13167144358158112 0.0 255.0 0.0
0.2264023870229721 -0.2944568991661072 -0.06863811612129211 0.0 255.0 0.0
0.0482950285077095 -0.2483610361814499 0.05734409764409065 0.0 255.0 0.0
0.28312450647354126 -0.41465458273887634 -0.02943626418709755 0.0 255.0 0.0
-0.08014844357967377 -0.013625417836010456 -0.13506805896759033 0.0 255.0 0.0
-0.030819399282336235 0.22897493839263916 0.06184019520878792 0.0 255.0 0.0
-0.18484938144683838 -0.29716938734054565 -0.05010492354631424 0.0 255.0 0.0
-0.16354191303253174 -0.27435237169265747 -0.031003758311271667 0.0 255.0 0.0
0.24928539991378784 0.5154956579208374 0.059439778327941895 0.0 255.0 0.0
0.2847513258457184 0.48387646675109863 0.09662690758705139 0.0 255.0 0.0
-0.1844271421432495 -0.20395895838737488 -0.1354592740535736 0.0 255.0 0.0
0.2962399423122406 0.18572169542312622 -0.026941275224089622 0.0 255.0 0.0
0.11215536296367645 0.07607337087392807 0.16940195858478546 0.0 255.0 0.0
-0.13568583130836487 -0.013861428946256638 0.1686730533838272 0.0 255.0 0.0
-0.270309180021286 0.04208562895655632 0.1247553899884224 0.0 255.0 0.0
-0.053102247416973114 0.10374221205711365 -0.13378426432609558 0.0 255.0 0.0
-0.30552035570144653 -0.3284667730331421 0.08462043851613998 0.0 255.0 0.0
-0.003085687756538391 0.2666856050491333 -0.21545550227165222 0.0 255.0 0.0
-0.24878932535648346 -0.46729353070259094 0.028056764975190163 0.0 255.0 0.0
0.2999858856201172 0.16758699715137482 0.09401865303516388 0.0 255.0 0.0
0.13609127700328827 0.2271677702665329 0.006046427879482508 0.0 255.0 0.0
0.003002314129844308 -0.045917853713035583 0.17234236001968384 0.0 255.0 0.0
-0.196706160902977 -0.37711942195892334 0.1014338880777359 0.0 255.0 0.0
-0.20348796248435974 0.1038493737578392 0.17090466618537903 0.0 255.0 0.0
-0.27428945899009705 0.13320720195770264 -0.0128927705809474 0.0 255.0 0.0
0.03297502547502518 0.1975439041852951 0.15623442828655243 0.0 255.0 0.0
-0.27064016461372375 -0.040181271731853485 0.0016161877429112792 0.0 255.0 0.0
-0.31845027208328247 -0.4113495349884033 0.019400333985686302 0.0 255.0 0.0
0.2903379201889038 0.469978004693985 -0.019611114636063576 0.0 255.0 0.0
-0.1564144343137741 0.4042726755142212 0.0788707435131073 0.0 255.0 0.0
0.14695453643798828 -0.04762261360883713 0.16940195858478546 0.0 255.0 0.0
-0.1200917437672615 -0.2537861168384552 -0.0672125518321991 0.0 255.0 0.0
-0.03253173828125 -0.07219405472278595 0.16940195858478546 0.0 255.0 0.0
-0.10695546120405197 -0.25128310918807983 -0.04479185491800308 0.0 255.0 0.0
0.3015352189540863 0.041722577065229416 0.011767463758587837 0.0 255.0 0.0
-0.052979905158281326 -0.2504352331161499 0.138942152261734 0.0 255.0 0.0
0.016210557892918587 0.13636447489261627 -0.21391558647155762 0.0 255.0 0.0
-0.289945513010025 0.06372147798538208 -0.29728585481643677 0.0 255.0 0.0
0.2972581684589386 0.07783340662717819 0.10747303813695908 0.0 255.0 0.0
0.01209512259811163 0.20792484283447266 -0.23537300527095795 0.0 255.0 0.0
0.3060155510902405 0.4153860807418823 0.03749028220772743 0.0 255.0 0.0
-0.27015891671180725 0.027548179030418396 0.011162004433572292 0.0 255.0 0.0
-0.029985086992383003 -0.25198885798454285 -0.02208319678902626 0.0 255.0 0.0
-0.12319769710302353 0.08859658241271973 -0.1370101422071457 0.0 255.0 0.0
-0.17153428494930267 -0.3803569972515106 0.00514971325173974 0.0 255.0 0.0
-0.17226722836494446 0.19901250302791595 0.1562557816505432 0.0 255.0 0.0
-0.14545154571533203 0.06679154187440872 -0.13286571204662323 0.0 255.0 0.0
-0.2472560703754425 -0.2759111821651459 0.021317841485142708 0.0 255.0 0.0
-0.2719199061393738 0.11202127486467361 0.0672382190823555 0.0 255.0 0.0
0.1700257509946823 -0.027101237326860428 0.16940195858478546 0.0 255.0 0.0
0.20518183708190918 0.09173441678285599 0.16940195858478546 0.0 255.0 0.0
-0.27007898688316345 -0.13589680194854736 0.05716611444950104 0.0 255.0 0.0
-0.2707524597644806 0.11954864114522934 0.055611614137887955 0.0 255.0 0.0
0.28723374009132385 -0.41283613443374634 0.1639394462108612 0.0 255.0 0.0
-0.06894732266664505 0.10857679694890976 -0.13427403569221497 0.0 255.0 0.0
0.04025611653923988 -0.12267675995826721 -0.13506805896759033 0.0 255.0 0.0
-0.2712762653827667 -0.07540176808834076 -0.10922452062368393 0.0 255.0 0.0
-0.27377834916114807 -0.1445273607969284 0.06723946332931519 0.0 255.0 0.0
0.22887581586837769 -0.4472058415412903 0.1513848900794983 0.0 255.0 0.0
-0.24689877033233643 0.14509175717830658 0.15623769164085388 0.0 255.0 0.0
0.17815828323364258 0.35806506872177124 -0.004139486234635115 0.0 255.0 0.0
0.1523076742887497 -0.3477441966533661 0.0743265151977539 0.0 255.0 0.0
-0.2589651048183441 -0.44266363978385925 0.09322294592857361 0.0 255.0 0.0
-0.2339658886194229 0.07790431380271912 -0.13557027280330658 0.0 255.0 0.0
-0.2538192570209503 -0.42718446254730225 0.15278050303459167 0.0 255.0 0.0
0.07017872482538223 -0.25111961364746094 0.12239352613687515 0.0 255.0 0.0
-0.16518445312976837 -0.063811294734478 0.1712779998779297 0.0 255.0 0.0
-0.2707524597644806 0.20993471145629883 0.11885430663824081 0.0 255.0 0.0
-0.2733936607837677 -0.21748802065849304 0.03669252246618271 0.0 255.0 0.0
0.09686561673879623 0.055284664034843445 0.16891822218894958 0.0 255.0 0.0
-0.1617504209280014 -0.12072882056236267 0.16940195858478546 0.0 255.0 0.0
0.20200148224830627 0.3379959464073181 0.080654077231884 0.0 255.0 0.0
0.005400516092777252 -0.16718445718288422 -0.13506805896759033 0.0 255.0 0.0
-0.18812760710716248 0.5023592114448547 0.044533871114254 0.0 255.0 0.0
-0.016381610184907913 0.19401700794696808 0.1561831682920456 0.0 255.0 0.0
0.19051577150821686 0.2303534299135208 -0.09163408726453781 0.0 255.0 0.0
0.26665976643562317 0.22775955498218536 -0.1166539415717125 0.0 255.0 0.0
0.061302997171878815 0.2250186800956726 -0.10385724902153015 0.0 255.0 0.0
-0.15691372752189636 0.22633402049541473 0.07286868244409561 0.0 255.0 0.0
0.13220354914665222 0.22347401082515717 0.0027676138561218977 0.0 255.0 0.0
-0.22800719738006592 -0.05033966526389122 -0.1348130702972412 0.0 255.0 0.0
0.22878018021583557 0.19714505970478058 0.15622863173484802 0.0 255.0 0.0
0.0740792453289032 0.060100384056568146 -0.13195829093456268 0.0 255.0 0.0
0.28847795724868774 -0.3898331820964813 0.12800772488117218 0.0 255.0 0.0
-0.25967368483543396 -0.42630261182785034 0.14134563505649567 0.0 255.0 0.0
-0.27086925506591797 -0.21955253183841705 -0.1032053753733635 0.0 255.0 0.0
-0.18797194957733154 -0.25420159101486206 -0.10979356616735458 0.0 255.0 0.0
0.1750742644071579 -0.37186965346336365 0.1434902846813202 0.0 255.0 0.0
0.2819582223892212 -0.33568429946899414 0.003724758280441165 0.0 255.0 0.0
-0.18620440363883972 -0.3481002449989319 -0.053292613476514816 0.0 255.0 0.0
-0.26860707998275757 -0.015039179474115372 -0.04590417072176933 0.0 255.0 0.0
0.16300955414772034 0.18334916234016418 -0.13515952229499817 0.0 255.0 0.0
-0.09758151322603226 0.20518022775650024 0.15875108540058136 0.0 255.0 0.0
-0.026423845440149307 0.04015286639332771 0.16870208084583282 0.0 255.0 0.0
-0.1527431607246399 0.38782408833503723 0.04737446829676628 0.0 255.0 0.0
-0.21960730850696564 -0.07328096032142639 -0.13879404962062836 0.0 255.0 0.0
0.2987947463989258 0.3899396061897278 -0.015580511651933193 0.0 255.0 0.0
0.17773129045963287 0.3968685269355774 -0.027342775836586952 0.0 255.0 0.0
0.08733256906270981 0.13375097513198853 -0.13587968051433563 0.0 255.0 0.0
0.0839012861251831 0.22521808743476868 -0.055013615638017654 0.0 255.0 0.0
0.18787485361099243 0.3720800578594208 -0.046097397804260254 0.0 255.0 0.0
0.17174433171749115 -0.33417272567749023 0.09066338837146759 0.0 255.0 0.0
0.16926631331443787 0.1515129655599594 -0.13783743977546692 0.0 255.0 0.0
-0.1383482813835144 -0.0734483152627945 -0.1371198147535324 0.0 255.0 0.0
-0.1717211902141571 -0.32542040944099426 -0.03643173724412918 0.0 255.0 0.0
-0.12522083520889282 0.029783638194203377 -0.13398830592632294 0.0 255.0 0.0
0.094986692070961 -0.2501868009567261 0.13715337216854095 0.0 255.0 0.0
-0.2707524597644806 -0.10792427510023117 -0.0622662678360939 0.0 255.0 0.0
-0.2075313776731491 -0.37230929732322693 -0.07185251265764236 0.0 255.0 0.0
0.29631271958351135 -0.22594352066516876 0.02001664787530899 0.0 255.0 0.0
0.004866688046604395 0.14196129143238068 0.17014221847057343 0.0 255.0 0.0
-0.17938604950904846 -0.2960716485977173 0.06549859046936035 0.0 255.0 0.0
0.00040566569077782333 -0.2506502568721771 -0.09189306944608688 0.0 255.0 0.0
-0.24449878931045532 0.018031468614935875 -0.13703112304210663 0.0 255.0 0.0
-0.12290357798337936 -0.24932605028152466 -0.08201760798692703 0.0 255.0 0.0
0.004075441975146532 0.20300163328647614 -0.23558832705020905 0.0 255.0 0.0
-0.1948341578245163 -0.4330812394618988 0.0695609524846077 0.0 255.0 0.0
0.04136265069246292 0.01822860911488533 -0.13451918959617615 0.0 255.0 0.0
-0.06499696522951126 -0.25387176871299744 -0.0695905014872551 0.0 255.0 0.0
-0.03747028857469559 0.06762846559286118 -0.13490445911884308 0.0 255.0 0.0
-0.09493062645196915 0.08509596437215805 -0.13506805896759033 0.0 255.0 0.0
0.0906885489821434 -0.16742797195911407 -0.13791784644126892 0.0 255.0 0.0
0.18439388275146484 0.3364555835723877 0.034771814942359924 0.0 255.0 0.0
0.29413822293281555 0.36863768100738525 -0.03854118287563324 0.0 255.0 0.0
0.17553158104419708 0.42793014645576477 0.08407317101955414 0.0 255.0 0.0
0.17304100096225739 0.3896849453449249 -0.01525646261870861 0.0 255.0 0.0
-0.04337295889854431 -0.21503886580467224 0.15628324449062347 0.0 255.0 0.0
-0.23670043051242828 -0.42544400691986084 -0.07502099871635437 0.0 255.0 0.0
-0.2698907256126404 -0.17081792652606964 -0.06976544857025146 0.0 255.0 0.0
0.23729191720485687 -0.10815494507551193 -0.13437321782112122 0.0 255.0 0.0
-0.10067808628082275 0.054276254028081894 -0.13472257554531097 0.0 255.0 0.0
-0.24921970069408417 -0.04695863276720047 -0.13248151540756226 0.0 255.0 0.0
0.17965145409107208 0.4405475854873657 0.09497663378715515 0.0 255.0 0.0
0.10945367068052292 0.048950061202049255 0.17046716809272766 0.0 255.0 0.0
-0.24261291325092316 0.16166774928569794 0.15470755100250244 0.0 255.0 0.0
0.10894961655139923 -0.24982474744319916 0.10952886193990707 0.0 255.0 0.0
0.18007436394691467 -0.1379488855600357 -0.13564032316207886 0.0 255.0 0.0
0.17828495800495148 0.08392150700092316 0.17101095616817474 0.0 255.0 0.0
-0.004443710204213858 0.22812457382678986 -0.05289489030838013 0.0 255.0 0.0
-0.2700844705104828 0.0814957320690155 0.05559851601719856 0.0 255.0 0.0
-0.17681483924388885 -0.2893086373806 0.061204660683870316 0.0 255.0 0.0
-0.2337619662284851 -0.2471025586128235 0.11629241704940796 0.0 255.0 0.0
-0.27131330966949463 -0.1983993798494339 -0.10525955259799957 0.0 255.0 0.0
0.15414361655712128 0.22918494045734406 -0.08970323204994202 0.0 255.0 0.0
0.2950592041015625 0.024540724232792854 -0.020579176023602486 0.0 255.0 0.0
-0.04429800435900688 0.22812457382678986 -0.06892963498830795 0.0 255.0 0.0
-0.11528705060482025 -0.09869958460330963 -0.13090473413467407 0.0 255.0 0.0
0.23462770879268646 0.23332864046096802 -0.06241171061992645 0.0 255.0 0.0
-0.13863489031791687 -0.24882614612579346 0.09868255257606506 0.0 255.0 0.0
0.2453700751066208 -0.4463483393192291 0.17531949281692505 0.0 255.0 0.0
-0.27077430486679077 0.09546642005443573 -0.0006551464321091771 0.0 255.0 0.0
0.1714807152748108 0.22658050060272217 0.022402793169021606 0.0 255.0 0.0
-0.18866461515426636 0.5013414025306702 0.03572830185294151 0.0 255.0 0.0
0.2963169813156128 -0.1850930005311966 0.13457971811294556 0.0 255.0 0.0
-0.026823215186595917 -0.25079119205474854 0.0780269056558609 0.0 255.0 0.0
0.1727660894393921 0.42741042375564575 0.043074365705251694 0.0 255.0 0.0
-0.2674047350883484 0.11443644762039185 -0.004950869362801313 0.0 255.0 0.0
-0.027676381170749664 0.22700493037700653 0.10413412004709244 0.0 255.0 0.0
-0.13120749592781067 -0.16350486874580383 -0.13604702055454254 0.0 255.0 0.0
0.2972581684589386 0.00651260931044817 -0.06440303474664688 0.0 255.0 0.0
-0.28289222717285156 -0.4172058701515198 0.09695404767990112 0.0 255.0 0.0
-0.17461705207824707 -0.374682754278183 -0.024880709126591682 0.0 255.0 0.0
0.26374712586402893 0.19540436565876007 0.157822847366333 0.0 255.0 0.0
0.013904470950365067 -0.023516757413744926 0.16940195858478546 0.0 255.0 0.0
-0.1129828467965126 -0.25053781270980835 0.12945657968521118 0.0 255.0 0.0
-0.008102799765765667 0.22837519645690918 0.11562572419643402 0.0 255.0 0.0
-0.26910871267318726 0.41479045152664185 0.03300894424319267 0.0 255.0 0.0
-0.199567973613739 -0.06698134541511536 0.16995595395565033 0.0 255.0 0.0
-0.05361532047390938 -0.12091527134180069 -0.13351979851722717 0.0 255.0 0.0
-0.23433512449264526 0.4996137022972107 0.04443567246198654 0.0 255.0 0.0
0.12865184247493744 -0.22766336798667908 -0.13506805896759033 0.0 255.0 0.0
0.17903469502925873 0.39773082733154297 0.09199383109807968 0.0 255.0 0.0
-0.3273847997188568 -0.3410327732563019 0.12277724593877792 0.0 255.0 0.0
-0.12781673669815063 0.019654452800750732 -0.13340993225574493 0.0 255.0 0.0
-0.23492300510406494 -0.35355523228645325 0.15660272538661957 0.0 255.0 0.0
0.11036581546068192 -0.1464482992887497 -0.13814806938171387 0.0 255.0 0.0
0.18380507826805115 -0.44644394516944885 0.09307343512773514 0.0 255.0 0.0
0.20825375616550446 -0.3838714361190796 -0.08436363190412521 0.0 255.0 0.0
0.2690744400024414 -0.3681381344795227 -0.06212487444281578 0.0 255.0 0.0
0.03544127196073532 0.01688002049922943 0.16907629370689392 0.0 255.0 0.0
0.18527854979038239 0.10591915994882584 -0.1381271332502365 0.0 255.0 0.0
-0.2685558497905731 -0.1339305341243744 -0.08250105381011963 0.0 255.0 0.0
-0.11900654435157776 -0.2476671189069748 0.04673369228839874 0.0 255.0 0.0
-0.2986705005168915 -0.4059789776802063 0.09105353057384491 0.0 255.0 0.0
0.21354860067367554 -0.16077198088169098 0.16937892138957977 0.0 255.0 0.0
0.01364721730351448 -0.11498703807592392 -0.13316510617733002 0.0 255.0 0.0
0.028257787227630615 0.17876099050045013 -0.1364246904850006 0.0 255.0 0.0
-0.020640777423977852 -0.17506244778633118 -0.13360591232776642 0.0 255.0 0.0
-0.27917298674583435 -0.31260308623313904 0.008122961968183517 0.0 255.0 0.0
-0.09207890182733536 -0.01259167492389679 0.16724979877471924 0.0 255.0 0.0
0.28520146012306213 -0.3533135950565338 0.005735534243285656 0.0 255.0 0.0
-0.002588953822851181 -0.2510290741920471 0.10154221206903458 0.0 255.0 0.0
-0.26871833205223083 0.09762132912874222 -0.11003022640943527 0.0 255.0 0.0
0.2968882620334625 0.35458245873451233 0.04856281727552414 0.0 255.0 0.0
0.2644042670726776 -0.025191394612193108 -0.1331474781036377 0.0 255.0 0.0
0.21139240264892578 0.22809289395809174 -0.10801611095666885 0.0 255.0 0.0
0.3009539246559143 -0.16649861633777618 0.07762423902750015 0.0 255.0 0.0
0.1766664981842041 -0.20744812488555908 -0.13506805896759033 0.0 255.0 0.0
-0.2737911343574524 -0.33496755361557007 -0.058384232223033905 0.0 255.0 0.0
0.2837553024291992 -0.36402079463005066 0.09123098850250244 0.0 255.0 0.0
0.2507047951221466 -0.44707655906677246 0.043099090456962585 0.0 255.0 0.0
-0.3051610589027405 -0.37300124764442444 0.1892893761396408 0.0 255.0 0.0
-0.03287516534328461 -0.16312777996063232 -0.13380049169063568 0.0 255.0 0.0
-0.08919446170330048 5.616608541458845e-05 0.16770833730697632 0.0 255.0 0.0
-0.15516917407512665 0.381397545337677 -0.004851306788623333 0.0 255.0 0.0
-0.24387800693511963 0.04235906898975372 -0.13506805896759033 0.0 255.0 0.0
-0.2707524597644806 0.05890994891524315 -0.001724966336041689 0.0 255.0 0.0
-0.16774779558181763 -0.2851219177246094 -0.03373479098081589 0.0 255.0 0.0
-0.0106941107660532 -0.1481831818819046 -0.13544391095638275 0.0 255.0 0.0
0.17507003247737885 -0.031039826571941376 -0.13506805896759033 0.0 255.0 0.0
0.19251514971256256 0.4863611161708832 0.03449232503771782 0.0 255.0 0.0
0.21563200652599335 -0.4481355845928192 -0.008995403535664082 0.0 255.0 0.0
-0.22390560805797577 -0.3938153088092804 0.17688681185245514 0.0 255.0 0.0
-0.26869508624076843 0.1527348905801773 0.0003761515545193106 0.0 255.0 0.0
0.23663997650146484 0.3258686363697052 0.0667942464351654 0.0 255.0 0.0
-0.14959119260311127 -0.08885186910629272 0.17174337804317474 0.0 255.0 0.0
0.0002239262539660558 -0.2534748911857605 -0.055140092968940735 0.0 255.0 0.0
0.29542893171310425 0.46513113379478455 0.06492225080728531 0.0 255.0 0.0
0.3031059801578522 0.4005078077316284 0.036554139107465744 0.0 255.0 0.0
0.04070645198225975 0.22431203722953796 -0.053124286234378815 0.0 255.0 0.0
0.22767406702041626 -0.21757666766643524 0.1551087647676468 0.0 255.0 0.0
0.1917503923177719 0.03530767560005188 -0.13506805896759033 0.0 255.0 0.0
-0.2702222466468811 0.040682725608348846 -0.11251338571310043 0.0 255.0 0.0
0.1676689237356186 -0.22425809502601624 -0.13506805896759033 0.0 255.0 0.0
0.29855668544769287 0.4068770408630371 0.09665264189243317 0.0 255.0 0.0
-0.1703953742980957 0.10242655873298645 0.17104573547840118 0.0 255.0 0.0
0.13736052811145782 0.011922516860067844 -0.1361912041902542 0.0 255.0 0.0
0.09952981770038605 0.07357180863618851 -0.13269047439098358 0.0 255.0 0.0
0.2995601296424866 0.42551755905151367 0.008809929713606834 0.0 255.0 0.0
-0.15367491543293 0.07778564840555191 0.16940195858478546 0.0 255.0 0.0
0.0018981199245899916 -0.2498060017824173 0.04306868836283684 0.0 255.0 0.0
0.05080948770046234 0.022547738626599312 0.16910983622074127 0.0 255.0 0.0
-0.2718537151813507 -0.0068131377920508385 0.09220198541879654 0.0 255.0 0.0
0.11374340206384659 -0.24981266260147095 0.11043653637170792 0.0 255.0 0.0
0.017988264560699463 0.12410687655210495 0.16718284785747528 0.0 255.0 0.0
0.09514106810092926 -0.09900685399770737 -0.1358117014169693 0.0 255.0 0.0
-0.13711176812648773 -0.251663476228714 0.07294180244207382 0.0 255.0 0.0
0.2223203033208847 0.5134044289588928 0.01844489388167858 0.0 255.0 0.0
-0.05068156495690346 0.18090133368968964 -0.13506805896759033 0.0 255.0 0.0
-0.11244548112154007 0.2020810842514038 0.1580931395292282 0.0 255.0 0.0
-0.18614763021469116 -0.08082546293735504 -0.13632050156593323 0.0 255.0 0.0
-0.18123818933963776 -0.4187462031841278 0.020939607173204422 0.0 255.0 0.0
0.1745738536119461 -0.27274662256240845 -0.020312216132879257 0.0 255.0 0.0
0.19138363003730774 0.1974359154701233 0.1594294160604477 0.0 255.0 0.0
0.2764478921890259 -0.14386752247810364 0.1621149778366089 0.0 255.0 0.0
0.2976992130279541 0.049348365515470505 0.035610537976026535 0.0 255.0 0.0
0.29887455701828003 -0.10943084955215454 0.06325650960206985 0.0 255.0 0.0
0.25169137120246887 0.4255625903606415 0.10486240684986115 0.0 255.0 0.0
0.295685738325119 -0.06667301803827286 0.009118410758674145 0.0 255.0 0.0
-0.16652452945709229 0.4814731478691101 0.04185599088668823 0.0 255.0 0.0
-0.32450562715530396 -0.3292199373245239 0.15461841225624084 0.0 255.0 0.0
-0.2868167459964752 -0.048282258212566376 -0.2688902020454407 0.0 255.0 0.0
-0.26561740040779114 0.45642340183258057 0.034831903874874115 0.0 255.0 0.0
0.00547112338244915 -0.059260714799165726 -0.13104280829429626 0.0 255.0 0.0
-0.23679901659488678 -0.25110742449760437 -0.1125115230679512 0.0 255.0 0.0
0.2972581684589386 0.0009467278141528368 -0.07839511334896088 0.0 255.0 0.0
0.20165909826755524 -0.11313929408788681 -0.13506805896759033 0.0 255.0 0.0
0.12970209121704102 -0.25094082951545715 0.01700502261519432 0.0 255.0 0.0
0.19386199116706848 -0.3462006449699402 0.12296006083488464 0.0 255.0 0.0
-0.07083060592412949 -0.1540708839893341 -0.13506805896759033 0.0 255.0 0.0
-0.3123427927494049 -0.41298574209213257 0.032620109617710114 0.0 255.0 0.0
0.0567534975707531 -0.02140800468623638 0.16774259507656097 0.0 255.0 0.0
-0.09943696856498718 -0.009926342405378819 0.17010276019573212 0.0 255.0 0.0
-0.05337802320718765 -0.13961489498615265 0.16915303468704224 0.0 255.0 0.0
-0.1161515936255455 0.17194311320781708 -0.1362343728542328 0.0 255.0 0.0
-0.2707524597644806 -0.09383641928434372 -0.04282999038696289 0.0 255.0 0.0
-0.0012479095021262765 0.062217243015766144 0.17004548013210297 0.0 255.0 0.0
-0.03425000235438347 -0.10763154923915863 -0.13577474653720856 0.0 255.0 0.0
-0.1736876219511032 -0.2516523003578186 -0.06965669244527817 0.0 255.0 0.0
0.2972581684589386 -0.040934521704912186 -0.11021099984645844 0.0 255.0 0.0
0.286889910697937 0.48450496792793274 0.027643609791994095 0.0 255.0 0.0
0.031878210604190826 0.1403956562280655 0.1705513596534729 0.0 255.0 0.0
0.2283165603876114 0.49912503361701965 -0.04360080137848854 0.0 255.0 0.0
-0.2707524597644806 -0.23399029672145844 -0.07071448862552643 0.0 255.0 0.0
-0.16637460887432098 -0.0763648971915245 -0.13939006626605988 0.0 255.0 0.0
-0.15672363340854645 -0.2512483298778534 -0.08638516068458557 0.0 255.0 0.0
-0.16029633581638336 0.3628588318824768 0.05932065099477768 0.0 255.0 0.0
0.16370107233524323 -0.29145246744155884 -0.01335111539810896 0.0 255.0 0.0
-0.10328159481287003 -0.15208156406879425 0.16940195858478546 0.0 255.0 0.0
-0.16467759013175964 0.22814585268497467 0.04912703484296799 0.0 255.0 0.0
-0.2707524597644806 0.16433793306350708 0.12068648636341095 0.0 255.0 0.0
0.06173107773065567 -0.1134161502122879 0.16940195858478546 0.0 255.0 0.0
0.1880188286304474 -0.05522237718105316 0.16806888580322266 0.0 255.0 0.0
-0.31446218490600586 -0.36615175008773804 -0.02571909688413143 0.0 255.0 0.0
0.2972581684589386 0.03803929314017296 0.09138238430023193 0.0 255.0 0.0
-0.2721739411354065 0.21001595258712769 0.10870405286550522 0.0 255.0 0.0
-0.06479134410619736 -0.1639147847890854 -0.13506805896759033 0.0 255.0 0.0
-0.08585629612207413 -0.04891912266612053 -0.13372491300106049 0.0 255.0 0.0
-0.14092038571834564 0.07076182961463928 0.16940195858478546 0.0 255.0 0.0
0.2608156204223633 0.09615456312894821 -0.13684412837028503 0.0 255.0 0.0
-0.19350503385066986 -0.2526307702064514 0.11235439777374268 0.0 255.0 0.0
0.24838927388191223 0.22816310822963715 0.09641692787408829 0.0 255.0 0.0
0.2727668285369873 -0.2510800361633301 0.011354153975844383 0.0 255.0 0.0
-0.2301594316959381 -0.37610140442848206 0.16731861233711243 0.0 255.0 0.0
0.11755085736513138 0.1367822140455246 0.16895553469657898 0.0 255.0 0.0
0.29717034101486206 0.1481052190065384 0.0010999517980962992 0.0 255.0 0.0
-0.18138615787029266 -0.030139021575450897 0.16940195858478546 0.0 255.0 0.0
-0.27000027894973755 -0.16329814493656158 0.051651474088430405 0.0 255.0 0.0
0.2974012494087219 0.051337599754333496 -0.06392073631286621 0.0 255.0 0.0
0.29973331093788147 0.06755828112363815 0.10468998551368713 0.0 255.0 0.0
0.2730593681335449 0.11088454723358154 0.1562320739030838 0.0 255.0 0.0
0.08587513118982315 0.23130187392234802 0.059575483202934265 0.0 255.0 0.0
-0.09963434189558029 0.09644153714179993 0.16755056381225586 0.0 255.0 0.0
0.25310227274894714 -0.24997107684612274 0.12234175950288773 0.0 255.0 0.0
0.10713273286819458 -0.13349993526935577 0.16940195858478546 0.0 255.0 0.0
-0.16402752697467804 -0.3342367708683014 -0.01873428374528885 0.0 255.0 0.0
0.29051077365875244 -0.39470934867858887 0.09608913213014603 0.0 255.0 0.0
-0.10723597556352615 0.010281717404723167 -0.1348596066236496 0.0 255.0 0.0
-0.2707524597644806 -0.1560807079076767 0.0632820576429367 0.0 255.0 0.0
0.10057143867015839 -0.24888022243976593 0.06104236841201782 0.0 255.0 0.0
0.026462716981768608 -0.1815508008003235 -0.13344453275203705 0.0 255.0 0.0
-0.19410520792007446 -0.0973379984498024 -0.13506805896759033 0.0 255.0 0.0
0.29867246747016907 0.017022833228111267 -0.02948659658432007 0.0 255.0 0.0
0.0992978885769844 -0.0013486972311511636 0.16800826787948608 0.0 255.0 0.0
0.16100464761257172 -0.22475217282772064 -0.1318521797657013 0.0 255.0 0.0
-0.20956087112426758 0.14176447689533234 -0.13340507447719574 0.0 255.0 0.0
0.2972581684589386 -0.2036580741405487 -0.0781189426779747 0.0 255.0 0.0
0.048090532422065735 -0.013547766953706741 -0.13308049738407135 0.0 255.0 0.0
-0.2221909910440445 -0.38856664299964905 0.1738656461238861 0.0 255.0 0.0
-0.015698768198490143 0.22812457382678986 0.06451456248760223 0.0 255.0 0.0
0.2969796359539032 0.06406629085540771 -0.08359259366989136 0.0 255.0 0.0
0.17103859782218933 -0.36654627323150635 -0.05359216406941414 0.0 255.0 0.0
-0.2821723222732544 -0.4402705132961273 0.032035503536462784 0.0 255.0 0.0
0.07450298219919205 0.13651353120803833 0.16783994436264038 0.0 255.0 0.0
0.27950847148895264 0.31939685344696045 0.016366664320230484 0.0 255.0 0.0
0.10344903916120529 -0.16451451182365417 -0.1370818167924881 0.0 255.0 0.0
0.2986138164997101 0.024126805365085602 0.1352929025888443 0.0 255.0 0.0
-0.12815500795841217 0.048852864652872086 0.16940195858478546 0.0 255.0 0.0
-0.2476063370704651 -0.3480857014656067 0.15767261385917664 0.0 255.0 0.0
-0.25260794162750244 -0.11293066293001175 -0.13762375712394714 0.0 255.0 0.0
0.07140076905488968 -0.011668320745229721 0.16940195858478546 0.0 255.0 0.0
0.2972581684589386 -0.007627638056874275 0.021976249292492867 0.0 255.0 0.0
0.019082393497228622 0.22991709411144257 0.0446804016828537 0.0 255.0 0.0
0.14469973742961884 0.22557112574577332 0.12025579810142517 0.0 255.0 0.0
-0.31378281116485596 -0.4249690771102905 -0.013977836817502975 0.0 255.0 0.0
0.13934524357318878 -0.250618577003479 -0.09306991845369339 0.0 255.0 0.0
-0.2707524597644806 0.10513591021299362 -0.06621222198009491 0.0 255.0 0.0
-0.18795166909694672 -0.41759881377220154 0.06072583422064781 0.0 255.0 0.0
0.3009992837905884 0.38192299008369446 0.003155631246045232 0.0 255.0 0.0
0.21924325823783875 -0.03178152069449425 -0.13506805896759033 0.0 255.0 0.0
-0.1126464456319809 -0.05985179543495178 0.16987180709838867 0.0 255.0 0.0
0.21230679750442505 0.1192278265953064 0.16940195858478546 0.0 255.0 0.0
0.24634578824043274 -0.24952054023742676 0.08964592963457108 0.0 255.0 0.0
0.2975674569606781 0.11453185230493546 -0.06336182355880737 0.0 255.0 0.0
-0.17588384449481964 -0.09693817049264908 -0.13595224916934967 0.0 255.0 0.0
-0.27284303307533264 -0.19067613780498505 -0.09025176614522934 0.0 255.0 0.0
-0.18206660449504852 0.20908205211162567 -0.1344490945339203 0.0 255.0 0.0
-0.17527951300144196 -0.09673821926116943 -0.13506805896759033 0.0 255.0 0.0
-0.19187775254249573 0.22836078703403473 0.08089501410722733 0.0 255.0 0.0
0.1346110850572586 0.22816109657287598 -0.11698368936777115 0.0 255.0 0.0
-0.06619749218225479 0.22840553522109985 0.11134304851293564 0.0 255.0 0.0
-0.22902077436447144 0.49995407462120056 0.002666106214746833 0.0 255.0 0.0
0.22291474044322968 -0.44648393988609314 0.012805428355932236 0.0 255.0 0.0
0.19646811485290527 -0.2830357253551483 -0.051702097058296204 0.0 255.0 0.0
0.014673720113933086 0.2011829912662506 0.15582282841205597 0.0 255.0 0.0
-0.03325246274471283 -0.2313890904188156 -0.13720084726810455 0.0 255.0 0.0
0.14151664078235626 -0.25277161598205566 0.053790755569934845 0.0 255.0 0.0
-0.12819717824459076 -0.2531966269016266 0.06461093574762344 0.0 255.0 0.0
-0.20814502239227295 0.14050361514091492 -0.13858936727046967 0.0 255.0 0.0
-0.02692253328859806 0.2261843979358673 0.04007439687848091 0.0 255.0 0.0
-0.06429313868284225 -0.25096914172172546 0.043013449758291245 0.0 255.0 0.0
-0.07940723747015 -0.16087503731250763 -0.13902156054973602 0.0 255.0 0.0
-0.0884157121181488 0.13580021262168884 0.16811548173427582 0.0 255.0 0.0
0.1809912770986557 -0.28161606192588806 -0.036599546670913696 0.0 255.0 0.0
-0.2707524597644806 0.012914718128740788 -0.01721145585179329 0.0 255.0 0.0
0.12795411050319672 -0.25111883878707886 -0.07296565920114517 0.0 255.0 0.0
0.21959452331066132 0.060292307287454605 -0.13243405520915985 0.0 255.0 0.0
-0.13585585355758667 0.024137502536177635 -0.1331983506679535 0.0 255.0 0.0
-0.20886391401290894 0.41767168045043945 0.08842835575342178 0.0 255.0 0.0
-0.26722612977027893 -0.06942272931337357 0.11346694082021713 0.0 255.0 0.0
0.2349032312631607 0.4427458643913269 0.10015617311000824 0.0 255.0 0.0
0.27202168107032776 0.2277311086654663 0.13212379813194275 0.0 255.0 0.0
-0.21852421760559082 -0.2493816465139389 0.1350650191307068 0.0 255.0 0.0
-0.06152606010437012 -0.24931934475898743 0.038390785455703735 0.0 255.0 0.0
-0.2707524597644806 0.014009554870426655 -0.07760366052389145 0.0 255.0 0.0
-0.2139282375574112 0.20830270648002625 -0.13455531001091003 0.0 255.0 0.0
0.296367883682251 -0.0902113988995552 0.13458845019340515 0.0 255.0 0.0
0.29339417815208435 0.44207486510276794 -0.03354809805750847 0.0 255.0 0.0
-0.24616451561450958 0.2274923473596573 0.06627290695905685 0.0 255.0 0.0
0.2972581684589386 -0.07959926873445511 0.08270210772752762 0.0 255.0 0.0
-0.12177108973264694 -0.08894094079732895 0.16982883214950562 0.0 255.0 0.0
0.19570234417915344 0.22858962416648865 -0.022508075460791588 0.0 255.0 0.0
0.2195214480161667 -0.4144390821456909 -0.09014026075601578 0.0 255.0 0.0
-0.2498461902141571 -0.3959183990955353 -0.09602753818035126 0.0 255.0 0.0
-0.05569565296173096 -0.22967664897441864 0.15872448682785034 0.0 255.0 0.0
0.14420092105865479 0.048257406800985336 -0.13506805896759033 0.0 255.0 0.0
-0.023721899837255478 -0.06069137901067734 0.16580453515052795 0.0 255.0 0.0
0.25307637453079224 -0.07517518103122711 -0.13790056109428406 0.0 255.0 0.0
-0.27238720655441284 0.11689262837171555 -0.04062198847532272 0.0 255.0 0.0
0.04416763409972191 -0.19256725907325745 -0.13760708272457123 0.0 255.0 0.0
0.013037408702075481 -0.11457058042287827 0.1689019352197647 0.0 255.0 0.0
-0.2707524597644806 0.14042459428310394 -0.03131506219506264 0.0 255.0 0.0
-0.24207761883735657 0.314484179019928 -0.005804658401757479 0.0 255.0 0.0
-0.14142383635044098 0.22812457382678986 -0.08974028378725052 0.0 255.0 0.0
-0.18909618258476257 -0.25013667345046997 0.13411037623882294 0.0 255.0 0.0
-0.12519890069961548 -0.251471608877182 -0.007342851255089045 0.0 255.0 0.0
0.0001297745475312695 -0.2287667989730835 -0.13633371889591217 0.0 255.0 0.0
0.17774070799350739 0.41426995396614075 0.08800031989812851 0.0 255.0 0.0
-0.19860029220581055 -0.3175143897533417 -0.06384344398975372 0.0 255.0 0.0
0.2972581684589386 0.11053530871868134 0.0016910386038944125 0.0 255.0 0.0
-0.01827249303460121 -0.03362364321947098 -0.13506805896759033 0.0 255.0 0.0
-0.2001238465309143 0.025708448141813278 0.1700775921344757 0.0 255.0 0.0
-0.21140216290950775 0.2324749082326889 0.10267338901758194 0.0 255.0 0.0
0.18058902025222778 0.22812457382678986 -0.017817344516515732 0.0 255.0 0.0
0.13985005021095276 0.014067228883504868 0.16940195858478546 0.0 255.0 0.0
0.15602771937847137 -0.21084663271903992 0.15695372223854065 0.0 255.0 0.0
-0.24358098208904266 -0.06963792443275452 -0.13506805896759033 0.0 255.0 0.0
-0.2909691333770752 -0.31873539090156555 0.0449909009039402 0.0 255.0 0.0
0.1670955866575241 0.018214302137494087 -0.13506466150283813 0.0 255.0 0.0
-0.03306145220994949 0.21200744807720184 -0.20538190007209778 0.0 255.0 0.0
0.1677083522081375 -0.08859463036060333 -0.13225427269935608 0.0 255.0 0.0
0.29789847135543823 0.4412088692188263 0.09695044904947281 0.0 255.0 0.0
0.2991170287132263 0.006872780155390501 0.07847462594509125 0.0 255.0 0.0
-0.02300204150378704 -0.21523651480674744 0.1577892154455185 0.0 255.0 0.0
0.03171304985880852 -0.08855671435594559 -0.1344965696334839 0.0 255.0 0.0
0.11850767582654953 -0.250114768743515 0.0957084447145462 0.0 255.0 0.0
-0.0488802045583725 0.17238996922969818 -0.13506805896759033 0.0 255.0 0.0
-0.08969076722860336 -0.13491438329219818 0.17189055681228638 0.0 255.0 0.0
-0.14179782569408417 -0.21830381453037262 -0.1351810097694397 0.0 255.0 0.0
-0.05901861935853958 -0.2540140151977539 0.02970712073147297 0.0 255.0 0.0
0.004993678070604801 -0.25072699785232544 0.05597931519150734 0.0 255.0 0.0
0.19565178453922272 0.03467893600463867 0.16940195858478546 0.0 255.0 0.0
0.17419882118701935 0.37496218085289 0.008964790031313896 0.0 255.0 0.0
-0.17739859223365784 -0.1733313500881195 -0.13657796382904053 0.0 255.0 0.0
-0.24058112502098083 -0.3244151771068573 0.11810051649808884 0.0 255.0 0.0
-0.22910763323307037 0.058983299881219864 -0.13598407804965973 0.0 255.0 0.0
-0.1650354415178299 0.390007346868515 -0.03977629914879799 0.0 255.0 0.0
0.15376076102256775 -0.32716286182403564 0.010660266503691673 0.0 255.0 0.0
-0.27008095383644104 0.021429473534226418 -0.11299116909503937 0.0 255.0 0.0
-0.26701968908309937 0.18574553728103638 0.13063710927963257 0.0 255.0 0.0
0.2416025698184967 -0.35373455286026 0.14876681566238403 0.0 255.0 0.0
0.0007625905564054847 -0.25073495507240295 0.0885416716337204 0.0 255.0 0.0
-0.13667482137680054 -0.014149240218102932 0.16940195858478546 0.0 255.0 0.0
-0.2930796146392822 0.0049991668201982975 -0.28897082805633545 0.0 255.0 0.0
0.20511376857757568 0.44413501024246216 -0.07057829201221466 0.0 255.0 0.0
-0.09139291942119598 -0.14465264976024628 0.1711464822292328 0.0 255.0 0.0
0.12462807446718216 -0.25081050395965576 0.07534841448068619 0.0 255.0 0.0
-0.23412756621837616 0.4934857189655304 0.08078228682279587 0.0 255.0 0.0
-0.0954335406422615 0.05600835755467415 0.16940195858478546 0.0 255.0 0.0
-0.2677527666091919 0.07857432216405869 -0.032642997801303864 0.0 255.0 0.0
-0.0933372974395752 0.11691925674676895 -0.13374757766723633 0.0 255.0 0.0
0.22731062769889832 -0.44513270258903503 0.0011203972389921546 0.0 255.0 0.0
-0.2893567979335785 -0.4273410737514496 0.051626864820718765 0.0 255.0 0.0
0.14238983392715454 0.22536857426166534 -0.09227187186479568 0.0 255.0 0.0
-0.013579136691987514 0.22758570313453674 -0.04526966065168381 0.0 255.0 0.0
0.27460595965385437 0.5025996565818787 0.06755681335926056 0.0 255.0 0.0
-0.1174369752407074 0.06399232894182205 0.16940195858478546 0.0 255.0 0.0
0.24319039285182953 -0.1677202582359314 -0.13583943247795105 0.0 255.0 0.0
0.2972581684589386 -0.10080414265394211 0.06699206680059433 0.0 255.0 0.0
0.2095891535282135 -0.2948945164680481 0.09299179911613464 0.0 255.0 0.0
-0.13128584623336792 -0.11721990257501602 -0.13506805896759033 0.0 255.0 0.0
0.19827543199062347 0.22811545431613922 -0.10329028964042664 0.0 255.0 0.0
0.1306898444890976 -0.12180276960134506 0.1696898192167282 0.0 255.0 0.0
-0.29433003067970276 0.019474759697914124 -0.25855889916419983 0.0 255.0 0.0
-0.27019500732421875 -0.14168041944503784 -0.05650540813803673 0.0 255.0 0.0
0.29538723826408386 0.18867337703704834 0.1401781290769577 0.0 255.0 0.0
-0.26812514662742615 -0.4586629569530487 -0.004733422305434942 0.0 255.0 0.0
-0.20468570291996002 -0.44472506642341614 0.0786561667919159 0.0 255.0 0.0
-0.061974238604307175 -0.25141698122024536 -0.09114871919155121 0.0 255.0 0.0
-0.005189291201531887 -0.2507481276988983 0.06865551322698593 0.0 255.0 0.0
0.23683245480060577 0.2251025140285492 0.10743121057748795 0.0 255.0 0.0
0.2511514723300934 -0.13694195449352264 -0.13506805896759033 0.0 255.0 0.0
-0.2213091254234314 -0.20572997629642487 -0.13211819529533386 0.0 255.0 0.0
-0.10709898173809052 0.021426314488053322 -0.1359037309885025 0.0 255.0 0.0
-0.25472092628479004 0.47148120403289795 -0.00881771370768547 0.0 255.0 0.0
0.245273157954216 -0.24964198470115662 0.1014188900589943 0.0 255.0 0.0
-0.2418397217988968 0.033439021557569504 0.15865382552146912 0.0 255.0 0.0
0.2973400056362152 0.004354989156126976 0.0043635014444589615 0.0 255.0 0.0
-0.18707624077796936 -0.2491830289363861 0.10921750962734222 0.0 255.0 0.0
0.21090978384017944 -0.4456850290298462 0.08874273300170898 0.0 255.0 0.0
0.15435828268527985 0.22958095371723175 0.04604695737361908 0.0 255.0 0.0
-0.27315160632133484 -0.16093973815441132 0.11199434846639633 0.0 255.0 0.0
-0.18682999908924103 0.4016896188259125 -0.07053685933351517 0.0 255.0 0.0
0.0018550169188529253 -0.08881787210702896 -0.13506805896759033 0.0 255.0 0.0
0.08250477910041809 0.20394620299339294 0.15629495680332184 0.0 255.0 0.0
0.21848145127296448 -0.39194434881210327 0.1866084486246109 0.0 255.0 0.0
0.20803526043891907 -0.4420337677001953 0.024359190836548805 0.0 255.0 0.0
-0.09533914178609848 -0.10757159441709518 0.16743463277816772 0.0 255.0 0.0
0.02294677309691906 0.21953949332237244 -0.16831393539905548 0.0 255.0 0.0
0.2113616168498993 0.13132090866565704 -0.13641738891601562 0.0 255.0 0.0
0.14999890327453613 -0.22666999697685242 0.15505653619766235 0.0 255.0 0.0
0.2984315752983093 -0.16461624205112457 0.0481271967291832 0.0 255.0 0.0
0.1306048184633255 -0.2244628369808197 -0.13521333038806915 0.0 255.0 0.0
-0.22971311211585999 -0.03243458643555641 -0.13201408088207245 0.0 255.0 0.0
-0.0375356562435627 0.017594704404473305 -0.13640496134757996 0.0 255.0 0.0
0.07352645695209503 0.09801913052797318 0.17075812816619873 0.0 255.0 0.0
-0.2592831552028656 0.4551502764225006 -0.019768716767430305 0.0 255.0 0.0
-0.2707524597644806 0.07636424154043198 0.06916505843400955 0.0 255.0 0.0
