0.17740808427333832 -0.44768258929252625 0.08327408879995346 0.0 255.0 0.0
0.21299490332603455 0.20417776703834534 -0.13401512801647186 0.0 255.0 0.0
-0.27277547121047974 0.11157964169979095 0.08570146560668945 0.0 255.0 0.0
0.18741734325885773 -0.22239452600479126 -0.13506805896759033 0.0 255.0 0.0
0.004151422996073961 -0.06610995531082153 0.1694854348897934 0.0 255.0 0.0
0.18072903156280518 0.3950033187866211 0.09655676037073135 0.0 255.0 0.0
-0.17540854215621948 0.052605342119932175 0.16708223521709442 0.0 255.0 0.0
0.09031860530376434 -0.24582116305828094 0.13607865571975708 0.0 255.0 0.0
0.2957739233970642 0.42685073614120483 -0.02904711291193962 0.0 255.0 0.0
-0.038556527346372604 -0.006645915098488331 0.17011761665344238 0.0 255.0 0.0
-0.1687735915184021 0.42336973547935486 -0.05426712706685066 0.0 255.0 0.0
0.12168050557374954 -0.1375780701637268 0.17119500041007996 0.0 255.0 0.0
-0.0017593526281416416 0.23137825727462769 -0.07246608287096024 0.0 255.0 0.0
-0.19079861044883728 -0.18478044867515564 -0.13506805896759033 0.0 255.0 0.0
0.2405589371919632 -0.06281387805938721 -0.13515697419643402 0.0 255.0 0.0
0.2562974989414215 0.023823145776987076 -0.13740961253643036 0.0 255.0 0.0
0.2972581684589386 0.07877961546182632 0.10491431504487991 0.0 255.0 0.0
-0.17643189430236816 -0.15505342185497284 0.17155985534191132 0.0 255.0 0.0
0.1925659328699112 -0.18337690830230713 -0.13506805896759033 0.0 255.0 0.0
0.2687073349952698 -0.14106793701648712 0.1586570292711258 0.0 255.0 0.0
0.2293127328157425 0.13342463970184326 -0.13495148718357086 0.0 255.0 0.0
0.20589163899421692 0.22625021636486053 0.0939466580748558 0.0 255.0 0.0
-0.15260188281536102 0.4300232529640198 0.0649941936135292 0.0 255.0 0.0
0.30173394083976746 -0.13591934740543365 -0.07091700285673141 0.0 255.0 0.0
-0.31218352913856506 -0.39000561833381653 0.10779407620429993 0.0 255.0 0.0
-0.26275357604026794 0.4235815703868866 -0.031234150752425194 0.0 255.0 0.0
-0.137923002243042 -0.02657349407672882 0.16940195858478546 0.0 255.0 0.0
0.14394961297512054 -0.2531265914440155 -0.023184524849057198 0.0 255.0 0.0
-0.16731148958206177 0.4812893271446228 0.048024892807006836 0.0 255.0 0.0
0.29670441150665283 -0.007095239590853453 0.005415852181613445 0.0 255.0 0.0
0.20821329951286316 0.22751817107200623 0.08761273324489594 0.0 255.0 0.0
-0.14993396401405334 -0.004139055963605642 0.16597266495227814 0.0 255.0 0.0
0.17962440848350525 0.4158743619918823 -0.03511851653456688 0.0 255.0 0.0
-0.02977834828197956 -0.1428821086883545 -0.13659116625785828 0.0 255.0 0.0
-0.2707524597644806 -0.06707778573036194 -0.01492246426641941 0.0 255.0 0.0
0.019008556380867958 0.12527258694171906 -0.13836683332920074 0.0 255.0 0.0
0.25487422943115234 -0.24999026954174042 0.11371709406375885 0.0 255.0 0.0
0.09569281339645386 0.02269493043422699 0.16877713799476624 0.0 255.0 0.0
0.19994443655014038 -0.44559717178344727 0.020242763683199883 0.0 255.0 0.0
0.1972322165966034 0.22702111303806305 0.0068383850157260895 0.0 255.0 0.0
-0.08518270403146744 -0.2511042356491089 -0.01983746327459812 0.0 255.0 0.0
-0.03297555446624756 0.08398565649986267 -0.13845036923885345 0.0 255.0 0.0
0.22413820028305054 0.19364945590496063 -0.13433758914470673 0.0 255.0 0.0
0.29598498344421387 -0.003765018889680505 0.021601391956210136 0.0 255.0 0.0
-0.25707191228866577 -0.42365601658821106 0.15598073601722717 0.0 255.0 0.0
-0.0005495387595146894 0.23069573938846588 -0.03133784607052803 0.0 255.0 0.0
0.2974358797073364 0.19221429526805878 0.06032377853989601 0.0 255.0 0.0
0.2476702332496643 0.22814837098121643 -0.07698994129896164 0.0 255.0 0.0
-0.1619569957256317 -0.33990994095802307 -0.01149729359894991 0.0 255.0 0.0
-0.16623598337173462 0.45812126994132996 -0.025452906265854836 0.0 255.0 0.0
-0.14443136751651764 0.09042242914438248 0.16637755930423737 0.0 255.0 0.0
-0.1849254071712494 -0.21760286390781403 0.15573576092720032 0.0 255.0 0.0
-0.1346403956413269 -0.025174548849463463 0.1705348640680313 0.0 255.0 0.0
0.2966521680355072 -0.09768955409526825 0.06332537531852722 0.0 255.0 0.0
0.008987526409327984 0.006189408246427774 0.16940195858478546 0.0 255.0 0.0
0.3010496199131012 0.3941846787929535 0.03565055876970291 0.0 255.0 0.0
0.2965955138206482 0.11731889098882675 0.09734078496694565 0.0 255.0 0.0
0.26962441205978394 0.07115671038627625 -0.13506805896759033 0.0 255.0 0.0
-0.2688617706298828 0.37995612621307373 0.06319034099578857 0.0 255.0 0.0
-0.09817008674144745 0.059278715401887894 -0.1344209462404251 0.0 255.0 0.0
-0.2718963921070099 0.0015320375096052885 -0.11144179850816727 0.0 255.0 0.0
0.2979009747505188 -0.11552209407091141 -0.02084563672542572 0.0 255.0 0.0
0.29585692286491394 -0.22747394442558289 -0.06959810107946396 0.0 255.0 0.0
-0.15122444927692413 -0.17207910120487213 -0.13715620338916779 0.0 255.0 0.0
0.09632053226232529 -0.12079719454050064 0.16940195858478546 0.0 255.0 0.0
0.05453028529882431 0.06976272165775299 -0.133032888174057 0.0 255.0 0.0
0.29614806175231934 -0.05811343342065811 0.043739255517721176 0.0 255.0 0.0
-0.13462476432323456 0.14813119173049927 -0.13506805896759033 0.0 255.0 0.0
0.20962752401828766 -0.40978193283081055 -0.08506403863430023 0.0 255.0 0.0
0.2988413870334625 -0.1704588383436203 0.005403085611760616 0.0 255.0 0.0
-0.1701941341161728 0.44003498554229736 -0.047293759882450104 0.0 255.0 0.0
-0.2538192570209503 -0.42718446254730225 0.15278050303459167 0.0 255.0 0.0
0.2974780797958374 0.19459953904151917 -0.018097316846251488 0.0 255.0 0.0
-0.2702317535877228 0.19851785898208618 0.08833813667297363 0.0 255.0 0.0
-0.03113148920238018 0.22661642730236053 -0.06669053435325623 0.0 255.0 0.0
-0.195474311709404 -0.3340652883052826 -0.06229536980390549 0.0 255.0 0.0
0.2972581684589386 -0.06005796045064926 0.13175098598003387 0.0 255.0 0.0
0.04985567927360535 -0.11041367053985596 0.16832740604877472 0.0 255.0 0.0
-0.26584672927856445 0.39794623851776123 0.024353649467229843 0.0 255.0 0.0
0.29913783073425293 -0.10635886341333389 -0.1004563570022583 0.0 255.0 0.0
0.2429886758327484 -0.3892519474029541 0.19032196700572968 0.0 255.0 0.0
0.21015343070030212 0.08230593055486679 -0.13363829255104065 0.0 255.0 0.0
-0.11277295649051666 -0.07352450489997864 -0.13561289012432098 0.0 255.0 0.0
0.282309889793396 0.32174554467201233 -0.009884980507194996 0.0 255.0 0.0
-0.2489059567451477 -0.3246975541114807 0.1320418417453766 0.0 255.0 0.0
0.20546337962150574 -0.44649776816368103 0.01831495761871338 0.0 255.0 0.0
0.25313565135002136 0.17447088658809662 -0.13543939590454102 0.0 255.0 0.0
0.1386772245168686 -0.02792220562696457 -0.1334809809923172 0.0 255.0 0.0
-0.13455168902873993 0.22767722606658936 -0.11553893238306046 0.0 255.0 0.0
0.2972581684589386 0.1869240403175354 0.04936477541923523 0.0 255.0 0.0
-0.29769155383110046 -0.37783217430114746 -0.07754556834697723 0.0 255.0 0.0
0.010306334123015404 0.041708897799253464 0.16940195858478546 0.0 255.0 0.0
0.2210058718919754 0.3923049569129944 -0.08659234642982483 0.0 255.0 0.0
-0.2064639925956726 -0.387172132730484 -0.06951301544904709 0.0 255.0 0.0
0.2833472788333893 -0.3943791687488556 -0.02063026838004589 0.0 255.0 0.0
0.2631831467151642 -0.1625175029039383 -0.13506805896759033 0.0 255.0 0.0
0.10262110084295273 -0.0862661749124527 0.16940195858478546 0.0 255.0 0.0
-0.07507463544607162 0.18940366804599762 -0.1357695609331131 0.0 255.0 0.0
-0.07699567824602127 0.22685426473617554 0.11497127264738083 0.0 255.0 0.0
-0.0702054426074028 0.19590161740779877 -0.1356930434703827 0.0 255.0 0.0
-0.10646843165159225 -0.1064281240105629 0.16815483570098877 0.0 255.0 0.0
-0.29505273699760437 -0.3159939646720886 0.09821433573961258 0.0 255.0 0.0
0.3020530641078949 0.38622555136680603 0.01756453327834606 0.0 255.0 0.0
0.2703845798969269 0.22855080664157867 -0.07679678499698639 0.0 255.0 0.0
-0.16875918209552765 -0.13940966129302979 0.16940195858478546 0.0 255.0 0.0
0.02238592505455017 0.22656603157520294 -0.06411059945821762 0.0 255.0 0.0
-0.1356753557920456 -0.10469510406255722 0.16778244078159332 0.0 255.0 0.0
-0.26816293597221375 0.4238467812538147 0.005995300132781267 0.0 255.0 0.0
-0.2656685709953308 0.3861863911151886 -0.021908700466156006 0.0 255.0 0.0
0.14179357886314392 -0.3672845661640167 0.06129826232790947 0.0 255.0 0.0
-0.087570421397686 -0.21759964525699615 -0.13648614287376404 0.0 255.0 0.0
0.09942375123500824 -0.25170913338661194 0.0037603939417749643 0.0 255.0 0.0
-0.2396446317434311 0.16400040686130524 0.15603913366794586 0.0 255.0 0.0
0.2751835882663727 -0.3099389672279358 0.01460779458284378 0.0 255.0 0.0
0.21417668461799622 -0.3961029350757599 -0.08897483348846436 0.0 255.0 0.0
0.2725338935852051 0.22887931764125824 0.10095502436161041 0.0 255.0 0.0
0.0918593481183052 0.12404219061136246 -0.1349148452281952 0.0 255.0 0.0
0.2751333713531494 -0.3420969843864441 -0.045447710901498795 0.0 255.0 0.0
0.2915557622909546 0.47659385204315186 0.04762454330921173 0.0 255.0 0.0
-0.29604676365852356 -0.40645304322242737 -0.08899487555027008 0.0 255.0 0.0
0.2885071337223053 -0.41396188735961914 0.018185380846261978 0.0 255.0 0.0
-0.00032902814564295113 0.22780334949493408 0.03399340808391571 0.0 255.0 0.0
0.29864174127578735 0.04458564892411232 -0.04887020215392113 0.0 255.0 0.0
0.10715141147375107 -0.026395125314593315 -0.13506805896759033 0.0 255.0 0.0
-0.03889646381139755 0.22912319004535675 -0.06500401347875595 0.0 255.0 0.0
-0.259931743144989 -0.32621708512306213 0.14736802875995636 0.0 255.0 0.0
0.05727211758494377 0.14708803594112396 -0.18758460879325867 0.0 255.0 0.0
-0.2686770558357239 0.38225969672203064 0.035001665353775024 0.0 255.0 0.0
0.2972581684589386 0.10516870766878128 -0.0394052192568779 0.0 255.0 0.0
-0.32300540804862976 -0.4169589579105377 -0.017683597281575203 0.0 255.0 0.0
0.17531703412532806 0.2281128615140915 0.07796137034893036 0.0 255.0 0.0
-0.042874787002801895 -0.1462610960006714 -0.13359637558460236 0.0 255.0 0.0
0.2972581684589386 -0.069431833922863 -0.05205998942255974 0.0 255.0 0.0
-0.14783266186714172 0.22812457382678986 0.061983171850442886 0.0 255.0 0.0
-0.1983650177717209 -0.3770669996738434 -0.06292953342199326 0.0 255.0 0.0
-0.06894875317811966 -0.2279818058013916 -0.1340591013431549 0.0 255.0 0.0
-0.24484679102897644 -0.28194332122802734 0.061304766684770584 0.0 255.0 0.0
0.09088261425495148 0.11156835407018661 0.1694083958864212 0.0 255.0 0.0
-0.2737436890602112 -0.17715726792812347 0.015273583121597767 0.0 255.0 0.0
-0.18103155493736267 0.33770808577537537 0.05487872287631035 0.0 255.0 0.0
-0.223676860332489 -0.373895525932312 0.15949486196041107 0.0 255.0 0.0
-0.24620497226715088 -0.24697718024253845 0.13218548893928528 0.0 255.0 0.0
0.1331409066915512 -0.4064048230648041 0.07097629457712173 0.0 255.0 0.0
0.20441262423992157 0.0580693818628788 -0.13391231000423431 0.0 255.0 0.0
0.18343743681907654 0.03819632902741432 -0.13497138023376465 0.0 255.0 0.0
-0.2707524597644806 -0.21699652075767517 0.13096264004707336 0.0 255.0 0.0
-0.10821784287691116 -0.07506828010082245 0.1674017608165741 0.0 255.0 0.0
0.29666030406951904 0.1533225178718567 0.03461999073624611 0.0 255.0 0.0
-0.05732740834355354 -0.07406637817621231 -0.13609547913074493 0.0 255.0 0.0
-0.14571291208267212 0.03474503383040428 -0.13499021530151367 0.0 255.0 0.0
-0.2036750614643097 -0.45589882135391235 0.02880982682108879 0.0 255.0 0.0
0.1977515071630478 0.019501175731420517 -0.13272683322429657 0.0 255.0 0.0
0.15791693329811096 -0.057689256966114044 0.16940195858478546 0.0 255.0 0.0
0.1167086735367775 0.22525209188461304 0.10324160754680634 0.0 255.0 0.0
0.05993717536330223 0.03317030146718025 -0.13506805896759033 0.0 255.0 0.0
0.29684579372406006 -0.03873564675450325 -0.07181324064731598 0.0 255.0 0.0
0.186069056391716 0.415018230676651 -0.05329810082912445 0.0 255.0 0.0
-0.2603124678134918 -0.4558919370174408 0.038055263459682465 0.0 255.0 0.0
-0.1541346311569214 0.4037460684776306 0.0019092673901468515 0.0 255.0 0.0
-0.11297958344221115 -0.17844653129577637 -0.13561272621154785 0.0 255.0 0.0
0.25670215487480164 0.0336238332092762 -0.13566854596138 0.0 255.0 0.0
-0.231708824634552 0.22510699927806854 0.09685315936803818 0.0 255.0 0.0
-0.1849742978811264 0.4969075918197632 0.013291305862367153 0.0 255.0 0.0
0.1759464293718338 -0.4460161030292511 0.17159315943717957 0.0 255.0 0.0
0.2773147225379944 -0.1333388239145279 0.15628959238529205 0.0 255.0 0.0
0.10854364186525345 0.14872145652770996 0.1727222055196762 0.0 255.0 0.0
-0.26030224561691284 0.4652484357357025 0.011065549217164516 0.0 255.0 0.0
-0.2632113993167877 0.3620299696922302 -0.016164490953087807 0.0 255.0 0.0
-0.23995018005371094 -0.1494331657886505 0.1567438393831253 0.0 255.0 0.0
0.20962649583816528 0.2259671688079834 -0.07540901750326157 0.0 255.0 0.0
0.09907412528991699 -0.22806236147880554 -0.13483230769634247 0.0 255.0 0.0
-0.2209382802248001 0.22817771136760712 -0.07392028719186783 0.0 255.0 0.0
0.173086017370224 0.37908467650413513 0.047670528292655945 0.0 255.0 0.0
0.08721794933080673 -0.0911937728524208 -0.13117532432079315 0.0 255.0 0.0
0.08497632294893265 -0.1051633283495903 0.16940195858478546 0.0 255.0 0.0
0.11043849587440491 0.1936924159526825 -0.1327403038740158 0.0 255.0 0.0
0.03924896940588951 0.15700113773345947 -0.1348593831062317 0.0 255.0 0.0
-0.2707524597644806 -0.09595051407814026 -0.015506674535572529 0.0 255.0 0.0
-0.15115617215633392 0.4042620360851288 0.025465773418545723 0.0 255.0 0.0
0.2959710657596588 0.09080490469932556 -0.08007058501243591 0.0 255.0 0.0
-0.17094580829143524 -0.05593819171190262 0.1670398861169815 0.0 255.0 0.0
-0.2691596448421478 -0.16422641277313232 0.04964200407266617 0.0 255.0 0.0
-0.26882994174957275 -0.0500522181391716 0.0536382794380188 0.0 255.0 0.0
-0.24786219000816345 0.13860249519348145 0.156845822930336 0.0 255.0 0.0
0.23657546937465668 0.08582204580307007 -0.13677974045276642 0.0 255.0 0.0
0.0708940327167511 -0.2179647833108902 -0.1333162784576416 0.0 255.0 0.0
0.12702882289886475 -0.25088244676589966 0.02411811612546444 0.0 255.0 0.0
0.2961650490760803 0.12445510178804398 -0.08110041916370392 0.0 255.0 0.0
-0.2659822702407837 -0.18922090530395508 -0.06963739544153214 0.0 255.0 0.0
0.13746702671051025 0.22808057069778442 0.13377414643764496 0.0 255.0 0.0
0.22193549573421478 -0.37749361991882324 0.17475546896457672 0.0 255.0 0.0
-0.26751410961151123 0.38291531801223755 0.007105792406946421 0.0 255.0 0.0
-0.2613323926925659 0.3700399696826935 -0.016431432217359543 0.0 255.0 0.0
-0.27082905173301697 -0.2208959013223648 -0.08164925873279572 0.0 255.0 0.0
0.14875346422195435 -0.06566176563501358 0.1703038066625595 0.0 255.0 0.0
0.1039600819349289 0.22766530513763428 0.012595785781741142 0.0 255.0 0.0
-0.07945965230464935 0.22674694657325745 0.001338024390861392 0.0 255.0 0.0
0.003000285243615508 -0.22229044139385223 -0.13744013011455536 0.0 255.0 0.0
-0.1372474879026413 0.08310813456773758 -0.13440997898578644 0.0 255.0 0.0
0.18658824265003204 -0.2533766031265259 -0.05055392161011696 0.0 255.0 0.0
-0.2678336203098297 -0.17509299516677856 0.0436667874455452 0.0 255.0 0.0
-0.29412081837654114 -0.35122358798980713 -0.052103959023952484 0.0 255.0 0.0
-0.20232029259204865 -0.18011754751205444 -0.13452818989753723 0.0 255.0 0.0
-0.2707524597644806 0.015014390461146832 0.08215329051017761 0.0 255.0 0.0
0.03322434425354004 0.04913739487528801 0.16911981999874115 0.0 255.0 0.0
-0.2944870889186859 -0.4071997106075287 0.10522768646478653 0.0 255.0 0.0
0.03533009812235832 -0.09643850475549698 0.16751891374588013 0.0 255.0 0.0
-0.20111316442489624 -0.027918871492147446 -0.13506805896759033 0.0 255.0 0.0
-0.061886053532361984 0.053150057792663574 -0.1349734663963318 0.0 255.0 0.0
0.2688162326812744 0.2006726861000061 0.15445348620414734 0.0 255.0 0.0
-0.27429404854774475 -0.20089110732078552 -0.012820076197385788 0.0 255.0 0.0
-0.19590876996517181 -0.38351136445999146 -0.056912101805210114 0.0 255.0 0.0
0.17623381316661835 -0.12225879728794098 -0.13798989355564117 0.0 255.0 0.0
-0.27058273553848267 0.08992543816566467 -0.044036395847797394 0.0 255.0 0.0
-0.1988435685634613 -0.11830725520849228 -0.13506805896759033 0.0 255.0 0.0
0.042748481035232544 0.008211400359869003 -0.13506805896759033 0.0 255.0 0.0
-0.035345327109098434 -0.19791550934314728 -0.1378118395805359 0.0 255.0 0.0
-0.20166561007499695 -0.3379359841346741 0.09170468896627426 0.0 255.0 0.0
0.2972581684589386 0.008436695672571659 -0.020245466381311417 0.0 255.0 0.0
-0.15366990864276886 -0.08410605788230896 0.17259588837623596 0.0 255.0 0.0
0.20181922614574432 -0.15800045430660248 -0.1384502649307251 0.0 255.0 0.0
0.2972581684589386 0.12640847265720367 0.1057487353682518 0.0 255.0 0.0
-0.2707524597644806 0.09057635813951492 -0.0027042534202337265 0.0 255.0 0.0
0.28870493173599243 0.3543846011161804 -0.04317908361554146 0.0 255.0 0.0
-0.010701868683099747 -0.06326067447662354 -0.13400307297706604 0.0 255.0 0.0
-0.2707524597644806 -0.21311864256858826 -0.03862089291214943 0.0 255.0 0.0
0.08949000388383865 -0.25125694274902344 -0.033250678330659866 0.0 255.0 0.0
0.1304224133491516 -0.25361478328704834 0.07804485410451889 0.0 255.0 0.0
0.26812613010406494 0.326825350522995 0.07135804742574692 0.0 255.0 0.0
0.0113411545753479 -0.10358321666717529 -0.13462981581687927 0.0 255.0 0.0
0.19351397454738617 -0.3598840534687042 0.14194145798683167 0.0 255.0 0.0
0.2968007028102875 -0.21080279350280762 -0.05826038494706154 0.0 255.0 0.0
0.017839472740888596 -0.2179933488368988 -0.13299575448036194 0.0 255.0 0.0
0.24620941281318665 -0.4448604881763458 0.1387629508972168 0.0 255.0 0.0
0.29753378033638 0.16471193730831146 0.09105529636144638 0.0 255.0 0.0
-0.20087696611881256 -0.288150817155838 0.07914283126592636 0.0 255.0 0.0
-0.1648792326450348 0.4725809693336487 0.06586142629384995 0.0 255.0 0.0
0.031188352033495903 0.10160232335329056 -0.1670967936515808 0.0 255.0 0.0
-0.26957541704177856 -0.22531740367412567 -0.07558691501617432 0.0 255.0 0.0
0.03451094031333923 -0.0890251100063324 -0.1345587521791458 0.0 255.0 0.0
-0.21668271720409393 0.1758725941181183 -0.13506805896759033 0.0 255.0 0.0
0.29209432005882263 0.4655424952507019 -0.0064623793587088585 0.0 255.0 0.0
0.05285586044192314 -0.22895780205726624 -0.13277138769626617 0.0 255.0 0.0
0.212416410446167 -0.446839839220047 -0.005834191106259823 0.0 255.0 0.0
-0.2679558992385864 -0.024292845278978348 -0.06812384724617004 0.0 255.0 0.0
-0.2696889340877533 -0.11358793079853058 -0.009310318157076836 0.0 255.0 0.0
-0.2734679579734802 0.1688317060470581 0.09208191186189651 0.0 255.0 0.0
-0.02662828378379345 0.015410003252327442 0.16684894263744354 0.0 255.0 0.0
0.11957669258117676 0.22812457382678986 -0.052986305207014084 0.0 255.0 0.0
0.046828657388687134 0.2299814373254776 0.01287619024515152 0.0 255.0 0.0
-0.13301758468151093 -0.13206572830677032 -0.13359877467155457 0.0 255.0 0.0
0.15505971014499664 0.031418025493621826 0.16812516748905182 0.0 255.0 0.0
-0.1892319768667221 -0.3950386643409729 -0.046286359429359436 0.0 255.0 0.0
0.2972581684589386 0.13231399655342102 0.005411412101238966 0.0 255.0 0.0
0.30051788687705994 -0.10275528579950333 -0.03366047516465187 0.0 255.0 0.0
-0.010801516473293304 0.17084069550037384 -0.13771305978298187 0.0 255.0 0.0
0.14916209876537323 0.22812457382678986 0.04365465044975281 0.0 255.0 0.0
0.017525864765048027 -0.19090929627418518 -0.13377545773983002 0.0 255.0 0.0
0.002090670634061098 0.13195785880088806 -0.13506805896759033 0.0 255.0 0.0
0.161863312125206 0.1520775407552719 -0.13506805896759033 0.0 255.0 0.0
0.2998124659061432 -0.034101519733667374 0.07225745171308517 0.0 255.0 0.0
0.14183376729488373 -0.3842337727546692 0.02092069946229458 0.0 255.0 0.0
0.14189226925373077 0.22547996044158936 -0.11319580674171448 0.0 255.0 0.0
-0.08061861991882324 0.22798237204551697 -0.08467365801334381 0.0 255.0 0.0
-0.2522943913936615 0.22933194041252136 0.07404118031263351 0.0 255.0 0.0
-0.1958356648683548 -0.3695221543312073 -0.06088963523507118 0.0 255.0 0.0
-0.27464577555656433 0.0810871496796608 -0.01058528758585453 0.0 255.0 0.0
0.272245317697525 -0.25072821974754333 0.06271952390670776 0.0 255.0 0.0
0.2972581684589386 -0.03346754610538483 -0.027521923184394836 0.0 255.0 0.0
-0.2707524597644806 0.13744810223579407 0.0783466026186943 0.0 255.0 0.0
-0.2724970579147339 -0.08754771202802658 0.11944621056318283 0.0 255.0 0.0
0.2483871430158615 -0.44774532318115234 0.15421739220619202 0.0 255.0 0.0
0.12977850437164307 -0.010098093189299107 -0.13173165917396545 0.0 255.0 0.0
-0.1734774112701416 -0.3478403389453888 -0.03721403330564499 0.0 255.0 0.0
0.20298364758491516 0.20762473344802856 -0.13785001635551453 0.0 255.0 0.0
0.18391263484954834 -0.036531928926706314 0.1697685569524765 0.0 255.0 0.0
0.29745930433273315 0.13935188949108124 0.012857016175985336 0.0 255.0 0.0
-0.29381394386291504 0.025858189910650253 -0.26149630546569824 0.0 255.0 0.0
-0.02726862020790577 -0.05251096189022064 -0.13506805896759033 0.0 255.0 0.0
0.2521679401397705 -0.019999420270323753 -0.13716505467891693 0.0 255.0 0.0
-0.20787741243839264 -0.4352344870567322 0.13248871266841888 0.0 255.0 0.0
0.02629290521144867 0.22971712052822113 0.05438573658466339 0.0 255.0 0.0
0.03981954604387283 -0.06843411177396774 -0.13690179586410522 0.0 255.0 0.0
0.2980719208717346 -0.09965236485004425 0.1209917664527893 0.0 255.0 0.0
0.22591160237789154 0.010087097994983196 0.16940195858478546 0.0 255.0 0.0
-0.28568434715270996 -0.4600974917411804 -0.04846697300672531 0.0 255.0 0.0
0.14045293629169464 -0.24881502985954285 0.13000263273715973 0.0 255.0 0.0
0.2982393205165863 -0.04099726304411888 0.03622503951191902 0.0 255.0 0.0
-0.2274768203496933 0.22809794545173645 0.10641322284936905 0.0 255.0 0.0
-0.27073678374290466 -0.14390979707241058 -0.11956861615180969 0.0 255.0 0.0
0.11022390425205231 0.23114228248596191 0.10559127479791641 0.0 255.0 0.0
0.1455845981836319 -0.3821444809436798 -0.010745754465460777 0.0 255.0 0.0
-0.2700774073600769 -0.09634950011968613 -0.08191169798374176 0.0 255.0 0.0
0.29787585139274597 0.1814269721508026 0.046793971210718155 0.0 255.0 0.0
0.2972581684589386 -0.036558039486408234 0.08330057561397552 0.0 255.0 0.0
-0.16321375966072083 -0.3517618477344513 -0.016978289932012558 0.0 255.0 0.0
0.01149771362543106 0.15069179236888885 -0.2201002538204193 0.0 255.0 0.0
0.2753661274909973 -0.05105789750814438 0.15627503395080566 0.0 255.0 0.0
-0.28827139735221863 -0.036481864750385284 -0.24345116317272186 0.0 255.0 0.0
0.27348002791404724 0.4522291421890259 -0.06515870243310928 0.0 255.0 0.0
0.2959016263484955 -0.1047057956457138 0.01825711689889431 0.0 255.0 0.0
-0.10752718895673752 0.22773882746696472 -0.04137280210852623 0.0 255.0 0.0
-0.2707524597644806 -0.09921132773160934 -0.07168230414390564 0.0 255.0 0.0
0.00584888830780983 0.09581548720598221 -0.15659993886947632 0.0 255.0 0.0
0.06991221755743027 -0.016675900667905807 -0.13077658414840698 0.0 255.0 0.0
-0.23772543668746948 -0.3711690902709961 0.17352792620658875 0.0 255.0 0.0
-0.3273847997188568 -0.3410327732563019 0.12277724593877792 0.0 255.0 0.0
-0.030056634917855263 0.22812457382678986 0.1190234124660492 0.0 255.0 0.0
0.19723248481750488 -0.2503012418746948 -0.06765354424715042 0.0 255.0 0.0
-0.0749889612197876 -0.25106146931648254 0.008932063356041908 0.0 255.0 0.0
0.1302676796913147 -0.11853621155023575 -0.13506805896759033 0.0 255.0 0.0
-0.08933062851428986 0.23036515712738037 0.10231396555900574 0.0 255.0 0.0
0.008555235341191292 -0.14163120090961456 -0.13435089588165283 0.0 255.0 0.0
-0.27191850543022156 -0.04561609774827957 0.08595427870750427 0.0 255.0 0.0
0.1814652979373932 0.34370216727256775 0.03675232455134392 0.0 255.0 0.0
-0.2653810977935791 0.08075233548879623 0.10562016814947128 0.0 255.0 0.0
-0.27984198927879333 -0.40113937854766846 0.17631646990776062 0.0 255.0 0.0
0.032630421221256256 -0.13216236233711243 -0.13506805896759033 0.0 255.0 0.0
0.29842373728752136 0.045309167355298996 0.04321810603141785 0.0 255.0 0.0
0.1567120999097824 -0.3293585479259491 0.0690489187836647 0.0 255.0 0.0
0.16161377727985382 0.19681429862976074 0.1562238335609436 0.0 255.0 0.0
0.17389164865016937 -0.25043144822120667 0.09829454869031906 0.0 255.0 0.0
0.2972581684589386 0.11718930304050446 -0.013260573148727417 0.0 255.0 0.0
-0.27305805683135986 0.036293741315603256 0.09161410480737686 0.0 255.0 0.0
-0.2707524597644806 0.07819297909736633 -0.05562800541520119 0.0 255.0 0.0
0.2972581684589386 0.10513829439878464 -0.10475330054759979 0.0 255.0 0.0
0.05709974467754364 0.19567406177520752 0.15620724856853485 0.0 255.0 0.0
0.17746935784816742 -0.41026046872138977 0.19415095448493958 0.0 255.0 0.0
0.14458586275577545 -0.36295509338378906 0.022577736526727676 0.0 255.0 0.0
0.2976209819316864 -0.23322756588459015 -0.051170192658901215 0.0 255.0 0.0
-0.1568879783153534 0.39342015981674194 -0.00048064495786093175 0.0 255.0 0.0
-0.035749416798353195 3.18104935104202e-06 -0.13660338521003723 0.0 255.0 0.0
0.1040191724896431 0.2280702143907547 -0.11260686814785004 0.0 255.0 0.0
0.0007625905564054847 -0.25073495507240295 0.0885416716337204 0.0 255.0 0.0
-0.2108263075351715 -0.2530568838119507 -0.07321404665708542 0.0 255.0 0.0
-0.27083703875541687 -0.23223522305488586 -0.011060147546231747 0.0 255.0 0.0
-0.00975722074508667 -0.2511807084083557 0.12168058007955551 0.0 255.0 0.0
0.015011326409876347 -0.10725241899490356 0.16852156817913055 0.0 255.0 0.0
0.23940356075763702 0.4418652355670929 0.0996917113661766 0.0 255.0 0.0
-0.16941912472248077 -0.2516079545021057 -0.09366808831691742 0.0 255.0 0.0
-0.2707524597644806 0.1032310277223587 0.07337441295385361 0.0 255.0 0.0
0.08022494614124298 -0.05329550802707672 -0.13506805896759033 0.0 255.0 0.0
0.03058960661292076 -0.2493942230939865 -0.03260229155421257 0.0 255.0 0.0
-0.018048593774437904 -0.250762015581131 -0.07153461128473282 0.0 255.0 0.0
-0.2701205909252167 0.13349540531635284 0.08292803168296814 0.0 255.0 0.0
-0.06710478663444519 -0.1364719569683075 -0.1381792575120926 0.0 255.0 0.0
-0.12369601428508759 -0.1389472931623459 0.16940195858478546 0.0 255.0 0.0
-0.076106958091259 0.11449921876192093 0.16815586388111115 0.0 255.0 0.0
0.24105018377304077 -0.05936114117503166 -0.13124963641166687 0.0 255.0 0.0
0.2950518727302551 -0.054280541837215424 -0.03979722037911415 0.0 255.0 0.0
-0.2695026695728302 0.07065585255622864 0.0605815127491951 0.0 255.0 0.0
0.297539621591568 0.17777788639068604 0.0524071529507637 0.0 255.0 0.0
0.1759360432624817 0.39479413628578186 -0.006685223430395126 0.0 255.0 0.0
-0.17338988184928894 -0.3509083688259125 0.06014413759112358 0.0 255.0 0.0
-0.2720864713191986 0.011704033240675926 0.11047116667032242 0.0 255.0 0.0
-0.27155905961990356 0.047452401369810104 0.09144971519708633 0.0 255.0 0.0
-0.0659688264131546 0.047738246619701385 -0.13523152470588684 0.0 255.0 0.0
-0.15743017196655273 0.22776658833026886 -0.019557936117053032 0.0 255.0 0.0
0.06202258542180061 -0.07586707919836044 -0.13703332841396332 0.0 255.0 0.0
-0.16160714626312256 -0.29518333077430725 -0.023359151557087898 0.0 255.0 0.0
-0.27923887968063354 -0.4421364367008209 0.04981253668665886 0.0 255.0 0.0
0.21496571600437164 0.07750172168016434 -0.13506805896759033 0.0 255.0 0.0
0.3014374375343323 0.15524247288703918 0.1173805519938469 0.0 255.0 0.0
0.2974994480609894 0.08264737576246262 -0.07677775621414185 0.0 255.0 0.0
-0.13245582580566406 -0.1255316585302353 0.1688038855791092 0.0 255.0 0.0
-0.07369436323642731 0.14160025119781494 0.16937458515167236 0.0 255.0 0.0
0.2115820199251175 0.5122413039207458 0.04860398918390274 0.0 255.0 0.0
-0.2686781883239746 -0.04969949275255203 -0.06908917427062988 0.0 255.0 0.0
-0.24494239687919617 -0.19987942278385162 -0.13506805896759033 0.0 255.0 0.0
0.21724265813827515 -0.10786761343479156 0.16810399293899536 0.0 255.0 0.0
0.2972581684589386 -0.20507214963436127 0.08045341074466705 0.0 255.0 0.0
0.12361287325620651 -0.15894465148448944 0.16921207308769226 0.0 255.0 0.0
0.012246642261743546 -0.14786936342716217 0.1716911792755127 0.0 255.0 0.0
8.386523404624313e-05 9.746977593749762e-05 -0.13600262999534607 0.0 255.0 0.0
0.14410753548145294 -0.4230373799800873 -0.01424016710370779 0.0 255.0 0.0
-0.04105387628078461 0.22815333306789398 -0.00039825026760809124 0.0 255.0 0.0
0.2972581684589386 0.18334968388080597 -0.06952428072690964 0.0 255.0 0.0
-0.2663225531578064 0.4021814465522766 0.07997582852840424 0.0 255.0 0.0
-0.13469848036766052 0.22901000082492828 0.09472648799419403 0.0 255.0 0.0
-0.22871874272823334 -0.255216509103775 0.0932011753320694 0.0 255.0 0.0
-0.16896776854991913 -0.10053208470344543 0.17316333949565887 0.0 255.0 0.0
0.27277639508247375 -0.24901250004768372 -0.030726175755262375 0.0 255.0 0.0
0.05231377109885216 0.03723596781492233 0.1726459264755249 0.0 255.0 0.0
0.2972581684589386 -0.17121636867523193 -0.039332207292318344 0.0 255.0 0.0
0.18318556249141693 0.008420979604125023 0.16940195858478546 0.0 255.0 0.0
-0.17051920294761658 0.10780918598175049 -0.13506805896759033 0.0 255.0 0.0
-0.2795710861682892 -0.3132319450378418 0.0318080298602581 0.0 255.0 0.0
-0.07642090320587158 0.1308177411556244 -0.13605183362960815 0.0 255.0 0.0
-0.2707524597644806 -0.18625302612781525 -0.1057751327753067 0.0 255.0 0.0
0.10160259157419205 -0.0735946074128151 0.17047636210918427 0.0 255.0 0.0
0.2581043243408203 -0.2508156895637512 -0.0881350189447403 0.0 255.0 0.0
0.23212237656116486 -0.09579616039991379 -0.13506805896759033 0.0 255.0 0.0
0.2716600298881531 -0.24932612478733063 -0.11461542546749115 0.0 255.0 0.0
-0.1790139079093933 -0.25185078382492065 0.09275718778371811 0.0 255.0 0.0
-0.057240188121795654 -0.24624453485012054 -0.039382897317409515 0.0 255.0 0.0
-0.2707524597644806 -0.09453292191028595 0.11900448799133301 0.0 255.0 0.0
0.0846695676445961 -0.018744466826319695 -0.13383591175079346 0.0 255.0 0.0
0.18702183663845062 0.4085536599159241 -0.053188394755125046 0.0 255.0 0.0
-0.2738228440284729 0.01464373804628849 -0.0007145248237065971 0.0 255.0 0.0
-0.2709409296512604 -0.14381632208824158 0.08979684859514236 0.0 255.0 0.0
0.29867449402809143 0.4375021755695343 0.03342267498373985 0.0 255.0 0.0
-0.1237812265753746 0.13671129941940308 -0.13939332962036133 0.0 255.0 0.0
0.012764844112098217 -0.06797374039888382 0.16940195858478546 0.0 255.0 0.0
0.0031617656350135803 0.22451280057430267 -0.2453889548778534 0.0 255.0 0.0
-0.213161900639534 -0.37993478775024414 0.1419735699892044 0.0 255.0 0.0
-0.11316632479429245 0.011148638091981411 -0.13268303871154785 0.0 255.0 0.0
0.1545221358537674 -0.32164210081100464 -0.015279305167496204 0.0 255.0 0.0
-0.018665099516510963 -0.09667064249515533 0.16940195858478546 0.0 255.0 0.0
-0.14007088541984558 -0.2521155774593353 -0.02471042424440384 0.0 255.0 0.0
-0.15549248456954956 0.3913038372993469 0.06605885177850723 0.0 255.0 0.0
0.2647673785686493 0.08337465673685074 0.15597805380821228 0.0 255.0 0.0
0.19686387479305267 -0.315114825963974 0.08964218199253082 0.0 255.0 0.0
-0.2953956425189972 0.022000664845108986 -0.26320281624794006 0.0 255.0 0.0
-0.019300557672977448 0.22700035572052002 0.030958466231822968 0.0 255.0 0.0
0.2972581684589386 -0.08661068230867386 0.022024380043148994 0.0 255.0 0.0
-0.1709972769021988 0.16672275960445404 -0.1315816044807434 0.0 255.0 0.0
0.2719193398952484 -0.3996678590774536 -0.06268446147441864 0.0 255.0 0.0
-0.18689489364624023 -0.03218995779752731 -0.13631069660186768 0.0 255.0 0.0
0.17673105001449585 -0.34265097975730896 0.11123562604188919 0.0 255.0 0.0
-0.277601420879364 -0.3331349492073059 0.1774347424507141 0.0 255.0 0.0
0.24996760487556458 0.40185225009918213 0.10759324580430984 0.0 255.0 0.0
-0.22992227971553802 -0.4660760760307312 -0.032025936990976334 0.0 255.0 0.0
-0.2854810953140259 -0.43179675936698914 0.046730995178222656 0.0 255.0 0.0
-0.2805524170398712 -0.3375965356826782 -0.05645795911550522 0.0 255.0 0.0
0.29767024517059326 -0.1909300535917282 0.08480562269687653 0.0 255.0 0.0
0.2945876121520996 -0.0706581324338913 0.08128204941749573 0.0 255.0 0.0
-0.17098934948444366 -0.14477932453155518 0.16897591948509216 0.0 255.0 0.0
0.21351458132266998 0.22812457382678986 0.009106364101171494 0.0 255.0 0.0
-0.15447860956192017 -0.24928328394889832 0.09844480454921722 0.0 255.0 0.0
-0.1042223796248436 -0.05664936825633049 0.17068256437778473 0.0 255.0 0.0
0.11289725452661514 -0.20997431874275208 -0.13476234674453735 0.0 255.0 0.0
-0.009129415266215801 -0.2532816529273987 -0.06842385232448578 0.0 255.0 0.0
0.0532502643764019 -0.22766590118408203 0.15850558876991272 0.0 255.0 0.0
0.2730198800563812 -0.25083431601524353 -0.07269088178873062 0.0 255.0 0.0
0.22692227363586426 -0.4443557858467102 -0.0734613686800003 0.0 255.0 0.0
0.2999241352081299 0.36877238750457764 0.02729259431362152 0.0 255.0 0.0
0.11412664502859116 0.0168240237981081 -0.13592036068439484 0.0 255.0 0.0
0.036838822066783905 -0.249226912856102 0.01411224901676178 0.0 255.0 0.0
-0.21214093267917633 -0.3909420967102051 0.15558572113513947 0.0 255.0 0.0
-0.13420502841472626 0.1194683164358139 0.1677665412425995 0.0 255.0 0.0
0.2972581684589386 -0.05954676866531372 0.0500950962305069 0.0 255.0 0.0
-0.03472023457288742 0.1320992410182953 -0.1712065041065216 0.0 255.0 0.0
-0.29369527101516724 0.053472623229026794 -0.2957655191421509 0.0 255.0 0.0
-0.010750390589237213 0.16738766431808472 -0.13752202689647675 0.0 255.0 0.0
-0.28069210052490234 -0.4384070336818695 0.038503482937812805 0.0 255.0 0.0
-0.13640081882476807 0.22778184711933136 0.12129074335098267 0.0 255.0 0.0
-0.032823674380779266 0.22534815967082977 -0.02057740092277527 0.0 255.0 0.0
-0.2508806884288788 -0.4285445511341095 0.15573611855506897 0.0 255.0 0.0
0.3005327582359314 0.43034598231315613 -0.0005338126211427152 0.0 255.0 0.0
0.2989000380039215 -0.2013256549835205 0.06373559683561325 0.0 255.0 0.0
0.18201592564582825 0.04989905655384064 -0.13506805896759033 0.0 255.0 0.0
-0.006520181894302368 -0.10772465169429779 0.16940195858478546 0.0 255.0 0.0
0.07851177453994751 0.12791776657104492 0.16931234300136566 0.0 255.0 0.0
-0.26902076601982117 0.13548225164413452 0.08585789054632187 0.0 255.0 0.0
-0.0344141460955143 0.12295675277709961 -0.16783779859542847 0.0 255.0 0.0
0.24632734060287476 -0.315280944108963 -0.07226434350013733 0.0 255.0 0.0
-0.2726363241672516 -0.18353326618671417 0.07075496762990952 0.0 255.0 0.0
-0.1514955312013626 0.02694915235042572 0.16658638417720795 0.0 255.0 0.0
0.1090736836194992 -0.05717846751213074 -0.13506805896759033 0.0 255.0 0.0
0.2325589507818222 0.42344382405281067 -0.08918111026287079 0.0 255.0 0.0
0.2972581684589386 -0.011032192036509514 -0.03371601179242134 0.0 255.0 0.0
0.15414132177829742 -0.3789055347442627 -0.03463147208094597 0.0 255.0 0.0
0.2384340763092041 0.2281753122806549 0.09914776682853699 0.0 255.0 0.0
-0.17767946422100067 0.22812457382678986 -0.06659173965454102 0.0 255.0 0.0
0.12881095707416534 0.02527695894241333 0.16940195858478546 0.0 255.0 0.0
0.2993446886539459 -0.0347437709569931 0.0075380136258900166 0.0 255.0 0.0
-0.31918075680732727 -0.3300918936729431 0.10414575040340424 0.0 255.0 0.0
0.29832956194877625 0.36126330494880676 0.05255242809653282 0.0 255.0 0.0
0.09779985249042511 -0.252888947725296 0.0722729042172432 0.0 255.0 0.0
0.16796956956386566 -0.25114700198173523 -0.04021523892879486 0.0 255.0 0.0
0.18241392076015472 -0.10482047498226166 -0.13506805896759033 0.0 255.0 0.0
0.19119639694690704 0.49631473422050476 0.05472414568066597 0.0 255.0 0.0
-0.17470063269138336 0.08883392810821533 -0.13403546810150146 0.0 255.0 0.0
0.25463536381721497 -0.4481329917907715 0.1820564717054367 0.0 255.0 0.0
-0.13051295280456543 -0.2497149407863617 0.07986714690923691 0.0 255.0 0.0
-0.30147784948349 -0.3963548243045807 0.13279807567596436 0.0 255.0 0.0
0.29728424549102783 0.12345484644174576 0.12538903951644897 0.0 255.0 0.0
-0.3241936266422272 -0.3997022807598114 0.04165318235754967 0.0 255.0 0.0
-0.08105551451444626 0.04839843511581421 -0.13506805896759033 0.0 255.0 0.0
-0.2703200876712799 -0.21605519950389862 -0.07822439819574356 0.0 255.0 0.0
0.23510850965976715 -0.3696916103363037 0.1699559986591339 0.0 255.0 0.0
-0.21839796006679535 -0.41198691725730896 -0.0677742213010788 0.0 255.0 0.0
-0.26992082595825195 0.048741091042757034 0.000921397062484175 0.0 255.0 0.0
-0.06152606010437012 -0.24931934475898743 0.038390785455703735 0.0 255.0 0.0
-0.1856994777917862 -0.3958113491535187 0.08126471191644669 0.0 255.0 0.0
0.2997306287288666 -0.043891116976737976 -0.014456174336373806 0.0 255.0 0.0
-0.0034134725574404 -0.019265025854110718 0.1679908037185669 0.0 255.0 0.0
-0.11628354340791702 0.20760826766490936 0.15345175564289093 0.0 255.0 0.0
0.29113510251045227 -0.38478684425354004 0.01041252538561821 0.0 255.0 0.0
-0.26797398924827576 0.007104122079908848 -0.04751294478774071 0.0 255.0 0.0
-0.2659653425216675 -0.31458231806755066 -0.044242508709430695 0.0 255.0 0.0
0.028528833761811256 0.22812457382678986 -0.005141045898199081 0.0 255.0 0.0
0.08821243792772293 0.11344760656356812 0.16978754103183746 0.0 255.0 0.0
0.06363482773303986 -0.006988851353526115 -0.13263040781021118 0.0 255.0 0.0
0.20329560339450836 0.22812457382678986 -0.06364438682794571 0.0 255.0 0.0
0.26315367221832275 -0.447129487991333 0.1764676868915558 0.0 255.0 0.0
-0.2707524597644806 0.176301971077919 0.019047796726226807 0.0 255.0 0.0
0.0829114243388176 -0.25065815448760986 -0.08854541927576065 0.0 255.0 0.0
-0.007845514453947544 -0.2487301081418991 -0.023657090961933136 0.0 255.0 0.0
-0.154399111866951 0.43012091517448425 -0.015430847182869911 0.0 255.0 0.0
0.1333881914615631 -0.17147164046764374 -0.13619941473007202 0.0 255.0 0.0
-0.23415544629096985 -0.15457424521446228 -0.1329430639743805 0.0 255.0 0.0
-0.27415525913238525 0.09215907752513885 -0.07856955379247665 0.0 255.0 0.0
-0.04880041629076004 0.0364781990647316 0.171175017952919 0.0 255.0 0.0
-0.2550264596939087 -0.47063085436820984 -0.0021462864242494106 0.0 255.0 0.0
0.13887624442577362 -0.4208136796951294 0.09317454695701599 0.0 255.0 0.0
-0.2894722819328308 -0.33553797006607056 -0.016213396564126015 0.0 255.0 0.0
0.15127871930599213 -0.2509171962738037 0.08036405593156815 0.0 255.0 0.0
0.29930198192596436 -0.16454647481441498 -0.07791702449321747 0.0 255.0 0.0
0.20882581174373627 0.07396164536476135 0.1666712909936905 0.0 255.0 0.0
-0.2707524597644806 0.11090073734521866 0.08875991404056549 0.0 255.0 0.0
-0.26921096444129944 -0.01645403727889061 -0.019676314666867256 0.0 255.0 0.0
0.17463837563991547 0.4281306564807892 0.028676951304078102 0.0 255.0 0.0
0.29676884412765503 -0.15894494950771332 -0.015125526115298271 0.0 255.0 0.0
0.06255669891834259 -0.038446683436632156 -0.13506805896759033 0.0 255.0 0.0
0.1336529552936554 -0.17966137826442719 -0.1361132115125656 0.0 255.0 0.0
-0.20341451466083527 -0.13986757397651672 -0.13506805896759033 0.0 255.0 0.0
-0.0747472494840622 -0.21272191405296326 -0.1350426971912384 0.0 255.0 0.0
0.2443559467792511 0.19845670461654663 -0.13080494105815887 0.0 255.0 0.0
0.19690029323101044 0.4238256514072418 -0.06645561754703522 0.0 255.0 0.0
0.21853329241275787 0.062267523258924484 -0.1308719515800476 0.0 255.0 0.0
-0.10582046210765839 0.025351839140057564 -0.13506805896759033 0.0 255.0 0.0
-0.2004932165145874 -0.03940030187368393 -0.135202094912529 0.0 255.0 0.0
0.15615510940551758 -0.30079764127731323 0.022225506603717804 0.0 255.0 0.0
-0.07535704225301743 -0.21126431226730347 0.1545129269361496 0.0 255.0 0.0
-0.312738835811615 -0.39001545310020447 0.10268693417310715 0.0 255.0 0.0
0.014612609520554543 -0.2517525851726532 -0.10749485343694687 0.0 255.0 0.0
0.00768650695681572 -0.05726958438754082 -0.13506805896759033 0.0 255.0 0.0
-0.3062001168727875 -0.349934846162796 -0.0016402926994487643 0.0 255.0 0.0
-0.18386955559253693 0.22831375896930695 0.07181882858276367 0.0 255.0 0.0
-0.12056921422481537 0.07875711470842361 -0.1355804055929184 0.0 255.0 0.0
-0.2716228663921356 -0.12382064759731293 0.07460661232471466 0.0 255.0 0.0
0.29823118448257446 0.41280311346054077 -0.01231180690228939 0.0 255.0 0.0
-0.1684902310371399 0.2289183884859085 -0.04222803935408592 0.0 255.0 0.0
-0.26476728916168213 0.43627870082855225 0.08399633318185806 0.0 255.0 0.0
0.2972581684589386 0.15282608568668365 -0.04728711023926735 0.0 255.0 0.0
-0.21301767230033875 0.22822090983390808 0.0932987630367279 0.0 255.0 0.0
-0.23866777122020721 -0.09326548129320145 -0.1342470347881317 0.0 255.0 0.0
-0.2729898989200592 -0.32131427526474 -0.044742051512002945 0.0 255.0 0.0
0.2979309856891632 0.15985921025276184 0.028695540502667427 0.0 255.0 0.0
0.2972581684589386 -0.12328894436359406 -0.08270689845085144 0.0 255.0 0.0
0.2950335741043091 -0.041892874985933304 -0.08940085768699646 0.0 255.0 0.0
0.2866169214248657 0.44997358322143555 -0.04426860064268112 0.0 255.0 0.0
0.1667221039533615 -0.3474813997745514 0.1061176136136055 0.0 255.0 0.0
0.008883914910256863 0.15463103353977203 -0.22328782081604004 0.0 255.0 0.0
0.17443981766700745 -0.295809268951416 -0.03480925038456917 0.0 255.0 0.0
0.13431940972805023 0.0826089158654213 0.1713148057460785 0.0 255.0 0.0
-0.27072906494140625 -0.059430576860904694 -0.03459303081035614 0.0 255.0 0.0
0.1544470489025116 0.22861704230308533 0.009364898316562176 0.0 255.0 0.0
0.24129539728164673 0.009293894283473492 -0.13778230547904968 0.0 255.0 0.0
-0.031309839338064194 -0.25080233812332153 0.0655813068151474 0.0 255.0 0.0
-0.2895035743713379 -0.3182218074798584 0.04103310778737068 0.0 255.0 0.0
-0.20131173729896545 -0.39956921339035034 -0.05666429549455643 0.0 255.0 0.0
0.06214572489261627 0.022724250331521034 -0.13752634823322296 0.0 255.0 0.0
-0.08845936506986618 0.22903946042060852 0.13771623373031616 0.0 255.0 0.0
0.1679506003856659 0.1721276342868805 -0.1311202049255371 0.0 255.0 0.0
-0.31697413325309753 -0.37150928378105164 0.1455453783273697 0.0 255.0 0.0
-0.09822461754083633 0.22703872621059418 -0.04373644292354584 0.0 255.0 0.0
0.2972581684589386 -0.09459023922681808 -0.10881784558296204 0.0 255.0 0.0
0.09989257156848907 0.15409250557422638 -0.13506805896759033 0.0 255.0 0.0
0.16852585971355438 -0.21695837378501892 0.15618927776813507 0.0 255.0 0.0
-0.08692356199026108 -0.25108760595321655 0.053794410079717636 0.0 255.0 0.0
0.18834342062473297 -0.29991209506988525 0.07779531180858612 0.0 255.0 0.0
0.15696516633033752 0.14308284223079681 -0.1348816156387329 0.0 255.0 0.0
0.2972581684589386 -0.17172187566757202 0.0027752735186368227 0.0 255.0 0.0
-0.07706577330827713 0.13621340692043304 -0.13225820660591125 0.0 255.0 0.0
0.051158804446458817 0.020448969677090645 0.16940195858478546 0.0 255.0 0.0
0.27040553092956543 -0.2526686489582062 -0.02639150246977806 0.0 255.0 0.0
0.29658323526382446 -0.052368104457855225 0.028691556304693222 0.0 255.0 0.0
0.18283537030220032 0.4683113694190979 0.0879451185464859 0.0 255.0 0.0
-0.0032819274347275496 0.1325044482946396 -0.13207224011421204 0.0 255.0 0.0
-0.11811136454343796 0.04292597994208336 0.17215828597545624 0.0 255.0 0.0
0.2781660556793213 -0.375873327255249 -0.043875399976968765 0.0 255.0 0.0
-0.2682124376296997 -0.1303122341632843 0.012202220968902111 0.0 255.0 0.0
-0.15745994448661804 0.45648548007011414 0.04985086992383003 0.0 255.0 0.0
0.08918164670467377 0.22682787477970123 -0.052445441484451294 0.0 255.0 0.0
-0.14870798587799072 -0.1707562655210495 -0.13748206198215485 0.0 255.0 0.0
-0.27026495337486267 0.021808762103319168 -0.015876304358243942 0.0 255.0 0.0
0.2896682918071747 -0.40349259972572327 0.1408785730600357 0.0 255.0 0.0
0.2940232455730438 -0.12161728739738464 0.022110670804977417 0.0 255.0 0.0
0.2887645959854126 -0.3814316391944885 0.08323121815919876 0.0 255.0 0.0
0.1454179883003235 0.22808824479579926 0.13182125985622406 0.0 255.0 0.0
0.06168610602617264 0.22560259699821472 -0.001673392136581242 0.0 255.0 0.0
-0.2709343433380127 -0.11089452356100082 0.06179360672831535 0.0 255.0 0.0
0.034255437552928925 0.13171109557151794 -0.21404385566711426 0.0 255.0 0.0
0.018234238028526306 0.00212451396510005 0.17017564177513123 0.0 255.0 0.0
-0.1863429695367813 -0.18730223178863525 -0.13506805896759033 0.0 255.0 0.0
0.22427839040756226 -0.28242799639701843 0.08373524993658066 0.0 255.0 0.0
0.022146791219711304 -0.09399821609258652 0.16849997639656067 0.0 255.0 0.0
-0.2521931529045105 -0.11517853289842606 -0.13506805896759033 0.0 255.0 0.0
0.22216786444187164 -0.2507084608078003 -0.08908656984567642 0.0 255.0 0.0
-0.17148573696613312 -0.2775562107563019 0.06097416579723358 0.0 255.0 0.0
-0.03031453676521778 -0.0424099862575531 -0.13669130206108093 0.0 255.0 0.0
-0.23511338233947754 0.4915899634361267 0.0783519446849823 0.0 255.0 0.0
-0.20538434386253357 0.22700035572052002 -0.08017317950725555 0.0 255.0 0.0
-0.2738218307495117 -0.08124789595603943 0.0030833191704005003 0.0 255.0 0.0
0.2475111186504364 -0.2327541708946228 -0.13256561756134033 0.0 255.0 0.0
0.1727805882692337 0.41722989082336426 0.045572567731142044 0.0 255.0 0.0
-0.3113543391227722 -0.3645482659339905 -0.031172698363661766 0.0 255.0 0.0
-0.09714259207248688 -0.25035104155540466 -0.1110285148024559 0.0 255.0 0.0
-0.1705912947654724 -0.32228556275367737 0.05335633456707001 0.0 255.0 0.0
-0.27177250385284424 -0.1436138153076172 -0.05569399148225784 0.0 255.0 0.0
0.18566302955150604 -0.35651275515556335 0.1269165277481079 0.0 255.0 0.0
0.09264776110649109 -0.24902336299419403 0.05990840867161751 0.0 255.0 0.0
-0.1462661623954773 -0.1273416131734848 0.16940195858478546 0.0 255.0 0.0
-0.017342612147331238 -0.2504390478134155 0.035462137311697006 0.0 255.0 0.0
0.2006925344467163 -0.28981611132621765 0.07992556691169739 0.0 255.0 0.0
0.25473856925964355 -0.4441506564617157 -0.050555817782878876 0.0 255.0 0.0
-0.09858117252588272 -0.2510819435119629 0.08976191282272339 0.0 255.0 0.0
-0.08410099148750305 0.22651836276054382 0.011640888638794422 0.0 255.0 0.0
-0.23999398946762085 -0.2787773013114929 0.06385438144207001 0.0 255.0 0.0
-0.1664949655532837 -0.09664008021354675 -0.13474856317043304 0.0 255.0 0.0
0.02846883237361908 0.1249665915966034 -0.13607797026634216 0.0 255.0 0.0
0.04357393831014633 0.07303448766469955 -0.13506805896759033 0.0 255.0 0.0
0.19901375472545624 0.43560266494750977 -0.06698116660118103 0.0 255.0 0.0
0.2977016568183899 -0.024051757529377937 -0.03519877791404724 0.0 255.0 0.0
-0.16188862919807434 0.11653110384941101 -0.13329580426216125 0.0 255.0 0.0
-0.2596728503704071 0.4578877091407776 -0.009428690187633038 0.0 255.0 0.0
0.23198726773262024 0.5191311240196228 0.013733799569308758 0.0 255.0 0.0
0.2972283661365509 0.39604562520980835 0.10070964694023132 0.0 255.0 0.0
0.2994568943977356 0.14213624596595764 -0.09461238980293274 0.0 255.0 0.0
-0.07130144536495209 0.13657943904399872 -0.13389050960540771 0.0 255.0 0.0
0.28722482919692993 -0.3959876298904419 0.03936900198459625 0.0 255.0 0.0
0.2972581684589386 -0.10881450772285461 0.12411034107208252 0.0 255.0 0.0
0.033569104969501495 -0.09238126873970032 0.1702806055545807 0.0 255.0 0.0
0.08246597647666931 0.08072144538164139 -0.1285572052001953 0.0 255.0 0.0
0.29836079478263855 0.15144860744476318 -0.088739313185215 0.0 255.0 0.0
0.2972581684589386 0.10051823407411575 0.00820276327431202 0.0 255.0 0.0
0.2852362096309662 -0.3568517863750458 -0.0017582388827577233 0.0 255.0 0.0
-0.12116961926221848 -0.230177104473114 0.15510493516921997 0.0 255.0 0.0
0.2627173066139221 0.006304353475570679 -0.13316351175308228 0.0 255.0 0.0
0.13575775921344757 0.2273760437965393 0.008531532250344753 0.0 255.0 0.0
-0.12466639280319214 0.20292545855045319 0.15628977119922638 0.0 255.0 0.0
-0.05460080876946449 0.22470101714134216 -0.00832257978618145 0.0 255.0 0.0
-0.0850006490945816 -0.037385158240795135 0.16940195858478546 0.0 255.0 0.0
0.28894782066345215 -0.383783221244812 0.10987666994333267 0.0 255.0 0.0
0.23316392302513123 -0.21333658695220947 0.15706788003444672 0.0 255.0 0.0
-0.22609224915504456 0.2250204235315323 -0.05436773598194122 0.0 255.0 0.0
-0.19499272108078003 -0.3216799199581146 -0.061650265008211136 0.0 255.0 0.0
