-0.2363021969795227 0.46455565094947815 0.10606943070888519 0.0 255.0 0.0
-0.003229177324101329 0.28473058342933655 -0.2839822471141815 0.0 255.0 0.0
-0.010228278115391731 0.11944007873535156 -0.20421504974365234 0.0 255.0 0.0
-0.0682065412402153 -0.17143705487251282 0.17233246564865112 0.0 255.0 0.0
-0.27048686146736145 -0.24276748299598694 0.14563843607902527 0.0 255.0 0.0
0.12724953889846802 -0.23899029195308685 0.1584881991147995 0.0 255.0 0.0
-0.043647196143865585 0.30044957995414734 -0.2601444125175476 0.0 255.0 0.0
0.04235376790165901 -0.19884710013866425 0.15138645470142365 0.0 255.0 0.0
-0.22125795483589172 0.3017089366912842 -0.024058764800429344 0.0 255.0 0.0
-0.2322346270084381 -0.4013617932796478 0.18934206664562225 0.0 255.0 0.0
0.056563764810562134 0.11380740255117416 -0.15311087667942047 0.0 255.0 0.0
-0.06094257906079292 -0.1931329220533371 0.14688052237033844 0.0 255.0 0.0
-0.050596896559000015 0.17963652312755585 0.15403912961483002 0.0 255.0 0.0
0.2972581684589386 0.22010891139507294 0.0663459450006485 0.0 255.0 0.0
-0.20252725481987 0.47325560450553894 0.09650135040283203 0.0 255.0 0.0
-0.28830069303512573 -0.45549485087394714 -0.07612667232751846 0.0 255.0 0.0
0.2511459290981293 -0.44515904784202576 -0.06587303429841995 0.0 255.0 0.0
-0.27611789107322693 -0.08308504521846771 -0.2420298159122467 0.0 255.0 0.0
0.275283545255661 0.43272778391838074 -0.07498222589492798 0.0 255.0 0.0
-0.23233847320079803 -0.04114612191915512 0.1569415032863617 0.0 255.0 0.0
0.21144001185894012 -0.2487722784280777 0.07701055705547333 0.0 255.0 0.0
0.23325355350971222 0.24482889473438263 0.047840166836977005 0.0 255.0 0.0
0.17141005396842957 -0.4305057227611542 -0.05554618313908577 0.0 255.0 0.0
0.21013189852237701 -0.23657119274139404 0.15632209181785583 0.0 255.0 0.0
-0.03998878225684166 0.2822533845901489 -0.2702721059322357 0.0 255.0 0.0
-0.12620975077152252 -0.248174250125885 -0.12153241783380508 0.0 255.0 0.0
-0.23927061259746552 0.46593719720840454 0.10695619881153107 0.0 255.0 0.0
-0.2400592416524887 -0.26977041363716125 0.02786729671061039 0.0 255.0 0.0
-0.23690831661224365 0.26506686210632324 -0.34814217686653137 0.0 255.0 0.0
-0.24588260054588318 0.41929754614830017 0.10724606364965439 0.0 255.0 0.0
0.2605033814907074 -0.42226260900497437 0.1990984082221985 0.0 255.0 0.0
-0.21211884915828705 -0.014701860025525093 0.1676240861415863 0.0 255.0 0.0
0.2347630113363266 0.5088949799537659 0.11344418674707413 0.0 255.0 0.0
0.2972331941127777 -0.23062695562839508 -0.12185364961624146 0.0 255.0 0.0
-0.2898425757884979 -0.0023522479459643364 -0.29981836676597595 0.0 255.0 0.0
-0.20675557851791382 0.3306286334991455 -0.33111751079559326 0.0 255.0 0.0
-0.03780404478311539 0.18151840567588806 -0.18082471191883087 0.0 255.0 0.0
-0.23977579176425934 0.41350793838500977 0.0993829071521759 0.0 255.0 0.0
0.23931580781936646 -0.138327956199646 0.17031827569007874 0.0 255.0 0.0
0.17252610623836517 0.22717197239398956 0.14933234453201294 0.0 255.0 0.0
0.03426835685968399 0.22363963723182678 0.15841569006443024 0.0 255.0 0.0
-0.24868467450141907 -0.2521226406097412 0.02543085813522339 0.0 255.0 0.0
-0.2668887674808502 0.22644156217575073 -0.11195608228445053 0.0 255.0 0.0
0.25209787487983704 -0.1330946683883667 0.15193632245063782 0.0 255.0 0.0
0.0402192696928978 0.2264147698879242 0.14946222305297852 0.0 255.0 0.0
-0.23568812012672424 -0.25949615240097046 0.015198782086372375 0.0 255.0 0.0
0.29230448603630066 0.22493284940719604 -0.12634122371673584 0.0 255.0 0.0
0.27494195103645325 0.45083320140838623 0.11666365712881088 0.0 255.0 0.0
-0.27140840888023376 -0.05378178134560585 -0.1306939423084259 0.0 255.0 0.0
-0.11009377986192703 0.18017524480819702 0.1551879346370697 0.0 255.0 0.0
0.1988367736339569 0.37631604075431824 0.11840604245662689 0.0 255.0 0.0
0.2905878722667694 0.2266748696565628 -0.12410256266593933 0.0 255.0 0.0
-0.21227587759494781 0.2585660219192505 -0.026928309351205826 0.0 255.0 0.0
-0.2678264379501343 0.21778368949890137 -0.09436904639005661 0.0 255.0 0.0
0.07498474419116974 0.23188389837741852 0.1444404125213623 0.0 255.0 0.0
-0.2707558870315552 0.07890567183494568 -0.31980156898498535 0.0 255.0 0.0
0.16318432986736298 -0.4404073655605316 0.1726531833410263 0.0 255.0 0.0
0.24710820615291595 -0.12599849700927734 0.16256536543369293 0.0 255.0 0.0
-0.22381968796253204 0.08462976664304733 0.15719106793403625 0.0 255.0 0.0
-0.20710241794586182 0.30461612343788147 0.042634837329387665 0.0 255.0 0.0
0.17139728367328644 -0.2517319917678833 -0.0076149506494402885 0.0 255.0 0.0
0.23739880323410034 -0.27270928025245667 0.0759664922952652 0.0 255.0 0.0
0.12509965896606445 -0.23335279524326324 0.1559896171092987 0.0 255.0 0.0
0.043276119977235794 0.11820942908525467 -0.20032452046871185 0.0 255.0 0.0
-0.02894880250096321 0.3075982630252838 -0.2938496768474579 0.0 255.0 0.0
0.24430274963378906 0.23709344863891602 -0.030108831822872162 0.0 255.0 0.0
0.19421979784965515 -0.17332075536251068 0.1715245544910431 0.0 255.0 0.0
0.2024751752614975 -0.255843847990036 -0.038630109280347824 0.0 255.0 0.0
-0.3290170729160309 -0.35929781198501587 0.16344183683395386 0.0 255.0 0.0
0.2927042245864868 0.22389134764671326 -0.1330612152814865 0.0 255.0 0.0
-0.21225611865520477 -0.32817500829696655 -0.07649251073598862 0.0 255.0 0.0
-0.2398933470249176 0.2881734371185303 0.008362269960343838 0.0 255.0 0.0
-0.14510756731033325 -0.2542284429073334 0.013839858584105968 0.0 255.0 0.0
0.15043121576309204 0.1558983325958252 0.16979962587356567 0.0 255.0 0.0
-0.11038509011268616 0.3151014447212219 -0.3282788097858429 0.0 255.0 0.0
0.2859703004360199 -0.1917988508939743 0.1570819616317749 0.0 255.0 0.0
0.04503786563873291 0.1985415369272232 -0.13563327491283417 0.0 255.0 0.0
0.29586556553840637 0.10291954129934311 0.1528867483139038 0.0 255.0 0.0
-0.23134233057498932 -0.11537842452526093 0.15504275262355804 0.0 255.0 0.0
0.2879261374473572 -0.23294545710086823 -0.13446977734565735 0.0 255.0 0.0
0.19274285435676575 -0.43612322211265564 0.19822843372821808 0.0 255.0 0.0
-0.23443090915679932 -0.47503048181533813 -0.021392762660980225 0.0 255.0 0.0
-0.06368502229452133 -0.19509150087833405 0.15898467600345612 0.0 255.0 0.0
0.2457876354455948 -0.290979266166687 0.0848475843667984 0.0 255.0 0.0
-0.1921117603778839 0.3171863853931427 -0.358243852853775 0.0 255.0 0.0
0.29724419116973877 -0.06693543493747711 -0.12076640874147415 0.0 255.0 0.0
-0.1639561653137207 0.419696569442749 0.10329180210828781 0.0 255.0 0.0
0.23383834958076477 0.22815079987049103 -0.12828761339187622 0.0 255.0 0.0
-0.24955163896083832 0.04854924604296684 -0.2816494405269623 0.0 255.0 0.0
0.08381173014640808 0.16859933733940125 0.1481305956840515 0.0 255.0 0.0
0.03987902030348778 0.2183130830526352 -0.2340199500322342 0.0 255.0 0.0
0.21852803230285645 0.22530607879161835 -0.1354273408651352 0.0 255.0 0.0
0.02149982564151287 0.24416927993297577 -0.25641196966171265 0.0 255.0 0.0
0.24981985986232758 -0.16801796853542328 0.15612497925758362 0.0 255.0 0.0
-0.2737458050251007 -0.3054237365722656 0.10692897439002991 0.0 255.0 0.0
-0.26147568225860596 -0.07974405586719513 -0.27178624272346497 0.0 255.0 0.0
0.2857479453086853 0.082831971347332 0.15632209181785583 0.0 255.0 0.0
-0.22052182257175446 0.29617762565612793 -0.3448328673839569 0.0 255.0 0.0
0.29690665006637573 0.22001738846302032 -0.12326692789793015 0.0 255.0 0.0
-0.18672247231006622 -0.26064419746398926 -0.04336633160710335 0.0 255.0 0.0
0.2970607578754425 -0.24199210107326508 0.1381186544895172 0.0 255.0 0.0
-0.24873971939086914 0.2781045138835907 -0.32684168219566345 0.0 255.0 0.0
-0.22421172261238098 0.2080671191215515 0.1582849621772766 0.0 255.0 0.0
0.24505522847175598 -0.08810554444789886 0.16499146819114685 0.0 255.0 0.0
-0.228413388133049 0.4072435200214386 0.0924820601940155 0.0 255.0 0.0
-0.11620473861694336 0.21728716790676117 -0.13506805896759033 0.0 255.0 0.0
0.2296750545501709 -0.06299653649330139 0.16692884266376495 0.0 255.0 0.0
0.0575459823012352 0.18957650661468506 -0.20541620254516602 0.0 255.0 0.0
-0.01672086864709854 0.2743411362171173 -0.2750057578086853 0.0 255.0 0.0
-0.24560041725635529 -0.07254968583583832 -0.24520030617713928 0.0 255.0 0.0
0.05993799492716789 0.13818800449371338 -0.18790516257286072 0.0 255.0 0.0
-0.2312566190958023 -0.06980729848146439 0.15695539116859436 0.0 255.0 0.0
0.2013901323080063 0.2234341949224472 0.1561577469110489 0.0 255.0 0.0
0.2525373697280884 0.0020660622976720333 0.15119007229804993 0.0 255.0 0.0
-0.23533882200717926 0.2726934850215912 0.0305988397449255 0.0 255.0 0.0
0.038910381495952606 0.10630715638399124 -0.1799473911523819 0.0 255.0 0.0
0.20153722167015076 0.31235748529434204 0.019297070801258087 0.0 255.0 0.0
-0.3361087739467621 -0.3580379784107208 0.09386108815670013 0.0 255.0 0.0
-0.24802266061306 0.30645158886909485 -0.3341487944126129 0.0 255.0 0.0
0.2679113745689392 0.5011776685714722 -0.025651752948760986 0.0 255.0 0.0
-0.17767658829689026 0.22872714698314667 -0.028985798358917236 0.0 255.0 0.0
-0.20678381621837616 -0.29636648297309875 -0.06638504564762115 0.0 255.0 0.0
0.2847755551338196 0.3469356298446655 0.08905632793903351 0.0 255.0 0.0
-0.14860565960407257 0.2289932668209076 0.1430361568927765 0.0 255.0 0.0
-0.23528316617012024 0.28122857213020325 -0.0032706898637115955 0.0 255.0 0.0
-0.03451330587267876 0.16731150448322296 -0.13599245250225067 0.0 255.0 0.0
0.24052995443344116 0.283399760723114 -0.02006799913942814 0.0 255.0 0.0
-0.3067403733730316 -0.3191140294075012 0.13116268813610077 0.0 255.0 0.0
-0.2112446427345276 -0.2841945290565491 -0.06367335468530655 0.0 255.0 0.0
-0.025888385251164436 0.09730824828147888 -0.13506805896759033 0.0 255.0 0.0
-0.26420700550079346 0.1979822963476181 0.15632209181785583 0.0 255.0 0.0
0.05147170275449753 0.22662320733070374 0.14573934674263 0.0 255.0 0.0
0.26863154768943787 -0.32871127128601074 -0.05957813933491707 0.0 255.0 0.0
0.18515734374523163 0.17718638479709625 0.15173007547855377 0.0 255.0 0.0
0.2912903428077698 -0.25145193934440613 0.05117607116699219 0.0 255.0 0.0
-0.24712996184825897 0.3390956223011017 -0.04277070239186287 0.0 255.0 0.0
-0.2194451093673706 0.2972365915775299 -0.36468052864074707 0.0 255.0 0.0
0.2082204669713974 0.22520743310451508 0.02352883107960224 0.0 255.0 0.0
0.25372830033302307 -0.2646355628967285 -0.024182237684726715 0.0 255.0 0.0
-0.05359039455652237 -0.2031509280204773 0.15466943383216858 0.0 255.0 0.0
-0.28417205810546875 -0.031936194747686386 -0.29223257303237915 0.0 255.0 0.0
0.07184618711471558 0.16493570804595947 0.16133251786231995 0.0 255.0 0.0
0.08560977131128311 -0.24740010499954224 -0.12379346787929535 0.0 255.0 0.0
0.22256767749786377 0.5006869435310364 0.11783784627914429 0.0 255.0 0.0
-0.2319565862417221 0.04632628336548805 0.15279623866081238 0.0 255.0 0.0
0.23648735880851746 -0.03808150067925453 0.16954873502254486 0.0 255.0 0.0
0.2641132175922394 0.3099680542945862 -0.021698491647839546 0.0 255.0 0.0
0.1885700225830078 -0.24222268164157867 0.15632209181785583 0.0 255.0 0.0
-0.1918843537569046 0.23055773973464966 0.046745795756578445 0.0 255.0 0.0
0.2506007254123688 0.3128441870212555 -0.02902837097644806 0.0 255.0 0.0
-0.2256426364183426 0.004545236472040415 0.1483669877052307 0.0 255.0 0.0
-0.07757055014371872 0.32980918884277344 -0.29185202717781067 0.0 255.0 0.0
0.041656795889139175 0.18793094158172607 -0.2259313464164734 0.0 255.0 0.0
0.27266108989715576 -0.36821994185447693 0.15469543635845184 0.0 255.0 0.0
-0.2578985095024109 -0.25086307525634766 0.002741985721513629 0.0 255.0 0.0
0.1955733597278595 -0.25158897042274475 -0.045306816697120667 0.0 255.0 0.0
-0.2194955050945282 0.30341607332229614 -0.3343717157840729 0.0 255.0 0.0
-0.2095702737569809 0.2245384305715561 0.15665607154369354 0.0 255.0 0.0
0.24792782962322235 -0.16236497461795807 0.159657284617424 0.0 255.0 0.0
-0.2268928736448288 0.14262406527996063 0.149740532040596 0.0 255.0 0.0
-0.1533254235982895 -0.24783404171466827 -0.13433925807476044 0.0 255.0 0.0
-0.2601381838321686 -0.13826222717761993 0.15632209181785583 0.0 255.0 0.0
-0.1535877287387848 0.31899523735046387 -0.33251088857650757 0.0 255.0 0.0
0.051326360553503036 0.16865183413028717 -0.13051678240299225 0.0 255.0 0.0
0.1332014948129654 0.22641386091709137 0.14560163021087646 0.0 255.0 0.0
0.03660508990287781 -0.24990597367286682 0.13759152591228485 0.0 255.0 0.0
0.00556263467296958 0.22634398937225342 0.14305874705314636 0.0 255.0 0.0
0.0268867127597332 0.11863300949335098 -0.20876626670360565 0.0 255.0 0.0
0.14212429523468018 -0.24674266576766968 -0.13493916392326355 0.0 255.0 0.0
-0.33216971158981323 -0.37195491790771484 0.10956958681344986 0.0 255.0 0.0
0.2972581684589386 0.21449603140354156 0.10224742442369461 0.0 255.0 0.0
-0.23400245606899261 0.35319721698760986 -0.07015882432460785 0.0 255.0 0.0
-0.1601075828075409 0.35089120268821716 0.03886431083083153 0.0 255.0 0.0
0.2972581684589386 -0.24231232702732086 0.09167350083589554 0.0 255.0 0.0
-0.2988515794277191 -0.3644561171531677 0.20694051682949066 0.0 255.0 0.0
0.23164667189121246 0.4516356885433197 -0.08516793698072433 0.0 255.0 0.0
-0.022765664383769035 0.1475299745798111 0.1698385775089264 0.0 255.0 0.0
-0.015924446284770966 0.17064590752124786 0.15070897340774536 0.0 255.0 0.0
-0.22356164455413818 0.4538768231868744 -0.07260075956583023 0.0 255.0 0.0
-0.22577369213104248 0.15081314742565155 0.15157516300678253 0.0 255.0 0.0
-0.23324301838874817 -0.1458054780960083 0.1555260270833969 0.0 255.0 0.0
-0.005043471697717905 -0.24958565831184387 0.14706332981586456 0.0 255.0 0.0
-0.2200080156326294 0.022232623770833015 0.15684564411640167 0.0 255.0 0.0
-0.015546266920864582 0.1617603451013565 0.17135372757911682 0.0 255.0 0.0
0.29702991247177124 -0.24687597155570984 -0.025641722604632378 0.0 255.0 0.0
0.25344914197921753 0.5049100518226624 -0.03843943029642105 0.0 255.0 0.0
0.25099214911460876 -0.2890605032444 -0.058720797300338745 0.0 255.0 0.0
0.20471495389938354 0.2145790457725525 -0.13316775858402252 0.0 255.0 0.0
0.2519286274909973 0.31924042105674744 -0.03922170028090477 0.0 255.0 0.0
0.16480089724063873 -0.3476649820804596 -0.052662722766399384 0.0 255.0 0.0
-0.25901275873184204 0.059490472078323364 -0.25748080015182495 0.0 255.0 0.0
-0.15573325753211975 -0.23315134644508362 0.15632209181785583 0.0 255.0 0.0
0.18658961355686188 0.21247245371341705 -0.1328786313533783 0.0 255.0 0.0
-0.018540479242801666 0.2224743515253067 -0.17948578298091888 0.0 255.0 0.0
-0.21494098007678986 0.22491978108882904 -0.13343006372451782 0.0 255.0 0.0
-0.17926524579524994 0.3164943754673004 0.013455583713948727 0.0 255.0 0.0
0.26819831132888794 -0.3909718692302704 0.18690884113311768 0.0 255.0 0.0
-0.2688957750797272 0.09693031758069992 -0.12119130045175552 0.0 255.0 0.0
0.27897974848747253 0.22847115993499756 -0.020760295912623405 0.0 255.0 0.0
-0.011621560901403427 0.19148662686347961 -0.22471581399440765 0.0 255.0 0.0
-0.2849850058555603 0.10012522339820862 -0.31671494245529175 0.0 255.0 0.0
-0.2648099660873413 0.21252743899822235 0.15632209181785583 0.0 255.0 0.0
0.2847449779510498 0.2270435392856598 0.014587822370231152 0.0 255.0 0.0
-0.33311009407043457 -0.35433271527290344 0.10560037940740585 0.0 255.0 0.0
-0.019050665199756622 0.10495740175247192 -0.1613374799489975 0.0 255.0 0.0
-0.1887536495923996 -0.23544888198375702 0.15839992463588715 0.0 255.0 0.0
0.16710089147090912 -0.40132957696914673 0.17900493741035461 0.0 255.0 0.0
-0.24397993087768555 -0.2519490718841553 0.06016172468662262 0.0 255.0 0.0
0.2929023206233978 0.22697216272354126 0.1170496866106987 0.0 255.0 0.0
-0.2548900544643402 0.22825771570205688 0.04862390458583832 0.0 255.0 0.0
0.01728670299053192 0.1720866858959198 0.14983175694942474 0.0 255.0 0.0
-0.00908694975078106 0.2583640217781067 -0.20824404060840607 0.0 255.0 0.0
-0.27105116844177246 -0.33913102746009827 -0.07859257608652115 0.0 255.0 0.0
0.16854041814804077 -0.2551345229148865 0.012714940123260021 0.0 255.0 0.0
0.24580985307693481 0.1537596881389618 0.15536940097808838 0.0 255.0 0.0
0.2968483865261078 0.2230660319328308 -0.054524101316928864 0.0 255.0 0.0
-0.16537129878997803 0.35615044832229614 0.0666140466928482 0.0 255.0 0.0
0.009945744648575783 0.2916811406612396 -0.2578623294830322 0.0 255.0 0.0
0.29619723558425903 -0.13760609924793243 0.1561838984489441 0.0 255.0 0.0
-0.2724756598472595 0.16594670712947845 0.15062129497528076 0.0 255.0 0.0
-0.1069413349032402 0.338618665933609 -0.31314584612846375 0.0 255.0 0.0
-0.26248475909233093 -0.40737250447273254 0.2005738615989685 0.0 255.0 0.0
-0.24842429161071777 -0.0860850140452385 -0.2550477385520935 0.0 255.0 0.0
0.009401398710906506 0.2527630031108856 -0.2635452449321747 0.0 255.0 0.0
-0.18816116452217102 0.22923889756202698 0.05429588630795479 0.0 255.0 0.0
-0.26927870512008667 0.22306258976459503 0.1489415317773819 0.0 255.0 0.0
0.29601165652275085 0.22500672936439514 -0.003298612777143717 0.0 255.0 0.0
-0.26192349195480347 0.21975356340408325 -0.3161402642726898 0.0 255.0 0.0
-0.2674143314361572 -0.25017163157463074 -0.046431586146354675 0.0 255.0 0.0
0.24093206226825714 -0.15848572552204132 0.16939003765583038 0.0 255.0 0.0
-0.15552936494350433 0.35449719429016113 0.02660747803747654 0.0 255.0 0.0
-0.22106464207172394 0.2546411156654358 0.04407649114727974 0.0 255.0 0.0
0.19153669476509094 -0.19279062747955322 0.15482977032661438 0.0 255.0 0.0
-0.1851353645324707 0.27448007464408875 0.0020637731067836285 0.0 255.0 0.0
-0.2797718346118927 0.23654505610466003 -0.3372339904308319 0.0 255.0 0.0
-0.010460768826305866 0.17511041462421417 -0.13506805896759033 0.0 255.0 0.0
-0.02188040316104889 0.29272493720054626 -0.2444380670785904 0.0 255.0 0.0
0.1950613111257553 0.49396446347236633 0.006910210475325584 0.0 255.0 0.0
-0.17260214686393738 0.38454967737197876 0.10689480602741241 0.0 255.0 0.0
0.28244271874427795 0.22779954969882965 0.02396475151181221 0.0 255.0 0.0
0.26544368267059326 0.2273527830839157 -0.1286071240901947 0.0 255.0 0.0
0.2585941553115845 -0.4080895483493805 -0.08272653073072433 0.0 255.0 0.0
0.2416141927242279 0.31169697642326355 -0.032696306705474854 0.0 255.0 0.0
0.22761201858520508 -0.3310961127281189 -0.07996319979429245 0.0 255.0 0.0
-0.10604164749383926 0.22343045473098755 -0.12044009566307068 0.0 255.0 0.0
0.19923125207424164 -0.20363612473011017 0.1555667370557785 0.0 255.0 0.0
-0.17306436598300934 0.42106178402900696 0.09885155409574509 0.0 255.0 0.0
0.013817455619573593 0.21937713027000427 0.15381436049938202 0.0 255.0 0.0
0.3000161349773407 -0.13933007419109344 0.15257710218429565 0.0 255.0 0.0
-0.19661478698253632 0.497703492641449 -0.010218591429293156 0.0 255.0 0.0
0.20579794049263 -0.2471960037946701 -0.13392190635204315 0.0 255.0 0.0
0.2624642848968506 0.4590620994567871 0.11290906369686127 0.0 255.0 0.0
-0.2706935703754425 0.001364834257401526 -0.12976384162902832 0.0 255.0 0.0
-0.2882993519306183 -0.008042662404477596 -0.29715943336486816 0.0 255.0 0.0
-0.25774145126342773 0.1284327358007431 -0.31278932094573975 0.0 255.0 0.0
-0.1277322620153427 -0.24911075830459595 0.1485380083322525 0.0 255.0 0.0
-0.2707524597644806 -0.24072325229644775 0.03683264181017876 0.0 255.0 0.0
0.2816567122936249 0.13334773480892181 -0.14064770936965942 0.0 255.0 0.0
0.26936864852905273 0.39026424288749695 0.12046831101179123 0.0 255.0 0.0
-0.032698146998882294 0.2760474383831024 -0.25755566358566284 0.0 255.0 0.0
0.26268190145492554 -0.3148323893547058 0.09483818709850311 0.0 255.0 0.0
-0.1739068329334259 0.2338157594203949 0.009777740575373173 0.0 255.0 0.0
0.22601228952407837 0.3289811611175537 0.071963831782341 0.0 255.0 0.0
0.26926666498184204 -0.3287760019302368 0.09794364869594574 0.0 255.0 0.0
0.2194044291973114 -0.4443013668060303 -0.08705359697341919 0.0 255.0 0.0
-0.06131419911980629 0.23041260242462158 0.1454981565475464 0.0 255.0 0.0
-0.2017461061477661 0.33431631326675415 0.06139499694108963 0.0 255.0 0.0
-0.21620774269104004 -0.28052854537963867 -0.0615755133330822 0.0 255.0 0.0
-0.2278285175561905 0.2278319150209427 -0.12219229340553284 0.0 255.0 0.0
0.22586257755756378 -0.25905919075012207 -0.04914180561900139 0.0 255.0 0.0
0.18650880455970764 -0.18087010085582733 0.16841907799243927 0.0 255.0 0.0
-0.10616613179445267 0.17490456998348236 0.15171711146831512 0.0 255.0 0.0
0.21558672189712524 -0.24698875844478607 -0.11974421888589859 0.0 255.0 0.0
0.2960333824157715 -0.25238361954689026 0.05246660113334656 0.0 255.0 0.0
0.27011844515800476 0.34428492188453674 -0.06554055958986282 0.0 255.0 0.0
0.13932862877845764 -0.4350804090499878 0.06275882571935654 0.0 255.0 0.0
-0.26495546102523804 0.05851837992668152 0.15500997006893158 0.0 255.0 0.0
-0.256257027387619 0.06707952916622162 -0.2696693539619446 0.0 255.0 0.0
0.2972821593284607 -0.2471717745065689 -0.056117814034223557 0.0 255.0 0.0
0.18927548825740814 0.1747439056634903 0.15510642528533936 0.0 255.0 0.0
-0.2832145392894745 -0.3886699974536896 -0.09070795029401779 0.0 255.0 0.0
-0.2186160683631897 0.4729084074497223 -0.059102341532707214 0.0 255.0 0.0
-0.22853831946849823 -0.12480314075946808 0.15092608332633972 0.0 255.0 0.0
-0.18206731975078583 0.2396075576543808 0.03980933874845505 0.0 255.0 0.0
-0.1068849265575409 0.31520020961761475 -0.32202890515327454 0.0 255.0 0.0
-0.28557509183883667 -0.022148650139570236 -0.23367036879062653 0.0 255.0 0.0
-0.015139667317271233 -0.17036226391792297 0.1693323403596878 0.0 255.0 0.0
0.16111791133880615 -0.1859864592552185 0.1597524881362915 0.0 255.0 0.0
-0.2738128900527954 -0.21535205841064453 0.15504436194896698 0.0 255.0 0.0
0.27918946743011475 0.22765149176120758 0.13128072023391724 0.0 255.0 0.0
-0.21813100576400757 0.33168280124664307 0.05892739072442055 0.0 255.0 0.0
-0.2796589732170105 0.2087654322385788 -0.31694209575653076 0.0 255.0 0.0
-0.26211488246917725 0.2326318621635437 0.11443470418453217 0.0 255.0 0.0
-0.1981138288974762 0.23156319558620453 0.14733925461769104 0.0 255.0 0.0
-0.20447693765163422 0.24312573671340942 0.049048054963350296 0.0 255.0 0.0
0.16480764746665955 -0.4315178692340851 0.19324317574501038 0.0 255.0 0.0
0.0279484074562788 0.18123525381088257 -0.13554085791110992 0.0 255.0 0.0
-0.21692976355552673 -0.03239951655268669 0.16100135445594788 0.0 255.0 0.0
0.10318930447101593 0.17457357048988342 0.14899297058582306 0.0 255.0 0.0
-0.02994379773736 0.2667212188243866 -0.23748889565467834 0.0 255.0 0.0
-0.024477751925587654 0.1684473156929016 0.15499871969223022 0.0 255.0 0.0
-0.1753682792186737 -0.1704157441854477 0.16933207213878632 0.0 255.0 0.0
0.2530710697174072 -0.07583209127187729 0.1502104103565216 0.0 255.0 0.0
0.1345880925655365 -0.18233656883239746 0.17059795558452606 0.0 255.0 0.0
-0.2681635022163391 -0.06023204326629639 -0.13487523794174194 0.0 255.0 0.0
0.2477463334798813 -0.4433976709842682 0.20306366682052612 0.0 255.0 0.0
-0.23228619992733002 0.38445791602134705 0.11327580362558365 0.0 255.0 0.0
0.2901649475097656 -0.25030794739723206 0.13301029801368713 0.0 255.0 0.0
-0.010998968034982681 0.2715942859649658 -0.27701395750045776 0.0 255.0 0.0
0.1481379121541977 -0.41084957122802734 0.16332072019577026 0.0 255.0 0.0
-0.2707406282424927 -0.1694289892911911 -0.1175118237733841 0.0 255.0 0.0
0.2883107364177704 0.3441789150238037 -0.03858286142349243 0.0 255.0 0.0
0.21883182227611542 -0.432049959897995 -0.08915969729423523 0.0 255.0 0.0
-0.24643748998641968 0.22520415484905243 -0.12173925340175629 0.0 255.0 0.0
-0.3358486294746399 -0.3491564989089966 0.1382368803024292 0.0 255.0 0.0
-0.03454825282096863 0.11766710132360458 -0.14082245528697968 0.0 255.0 0.0
-0.2592241168022156 -0.027250191196799278 0.15265798568725586 0.0 255.0 0.0
-0.17415755987167358 -0.17892761528491974 0.17207080125808716 0.0 255.0 0.0
-0.2645677328109741 -0.3753975033760071 -0.095044806599617 0.0 255.0 0.0
-0.2905140221118927 0.07501783221960068 -0.30196285247802734 0.0 255.0 0.0
0.24655531346797943 -0.25245195627212524 0.14625059068202972 0.0 255.0 0.0
0.2627869248390198 -0.00743247102946043 0.15667113661766052 0.0 255.0 0.0
0.2818605601787567 -0.24944567680358887 -0.12276457250118256 0.0 255.0 0.0
-0.27058514952659607 -0.08403024822473526 0.15482889115810394 0.0 255.0 0.0
0.26739972829818726 0.36874818801879883 -0.08081186562776566 0.0 255.0 0.0
-0.03623044118285179 0.14532172679901123 -0.13554438948631287 0.0 255.0 0.0
-0.33831119537353516 -0.39394238591194153 0.029917757958173752 0.0 255.0 0.0
-0.24159303307533264 -0.3801308572292328 0.19717693328857422 0.0 255.0 0.0
0.26698052883148193 0.39368271827697754 -0.08600250631570816 0.0 255.0 0.0
0.23549921810626984 -0.09674600511789322 0.16592390835285187 0.0 255.0 0.0
-0.22057503461837769 0.28962671756744385 -0.3549700975418091 0.0 255.0 0.0
-0.18056948482990265 0.311300128698349 0.007550009526312351 0.0 255.0 0.0
0.2972581684589386 -0.24383606016635895 -0.0895758867263794 0.0 255.0 0.0
-0.22436171770095825 -0.47544968128204346 0.013381346128880978 0.0 255.0 0.0
0.2957650125026703 0.4315504729747772 0.11706741899251938 0.0 255.0 0.0
0.27957603335380554 -0.24732235074043274 0.08146418631076813 0.0 255.0 0.0
0.2964017689228058 0.19940167665481567 0.15539658069610596 0.0 255.0 0.0
0.29537808895111084 0.2136613428592682 -0.1346907615661621 0.0 255.0 0.0
0.24516995251178741 -0.4041377305984497 -0.09011244028806686 0.0 255.0 0.0
-0.26339513063430786 0.41338858008384705 0.104777991771698 0.0 255.0 0.0
-0.20677772164344788 -0.3047941327095032 0.0817115530371666 0.0 255.0 0.0
-0.26801908016204834 0.15223324298858643 0.156287282705307 0.0 255.0 0.0
0.09116251766681671 0.22633612155914307 0.1492977738380432 0.0 255.0 0.0
0.05494895949959755 0.16400182247161865 0.16146382689476013 0.0 255.0 0.0
0.2639882266521454 0.44093057513237 -0.08171927183866501 0.0 255.0 0.0
-0.23915794491767883 -0.26979294419288635 -0.002010767348110676 0.0 255.0 0.0
-0.2591785490512848 -0.2497432678937912 0.06686250120401382 0.0 255.0 0.0
-0.33336740732192993 -0.34306564927101135 0.15134035050868988 0.0 255.0 0.0
0.2308938205242157 0.028966348618268967 0.16940195858478546 0.0 255.0 0.0
-0.2575647532939911 0.20845866203308105 0.15544642508029938 0.0 255.0 0.0
0.2587631344795227 0.23180784285068512 0.14742353558540344 0.0 255.0 0.0
-0.3316822350025177 -0.3934478461742401 0.026992177590727806 0.0 255.0 0.0
-0.004610185511410236 -0.23048590123653412 0.15693143010139465 0.0 255.0 0.0
0.2540115714073181 0.17515608668327332 0.15236066281795502 0.0 255.0 0.0
0.2942676544189453 -0.14189456403255463 -0.13506805896759033 0.0 255.0 0.0
0.02687152847647667 0.10528594255447388 -0.1918448805809021 0.0 255.0 0.0
0.241752028465271 -0.17512556910514832 0.16921702027320862 0.0 255.0 0.0
0.2902589738368988 0.17484968900680542 0.15631753206253052 0.0 255.0 0.0
0.05087066441774368 0.22705404460430145 -0.21944254636764526 0.0 255.0 0.0
-0.025213021785020828 0.10431379079818726 -0.13810810446739197 0.0 255.0 0.0
0.2811364233493805 0.43113043904304504 0.12574324011802673 0.0 255.0 0.0
-0.19783300161361694 0.5034887790679932 0.03688187524676323 0.0 255.0 0.0
0.2743352949619293 0.37928518652915955 0.12872010469436646 0.0 255.0 0.0
0.28460296988487244 0.22742043435573578 -0.0974666178226471 0.0 255.0 0.0
-0.16966703534126282 -0.17687998712062836 0.17133179306983948 0.0 255.0 0.0
-0.0646379217505455 -0.18350374698638916 0.1680532544851303 0.0 255.0 0.0
0.035947009921073914 0.2454822063446045 -0.2017415165901184 0.0 255.0 0.0
-0.12162664532661438 0.32228654623031616 -0.34113430976867676 0.0 255.0 0.0
0.2588251829147339 -0.26631104946136475 0.009942458011209965 0.0 255.0 0.0
0.24827547371387482 0.385577529668808 -0.09063880890607834 0.0 255.0 0.0
-0.2724444270133972 0.09313840419054031 -0.13148444890975952 0.0 255.0 0.0
0.2568872570991516 0.015751391649246216 0.15182644128799438 0.0 255.0 0.0
-0.15863996744155884 -0.25739237666130066 -0.03360304608941078 0.0 255.0 0.0
0.24966448545455933 -0.4265681803226471 -0.08747541159391403 0.0 255.0 0.0
-0.11453977227210999 -0.20629091560840607 0.15619279444217682 0.0 255.0 0.0
0.1638735830783844 -0.2512979805469513 -0.017369842156767845 0.0 255.0 0.0
0.2962662875652313 -0.2391180694103241 -0.08316721022129059 0.0 255.0 0.0
-0.27949509024620056 0.1420997679233551 -0.29527193307876587 0.0 255.0 0.0
-0.2679280936717987 0.08889683336019516 -0.32032930850982666 0.0 255.0 0.0
0.06259714812040329 0.174469992518425 0.15249232947826385 0.0 255.0 0.0
-0.2580629587173462 -0.026584839448332787 0.15632209181785583 0.0 255.0 0.0
-0.2620956599712372 0.020634790882468224 -0.2356344312429428 0.0 255.0 0.0
-0.24765892326831818 -0.06847460567951202 -0.2708180844783783 0.0 255.0 0.0
-0.22118955850601196 -0.4565007984638214 0.10913296043872833 0.0 255.0 0.0
0.22458018362522125 0.3454511761665344 -0.07337215542793274 0.0 255.0 0.0
0.2285107523202896 0.30615103244781494 -0.0263108778744936 0.0 255.0 0.0
-0.2208172231912613 -0.33497923612594604 0.11074165999889374 0.0 255.0 0.0
-0.20078729093074799 0.49823251366615295 -0.012985704466700554 0.0 255.0 0.0
0.04083762690424919 0.25929075479507446 -0.23670528829097748 0.0 255.0 0.0
-0.26934075355529785 0.22487837076187134 0.1411568969488144 0.0 255.0 0.0
0.12639206647872925 0.175124853849411 0.152327761054039 0.0 255.0 0.0
-0.21339471638202667 -0.15890488028526306 0.17269489169120789 0.0 255.0 0.0
0.19213107228279114 -0.26147761940956116 0.05896703898906708 0.0 255.0 0.0
0.21877016127109528 -0.18205523490905762 0.16665567457675934 0.0 255.0 0.0
-0.25659415125846863 -0.39319291710853577 0.2059868425130844 0.0 255.0 0.0
0.1769523024559021 -0.25516679883003235 0.039227742701768875 0.0 255.0 0.0
0.2828015387058258 0.1802958995103836 -0.13542801141738892 0.0 255.0 0.0
-0.2508426308631897 -0.28902244567871094 0.07222364842891693 0.0 255.0 0.0
-0.24030371010303497 -0.26798567175865173 0.025289876386523247 0.0 255.0 0.0
-0.21952693164348602 0.2882877290248871 -0.3571622371673584 0.0 255.0 0.0
0.2803143560886383 -0.4303314983844757 -0.029181383550167084 0.0 255.0 0.0
-0.13881006836891174 0.15901023149490356 0.1682923585176468 0.0 255.0 0.0
-0.15677893161773682 0.22344717383384705 -0.13182085752487183 0.0 255.0 0.0
-0.22693057358264923 -0.32617250084877014 -0.08228784799575806 0.0 255.0 0.0
-0.2473483830690384 -0.41362863779067993 0.19984714686870575 0.0 255.0 0.0
0.1771680861711502 -0.2496216744184494 -0.12017831206321716 0.0 255.0 0.0
0.2686081528663635 -0.36232879757881165 0.14531974494457245 0.0 255.0 0.0
0.28787481784820557 -0.18314097821712494 0.15432801842689514 0.0 255.0 0.0
-0.26697736978530884 0.1401883214712143 -0.2921478748321533 0.0 255.0 0.0
-0.19178301095962524 0.16251593828201294 0.16399484872817993 0.0 255.0 0.0
0.23916637897491455 0.49824321269989014 0.1276083141565323 0.0 255.0 0.0
-0.2707434296607971 -0.2461383044719696 0.04868572950363159 0.0 255.0 0.0
-0.195328950881958 0.4786701202392578 -0.05464441329240799 0.0 255.0 0.0
-0.23300935328006744 0.3065126836299896 -0.019060881808400154 0.0 255.0 0.0
0.2890486717224121 -0.09646055847406387 0.15392224490642548 0.0 255.0 0.0
-0.2225770205259323 -0.23982563614845276 -0.13463596999645233 0.0 255.0 0.0
0.2972027659416199 0.07552209496498108 -0.1299256682395935 0.0 255.0 0.0
-0.20539215207099915 0.16145139932632446 0.1651262640953064 0.0 255.0 0.0
0.23607178032398224 -0.3427196145057678 -0.08616477996110916 0.0 255.0 0.0
-0.23372939229011536 0.4706328809261322 0.11191533505916595 0.0 255.0 0.0
0.2962115705013275 -0.23655055463314056 -0.09239233285188675 0.0 255.0 0.0
-0.2520864009857178 0.48557963967323303 0.04053235054016113 0.0 255.0 0.0
-0.3369773030281067 -0.3626807630062103 0.12134858220815659 0.0 255.0 0.0
-0.07865861803293228 0.16573435068130493 0.1605173796415329 0.0 255.0 0.0
0.27098020911216736 0.4960964322090149 0.11540470272302628 0.0 255.0 0.0
-0.2536322772502899 -0.2497241050004959 0.12799306213855743 0.0 255.0 0.0
-0.3334120810031891 -0.3853755295276642 0.06009431183338165 0.0 255.0 0.0
0.3000025153160095 0.051347214728593826 0.14446909725666046 0.0 255.0 0.0
-0.33743607997894287 -0.36012783646583557 0.1252162754535675 0.0 255.0 0.0
-0.23441894352436066 0.3015281856060028 -0.013223313726484776 0.0 255.0 0.0
0.2609976828098297 0.37830543518066406 -0.08743138611316681 0.0 255.0 0.0
0.02130109816789627 -0.24927714467048645 -0.1351032704114914 0.0 255.0 0.0
-0.17164285480976105 0.48082074522972107 0.097783163189888 0.0 255.0 0.0
-0.07337144017219543 0.22106392681598663 0.15813840925693512 0.0 255.0 0.0
0.2630036771297455 -0.23410572111606598 0.15326817333698273 0.0 255.0 0.0
-0.2266739159822464 -0.2553454339504242 -0.03762198984622955 0.0 255.0 0.0
0.20823809504508972 0.22550027072429657 -0.02479945681989193 0.0 255.0 0.0
-0.2629050314426422 0.12188532203435898 0.15632209181785583 0.0 255.0 0.0
-0.0019477364839985967 0.16512222588062286 0.15574170649051666 0.0 255.0 0.0
-0.01874453015625477 0.13655635714530945 -0.20767255127429962 0.0 255.0 0.0
-0.18028771877288818 -0.20814745128154755 0.15345719456672668 0.0 255.0 0.0
-0.26765134930610657 -0.35344263911247253 0.1924356073141098 0.0 255.0 0.0
-0.08910077810287476 0.3112294673919678 -0.3048688769340515 0.0 255.0 0.0
0.288547158241272 0.03004602901637554 0.1544806808233261 0.0 255.0 0.0
0.1077859178185463 0.22554077208042145 0.15340304374694824 0.0 255.0 0.0
0.26824241876602173 0.3273525834083557 0.05970568582415581 0.0 255.0 0.0
-0.3099272847175598 -0.40138912200927734 -0.07965108752250671 0.0 255.0 0.0
-0.27926400303840637 0.21600282192230225 -0.3273466229438782 0.0 255.0 0.0
0.1898297518491745 0.3966268301010132 0.11903099715709686 0.0 255.0 0.0
-0.1444559097290039 -0.2526228725910187 -0.030490810051560402 0.0 255.0 0.0
-0.18356817960739136 0.3368538022041321 0.05387811362743378 0.0 255.0 0.0
-0.11826248466968536 0.22733436524868011 -0.12056639790534973 0.0 255.0 0.0
-0.21966256201267242 -0.13438273966312408 0.16513942182064056 0.0 255.0 0.0
-0.25746750831604004 -0.24820749461650848 -0.027882907539606094 0.0 255.0 0.0
-0.27226248383522034 -0.009531671181321144 -0.1343429684638977 0.0 255.0 0.0
-0.21715547144412994 -0.4625667631626129 0.06573545932769775 0.0 255.0 0.0
-0.033744122833013535 0.12273738533258438 -0.17563216388225555 0.0 255.0 0.0
-0.16914322972297668 0.17782528698444366 0.1555696278810501 0.0 255.0 0.0
0.1493995636701584 0.15364213287830353 0.16690035164356232 0.0 255.0 0.0
0.22395558655261993 0.49564090371131897 -0.047429583966732025 0.0 255.0 0.0
-0.2419959306716919 -0.2564246654510498 0.0414988175034523 0.0 255.0 0.0
0.00331339449621737 0.2262239158153534 -0.1337825208902359 0.0 255.0 0.0
0.26622888445854187 0.26737576723098755 -0.004778140224516392 0.0 255.0 0.0
0.25008004903793335 -0.13867522776126862 0.15189199149608612 0.0 255.0 0.0
-0.23724086582660675 0.27106642723083496 -0.3384714424610138 0.0 255.0 0.0
0.2476847767829895 -0.4272330105304718 -0.08959605544805527 0.0 255.0 0.0
0.0720522403717041 0.22784222662448883 0.14795686304569244 0.0 255.0 0.0
-0.05571996048092842 0.22722041606903076 -0.13302378356456757 0.0 255.0 0.0
-0.24265553057193756 -0.3826713562011719 0.193338543176651 0.0 255.0 0.0
0.29107755422592163 -0.43405964970588684 0.05517887324094772 0.0 255.0 0.0
-0.2807033658027649 -0.308492511510849 0.10303086042404175 0.0 255.0 0.0
0.1556650996208191 -0.19761106371879578 0.154414564371109 0.0 255.0 0.0
-0.26469820737838745 0.27357614040374756 -0.32622388005256653 0.0 255.0 0.0
-0.2616019546985626 0.18510784208774567 0.15771834552288055 0.0 255.0 0.0
-0.2705051898956299 -0.24697352945804596 -0.10278607904911041 0.0 255.0 0.0
-0.2588464319705963 -0.25018295645713806 -0.0684904158115387 0.0 255.0 0.0
-0.16372822225093842 0.3690824806690216 0.09969386458396912 0.0 255.0 0.0
0.2117496132850647 -0.26816821098327637 0.07427418977022171 0.0 255.0 0.0
0.2972581684589386 0.21635636687278748 0.002290777862071991 0.0 255.0 0.0
-0.2430446445941925 0.34254026412963867 0.07206903398036957 0.0 255.0 0.0
0.2096540480852127 0.35950371623039246 0.11800356209278107 0.0 255.0 0.0
-0.26419705152511597 -0.2318030744791031 -0.13506805896759033 0.0 255.0 0.0
-0.18451344966888428 0.2534787058830261 -0.010268772952258587 0.0 255.0 0.0
0.1604541540145874 -0.2536482810974121 -0.004771275445818901 0.0 255.0 0.0
0.2895597815513611 -0.44626060128211975 0.13418664038181305 0.0 255.0 0.0
-0.15394893288612366 -0.24463480710983276 0.15155495703220367 0.0 255.0 0.0
-0.21749183535575867 0.07439679652452469 0.1681058257818222 0.0 255.0 0.0
-0.21701137721538544 -0.014985587447881699 0.1675998568534851 0.0 255.0 0.0
-0.1608908325433731 0.3950396478176117 0.09351678192615509 0.0 255.0 0.0
-0.2038159966468811 0.3162217438220978 -0.33101582527160645 0.0 255.0 0.0
-0.18678848445415497 -0.24919380247592926 -0.12437132000923157 0.0 255.0 0.0
0.18185760080814362 -0.2020304650068283 0.1542203277349472 0.0 255.0 0.0
-0.14157739281654358 0.33856916427612305 -0.3295499086380005 0.0 255.0 0.0
-0.15471884608268738 0.4163666367530823 0.08543271571397781 0.0 255.0 0.0
-0.1052331030368805 0.17617759108543396 0.15337827801704407 0.0 255.0 0.0
0.10646755993366241 0.21918486058712006 -0.13504774868488312 0.0 255.0 0.0
-0.26260900497436523 0.10232098400592804 -0.2999328076839447 0.0 255.0 0.0
0.24276931583881378 -0.172221377491951 0.16607077419757843 0.0 255.0 0.0
0.09612352401018143 0.21477510035037994 0.15738055109977722 0.0 255.0 0.0
-0.23800607025623322 0.24299335479736328 0.04241449013352394 0.0 255.0 0.0
-0.2738867402076721 0.2450435906648636 -0.33716681599617004 0.0 255.0 0.0
0.2972581684589386 0.21407188475131989 0.07751297205686569 0.0 255.0 0.0
0.29712510108947754 0.03745893016457558 -0.1319940686225891 0.0 255.0 0.0
-0.10786327719688416 0.18243283033370972 0.15467138588428497 0.0 255.0 0.0
0.0053678881376981735 0.21332328021526337 -0.13506805896759033 0.0 255.0 0.0
0.2480396181344986 -0.2960951030254364 -0.0635584145784378 0.0 255.0 0.0
-0.1853942573070526 0.29488831758499146 0.023185433819890022 0.0 255.0 0.0
-0.1829330027103424 0.29702985286712646 0.0031014669220894575 0.0 255.0 0.0
-0.21220651268959045 -0.4025968015193939 0.16686780750751495 0.0 255.0 0.0
-0.1078069731593132 -0.18410781025886536 0.16617918014526367 0.0 255.0 0.0
0.2723565101623535 -0.40710121393203735 0.1938357651233673 0.0 255.0 0.0
0.28498294949531555 0.48783519864082336 0.03971356526017189 0.0 255.0 0.0
-0.2677771747112274 0.16666610538959503 0.15774598717689514 0.0 255.0 0.0
0.1991526186466217 0.17186647653579712 0.1518278568983078 0.0 255.0 0.0
0.2875092625617981 0.3475095331668854 0.06674458086490631 0.0 255.0 0.0
0.262775182723999 -0.005967587698251009 0.154952734708786 0.0 255.0 0.0
0.23788125813007355 -0.4456477463245392 0.20003031194210052 0.0 255.0 0.0
0.24005839228630066 -0.4435946047306061 -0.07873188704252243 0.0 255.0 0.0
0.2212548553943634 0.3048059344291687 0.04355116933584213 0.0 255.0 0.0
-0.22549115121364594 0.2577695846557617 0.04393499717116356 0.0 255.0 0.0
-0.09515371173620224 0.30956533551216125 -0.3183865547180176 0.0 255.0 0.0
-0.2619108259677887 -0.18371377885341644 0.15632209181785583 0.0 255.0 0.0
0.2616852819919586 0.2994445562362671 -0.01052593532949686 0.0 255.0 0.0
0.018405266106128693 0.26952454447746277 -0.2217777818441391 0.0 255.0 0.0
-0.13018812239170074 -0.19291839003562927 0.14928749203681946 0.0 255.0 0.0
-0.03635565564036369 0.18008990585803986 -0.1985418051481247 0.0 255.0 0.0
0.2721216380596161 -0.4324517548084259 0.1987876445055008 0.0 255.0 0.0
0.053755804896354675 -0.18686985969543457 0.16356351971626282 0.0 255.0 0.0
0.28116610646247864 -0.24980273842811584 0.07382678240537643 0.0 255.0 0.0
-0.1637815684080124 0.45587655901908875 0.08238240331411362 0.0 255.0 0.0
-0.22117958962917328 -0.4741210341453552 0.021203799173235893 0.0 255.0 0.0
0.29316818714141846 -0.04783320054411888 0.1548006385564804 0.0 255.0 0.0
0.1912020891904831 -0.4460482597351074 -0.05982882156968117 0.0 255.0 0.0
-0.30037176609039307 -0.37458568811416626 0.1987321823835373 0.0 255.0 0.0
0.02297176420688629 0.22798019647598267 0.14250944554805756 0.0 255.0 0.0
0.06624451279640198 0.1438029259443283 -0.13498160243034363 0.0 255.0 0.0
0.13806165754795074 -0.1706436723470688 0.17105449736118317 0.0 255.0 0.0
0.15448565781116486 0.2249736338853836 0.1559368073940277 0.0 255.0 0.0
-0.030926842242479324 0.1750517338514328 -0.14839184284210205 0.0 255.0 0.0
-0.17013539373874664 0.45654040575027466 -0.039942845702171326 0.0 255.0 0.0
-0.2708268463611603 -0.053386140614748 0.14314277470111847 0.0 255.0 0.0
-0.053058553487062454 -0.2497318834066391 0.14413894712924957 0.0 255.0 0.0
0.13429512083530426 -0.4376561939716339 0.08710785955190659 0.0 255.0 0.0
-0.15843035280704498 0.1590653508901596 0.1597696840763092 0.0 255.0 0.0
0.17890658974647522 0.39150965213775635 0.0873122289776802 0.0 255.0 0.0
-0.025735514238476753 0.3123204708099365 -0.28878694772720337 0.0 255.0 0.0
0.025137517601251602 0.09012623876333237 -0.13506805896759033 0.0 255.0 0.0
-0.26742684841156006 0.4276280403137207 0.1005016416311264 0.0 255.0 0.0
0.28673529624938965 -0.43151167035102844 -0.005865346174687147 0.0 255.0 0.0
0.2864988148212433 -0.18096908926963806 -0.13685248792171478 0.0 255.0 0.0
0.15273688733577728 -0.2507043182849884 0.14113986492156982 0.0 255.0 0.0
0.03514557331800461 0.10507938265800476 -0.18186573684215546 0.0 255.0 0.0
0.28760382533073425 -0.24555164575576782 -0.10889194160699844 0.0 255.0 0.0
-0.1433839350938797 0.32884809374809265 -0.317059725522995 0.0 255.0 0.0
-0.06414861232042313 0.3058142066001892 -0.2832595109939575 0.0 255.0 0.0
0.2970201075077057 0.0905817523598671 0.1493285596370697 0.0 255.0 0.0
-0.27472585439682007 -0.35073322057724 0.199264794588089 0.0 255.0 0.0
0.28279221057891846 0.22766178846359253 0.15693174302577972 0.0 255.0 0.0
-0.15081332623958588 -0.23986108601093292 -0.13483598828315735 0.0 255.0 0.0
0.2292359322309494 0.3514702022075653 -0.07823793590068817 0.0 255.0 0.0
0.2426595240831375 0.05366402119398117 0.1608659327030182 0.0 255.0 0.0
0.2851962447166443 0.23080240190029144 -0.0048441337421536446 0.0 255.0 0.0
-0.07212623208761215 0.3103169798851013 -0.29277169704437256 0.0 255.0 0.0
0.29317063093185425 -0.09559465944766998 0.15631508827209473 0.0 255.0 0.0
-0.3327396512031555 -0.3595125079154968 0.14413250982761383 0.0 255.0 0.0
-0.27319756150245667 0.22693802416324615 0.02457381971180439 0.0 255.0 0.0
-0.23967815935611725 -0.4778335392475128 -0.018901148810982704 0.0 255.0 0.0
-0.26363497972488403 -0.24918314814567566 0.14429180324077606 0.0 255.0 0.0
0.240377277135849 0.24125505983829498 -0.028500743210315704 0.0 255.0 0.0
-0.2279929667711258 -0.185530424118042 0.1499192714691162 0.0 255.0 0.0
0.21539165079593658 0.46659916639328003 -0.07181718945503235 0.0 255.0 0.0
-0.01643119379878044 0.1050158441066742 -0.17069022357463837 0.0 255.0 0.0
0.14905212819576263 -0.40633895993232727 0.16198305785655975 0.0 255.0 0.0
-0.22270935773849487 -0.0421149879693985 0.1572771966457367 0.0 255.0 0.0
-0.27058881521224976 0.08116739243268967 0.15470583736896515 0.0 255.0 0.0
0.2535950541496277 0.336961030960083 -0.06614487618207932 0.0 255.0 0.0
-0.16355089843273163 0.4490530490875244 0.09065432101488113 0.0 255.0 0.0
0.2511349618434906 -0.13788160681724548 0.15372025966644287 0.0 255.0 0.0
-0.28443190455436707 0.11038021743297577 -0.29324719309806824 0.0 255.0 0.0
0.27084100246429443 0.47571495175361633 0.13353879749774933 0.0 255.0 0.0
0.28735777735710144 -0.24707330763339996 0.041754648089408875 0.0 255.0 0.0
0.2401052564382553 -0.38448095321655273 -0.09110736846923828 0.0 255.0 0.0
-0.2084076851606369 0.25250178575515747 -0.02550065889954567 0.0 255.0 0.0
0.28327691555023193 -0.43462073802948 -0.0030247203540056944 0.0 255.0 0.0
-0.26458513736724854 0.03714181110262871 0.15632209181785583 0.0 255.0 0.0
0.19870583713054657 -0.18152227997779846 0.16742874681949615 0.0 255.0 0.0
-0.18306505680084229 0.2262779176235199 -0.1337137073278427 0.0 255.0 0.0
-0.3285868465900421 -0.33636561036109924 0.1662057787179947 0.0 255.0 0.0
0.27500396966934204 0.3694356083869934 0.12626750767230988 0.0 255.0 0.0
0.28910672664642334 -0.4354855716228485 0.04283009096980095 0.0 255.0 0.0
0.2830359935760498 0.14105387032032013 -0.1360706388950348 0.0 255.0 0.0
0.29346880316734314 0.163069948554039 0.15631090104579926 0.0 255.0 0.0
0.12814979255199432 -0.2499871402978897 0.1404765099287033 0.0 255.0 0.0
0.28639310598373413 0.04964783042669296 0.15751829743385315 0.0 255.0 0.0
-0.095404252409935 0.3161960542201996 -0.33467763662338257 0.0 255.0 0.0
-0.25163304805755615 0.05541175231337547 -0.2649812400341034 0.0 255.0 0.0
0.3010852634906769 0.35617542266845703 0.02717524766921997 0.0 255.0 0.0
0.02511698566377163 0.1893555372953415 -0.14288070797920227 0.0 255.0 0.0
0.29709774255752563 -0.24906474351882935 -0.029726648703217506 0.0 255.0 0.0
-0.25460779666900635 -0.08425326645374298 -0.22825393080711365 0.0 255.0 0.0
0.25245559215545654 0.4900457561016083 0.12388275563716888 0.0 255.0 0.0
-0.3342444896697998 -0.3780048191547394 0.0114017054438591 0.0 255.0 0.0
-0.13769643008708954 0.22829855978488922 0.13738416135311127 0.0 255.0 0.0
-0.28901782631874084 0.07740629464387894 -0.3042793571949005 0.0 255.0 0.0
0.28452470898628235 0.025562971830368042 -0.13489887118339539 0.0 255.0 0.0
-0.2321939468383789 -0.25564926862716675 -0.012716866098344326 0.0 255.0 0.0
-0.22120769321918488 -0.4712929427623749 0.02588336355984211 0.0 255.0 0.0
0.30033019185066223 -0.16637882590293884 0.15121126174926758 0.0 255.0 0.0
-0.24343538284301758 0.4891442358493805 0.004517321474850178 0.0 255.0 0.0
-0.18162232637405396 0.2432636320590973 -0.012007715180516243 0.0 255.0 0.0
0.29005083441734314 -0.13495664298534393 0.1547318696975708 0.0 255.0 0.0
-0.005630216561257839 0.22788000106811523 0.14694476127624512 0.0 255.0 0.0
0.07349886745214462 0.14725804328918457 0.16786444187164307 0.0 255.0 0.0
-0.25670337677001953 -0.04747903719544411 -0.2942453622817993 0.0 255.0 0.0
-0.15084172785282135 -0.25688305497169495 0.015875879675149918 0.0 255.0 0.0
-0.03570618852972984 0.2145174741744995 -0.1353258341550827 0.0 255.0 0.0
0.1380201280117035 -0.44030264019966125 0.13029687106609344 0.0 255.0 0.0
-0.28306394815444946 0.06278187781572342 -0.25701022148132324 0.0 255.0 0.0
0.27989649772644043 -0.4353840947151184 0.19373463094234467 0.0 255.0 0.0
0.23843415081501007 0.27881529927253723 -0.0204587634652853 0.0 255.0 0.0
0.2972581684589386 -0.23672370612621307 0.11487022787332535 0.0 255.0 0.0
-0.2226182520389557 0.46403244137763977 -0.06644193083047867 0.0 255.0 0.0
0.23986536264419556 0.08437755703926086 0.16940195858478546 0.0 255.0 0.0
-0.26637083292007446 -0.13733996450901031 0.15096093714237213 0.0 255.0 0.0
0.03058822639286518 0.2555815577507019 -0.2130967676639557 0.0 255.0 0.0
0.207111194729805 0.4677441716194153 -0.06350523978471756 0.0 255.0 0.0
0.28533458709716797 0.14875301718711853 0.15680894255638123 0.0 255.0 0.0
0.26791101694107056 -0.44682830572128296 0.19248002767562866 0.0 255.0 0.0
-0.26379483938217163 0.432210236787796 0.10098286718130112 0.0 255.0 0.0
-0.32694870233535767 -0.420476496219635 -0.04241436719894409 0.0 255.0 0.0
-0.050263769924640656 0.3216484487056732 -0.2898121476173401 0.0 255.0 0.0
0.24373047053813934 0.23058496415615082 0.05562731623649597 0.0 255.0 0.0
-0.23751212656497955 -0.2529734671115875 -0.04244475066661835 0.0 255.0 0.0
0.2759256660938263 0.22329717874526978 0.15670712292194366 0.0 255.0 0.0
-0.23523814976215363 -0.249073326587677 0.06697238981723785 0.0 255.0 0.0
0.20348042249679565 0.30496492981910706 0.009529532864689827 0.0 255.0 0.0
-0.2707279920578003 -0.12736393511295319 -0.12388331443071365 0.0 255.0 0.0
0.2699296772480011 0.3550055921077728 -0.06640691310167313 0.0 255.0 0.0
0.2486686259508133 -0.24744191765785217 -0.1253279447555542 0.0 255.0 0.0
-0.2541511058807373 0.23417627811431885 -0.3244534432888031 0.0 255.0 0.0
-0.23963573575019836 -0.47715044021606445 -0.003988855518400669 0.0 255.0 0.0
0.1117824837565422 -0.24970625340938568 -0.12394891679286957 0.0 255.0 0.0
-0.059480465948581696 0.21466058492660522 0.1579747051000595 0.0 255.0 0.0
